# .PCD v.7 - Point Cloud Data file format
VERSION .7
FIELDS x y z
SIZE 4 4 4
TYPE F F F
COUNT 1 1 1
WIDTH 1824
HEIGHT 1
VIEWPOINT 0 0 0 1 0 0 0
POINTS 1824
DATA ascii
0.701286 -0.19952 0.843 
0.701924 -0.189106 0.799 
0.705862 -0.180585 0.763 
0.718104 -0.174905 0.739 
-0.627864 -0.180105 0.766 
-0.589841 -0.1794 0.763 
-0.550645 -0.178224 0.758 
-0.511915 -0.177049 0.753 
-0.478717 -0.177754 0.756 
-0.448173 -0.179635 0.764 
-0.415288 -0.182927 0.778 
-0.388768 -0.187629 0.798 
-0.361266 -0.192802 0.82 
-0.328561 -0.196094 0.834 
-0.298024 -0.201737 0.858 
-0.264649 -0.20691 0.88 
-0.230493 -0.213258 0.907 
-0.185312 -0.209966 0.893 
-0.144333 -0.210907 0.897 
-0.103209 -0.212317 0.903 
-0.0610525 -0.212082 0.902 
-0.0191154 -0.213258 0.907 
0.0242837 -0.223603 0.951 
0.0730109 -0.237946 1.012 
0.128731 -0.254875 1.084 
0.192651 -0.27392 1.165 
0.266878 -0.296022 1.259 
0.393849 -0.353862 1.505 
0.442416 -0.337404 1.435 
0.475585 -0.315067 1.34 
0.510739 -0.299078 1.272 
0.53821 -0.282385 1.201 
0.569946 -0.270863 1.152 
0.587371 -0.25511 1.085 
0.611921 -0.244059 1.038 
0.636766 -0.23536 1.001 
0.649969 -0.223839 0.952 
0.669544 -0.215844 0.918 
0.684397 -0.20738 0.882 
0.699185 -0.199856 0.85 
0.704037 -0.190451 0.81 
0.703328 -0.180576 0.768 
0.716027 -0.174933 0.744 
-0.632159 -0.178448 0.764 
-0.596549 -0.178448 0.764 
-0.557268 -0.17728 0.759 
-0.517765 -0.175879 0.753 
-0.48459 -0.17658 0.756 
-0.452325 -0.177747 0.761 
-0.421997 -0.181485 0.777 
-0.394718 -0.185689 0.795 
-0.36666 -0.19036 0.815 
-0.335126 -0.194097 0.831 
-0.305309 -0.199937 0.856 
-0.271612 -0.204608 0.876 
-0.237104 -0.210214 0.9 
-0.194721 -0.209747 0.898 
-0.153035 -0.20998 0.899 
-0.111998 -0.211615 0.906 
-0.069461 -0.210681 0.902 
-0.0275401 -0.211615 0.906 
0.0152238 -0.219323 0.939 
0.0630116 -0.234272 1.003 
0.117203 -0.250154 1.071 
0.182498 -0.270475 1.158 
0.254443 -0.291029 1.246 
0.382919 -0.352225 1.508 
0.434574 -0.337743 1.446 
0.470383 -0.316488 1.355 
0.502433 -0.298036 1.276 
0.531963 -0.282154 1.208 
0.565867 -0.271409 1.162 
0.585879 -0.256461 1.098 
0.605726 -0.243848 1.044 
0.633076 -0.235907 1.01 
0.645808 -0.223994 0.959 
0.665306 -0.215819 0.924 
0.683842 -0.208345 0.892 
0.694515 -0.199469 0.854 
0.701645 -0.190594 0.816 
0.700701 -0.18055 0.773 
0.711951 -0.174477 0.747 
-0.643684 -0.177493 0.765 
-0.607232 -0.177261 0.764 
-0.569377 -0.176565 0.761 
-0.536012 -0.177261 0.764 
-0.492288 -0.175637 0.757 
-0.458815 -0.176333 0.76 
-0.431191 -0.179581 0.774 
-0.401751 -0.182597 0.787 
-0.373882 -0.187006 0.806 
-0.343376 -0.191646 0.826 
-0.314103 -0.197447 0.851 
-0.279275 -0.200927 0.866 
-0.246359 -0.207191 0.893 
-0.208175 -0.210672 0.908 
-0.164392 -0.208815 0.9 
-0.123259 -0.210208 0.906 
-0.0806724 -0.209279 0.902 
-0.0385442 -0.208815 0.9 
0.00350342 -0.214848 0.926 
0.0500913 -0.230625 0.994 
0.103212 -0.246866 1.064 
0.163024 -0.260555 1.123 
0.233202 -0.282133 1.216 
0.309905 -0.301622 1.3 
0.421499 -0.339441 1.463 
0.457557 -0.317167 1.367 
0.491912 -0.299302 1.29 
0.525079 -0.284685 1.227 
0.55522 -0.27146 1.17 
0.58057 -0.258467 1.114 
0.606944 -0.248026 1.069 
0.626666 -0.236658 1.02 
0.644464 -0.226217 0.975 
0.660897 -0.216704 0.934 
0.680297 -0.209279 0.902 
0.689506 -0.199767 0.861 
0.702519 -0.192342 0.829 
0.695563 -0.180509 0.778 
0.705488 -0.174013 0.75 
0.7207 -0.169373 0.73 
-0.619957 -0.176996 0.768 
-0.581118 -0.176074 0.764 
-0.546936 -0.176535 0.766 
-0.502505 -0.175152 0.76 
-0.467695 -0.175383 0.761 
-0.437337 -0.177457 0.77 
-0.408224 -0.180453 0.783 
-0.379799 -0.184371 0.8 
-0.35193 -0.189441 0.822 
-0.320865 -0.19382 0.841 
-0.288699 -0.198659 0.862 
-0.252688 -0.204191 0.886 
-0.217117 -0.209722 0.91 
-0.172782 -0.207417 0.9 
-0.131269 -0.208108 0.903 
-0.0891796 -0.208108 0.903 
-0.0470384 -0.207878 0.902 
-0.00507342 -0.211105 0.916 
0.0400038 -0.224471 0.974 
0.0906631 -0.238299 1.034 
0.151061 -0.256275 1.112 
0.216028 -0.272869 1.184 
0.293205 -0.294993 1.28 
0.412879 -0.341316 1.481 
0.44937 -0.31827 1.381 
0.485838 -0.300985 1.306 
0.520757 -0.286697 1.244 
0.550362 -0.272638 1.183 
0.573768 -0.25835 1.121 
0.600888 -0.247979 1.076 
0.618972 -0.235764 1.023 
0.643195 -0.227467 0.987 
0.654984 -0.216175 0.938 
0.674123 -0.208569 0.905 
0.68702 -0.200042 0.868 
0.69982 -0.192437 0.835 
0.694504 -0.180914 0.785 
0.702222 -0.173769 0.754 
0.716829 -0.16893 0.733 
-0.628749 -0.176261 0.77 
-0.59132 -0.175803 0.768 
-0.553353 -0.175116 0.765 
-0.51093 -0.174429 0.762 
-0.475413 -0.174429 0.762 
-0.442783 -0.175574 0.767 
-0.413931 -0.17855 0.78 
-0.386289 -0.18267 0.798 
-0.358718 -0.187706 0.82 
-0.32636 -0.19114 0.835 
-0.296047 -0.196862 0.86 
-0.261617 -0.201212 0.879 
-0.227675 -0.207621 0.907 
-0.185195 -0.207392 0.906 
-0.14265 -0.206934 0.904 
-0.101071 -0.208079 0.909 
-0.0584434 -0.207163 0.905 
-0.016351 -0.208308 0.91 
0.0272387 -0.217693 0.951 
0.0761555 -0.231657 1.012 
0.136093 -0.249283 1.089 
0.201528 -0.266451 1.164 
0.276878 -0.288426 1.26 
0.403542 -0.340847 1.489 
0.445312 -0.320932 1.402 
0.478971 -0.301016 1.315 
0.517256 -0.288197 1.259 
0.543459 -0.271945 1.188 
0.5701 -0.258897 1.131 
0.59308 -0.246536 1.077 
0.614609 -0.235548 1.029 
0.637459 -0.226621 0.99 
0.65253 -0.21632 0.945 
0.670778 -0.208308 0.91 
0.685763 -0.200296 0.875 
0.699976 -0.192971 0.843 
0.697175 -0.181983 0.795 
0.701906 -0.173971 0.76 
0.715986 -0.168935 0.738 
-0.635928 -0.175064 0.77 
-0.600038 -0.175064 0.77 
-0.559752 -0.1737 0.764 
-0.51767 -0.172336 0.758 
-0.484884 -0.173245 0.762 
-0.449957 -0.173473 0.763 
-0.421997 -0.176656 0.777 
-0.394221 -0.180521 0.794 
-0.36666 -0.185295 0.815 
-0.335126 -0.188933 0.831 
-0.304596 -0.194162 0.854 
-0.272232 -0.199619 0.878 
-0.235787 -0.203484 0.895 
-0.19754 -0.207121 0.911 
-0.152988 -0.206212 0.907 
-0.111201 -0.207121 0.911 
-0.068286 -0.205757 0.905 
-0.0262479 -0.206894 0.91 
0.0166294 -0.212805 0.936 
0.0641193 -0.226447 0.996 
0.118645 -0.243044 1.069 
0.180607 -0.26055 1.146 
0.253217 -0.281922 1.24 
0.383218 -0.341034 1.5 
0.4338 -0.326483 1.436 
0.468304 -0.305339 1.343 
0.502439 -0.28897 1.271 
0.527653 -0.271463 1.194 
0.56181 -0.26146 1.15 
0.582768 -0.247591 1.089 
0.606766 -0.237132 1.043 
0.633388 -0.229175 1.008 
0.644729 -0.21667 0.953 
0.665285 -0.209168 0.92 
0.683534 -0.201892 0.888 
0.693903 -0.193253 0.85 
0.695551 -0.183249 0.806 
0.697645 -0.174382 0.767 
0.710447 -0.168926 0.743 
-0.650284 -0.173868 0.77 
-0.613596 -0.173642 0.769 
-0.574747 -0.172739 0.765 
-0.541909 -0.173642 0.769 
-0.501588 -0.172513 0.764 
-0.464758 -0.172061 0.762 
-0.434874 -0.174319 0.772 
-0.404575 -0.176803 0.783 
-0.37607 -0.180642 0.8 
-0.347675 -0.185384 0.821 
-0.316945 -0.1899 0.841 
-0.286003 -0.195545 0.866 
-0.251311 -0.200061 0.886 
-0.21594 -0.205706 0.911 
-0.172717 -0.204803 0.907 
-0.131016 -0.205706 0.911 
-0.0879711 -0.204351 0.905 
-0.0458393 -0.204577 0.906 
-0.00364627 -0.206609 0.915 
0.0412187 -0.218351 0.967 
0.095852 -0.234383 1.038 
0.153682 -0.249737 1.106 
0.219893 -0.267576 1.185 
0.297647 -0.289479 1.282 
0.41468 -0.330349 1.463 
0.454816 -0.311156 1.378 
0.489289 -0.293317 1.299 
0.51936 -0.27706 1.227 
0.548827 -0.263737 1.168 
0.574344 -0.251092 1.112 
0.600272 -0.240705 1.066 
0.618863 -0.229189 1.015 
0.641232 -0.220609 0.977 
0.655841 -0.210674 0.933 
0.676842 -0.2039 0.903 
0.688677 -0.195319 0.865 
0.69697 -0.186739 0.827 
0.691937 -0.175674 0.778 
0.701056 -0.169126 0.749 
0.71435 -0.164158 0.727 
-0.634421 -0.173569 0.774 
-0.595252 -0.172672 0.77 
-0.557183 -0.171999 0.767 
-0.520073 -0.17155 0.765 
-0.483783 -0.171326 0.764 
-0.448759 -0.17155 0.765 
-0.420123 -0.174466 0.778 
-0.392248 -0.178278 0.795 
-0.364575 -0.182987 0.816 
-0.332543 -0.186351 0.831 
-0.302649 -0.191957 0.856 
-0.270118 -0.197339 0.88 
-0.233526 -0.201151 0.897 
-0.19535 -0.204963 0.914 
-0.152581 -0.204739 0.913 
-0.109785 -0.204291 0.911 
-0.0670277 -0.203394 0.907 
-0.0248613 -0.204291 0.911 
0.0181223 -0.210345 0.938 
0.065403 -0.222455 0.992 
0.122081 -0.239946 1.07 
0.184007 -0.256765 1.145 
0.258579 -0.27762 1.238 
0.384951 -0.32987 1.471 
0.438408 -0.318882 1.422 
0.471326 -0.297802 1.328 
0.50833 -0.283899 1.266 
0.532832 -0.266632 1.189 
0.564999 -0.256092 1.142 
0.585205 -0.242413 1.081 
0.608545 -0.232097 1.035 
0.632038 -0.223352 0.996 
0.647127 -0.213036 0.95 
0.66739 -0.205636 0.917 
0.682253 -0.197563 0.881 
0.694581 -0.189714 0.846 
0.692367 -0.178951 0.798 
0.697563 -0.171102 0.763 
0.711989 -0.166168 0.741 
-0.651616 -0.172143 0.773 
-0.613994 -0.171698 0.771 
-0.573559 -0.170362 0.765 
-0.540714 -0.171253 0.769 
-0.502901 -0.170584 0.766 
-0.465978 -0.170139 0.764 
-0.434311 -0.171698 0.771 
-0.404058 -0.174148 0.782 
-0.37607 -0.178156 0.8 
-0.347252 -0.18261 0.82 
-0.316569 -0.187064 0.84 
-0.286993 -0.193522 0.869 
-0.251027 -0.197085 0.885 
-0.21594 -0.202875 0.911 
-0.173859 -0.203321 0.913 
-0.131592 -0.203766 0.915 
-0.0882627 -0.202207 0.908 
-0.0459405 -0.202207 0.908 
-0.0036383 -0.203321 0.913 
0.0410055 -0.214233 0.962 
0.0913773 -0.22804 1.024 
0.150865 -0.244519 1.098 
0.216396 -0.261889 1.176 
0.291965 -0.281932 1.266 
0.410415 -0.326026 1.464 
0.454785 -0.309769 1.391 
0.488614 -0.291285 1.308 
0.516387 -0.273692 1.229 
0.547532 -0.261221 1.173 
0.571402 -0.24786 1.113 
0.5964 -0.23717 1.065 
0.615709 -0.226036 1.015 
0.639503 -0.218018 0.979 
0.654342 -0.20822 0.935 
0.67329 -0.200871 0.902 
0.686782 -0.192854 0.866 
0.696079 -0.184614 0.829 
0.690406 -0.173479 0.779 
0.700594 -0.167244 0.751 
0.712091 -0.161899 0.727 
-0.640883 -0.171606 0.776 
-0.602375 -0.170942 0.773 
-0.561217 -0.169394 0.766 
-0.523455 -0.168731 0.763 
-0.48981 -0.169394 0.766 
-0.454107 -0.169394 0.766 
-0.424411 -0.171827 0.777 
-0.395689 -0.175144 0.792 
-0.367381 -0.179346 0.811 
-0.336895 -0.183326 0.829 
-0.30617 -0.188191 0.851 
-0.2759 -0.194826 0.881 
-0.237768 -0.197258 0.892 
-0.201691 -0.202787 0.917 
-0.158949 -0.202787 0.917 
-0.1157 -0.201902 0.913 
-0.0729849 -0.20146 0.911 
-0.0305564 -0.201681 0.912 
0.0121356 -0.204777 0.926 
0.0585214 -0.216719 0.98 
0.112174 -0.233304 1.055 
0.172053 -0.248784 1.125 
0.247353 -0.272004 1.23 
0.324005 -0.289253 1.308 
0.430968 -0.317117 1.434 
0.464134 -0.295666 1.337 
0.500858 -0.281292 1.272 
0.525798 -0.264043 1.194 
0.559049 -0.25387 1.148 
0.583211 -0.241708 1.093 
0.605726 -0.230872 1.044 
0.625554 -0.220699 0.998 
0.643788 -0.211411 0.956 
0.663146 -0.203671 0.921 
0.680008 -0.196152 0.887 
0.691262 -0.18797 0.85 
0.68913 -0.176913 0.8 
0.694638 -0.169173 0.765 
0.707383 -0.163866 0.741 
-0.658472 -0.169961 0.774 
-0.622395 -0.169961 0.774 
-0.581774 -0.168643 0.768 
-0.548821 -0.169522 0.772 
-0.508987 -0.168643 0.768 
-0.472574 -0.168424 0.767 
-0.439102 -0.169302 0.771 
-0.407349 -0.171059 0.779 
-0.38009 -0.175231 0.798 
-0.351918 -0.179842 0.819 
-0.319339 -0.183795 0.837 
-0.291379 -0.191041 0.87 
-0.253999 -0.193457 0.881 
-0.21922 -0.199166 0.907 
-0.179285 -0.201801 0.919 
-0.135022 -0.201801 0.919 
-0.0914854 -0.200264 0.912 
-0.0488157 -0.199605 0.909 
-0.00648241 -0.200703 0.914 
0.0377001 -0.209487 0.954 
0.087334 -0.222662 1.014 
0.144021 -0.238253 1.085 
0.208583 -0.255381 1.163 
0.281997 -0.274045 1.248 
0.403039 -0.321037 1.462 
0.452813 -0.308521 1.405 
0.485838 -0.289197 1.317 
0.514398 -0.27185 1.238 
0.545761 -0.259333 1.181 
0.567741 -0.24506 1.116 
0.593102 -0.23452 1.068 
0.613386 -0.22376 1.019 
0.634939 -0.214976 0.979 
0.652764 -0.206193 0.939 
0.670569 -0.198507 0.904 
0.685111 -0.190822 0.869 
0.693885 -0.182477 0.831 
0.687656 -0.171278 0.78 
0.69895 -0.16535 0.753 
0.711627 -0.160299 0.73 
-0.646537 -0.169412 0.777 
-0.607965 -0.168758 0.774 
-0.565239 -0.166796 0.765 
-0.529582 -0.166796 0.765 
-0.49219 -0.167014 0.766 
-0.457083 -0.167232 0.767 
-0.425727 -0.168976 0.775 
-0.397648 -0.172465 0.791 
-0.368533 -0.176171 0.808 
-0.338652 -0.180314 0.827 
-0.308089 -0.185111 0.849 
-0.276324 -0.191434 0.878 
-0.239154 -0.194486 0.892 
-0.203337 -0.200155 0.918 
-0.160723 -0.200373 0.919 
-0.117504 -0.199719 0.916 
-0.074727 -0.199501 0.915 
-0.0320435 -0.199283 0.914 
0.0106623 -0.201245 0.923 
0.0565917 -0.212147 0.973 
0.109068 -0.226973 1.041 
0.169397 -0.24398 1.119 
0.242343 -0.266874 1.224 
0.317984 -0.283444 1.3 
0.422939 -0.313315 1.437 
0.46128 -0.295 1.353 
0.499153 -0.280828 1.288 
0.521416 -0.261859 1.201 
0.554319 -0.251393 1.153 
0.58011 -0.239837 1.1 
0.600386 -0.228064 1.046 
0.619352 -0.217598 0.998 
0.64185 -0.209749 0.962 
0.659564 -0.201463 0.924 
0.676017 -0.193832 0.889 
0.689207 -0.186201 0.854 
0.686724 -0.175081 0.803 
0.691687 -0.167232 0.767 
0.703727 -0.161781 0.742 
0.721396 -0.158075 0.725 
-0.631656 -0.168422 0.778 
-0.590036 -0.166906 0.771 
-0.554818 -0.167123 0.772 
-0.518835 -0.167123 0.772 
-0.479724 -0.16604 0.767 
-0.44629 -0.166906 0.771 
-0.414079 -0.168422 0.778 
-0.385805 -0.172535 0.797 
-0.357843 -0.177081 0.818 
-0.325578 -0.180328 0.833 
-0.296424 -0.187256 0.865 
-0.260251 -0.190286 0.879 
-0.225268 -0.195482 0.903 
-0.187236 -0.199811 0.923 
-0.144214 -0.199811 0.923 
-0.100535 -0.198512 0.917 
-0.0574155 -0.197214 0.911 
-0.0150192 -0.19808 0.915 
0.0285653 -0.20479 0.946 
0.0762685 -0.214965 0.993 
0.132549 -0.2325 1.074 
0.194681 -0.24787 1.145 
0.266897 -0.266704 1.232 
0.362492 -0.298093 1.377 
0.440024 -0.305887 1.413 
0.473663 -0.286404 1.323 
0.507813 -0.271683 1.255 
0.536527 -0.257395 1.189 
0.562075 -0.244406 1.129 
0.58802 -0.233799 1.08 
0.609396 -0.223191 1.031 
0.62748 -0.213017 0.984 
0.648026 -0.205007 0.947 
0.663661 -0.196564 0.908 
0.68188 -0.189853 0.877 
0.689792 -0.181194 0.837 
0.684747 -0.169937 0.785 
0.697444 -0.164309 0.759 
0.712546 -0.159763 0.738 
-0.650246 -0.167643 0.78 
-0.609954 -0.166568 0.775 
-0.567908 -0.164849 0.767 
-0.534933 -0.165708 0.771 
-0.496408 -0.164849 0.767 
-0.460658 -0.164849 0.767 
-0.428232 -0.166138 0.773 
-0.398653 -0.170437 0.793 
-0.368533 -0.173661 0.808 
-0.337424 -0.1771 0.824 
-0.308452 -0.182688 0.85 
-0.276423 -0.187846 0.874 
-0.24081 -0.19193 0.893 
-0.204763 -0.197303 0.918 
-0.162504 -0.197948 0.921 
-0.119316 -0.197518 0.919 
-0.0763983 -0.197303 0.918 
-0.0335368 -0.196873 0.916 
0.00921824 -0.198162 0.922 
0.0547403 -0.207834 0.967 
0.106418 -0.221589 1.031 
0.16676 -0.239213 1.113 
0.23887 -0.261351 1.216 
0.313777 -0.27747 1.291 
0.420706 -0.30885 1.437 
0.460875 -0.29187 1.358 
0.499082 -0.2779 1.293 
0.520416 -0.258557 1.203 
0.553006 -0.248025 1.154 
0.578926 -0.236634 1.101 
0.597044 -0.224169 1.043 
0.616563 -0.214067 0.996 
0.641686 -0.207189 0.964 
0.659553 -0.199022 0.926 
0.673118 -0.19064 0.887 
0.687075 -0.183332 0.853 
0.683377 -0.172371 0.802 
0.690202 -0.165064 0.768 
0.703312 -0.159905 0.744 
0.720135 -0.156037 0.726 
-0.622393 -0.165791 0.777 
-0.580142 -0.164084 0.769 
-0.547838 -0.165151 0.774 
-0.510439 -0.164724 0.772 
-0.472612 -0.164084 0.769 
-0.439041 -0.164937 0.773 
-0.405096 -0.165791 0.777 
-0.3756 -0.170485 0.799 
-0.346405 -0.174539 0.818 
-0.317322 -0.17966 0.842 
-0.287654 -0.185848 0.871 
-0.250744 -0.188622 0.884 
-0.21476 -0.194596 0.912 
-0.174707 -0.19737 0.925 
-0.13145 -0.197157 0.924 
-0.0879998 -0.196303 0.92 
-0.0449221 -0.19545 0.916 
-0.00222952 -0.195663 0.917 
0.0436289 -0.203558 0.954 
0.0937281 -0.216574 1.015 
0.15132 -0.232363 1.089 
0.218223 -0.250927 1.176 
0.291378 -0.267783 1.255 
0.410145 -0.308751 1.447 
0.457457 -0.295735 1.386 
0.495315 -0.280586 1.315 
0.51428 -0.259248 1.215 
0.550237 -0.24986 1.171 
0.572795 -0.236631 1.109 
0.591825 -0.224255 1.051 
0.613985 -0.214867 1.007 
0.63795 -0.207399 0.972 
0.655138 -0.198864 0.932 
0.669347 -0.190542 0.893 
0.685492 -0.183714 0.861 
0.6818 -0.172619 0.809 
0.686601 -0.164724 0.772 
0.70012 -0.159603 0.748 
0.715333 -0.155336 0.728 
-0.635703 -0.165219 0.78 
-0.5932 -0.163525 0.772 
-0.558661 -0.163948 0.774 
-0.52461 -0.164584 0.777 
-0.482108 -0.162465 0.767 
-0.448685 -0.163313 0.771 
-0.416496 -0.164795 0.778 
-0.384566 -0.16882 0.797 
-0.3557 -0.172845 0.816 
-0.324674 -0.176657 0.834 
-0.295053 -0.182376 0.861 
-0.260843 -0.186613 0.881 
-0.224769 -0.190849 0.901 
-0.18825 -0.196568 0.928 
-0.144371 -0.195721 0.924 
-0.100755 -0.194662 0.919 
-0.0577937 -0.194238 0.917 
-0.0135976 -0.193815 0.915 
0.0299398 -0.199746 0.943 
0.077733 -0.210125 0.992 
0.134343 -0.227706 1.075 
0.195602 -0.241474 1.14 
0.269466 -0.261597 1.235 
0.358011 -0.28638 1.352 
0.441584 -0.297394 1.404 
0.477413 -0.280025 1.322 
0.50682 -0.263291 1.243 
0.538859 -0.251218 1.186 
0.561075 -0.237238 1.12 
0.588638 -0.227706 1.075 
0.611412 -0.217962 1.029 
0.627975 -0.207583 0.98 
0.647532 -0.199534 0.942 
0.661344 -0.190849 0.901 
0.681483 -0.184918 0.873 
0.684121 -0.175175 0.827 
0.682471 -0.165431 0.781 
0.695862 -0.160135 0.756 
0.713692 -0.156323 0.738 
-0.65153 -0.164638 0.783 
-0.610321 -0.163376 0.777 
-0.57115 -0.162535 0.773 
-0.537197 -0.163166 0.776 
-0.49457 -0.161063 0.766 
-0.461263 -0.161905 0.77 
-0.427583 -0.162746 0.774 
-0.402129 -0.167161 0.795 
-0.370125 -0.169474 0.806 
-0.338746 -0.172628 0.821 
-0.311093 -0.178726 0.85 
-0.278181 -0.183141 0.871 
-0.243312 -0.187557 0.892 
-0.206937 -0.192393 0.915 
-0.165905 -0.194285 0.924 
-0.122837 -0.194285 0.924 
-0.0798551 -0.194496 0.925 
-0.0366214 -0.193865 0.922 
0.00636704 -0.194285 0.924 
0.051254 -0.201435 0.958 
0.102414 -0.215102 1.023 
0.161247 -0.231082 1.099 
0.230065 -0.250216 1.19 
0.305926 -0.268089 1.275 
0.414873 -0.302783 1.44 
0.458896 -0.288274 1.371 
0.49725 -0.274186 1.304 
0.51652 -0.253791 1.207 
0.548577 -0.243067 1.156 
0.575358 -0.232133 1.104 
0.591046 -0.218887 1.041 
0.613764 -0.210055 0.999 
0.638515 -0.203117 0.966 
0.658775 -0.195757 0.931 
0.668984 -0.186506 0.887 
0.683099 -0.179357 0.853 
0.678791 -0.168423 0.801 
0.687517 -0.161694 0.769 
0.700785 -0.156648 0.745 
0.718726 -0.153073 0.728 
-0.634091 -0.163004 0.781 
-0.592332 -0.161543 0.774 
-0.557693 -0.16196 0.776 
-0.522867 -0.162378 0.778 
-0.480975 -0.1605 0.769 
-0.447447 -0.161334 0.773 
-0.414079 -0.162378 0.778 
-0.387529 -0.166552 0.798 
-0.35648 -0.169474 0.812 
-0.326088 -0.17344 0.831 
-0.295654 -0.178449 0.855 
-0.263581 -0.183875 0.881 
-0.227063 -0.187632 0.899 
-0.191546 -0.194102 0.93 
-0.147082 -0.192641 0.923 
-0.103948 -0.192432 0.922 
-0.0609076 -0.192224 0.921 
-0.017921 -0.191598 0.918 
0.025382 -0.195563 0.937 
0.0722986 -0.204746 0.981 
0.12861 -0.223113 1.069 
0.188452 -0.235636 1.129 
0.262855 -0.256924 1.231 
0.345986 -0.277587 1.33 
0.431904 -0.293866 1.408 
0.46891 -0.276961 1.327 
0.498364 -0.260055 1.246 
0.530985 -0.248159 1.189 
0.555827 -0.235218 1.127 
0.582446 -0.2252 1.079 
0.60635 -0.215808 1.034 
0.622894 -0.205373 0.984 
0.642933 -0.197442 0.946 
0.656524 -0.188676 0.904 
0.677019 -0.182832 0.876 
0.679335 -0.173022 0.829 
0.679002 -0.16363 0.784 
0.695465 -0.159039 0.762 
0.709878 -0.154447 0.74 
-0.665863 -0.163034 0.787 
-0.621986 -0.161169 0.778 
-0.582711 -0.160341 0.774 
-0.548754 -0.160962 0.777 
-0.511218 -0.160548 0.775 
-0.471417 -0.159305 0.769 
-0.439539 -0.160755 0.776 
-0.405448 -0.161583 0.78 
-0.378083 -0.165519 0.799 
-0.348947 -0.169455 0.818 
-0.320699 -0.174842 0.844 
-0.287694 -0.178778 0.863 
-0.254351 -0.183749 0.887 
-0.21757 -0.187685 0.906 
-0.179986 -0.192657 0.93 
-0.136198 -0.192036 0.927 
-0.0931907 -0.19245 0.929 
-0.0495675 -0.191207 0.923 
-0.00653914 -0.191 0.922 
0.0372259 -0.195143 0.942 
0.0865589 -0.208194 1.005 
0.143225 -0.223524 1.079 
0.204278 -0.235953 1.139 
0.281545 -0.258119 1.246 
0.373148 -0.2836 1.369 
0.444617 -0.288572 1.393 
0.480282 -0.271999 1.313 
0.50684 -0.254598 1.229 
0.539796 -0.243618 1.176 
0.564273 -0.231189 1.116 
0.590335 -0.220831 1.066 
0.613003 -0.211509 1.021 
0.631477 -0.202187 0.976 
0.649918 -0.194107 0.937 
0.662502 -0.185407 0.895 
0.680613 -0.179192 0.865 
0.676759 -0.168213 0.812 
0.682924 -0.160755 0.776 
0.695 -0.155369 0.75 
0.717306 -0.152676 0.737 
-0.658911 -0.161605 0.786 
-0.618317 -0.160577 0.781 
-0.578934 -0.159755 0.777 
-0.543416 -0.15996 0.778 
-0.50259 -0.158521 0.771 
-0.466654 -0.158521 0.771 
-0.43351 -0.159549 0.776 
-0.403997 -0.162222 0.789 
-0.372807 -0.164689 0.801 
-0.343848 -0.168801 0.821 
-0.315259 -0.174147 0.847 
-0.282292 -0.178259 0.867 
-0.249134 -0.183605 0.893 
-0.211462 -0.1871 0.91 
-0.172576 -0.191007 0.929 
-0.128579 -0.189979 0.924 
-0.0862515 -0.191624 0.932 
-0.0424433 -0.189979 0.924 
0.000628037 -0.191007 0.929 
0.0448274 -0.194913 0.948 
0.0953051 -0.208689 1.015 
0.152028 -0.222464 1.082 
0.217243 -0.238707 1.161 
0.294263 -0.258856 1.259 
0.395837 -0.290314 1.412 
0.451515 -0.28394 1.381 
0.486 -0.267492 1.301 
0.510925 -0.250015 1.216 
0.540997 -0.238296 1.159 
0.569862 -0.228221 1.11 
0.587946 -0.215268 1.047 
0.613029 -0.207249 1.008 
0.634476 -0.199231 0.969 
0.654391 -0.191829 0.933 
0.666348 -0.182783 0.889 
0.677531 -0.17497 0.851 
0.674215 -0.164484 0.8 
0.683932 -0.15811 0.769 
0.697312 -0.153175 0.745 
0.717298 -0.150091 0.73 
-0.649926 -0.159976 0.784 
-0.614948 -0.160384 0.786 
-0.573162 -0.158956 0.779 
-0.536164 -0.158752 0.778 
-0.495403 -0.157323 0.771 
-0.460062 -0.157527 0.772 
-0.426826 -0.158548 0.777 
-0.400664 -0.162629 0.797 
-0.368077 -0.164669 0.807 
-0.336195 -0.167526 0.821 
-0.308452 -0.173443 0.85 
-0.275791 -0.177932 0.872 
-0.241619 -0.18283 0.896 
-0.203648 -0.186299 0.913 
-0.163386 -0.188951 0.926 
-0.120485 -0.189359 0.928 
-0.0773969 -0.189767 0.93 
-0.0341226 -0.190175 0.932 
0.00928823 -0.189563 0.929 
0.0542874 -0.195685 0.959 
0.106728 -0.210989 1.034 
0.164063 -0.223436 1.095 
0.231209 -0.240168 1.177 
0.311833 -0.261797 1.283 
0.412476 -0.290569 1.424 
0.458336 -0.278121 1.363 
0.492001 -0.262205 1.285 
0.519254 -0.246698 1.209 
0.543707 -0.233026 1.142 
0.573414 -0.223844 1.097 
0.591427 -0.211397 1.036 
0.613781 -0.202827 0.994 
0.636868 -0.195685 0.959 
0.658114 -0.188951 0.926 
0.669468 -0.180381 0.884 
0.670475 -0.170179 0.834 
0.676177 -0.162221 0.795 
0.688112 -0.156507 0.767 
0.699324 -0.151202 0.741 
0.719007 -0.148141 0.726 
-0.644657 -0.15896 0.785 
-0.609617 -0.159365 0.787 
-0.56324 -0.15734 0.777 
-0.529059 -0.157948 0.78 
-0.488913 -0.156733 0.774 
-0.452836 -0.156733 0.774 
-0.420529 -0.15815 0.781 
-0.39298 -0.161795 0.799 
-0.359745 -0.163618 0.808 
-0.330455 -0.16787 0.829 
-0.299911 -0.172528 0.852 
-0.268445 -0.177995 0.879 
-0.232133 -0.18164 0.897 
-0.196477 -0.187512 0.926 
-0.15315 -0.18731 0.925 
-0.110511 -0.18812 0.929 
-0.0669931 -0.187512 0.926 
-0.0240121 -0.18893 0.933 
0.0194335 -0.188525 0.931 
0.0655946 -0.196827 0.972 
0.121168 -0.215052 1.062 
0.178222 -0.224569 1.109 
0.251266 -0.245427 1.212 
0.333404 -0.265879 1.313 
0.424356 -0.285926 1.412 
0.465523 -0.271549 1.341 
0.49377 -0.253932 1.254 
0.527999 -0.242794 1.199 
0.549797 -0.228619 1.129 
0.57414 -0.217887 1.076 
0.600367 -0.208977 1.032 
0.618936 -0.19946 0.985 
0.641223 -0.192372 0.95 
0.652945 -0.18245 0.901 
0.674887 -0.177185 0.875 
0.672322 -0.166453 0.822 
0.679513 -0.159163 0.786 
0.695193 -0.154505 0.763 
0.705855 -0.14924 0.737 
-0.6732 -0.158143 0.787 
-0.6349 -0.157741 0.785 
-0.59633 -0.15754 0.784 
-0.553362 -0.155731 0.775 
-0.521911 -0.157138 0.782 
-0.47809 -0.15553 0.774 
-0.444298 -0.156334 0.778 
-0.409084 -0.156736 0.78 
-0.382285 -0.160755 0.8 
-0.351897 -0.16397 0.816 
-0.323479 -0.168994 0.841 
-0.289012 -0.171807 0.855 
-0.258485 -0.178237 0.887 
-0.221059 -0.181452 0.903 
-0.185114 -0.187681 0.934 
-0.140822 -0.186677 0.929 
-0.0980457 -0.187681 0.934 
-0.0542199 -0.186677 0.929 
-0.00948572 -0.186878 0.93 
0.0340439 -0.187882 0.935 
0.0828549 -0.200542 0.998 
0.138705 -0.21501 1.07 
0.198095 -0.225861 1.124 
0.277814 -0.248768 1.238 
0.367497 -0.27248 1.356 
0.439277 -0.277905 1.383 
0.472779 -0.260825 1.298 
0.500411 -0.244749 1.218 
0.53431 -0.234702 1.168 
0.562539 -0.224253 1.116 
0.588674 -0.214809 1.069 
0.609234 -0.204962 1.02 
0.627801 -0.19592 0.975 
0.646316 -0.188083 0.936 
0.660373 -0.179644 0.894 
0.675343 -0.172811 0.86 
0.673833 -0.162764 0.81 
0.682597 -0.156133 0.777 
0.69476 -0.150909 0.751 
0.713245 -0.147493 0.734 
-0.662195 -0.15692 0.787 
-0.624718 -0.15672 0.786 
-0.583874 -0.155923 0.782 
-0.543925 -0.154926 0.777 
-0.510322 -0.155724 0.781 
-0.467269 -0.154727 0.776 
-0.43221 -0.155125 0.778 
-0.403072 -0.157917 0.792 
-0.371243 -0.16011 0.803 
-0.341713 -0.163899 0.822 
-0.313365 -0.169282 0.849 
-0.280243 -0.17327 0.869 
-0.246635 -0.178255 0.894 
-0.208634 -0.181445 0.91 
-0.17042 -0.186031 0.933 
-0.125844 -0.184436 0.925 
-0.0837132 -0.186629 0.936 
-0.0399147 -0.185831 0.932 
0.00353747 -0.18643 0.935 
0.047874 -0.18942 0.95 
0.0992351 -0.203976 1.023 
0.154385 -0.214344 1.075 
0.22028 -0.230894 1.158 
0.299359 -0.252029 1.264 
0.395123 -0.27795 1.394 
0.452176 -0.273164 1.37 
0.481379 -0.25482 1.278 
0.513011 -0.241661 1.212 
0.53802 -0.228301 1.145 
0.569179 -0.219728 1.102 
0.58901 -0.208562 1.046 
0.608498 -0.198991 0.998 
0.630731 -0.191614 0.961 
0.65092 -0.184635 0.926 
0.666227 -0.176859 0.887 
0.664989 -0.165892 0.832 
0.672471 -0.158515 0.795 
0.684537 -0.152932 0.767 
0.69681 -0.147947 0.742 
0.713652 -0.144358 0.724 
-0.652018 -0.155895 0.788 
-0.619193 -0.156884 0.793 
-0.572686 -0.154312 0.78 
-0.537705 -0.154708 0.782 
-0.501256 -0.154708 0.782 
-0.460628 -0.153719 0.777 
-0.427143 -0.154708 0.782 
-0.396207 -0.157873 0.798 
-0.363511 -0.159852 0.808 
-0.334319 -0.164006 0.829 
-0.304596 -0.168952 0.854 
-0.271922 -0.173502 0.877 
-0.235787 -0.177063 0.895 
-0.199275 -0.181812 0.919 
-0.158483 -0.184186 0.931 
-0.115088 -0.184186 0.931 
-0.0716943 -0.184186 0.931 
-0.0285432 -0.185768 0.939 
0.0151265 -0.184581 0.933 
0.0606871 -0.19111 0.966 
0.114796 -0.20753 1.049 
0.171024 -0.216829 1.096 
0.238726 -0.233051 1.178 
0.32506 -0.256396 1.296 
0.418779 -0.278553 1.408 
0.462388 -0.265892 1.344 
0.490655 -0.248482 1.256 
0.525148 -0.237601 1.201 
0.545321 -0.222961 1.127 
0.57034 -0.21208 1.072 
0.597739 -0.204365 1.033 
0.616152 -0.194473 0.983 
0.64042 -0.188142 0.951 
0.651626 -0.179042 0.905 
0.671575 -0.173305 0.876 
0.668491 -0.162621 0.822 
0.678429 -0.156093 0.789 
0.689823 -0.150553 0.761 
0.698607 -0.145014 0.733 
-0.678588 -0.154867 0.789 
-0.641812 -0.154867 0.789 
-0.606571 -0.15526 0.791 
-0.558178 -0.152119 0.775 
-0.529465 -0.154278 0.786 
-0.487855 -0.1531 0.78 
-0.451499 -0.1531 0.78 
-0.41674 -0.153689 0.783 
-0.3885 -0.157026 0.8 
-0.356919 -0.159578 0.813 
-0.32648 -0.163307 0.832 
-0.294962 -0.167429 0.853 
-0.26388 -0.173121 0.882 
-0.227316 -0.176654 0.9 
-0.191957 -0.182935 0.932 
-0.148676 -0.183132 0.933 
-0.105189 -0.183132 0.933 
-0.0615689 -0.182739 0.931 
-0.0183309 -0.184309 0.939 
0.0253007 -0.183328 0.934 
0.0719301 -0.191572 0.976 
0.12825 -0.209237 1.066 
0.185447 -0.21807 1.111 
0.260681 -0.237894 1.212 
0.345174 -0.258897 1.319 
0.428234 -0.272637 1.389 
0.465293 -0.257326 1.311 
0.494277 -0.241624 1.231 
0.528799 -0.231613 1.18 
0.554115 -0.219836 1.12 
0.58037 -0.209826 1.069 
0.603078 -0.200797 1.023 
0.621741 -0.191376 0.975 
0.641868 -0.184113 0.938 
0.656352 -0.176262 0.898 
0.674105 -0.170177 0.867 
0.67254 -0.159578 0.813 
0.680723 -0.152904 0.779 
0.693101 -0.147801 0.753 
0.70789 -0.143679 0.732 
-0.666329 -0.153641 0.789 
-0.629554 -0.153641 0.789 
-0.591276 -0.153252 0.787 
-0.549661 -0.151889 0.78 
-0.517911 -0.153252 0.787 
-0.478172 -0.152278 0.782 
-0.441157 -0.152083 0.781 
-0.406828 -0.152862 0.785 
-0.377313 -0.155783 0.8 
-0.348951 -0.159872 0.821 
-0.317874 -0.163572 0.84 
-0.285689 -0.167662 0.861 
-0.253543 -0.173114 0.889 
-0.216878 -0.177009 0.909 
-0.179309 -0.181877 0.934 
-0.134758 -0.180514 0.927 
-0.0926362 -0.182656 0.938 
-0.048655 -0.181682 0.933 
-0.00521189 -0.18324 0.941 
0.0384841 -0.182461 0.937 
0.0882957 -0.196092 1.007 
0.145644 -0.206413 1.06 
0.210875 -0.223159 1.146 
0.284355 -0.240101 1.233 
0.378142 -0.26561 1.364 
0.444633 -0.267363 1.373 
0.471584 -0.24789 1.273 
0.504644 -0.235622 1.21 
0.534613 -0.224522 1.153 
0.564372 -0.21537 1.106 
0.589192 -0.206023 1.058 
0.604106 -0.194924 1.001 
0.625409 -0.187329 0.962 
0.645166 -0.180319 0.926 
0.661567 -0.173309 0.89 
0.661183 -0.162988 0.837 
0.67008 -0.155978 0.801 
0.681803 -0.150331 0.772 
0.692682 -0.145073 0.745 
0.707879 -0.141178 0.725 
-0.659019 -0.152995 0.792 
-0.625246 -0.153767 0.796 
-0.580016 -0.151643 0.785 
-0.544119 -0.151836 0.786 
-0.507484 -0.151836 0.786 
-0.469051 -0.151256 0.783 
-0.43244 -0.151643 0.785 
-0.398877 -0.152802 0.791 
-0.368415 -0.155506 0.805 
-0.339526 -0.159563 0.826 
-0.310501 -0.164585 0.852 
-0.276828 -0.168256 0.871 
-0.242197 -0.172505 0.893 
-0.206189 -0.177335 0.918 
-0.166961 -0.181198 0.938 
-0.122189 -0.179653 0.93 
-0.07952 -0.181198 0.938 
-0.0358378 -0.181392 0.939 
0.00792086 -0.181198 0.938 
0.0524671 -0.184096 0.953 
0.104105 -0.197811 1.024 
0.166548 -0.210368 1.089 
0.232871 -0.225435 1.167 
0.313112 -0.245719 1.272 
0.406946 -0.268514 1.39 
0.45782 -0.260593 1.349 
0.485959 -0.243208 1.259 
0.51955 -0.232003 1.201 
0.540068 -0.217708 1.127 
0.567884 -0.208629 1.08 
0.594181 -0.200516 1.038 
0.610992 -0.190664 0.987 
0.633033 -0.18371 0.951 
0.650269 -0.175596 0.909 
0.669016 -0.169608 0.878 
0.664659 -0.15879 0.822 
0.675606 -0.152608 0.79 
0.685374 -0.146813 0.76 
0.695191 -0.141597 0.733 
0.715426 -0.138893 0.719 
-0.64221 -0.151573 0.791 
-0.608403 -0.152339 0.795 
-0.556974 -0.148507 0.775 
-0.531604 -0.151573 0.791 
-0.490357 -0.150231 0.784 
-0.453236 -0.15004 0.783 
-0.418869 -0.150806 0.787 
-0.388985 -0.153489 0.801 
-0.358236 -0.156363 0.816 
-0.325303 -0.158854 0.829 
-0.295308 -0.163645 0.854 
-0.263282 -0.168627 0.88 
-0.227316 -0.172459 0.9 
-0.191546 -0.178208 0.93 
-0.15011 -0.180507 0.942 
-0.105414 -0.179166 0.935 
-0.0618996 -0.179358 0.936 
-0.0183895 -0.180507 0.942 
0.0252736 -0.178783 0.933 
0.0713405 -0.18549 0.968 
0.129711 -0.201394 1.051 
0.19043 -0.214616 1.12 
0.260614 -0.230521 1.203 
0.344328 -0.250641 1.308 
0.427294 -0.264246 1.379 
0.462695 -0.248725 1.298 
0.494174 -0.234928 1.226 
0.527934 -0.224964 1.174 
0.554862 -0.214233 1.118 
0.578741 -0.204269 1.066 
0.602304 -0.195262 1.019 
0.619828 -0.186256 0.972 
0.640499 -0.179358 0.936 
0.655621 -0.171885 0.897 
0.668662 -0.164795 0.86 
0.669189 -0.155597 0.812 
0.678303 -0.149273 0.779 
0.689844 -0.144099 0.752 
0.70176 -0.1395 0.728 
-0.668085 -0.150914 0.794 
-0.628508 -0.151484 0.797 
-0.585423 -0.149964 0.789 
-0.549343 -0.150154 0.79 
-0.511223 -0.149773 0.788 
-0.473892 -0.149583 0.787 
-0.43721 -0.149583 0.787 
-0.401546 -0.149964 0.789 
-0.371705 -0.152815 0.804 
-0.342129 -0.156426 0.823 
-0.312781 -0.161748 0.851 
-0.277146 -0.165739 0.872 
-0.242197 -0.169731 0.893 
-0.206414 -0.174672 0.919 
-0.167317 -0.178664 0.94 
-0.122452 -0.177143 0.932 
-0.0797744 -0.178854 0.941 
-0.0358759 -0.178664 0.94 
0.00792931 -0.178474 0.939 
0.052302 -0.180564 0.95 
0.10518 -0.193679 1.019 
0.161665 -0.205083 1.079 
0.228655 -0.221239 1.164 
0.305027 -0.238535 1.255 
0.398572 -0.261533 1.376 
0.454637 -0.256972 1.352 
0.482812 -0.239676 1.261 
0.515818 -0.228272 1.201 
0.536566 -0.214206 1.127 
0.568187 -0.206604 1.087 
0.592569 -0.19729 1.038 
0.610076 -0.187787 0.988 
0.629563 -0.180184 0.948 
0.648875 -0.173532 0.913 
0.667196 -0.16745 0.881 
0.661632 -0.156426 0.823 
0.673625 -0.150534 0.792 
0.682729 -0.144642 0.761 
0.695549 -0.14008 0.737 
0.712075 -0.136659 0.719 
-0.647113 -0.14968 0.794 
-0.59948 -0.149492 0.793 
-0.557412 -0.149115 0.791 
-0.519885 -0.148926 0.79 
-0.482452 -0.148738 0.789 
-0.443982 -0.148172 0.786 
-0.407864 -0.148361 0.787 
-0.377785 -0.151 0.801 
-0.348951 -0.15477 0.821 
-0.31636 -0.157598 0.836 
-0.283966 -0.16363 0.868 
-0.2494 -0.167589 0.889 
-0.214279 -0.172679 0.916 
-0.175705 -0.176826 0.938 
-0.131844 -0.176638 0.937 
-0.0886405 -0.17758 0.942 
-0.0445912 -0.177015 0.939 
-0.000828493 -0.177957 0.944 
0.0429887 -0.177203 0.94 
0.0972639 -0.192096 1.019 
0.1503 -0.199448 1.058 
0.21867 -0.218488 1.159 
0.289161 -0.231684 1.229 
0.380553 -0.254494 1.35 
0.446762 -0.256379 1.36 
0.474517 -0.23847 1.265 
0.509019 -0.227537 1.207 
0.535773 -0.21566 1.144 
0.565922 -0.207177 1.099 
0.586823 -0.196997 1.045 
0.605123 -0.187572 0.995 
0.624654 -0.179843 0.954 
0.644572 -0.173245 0.919 
0.663471 -0.167212 0.887 
0.658727 -0.156278 0.829 
0.67129 -0.150434 0.798 
0.68185 -0.144779 0.768 
0.692417 -0.139689 0.741 
0.707334 -0.135919 0.721 
-0.654104 -0.148634 0.795 
-0.604221 -0.148821 0.796 
-0.560707 -0.147138 0.787 
-0.52802 -0.14826 0.793 
-0.488581 -0.147512 0.789 
-0.450088 -0.146951 0.786 
-0.414504 -0.147325 0.788 
-0.384007 -0.149755 0.801 
-0.354463 -0.153121 0.819 
-0.32131 -0.155551 0.832 
-0.292038 -0.160786 0.86 
-0.258691 -0.165086 0.883 
-0.223447 -0.169573 0.907 
-0.185966 -0.17406 0.931 
-0.145175 -0.177239 0.948 
-0.100349 -0.176117 0.942 
-0.0563822 -0.17593 0.941 
-0.0125619 -0.176491 0.944 
0.0311718 -0.174995 0.936 
0.0777559 -0.181913 0.973 
0.131964 -0.195 1.043 
0.195122 -0.210705 1.127 
0.264353 -0.224913 1.203 
0.346528 -0.243236 1.301 
0.430014 -0.256884 1.374 
0.462054 -0.240244 1.285 
0.495546 -0.228092 1.22 
0.528866 -0.21837 1.168 
0.555839 -0.208087 1.113 
0.579324 -0.198365 1.061 
0.603294 -0.190326 1.018 
0.618142 -0.180791 0.967 
0.640581 -0.174621 0.934 
0.65555 -0.16733 0.895 
0.659091 -0.158169 0.846 
0.666322 -0.150877 0.807 
0.677768 -0.145268 0.777 
0.688255 -0.140033 0.749 
0.699994 -0.135546 0.725 
-0.670647 -0.148325 0.8 
-0.627928 -0.148511 0.801 
-0.585432 -0.147213 0.794 
-0.544723 -0.147213 0.794 
-0.504517 -0.146286 0.789 
-0.465963 -0.14573 0.786 
-0.433151 -0.147028 0.793 
-0.396949 -0.147769 0.797 
-0.366572 -0.15055 0.812 
-0.334393 -0.153146 0.826 
-0.306639 -0.158708 0.856 
-0.273285 -0.162602 0.877 
-0.236912 -0.165754 0.894 
-0.201358 -0.170945 0.922 
-0.162849 -0.175766 0.948 
-0.116785 -0.172985 0.933 
-0.074162 -0.175024 0.944 
-0.030098 -0.174653 0.942 
0.013677 -0.172985 0.933 
0.058206 -0.176136 0.95 
0.110528 -0.187261 1.01 
0.170244 -0.202279 1.091 
0.238118 -0.217853 1.175 
0.313824 -0.233427 1.259 
0.406532 -0.254749 1.374 
0.461327 -0.249743 1.347 
0.486748 -0.231017 1.246 
0.519027 -0.220078 1.187 
0.538547 -0.206358 1.113 
0.570796 -0.199498 1.076 
0.595557 -0.19134 1.032 
0.611226 -0.181699 0.98 
0.632773 -0.175024 0.944 
0.64953 -0.167979 0.906 
0.658164 -0.159821 0.862 
0.661886 -0.151477 0.817 
0.674264 -0.145915 0.787 
0.682942 -0.140168 0.756 
0.69348 -0.135347 0.73 
-0.693674 -0.148553 0.808 
-0.647894 -0.146715 0.798 
-0.604499 -0.146715 0.798 
-0.562879 -0.146531 0.797 
-0.525071 -0.146347 0.796 
-0.487356 -0.146163 0.795 
-0.448035 -0.145428 0.791 
-0.409087 -0.144692 0.787 
-0.378556 -0.147083 0.8 
-0.3498 -0.15076 0.82 
-0.317659 -0.153701 0.836 
-0.288694 -0.159217 0.866 
-0.254064 -0.162894 0.886 
-0.219251 -0.167858 0.913 
-0.180954 -0.171903 0.935 
-0.139577 -0.174661 0.95 
-0.0947957 -0.173741 0.945 
-0.0506953 -0.173557 0.944 
-0.00670227 -0.173741 0.945 
0.0371864 -0.173006 0.941 
0.0890571 -0.183485 0.998 
0.142231 -0.192494 1.047 
0.208547 -0.210144 1.143 
0.27717 -0.222462 1.21 
0.361688 -0.241215 1.312 
0.4396 -0.250776 1.364 
0.469237 -0.233861 1.272 
0.502349 -0.222278 1.209 
0.533746 -0.21235 1.155 
0.561636 -0.202974 1.104 
0.583661 -0.19323 1.051 
0.604357 -0.184589 1.004 
0.621968 -0.176315 0.959 
0.642337 -0.16988 0.924 
0.659442 -0.163445 0.889 
0.656729 -0.15315 0.833 
0.668 -0.147083 0.8 
0.679722 -0.141751 0.771 
0.68874 -0.136419 0.742 
0.703828 -0.132742 0.722 
-0.670667 -0.146386 0.803 
-0.629958 -0.146204 0.802 
-0.588883 -0.145293 0.797 
-0.547332 -0.14511 0.796 
-0.509589 -0.144928 0.795 
-0.468967 -0.143834 0.789 
-0.436026 -0.14511 0.796 
-0.399927 -0.145475 0.798 
-0.368641 -0.147845 0.811 
-0.335735 -0.150032 0.823 
-0.308938 -0.155866 0.855 
-0.27601 -0.159877 0.877 
-0.23969 -0.162976 0.894 
-0.20378 -0.167716 0.92 
-0.16562 -0.172638 0.947 
-0.118868 -0.170997 0.938 
-0.0760293 -0.173002 0.949 
-0.0317626 -0.17282 0.948 
0.0122667 -0.170632 0.936 
0.0566105 -0.17282 0.948 
0.108527 -0.183393 1.006 
0.167004 -0.197066 1.081 
0.236092 -0.21402 1.174 
0.309886 -0.228057 1.251 
0.400571 -0.24811 1.361 
0.458893 -0.245375 1.346 
0.484039 -0.227692 1.249 
0.516206 -0.216754 1.189 
0.53605 -0.203264 1.115 
0.57009 -0.197066 1.081 
0.59235 -0.188133 1.032 
0.609422 -0.179018 0.982 
0.630507 -0.172273 0.945 
0.647429 -0.165346 0.907 
0.652253 -0.156048 0.856 
0.659808 -0.148756 0.816 
0.672186 -0.143287 0.786 
0.681767 -0.137818 0.756 
0.693294 -0.133261 0.731 
0.715426 -0.131073 0.719 
-0.651188 -0.144416 0.799 
-0.618557 -0.1455 0.805 
-0.57454 -0.143874 0.796 
-0.539463 -0.144416 0.799 
-0.499079 -0.143512 0.794 
-0.459743 -0.142789 0.79 
-0.425062 -0.143512 0.794 
-0.390008 -0.144235 0.798 
-0.360771 -0.147489 0.816 
-0.329461 -0.150561 0.833 
-0.298311 -0.154538 0.855 
-0.265109 -0.158514 0.877 
-0.229346 -0.162129 0.897 
-0.193599 -0.167371 0.926 
-0.154824 -0.172251 0.953 
-0.10721 -0.16954 0.938 
-0.0640984 -0.171166 0.947 
-0.0199584 -0.171166 0.947 
0.0238496 -0.168817 0.934 
0.0693315 -0.173697 0.961 
0.120181 -0.182915 1.012 
0.182895 -0.199905 1.106 
0.252675 -0.215449 1.192 
0.330473 -0.230993 1.278 
0.418119 -0.247622 1.37 
0.460163 -0.236416 1.308 
0.494364 -0.223402 1.236 
0.522053 -0.211292 1.169 
0.547936 -0.200809 1.111 
0.575429 -0.192675 1.066 
0.598727 -0.184541 1.021 
0.612766 -0.174962 0.968 
0.636816 -0.169359 0.937 
0.652892 -0.16249 0.899 
0.649479 -0.151284 0.837 
0.660524 -0.145139 0.803 
0.676223 -0.14062 0.778 
0.685928 -0.135379 0.749 
0.696779 -0.13086 0.724 
-0.687429 -0.145325 0.811 
-0.644021 -0.14407 0.804 
-0.605037 -0.143712 0.802 
-0.56624 -0.143354 0.8 
-0.530936 -0.143891 0.803 
-0.490421 -0.143354 0.8 
-0.451433 -0.142816 0.797 
-0.409087 -0.141024 0.787 
-0.378083 -0.143175 0.799 
-0.3498 -0.146938 0.82 
-0.318799 -0.150342 0.839 
-0.289027 -0.15536 0.867 
-0.253777 -0.158585 0.885 
-0.219011 -0.163423 0.912 
-0.181534 -0.168082 0.938 
-0.140165 -0.170949 0.954 
-0.0946954 -0.169157 0.944 
-0.0511249 -0.170591 0.952 
-0.00670936 -0.169516 0.946 
0.0373445 -0.169337 0.945 
0.0842334 -0.17525 0.978 
0.140201 -0.187077 1.044 
0.204239 -0.202308 1.129 
0.274608 -0.216285 1.207 
0.356634 -0.233129 1.301 
0.43716 -0.244239 1.363 
0.4685 -0.227574 1.27 
0.502349 -0.216643 1.209 
0.532822 -0.206609 1.153 
0.561127 -0.197649 1.103 
0.583106 -0.188152 1.05 
0.603153 -0.179551 1.002 
0.621968 -0.171845 0.959 
0.639556 -0.164857 0.92 
0.655733 -0.158406 0.884 
0.654863 -0.14855 0.829 
0.666734 -0.142816 0.797 
0.680037 -0.137978 0.77 
0.688963 -0.132781 0.741 
0.702997 -0.129018 0.72 
-0.6715 -0.143354 0.807 
-0.632315 -0.142999 0.805 
-0.591838 -0.142288 0.801 
-0.553119 -0.141933 0.799 
-0.519105 -0.142821 0.804 
-0.47564 -0.141045 0.794 
-0.441946 -0.142111 0.8 
-0.403646 -0.141755 0.798 
-0.371043 -0.143532 0.808 
-0.337471 -0.145841 0.821 
-0.310866 -0.151526 0.853 
-0.278099 -0.155434 0.875 
-0.242197 -0.158631 0.893 
-0.206189 -0.163072 0.918 
-0.168029 -0.167691 0.944 
-0.124423 -0.168224 0.947 
-0.0808765 -0.169467 0.954 
-0.0364102 -0.169467 0.954 
0.00797153 -0.167691 0.944 
0.0521919 -0.168401 0.948 
0.10136 -0.177106 0.997 
0.157024 -0.188119 1.059 
0.224703 -0.204817 1.153 
0.296798 -0.218318 1.229 
0.384622 -0.237147 1.335 
0.44919 -0.238391 1.342 
0.479709 -0.223469 1.258 
0.509673 -0.211567 1.191 
0.535764 -0.200554 1.129 
0.569104 -0.193981 1.092 
0.585937 -0.183323 1.032 
0.605163 -0.174974 0.985 
0.627939 -0.168757 0.95 
0.644623 -0.161829 0.911 
0.644849 -0.151881 0.855 
0.658274 -0.146019 0.822 
0.668622 -0.140157 0.789 
0.681258 -0.13536 0.762 
0.690437 -0.130387 0.734 
0.707866 -0.127367 0.717 
-0.661081 -0.141748 0.805 
-0.626658 -0.142453 0.809 
-0.583855 -0.14122 0.802 
-0.547155 -0.141396 0.803 
-0.508457 -0.141044 0.801 
-0.466358 -0.139987 0.795 
-0.430923 -0.140516 0.798 
-0.394714 -0.140868 0.8 
-0.363234 -0.143157 0.813 
-0.330943 -0.145622 0.827 
-0.301235 -0.150024 0.852 
-0.267969 -0.153722 0.873 
-0.233526 -0.157948 0.897 
-0.197274 -0.162526 0.923 
-0.158431 -0.166928 0.948 
-0.114124 -0.166752 0.947 
-0.0705749 -0.168161 0.955 
-0.0260621 -0.168161 0.955 
0.0181803 -0.165696 0.941 
0.0630295 -0.168337 0.956 
0.112428 -0.175909 0.999 
0.171883 -0.190172 1.08 
0.244033 -0.208837 1.186 
0.315464 -0.220106 1.25 
0.404822 -0.238419 1.354 
0.456527 -0.232608 1.321 
0.489861 -0.21993 1.249 
0.515605 -0.2069 1.175 
0.540276 -0.195982 1.113 
0.572468 -0.189467 1.076 
0.591374 -0.179959 1.022 
0.608372 -0.17133 0.973 
0.632896 -0.165872 0.942 
0.649501 -0.159181 0.904 
0.644513 -0.147735 0.839 
0.657546 -0.1421 0.807 
0.671902 -0.137346 0.78 
0.681925 -0.13224 0.751 
0.694019 -0.128014 0.727 
-0.697151 -0.142243 0.815 
-0.653502 -0.141021 0.808 
-0.617365 -0.14137 0.81 
-0.575317 -0.140323 0.804 
-0.53985 -0.140847 0.807 
-0.499123 -0.139974 0.802 
-0.456959 -0.139276 0.798 
-0.415556 -0.13788 0.79 
-0.383528 -0.139625 0.8 
-0.354463 -0.142941 0.819 
-0.322854 -0.145908 0.836 
-0.292378 -0.150271 0.861 
-0.256348 -0.152715 0.875 
-0.222528 -0.158649 0.909 
-0.185312 -0.163187 0.935 
-0.144308 -0.166154 0.952 
-0.0990954 -0.164757 0.944 
-0.0560291 -0.16755 0.96 
-0.0111657 -0.165805 0.95 
0.0330095 -0.165281 0.947 
0.0790232 -0.169295 0.97 
0.131151 -0.17872 1.024 
0.194602 -0.194428 1.114 
0.26423 -0.20839 1.194 
0.34453 -0.224447 1.286 
0.428374 -0.237711 1.362 
0.460078 -0.222353 1.274 
0.501519 -0.214673 1.23 
0.525683 -0.201932 1.157 
0.553561 -0.192857 1.105 
0.578782 -0.184479 1.057 
0.595369 -0.17488 1.002 
0.616441 -0.167899 0.962 
0.634471 -0.161092 0.923 
0.652536 -0.155158 0.889 
0.649206 -0.144861 0.83 
0.661371 -0.139276 0.798 
0.676681 -0.134913 0.773 
0.685973 -0.129851 0.744 
0.698372 -0.125837 0.721 
-0.684913 -0.140804 0.814 
-0.641409 -0.139593 0.807 
-0.603794 -0.139593 0.807 
-0.564075 -0.139074 0.804 
-0.52922 -0.139766 0.808 
-0.490342 -0.13942 0.806 
-0.449281 -0.138728 0.802 
-0.408818 -0.13769 0.796 
-0.374985 -0.138901 0.803 
-0.345124 -0.142014 0.821 
-0.315827 -0.146166 0.845 
-0.28462 -0.15049 0.87 
-0.247181 -0.153258 0.886 
-0.211202 -0.158274 0.915 
-0.172975 -0.162426 0.939 
-0.131684 -0.165539 0.957 
-0.0867143 -0.164847 0.953 
-0.0426497 -0.166231 0.961 
0.00212714 -0.16502 0.954 
0.0463003 -0.163983 0.948 
0.0956459 -0.170556 0.986 
0.151082 -0.181972 1.052 
0.215334 -0.19581 1.132 
0.289412 -0.211378 1.222 
0.37273 -0.227465 1.315 
0.441944 -0.231617 1.339 
0.474599 -0.217952 1.26 
0.509201 -0.208092 1.203 
0.535084 -0.196329 1.135 
0.566747 -0.189237 1.094 
0.583294 -0.178686 1.033 
0.603324 -0.170729 0.987 
0.625645 -0.164502 0.951 
0.641087 -0.157409 0.91 
0.638815 -0.146512 0.847 
0.656672 -0.141841 0.82 
0.666927 -0.136133 0.787 
0.67947 -0.131463 0.76 
0.688556 -0.126619 0.732 
0.701942 -0.122987 0.711 
-0.666008 -0.139025 0.811 
-0.627433 -0.138853 0.81 
-0.587495 -0.138339 0.807 
-0.54988 -0.138339 0.807 
-0.509726 -0.137653 0.803 
-0.470464 -0.137482 0.802 
-0.433083 -0.137482 0.802 
-0.395701 -0.137482 0.802 
-0.362341 -0.139025 0.811 
-0.330543 -0.141596 0.826 
-0.301235 -0.146053 0.852 
-0.266741 -0.148967 0.869 
-0.233787 -0.153939 0.898 
-0.19706 -0.158053 0.922 
-0.157762 -0.161824 0.944 
-0.114967 -0.163538 0.954 
-0.0695252 -0.164738 0.961 
-0.0246555 -0.164224 0.958 
0.0197884 -0.16251 0.948 
0.0649197 -0.16491 0.962 
0.115532 -0.171252 0.999 
0.175564 -0.185481 1.082 
0.246674 -0.202451 1.181 
0.318582 -0.213765 1.247 
0.407821 -0.231422 1.35 
0.451566 -0.221994 1.295 
0.492951 -0.213765 1.247 
0.517567 -0.199366 1.163 
0.545718 -0.19028 1.11 
0.571081 -0.181881 1.061 
0.590122 -0.172967 1.009 
0.611893 -0.16611 0.969 
0.632648 -0.159938 0.933 
0.650771 -0.153939 0.898 
0.645855 -0.142967 0.834 
0.657635 -0.13731 0.801 
0.673279 -0.133025 0.776 
0.682936 -0.128054 0.747 
0.693732 -0.123768 0.722 
-0.692515 -0.138784 0.817 
-0.648827 -0.137595 0.81 
-0.61409 -0.138274 0.814 
-0.572611 -0.137425 0.809 
-0.534242 -0.137255 0.808 
-0.496581 -0.137255 0.808 
-0.45608 -0.136406 0.803 
-0.415002 -0.135217 0.796 
-0.380749 -0.136236 0.802 
-0.351074 -0.139293 0.82 
-0.318958 -0.142011 0.836 
-0.290039 -0.147107 0.866 
-0.253134 -0.149146 0.878 
-0.220186 -0.154752 0.911 
-0.182602 -0.158998 0.936 
-0.141944 -0.162396 0.956 
-0.0967733 -0.161377 0.95 
-0.0533776 -0.164094 0.966 
-0.00829154 -0.162905 0.959 
0.0358762 -0.160527 0.945 
0.0820373 -0.164774 0.97 
0.134727 -0.174457 1.027 
0.201164 -0.188896 1.112 
0.27347 -0.204184 1.202 
0.355264 -0.220152 1.296 
0.432349 -0.228985 1.348 
0.465057 -0.215056 1.266 
0.505852 -0.207581 1.222 
0.53044 -0.194331 1.144 
0.558248 -0.185838 1.094 
0.579168 -0.176665 1.04 
0.599611 -0.168341 0.991 
0.62169 -0.162056 0.954 
0.637527 -0.155091 0.913 
0.635047 -0.14422 0.849 
0.65396 -0.139803 0.823 
0.66456 -0.134197 0.79 
0.678299 -0.129781 0.764 
0.68681 -0.124854 0.735 
0.700467 -0.121287 0.714 
-0.676891 -0.137178 0.815 
-0.634984 -0.136336 0.81 
-0.599441 -0.136841 0.813 
-0.557403 -0.135831 0.807 
-0.5185 -0.135495 0.805 
-0.482771 -0.136 0.808 
-0.444559 -0.135831 0.807 
-0.403919 -0.134821 0.801 
-0.369788 -0.136 0.808 
-0.33706 -0.138019 0.82 
-0.308089 -0.142901 0.849 
-0.275475 -0.146604 0.871 
-0.240001 -0.149802 0.89 
-0.204986 -0.154683 0.919 
-0.16568 -0.158049 0.939 
-0.124639 -0.161584 0.96 
-0.0798936 -0.161584 0.96 
-0.035404 -0.162762 0.967 
0.00958817 -0.161415 0.959 
0.0542874 -0.161415 0.959 
0.10198 -0.166297 0.988 
0.158219 -0.177742 1.056 
0.231275 -0.195079 1.159 
0.303265 -0.207366 1.232 
0.388502 -0.223356 1.327 
0.445263 -0.220831 1.312 
0.484801 -0.211405 1.256 
0.514359 -0.200128 1.189 
0.538934 -0.188683 1.121 
0.563306 -0.179257 1.065 
0.58532 -0.171178 1.017 
0.606593 -0.164108 0.975 
0.627963 -0.158049 0.939 
0.646692 -0.152158 0.904 
0.641585 -0.141722 0.842 
0.654956 -0.136336 0.81 
0.668765 -0.131623 0.782 
0.679062 -0.126742 0.753 
0.690449 -0.122534 0.728 
0.701495 -0.118663 0.705 
-0.669293 -0.135912 0.815 
-0.627433 -0.135078 0.81 
-0.594047 -0.136078 0.816 
-0.552606 -0.135245 0.811 
-0.509726 -0.13391 0.803 
-0.475239 -0.134744 0.808 
-0.437037 -0.134578 0.807 
-0.398432 -0.134244 0.805 
-0.363153 -0.135078 0.81 
-0.332228 -0.137913 0.827 
-0.302559 -0.142082 0.852 
-0.2684 -0.145084 0.87 
-0.234134 -0.149086 0.894 
-0.198062 -0.153422 0.92 
-0.158892 -0.15709 0.942 
-0.117548 -0.160592 0.963 
-0.0727378 -0.160759 0.964 
-0.0277766 -0.160592 0.963 
0.0170025 -0.159592 0.957 
0.0621236 -0.160926 0.965 
0.110432 -0.165929 0.995 
0.166265 -0.175935 1.055 
0.239918 -0.194445 1.166 
0.311679 -0.205952 1.235 
0.399739 -0.222962 1.337 
0.447542 -0.215958 1.295 
0.489077 -0.207953 1.247 
0.514348 -0.194779 1.168 
0.543953 -0.186274 1.117 
0.564574 -0.175935 1.055 
0.587569 -0.16843 1.01 
0.609511 -0.16176 0.97 
0.630424 -0.155756 0.934 
0.646537 -0.149419 0.896 
0.643745 -0.139747 0.838 
0.655916 -0.134244 0.805 
0.669318 -0.129575 0.777 
0.680109 -0.124905 0.749 
0.691155 -0.120736 0.724 
-0.712555 -0.136628 0.827 
-0.665858 -0.134976 0.817 
-0.623936 -0.13415 0.812 
-0.591141 -0.135306 0.819 
-0.548916 -0.134315 0.813 
-0.506622 -0.133158 0.806 
-0.470218 -0.133489 0.808 
-0.431486 -0.133158 0.806 
-0.393429 -0.132993 0.805 
-0.359003 -0.13415 0.812 
-0.329066 -0.137454 0.832 
-0.297962 -0.141089 0.854 
-0.263295 -0.143897 0.871 
-0.229346 -0.148193 0.897 
-0.188453 -0.153479 0.929 
-0.148902 -0.157444 0.953 
-0.105469 -0.158931 0.962 
-0.06126 -0.160583 0.972 
-0.0157907 -0.158931 0.962 
0.0287465 -0.157279 0.952 
0.0741948 -0.159592 0.966 
0.124774 -0.167026 1.011 
0.191486 -0.182721 1.106 
0.25754 -0.193625 1.172 
0.338004 -0.20965 1.269 
0.420938 -0.222206 1.345 
0.456661 -0.209816 1.27 
0.497984 -0.202546 1.226 
0.521139 -0.189495 1.147 
0.54805 -0.180739 1.094 
0.569473 -0.171817 1.04 
0.590615 -0.164218 0.994 
0.615159 -0.158601 0.96 
0.637908 -0.153314 0.928 
0.634793 -0.142575 0.863 
0.647641 -0.136793 0.828 
0.660542 -0.131672 0.797 
0.674055 -0.127211 0.77 
0.681363 -0.122089 0.739 
0.694498 -0.118455 0.717 
-0.693784 -0.134197 0.82 
