# .PCD v.7 - Point Cloud Data file format
VERSION .7
FIELDS x y z
SIZE 4 4 4
TYPE F F F
COUNT 1 1 1
WIDTH 1845
HEIGHT 1
VIEWPOINT 0 0 0 1 0 0 0
POINTS 1845
DATA ascii
0.864021 -0.600741 2.064 
0.965343 -0.603943 2.075 
1.06871 -0.607727 2.088 
1.17106 -0.610346 2.097 
1.26094 -0.606562 2.084 
1.39066 -0.621115 2.134 
1.4999 -0.62519 2.148 
1.5881 -0.620533 2.132 
1.72072 -0.632758 2.174 
1.83294 -0.636541 2.187 
1.91099 -0.628683 2.16 
2.04333 -0.638579 2.194 
2.14266 -0.637706 2.191 
-0.560406 -0.19831 0.685 
-0.52925 -0.198599 0.686 
-0.508873 -0.203231 0.702 
-0.495145 -0.211337 0.73 
-0.478174 -0.219154 0.757 
-0.458102 -0.226681 0.783 
-0.435067 -0.233919 0.808 
-0.424457 -0.249841 0.863 
-0.400562 -0.26229 0.906 
-0.372572 -0.272712 0.942 
-0.343319 -0.284871 0.984 
-0.311964 -0.298767 1.032 
-0.276135 -0.312663 1.08 
-0.239386 -0.331481 1.145 
-0.195114 -0.347693 1.201 
-0.144928 -0.362168 1.251 
-0.0920192 -0.38475 1.329 
-0.031907 -0.408199 1.41 
0.0361876 -0.43686 1.509 
0.114711 -0.470443 1.625 
0.202173 -0.499393 1.725 
0.313864 -0.554688 1.916 
0.423159 -0.582191 2.011 
0.518435 -0.583928 2.017 
0.626112 -0.596956 2.062 
0.722222 -0.596956 2.062 
0.821111 -0.598982 2.069 
0.917547 -0.598982 2.069 
1.02575 -0.60593 2.093 
1.12813 -0.608536 2.102 
1.24186 -0.616352 2.129 
1.34424 -0.6178 2.134 
1.43897 -0.615773 2.127 
1.55185 -0.621274 2.146 
1.65341 -0.621853 2.148 
1.77476 -0.62938 2.174 
1.88731 -0.633143 2.187 
1.9756 -0.628801 2.172 
2.10744 -0.638065 2.204 
-0.57005 -0.195806 0.68 
-0.543897 -0.197821 0.687 
-0.518582 -0.200413 0.696 
-0.498998 -0.206172 0.716 
-0.487085 -0.215674 0.749 
-0.46606 -0.222297 0.772 
-0.444004 -0.229496 0.797 
-0.423191 -0.23871 0.829 
-0.412847 -0.256275 0.89 
-0.385134 -0.265777 0.923 
-0.35805 -0.278159 0.966 
-0.329551 -0.292845 1.017 
-0.288304 -0.30609 1.063 
-0.249314 -0.319624 1.11 
-0.210036 -0.33978 1.18 
-0.161605 -0.354178 1.23 
-0.110887 -0.376638 1.308 
-0.0507079 -0.39881 1.385 
0.0146372 -0.421558 1.464 
0.0902338 -0.458991 1.594 
0.17382 -0.484907 1.684 
0.282428 -0.542785 1.885 
0.386789 -0.566973 1.969 
0.490717 -0.58137 2.019 
0.595251 -0.591736 2.055 
0.698433 -0.598071 2.077 
0.792945 -0.596343 2.071 
0.892052 -0.598071 2.077 
0.99029 -0.598935 2.08 
1.09769 -0.604694 2.1 
1.20582 -0.609877 2.118 
1.30701 -0.611029 2.122 
1.41055 -0.613045 2.129 
1.53673 -0.623987 2.167 
1.61809 -0.6165 2.141 
1.75078 -0.628306 2.182 
1.87286 -0.635217 2.206 
1.93448 -0.621971 2.16 
2.06908 -0.632337 2.196 
2.16649 -0.630897 2.191 
-0.553777 -0.197613 0.69 
-0.520104 -0.19704 0.688 
-0.502223 -0.202768 0.708 
-0.489614 -0.213078 0.744 
-0.469611 -0.219952 0.768 
-0.446806 -0.226539 0.791 
-0.424448 -0.234558 0.819 
-0.414184 -0.253174 0.884 
-0.387748 -0.263198 0.919 
-0.360676 -0.275226 0.961 
-0.332057 -0.290692 1.015 
-0.29051 -0.303293 1.059 
-0.251169 -0.315895 1.103 
-0.212978 -0.336801 1.176 
-0.165293 -0.35198 1.229 
-0.114336 -0.372601 1.301 
-0.0559252 -0.388066 1.355 
0.0123035 -0.417279 1.457 
0.0870966 -0.453078 1.582 
0.170187 -0.479427 1.674 
0.289661 -0.542434 1.894 
0.394304 -0.565918 1.976 
0.497483 -0.578806 2.021 
0.6031 -0.589975 2.06 
0.705905 -0.595703 2.08 
0.800925 -0.594271 2.075 
0.899804 -0.595703 2.08 
0.99867 -0.596849 2.084 
1.10632 -0.602577 2.104 
1.21641 -0.608591 2.125 
1.32227 -0.611741 2.136 
1.41717 -0.609737 2.129 
1.54703 -0.622052 2.172 
1.62854 -0.614605 2.146 
1.76159 -0.626348 2.187 
1.88227 -0.632648 2.209 
1.94569 -0.620047 2.165 
2.08347 -0.631216 2.204 
2.17826 -0.628925 2.196 
-0.549234 -0.195687 0.687 
-0.519471 -0.196541 0.69 
-0.500729 -0.201953 0.709 
-0.489614 -0.211923 0.744 
-0.468999 -0.218474 0.767 
-0.445676 -0.22474 0.789 
-0.42393 -0.233001 0.818 
-0.414184 -0.2518 0.884 
-0.386904 -0.2612 0.917 
-0.360301 -0.273448 0.96 
-0.332648 -0.28826 1.012 
-0.291328 -0.300793 1.056 
-0.251966 -0.313042 1.099 
-0.212978 -0.334974 1.176 
-0.165293 -0.350071 1.229 
-0.114336 -0.37058 1.301 
-0.055884 -0.385676 1.354 
0.0122613 -0.413591 1.452 
0.0867112 -0.448626 1.575 
0.169577 -0.475117 1.668 
0.296639 -0.541485 1.901 
0.40166 -0.564557 1.982 
0.505508 -0.57766 2.028 
0.610685 -0.587914 2.064 
0.712369 -0.592472 2.08 
0.810096 -0.593041 2.082 
0.90801 -0.593611 2.084 
1.00708 -0.59475 2.088 
1.11551 -0.600732 2.109 
1.22819 -0.607853 2.134 
1.33762 -0.612411 2.15 
1.42713 -0.607853 2.134 
1.55378 -0.618677 2.172 
1.63825 -0.612411 2.15 
1.77162 -0.624089 2.191 
1.89084 -0.629786 2.211 
1.95422 -0.617253 2.167 
2.09695 -0.629786 2.211 
2.18807 -0.626368 2.199 
-0.54471 -0.193769 0.684 
-0.518077 -0.195752 0.691 
-0.499229 -0.201135 0.71 
-0.489771 -0.211333 0.746 
-0.467808 -0.217282 0.767 
-0.44445 -0.223515 0.789 
-0.423176 -0.232013 0.819 
-0.412834 -0.251277 0.887 
-0.384055 -0.259776 0.917 
-0.35769 -0.27224 0.961 
-0.330154 -0.287255 1.014 
-0.293214 -0.297736 1.051 
-0.255148 -0.311051 1.098 
-0.217531 -0.331731 1.171 
-0.170465 -0.347028 1.225 
-0.119568 -0.366009 1.292 
-0.0611844 -0.37734 1.332 
0.00769605 -0.408502 1.442 
0.0810898 -0.442213 1.561 
0.163014 -0.468559 1.654 
0.274754 -0.524934 1.853 
0.381001 -0.553829 1.955 
0.491686 -0.576775 2.036 
0.594075 -0.584141 2.062 
0.7019 -0.594056 2.097 
0.79621 -0.591506 2.088 
0.894816 -0.592356 2.091 
0.990855 -0.591506 2.088 
1.09912 -0.597455 2.109 
1.2048 -0.601138 2.122 
1.32091 -0.60907 2.15 
1.41385 -0.605954 2.139 
1.5454 -0.618702 2.184 
1.62155 -0.60907 2.15 
1.761 -0.622951 2.199 
1.88045 -0.628617 2.219 
1.94633 -0.616719 2.177 
2.08448 -0.627767 2.216 
2.17592 -0.624368 2.204 
-0.550828 -0.192988 0.685 
-0.5189 -0.192988 0.685 
-0.502612 -0.199186 0.707 
-0.490252 -0.20792 0.738 
-0.47006 -0.2144 0.761 
-0.448295 -0.221162 0.785 
-0.426391 -0.22905 0.813 
-0.414573 -0.247645 0.879 
-0.388054 -0.257224 0.913 
-0.361392 -0.269057 0.955 
-0.332143 -0.282017 1.001 
-0.296608 -0.293004 1.04 
-0.261256 -0.3085 1.095 
-0.223081 -0.327376 1.162 
-0.177642 -0.34428 1.222 
-0.126609 -0.361184 1.282 
-0.0689409 -0.372453 1.322 
-0.00570253 -0.403162 1.431 
0.0657282 -0.434435 1.542 
0.145811 -0.460355 1.634 
0.237459 -0.492472 1.748 
0.36055 -0.547411 1.943 
0.474795 -0.576148 2.045 
0.575968 -0.582064 2.066 
0.682352 -0.590798 2.097 
0.778606 -0.589671 2.093 
0.879092 -0.591643 2.1 
0.97046 -0.587699 2.086 
1.08304 -0.596151 2.116 
1.17888 -0.594742 2.111 
1.29543 -0.603194 2.141 
1.40108 -0.60573 2.15 
1.52155 -0.6139 2.179 
1.59331 -0.602631 2.139 
1.74604 -0.621507 2.206 
1.85557 -0.623761 2.214 
1.94726 -0.620098 2.201 
2.06662 -0.625169 2.219 
2.172 -0.625733 2.221 
-0.555018 -0.190803 0.681 
-0.523276 -0.190803 0.681 
-0.50597 -0.196407 0.701 
-0.489501 -0.203131 0.725 
-0.474565 -0.211537 0.755 
-0.453923 -0.218541 0.78 
-0.431486 -0.225826 0.806 
-0.416691 -0.244318 0.872 
-0.39114 -0.254124 0.907 
-0.365404 -0.266172 0.95 
-0.334983 -0.277659 0.991 
-0.301615 -0.289987 1.035 
-0.266837 -0.305397 1.09 
-0.227131 -0.321088 1.146 
-0.184175 -0.34042 1.215 
-0.133002 -0.354989 1.267 
-0.0766899 -0.368158 1.314 
-0.014504 -0.398418 1.422 
0.0553805 -0.426155 1.521 
0.135656 -0.457816 1.634 
0.223225 -0.482472 1.722 
0.346502 -0.54131 1.932 
0.462538 -0.573531 2.047 
0.564491 -0.580255 2.071 
0.668682 -0.586979 2.095 
0.765599 -0.586419 2.093 
0.869752 -0.590902 2.109 
0.956578 -0.583897 2.084 
1.07192 -0.593984 2.12 
1.16963 -0.593424 2.118 
1.28212 -0.599868 2.141 
1.3974 -0.606592 2.165 
1.49831 -0.606592 2.165 
1.58002 -0.599307 2.139 
1.73233 -0.618079 2.206 
1.83932 -0.61948 2.211 
1.94501 -0.620321 2.214 
2.05005 -0.620881 2.216 
2.16306 -0.623683 2.226 
-0.559485 -0.189467 0.68 
-0.526238 -0.188909 0.678 
-0.509227 -0.194482 0.698 
-0.491035 -0.200333 0.719 
-0.478521 -0.209528 0.752 
-0.457624 -0.216215 0.776 
-0.434489 -0.222902 0.8 
-0.412095 -0.231261 0.83 
-0.398794 -0.251322 0.902 
-0.372176 -0.262188 0.941 
-0.341923 -0.273055 0.98 
-0.309546 -0.285315 1.024 
-0.275112 -0.299803 1.076 
-0.235622 -0.314013 1.127 
-0.193165 -0.331288 1.189 
-0.144349 -0.34717 1.246 
-0.0907036 -0.365002 1.31 
-0.0317939 -0.391472 1.405 
0.035732 -0.415155 1.49 
0.112946 -0.445804 1.6 
0.197954 -0.470602 1.689 
0.310588 -0.528278 1.896 
0.419372 -0.555305 1.993 
0.530515 -0.575087 2.064 
0.633399 -0.581217 2.086 
0.730628 -0.581217 2.086 
0.837779 -0.588183 2.111 
0.929965 -0.584282 2.097 
1.03898 -0.59069 2.12 
1.13887 -0.591247 2.122 
1.25177 -0.597934 2.146 
1.37258 -0.607129 2.179 
1.45182 -0.597934 2.146 
1.5692 -0.604622 2.17 
1.68113 -0.608522 2.184 
1.80741 -0.616881 2.214 
1.91233 -0.617438 2.216 
2.00016 -0.612702 2.199 
2.1409 -0.623847 2.239 
-0.569427 -0.187856 0.678 
-0.537032 -0.187579 0.677 
-0.515183 -0.191181 0.69 
-0.497023 -0.196722 0.71 
-0.486799 -0.20642 0.745 
-0.463604 -0.211684 0.764 
-0.440878 -0.218057 0.787 
-0.421145 -0.2272 0.82 
-0.408208 -0.243825 0.88 
-0.380609 -0.254631 0.919 
-0.351373 -0.264883 0.956 
-0.324786 -0.280399 1.012 
-0.287767 -0.29065 1.049 
-0.250714 -0.305058 1.101 
-0.211167 -0.323068 1.166 
-0.164486 -0.338861 1.223 
-0.113546 -0.357979 1.292 
-0.0560903 -0.376543 1.359 
0.00764268 -0.39677 1.432 
0.0806743 -0.430296 1.553 
0.162817 -0.457726 1.652 
0.253754 -0.484325 1.748 
0.373776 -0.540017 1.949 
0.49108 -0.570772 2.06 
0.591373 -0.574928 2.075 
0.699364 -0.584349 2.109 
0.799178 -0.585457 2.113 
0.896816 -0.584903 2.111 
0.99521 -0.584903 2.111 
1.09619 -0.586288 2.116 
1.20386 -0.590721 2.132 
1.32646 -0.60125 2.17 
1.41773 -0.597094 2.155 
1.54918 -0.609285 2.199 
1.61337 -0.595154 2.148 
1.76374 -0.61261 2.211 
1.87946 -0.616766 2.226 
1.96985 -0.61261 2.211 
2.09916 -0.620368 2.239 
2.23403 -0.628957 2.27 
-0.543343 -0.186527 0.677 
-0.51708 -0.188456 0.684 
-0.500804 -0.194517 0.706 
-0.485128 -0.201681 0.732 
-0.467645 -0.20912 0.759 
-0.444798 -0.215181 0.781 
-0.424605 -0.223722 0.812 
-0.408506 -0.239427 0.869 
-0.382957 -0.250999 0.911 
-0.356567 -0.262846 0.954 
-0.327477 -0.275796 1.001 
-0.292883 -0.287643 1.044 
-0.257556 -0.303348 1.101 
-0.214559 -0.318226 1.155 
-0.160817 -0.337237 1.224 
-0.109616 -0.356247 1.293 
-0.0489417 -0.384626 1.396 
0.0167154 -0.398678 1.447 
0.0905002 -0.428709 1.556 
0.174446 -0.458741 1.665 
0.271732 -0.494559 1.795 
0.38866 -0.540846 1.963 
0.506084 -0.570051 2.069 
0.604851 -0.572255 2.077 
0.712471 -0.581072 2.109 
0.815 -0.584103 2.12 
0.910797 -0.582174 2.113 
1.01597 -0.586031 2.127 
1.11039 -0.583551 2.118 
1.22339 -0.590439 2.143 
1.34427 -0.599807 2.177 
1.4298 -0.593195 2.153 
1.5664 -0.607246 2.204 
1.6358 -0.595123 2.16 
1.7815 -0.610552 2.216 
1.8933 -0.613308 2.226 
1.98359 -0.609175 2.211 
2.13006 -0.621849 2.257 
-0.571743 -0.185475 0.677 
-0.530202 -0.184927 0.675 
-0.51204 -0.189859 0.693 
-0.493584 -0.195338 0.713 
-0.481012 -0.204105 0.745 
-0.45707 -0.209036 0.763 
-0.435869 -0.21616 0.789 
-0.416798 -0.225748 0.824 
-0.401785 -0.24383 0.89 
-0.37771 -0.255611 0.933 
-0.343178 -0.26246 0.958 
-0.31409 -0.277528 1.013 
-0.280573 -0.291774 1.065 
-0.241119 -0.306842 1.12 
-0.194707 -0.322185 1.176 
-0.139801 -0.339718 1.24 
-0.0863685 -0.3578 1.306 
-0.0231115 -0.385745 1.408 
0.0452334 -0.410402 1.498 
0.123658 -0.441086 1.61 
0.207463 -0.460538 1.681 
0.322031 -0.518892 1.894 
0.43609 -0.551494 2.013 
0.549661 -0.572042 2.088 
0.651321 -0.575877 2.102 
0.750722 -0.576973 2.106 
0.855332 -0.581357 2.122 
0.948393 -0.577795 2.109 
1.05811 -0.584096 2.132 
1.15965 -0.585192 2.136 
1.26511 -0.587932 2.146 
1.39122 -0.599165 2.187 
1.47608 -0.592315 2.162 
1.5805 -0.593685 2.167 
1.71177 -0.60437 2.206 
1.82693 -0.608479 2.221 
1.9374 -0.610671 2.229 
2.03397 -0.608479 2.221 
2.16733 -0.616972 2.252 
-0.550128 -0.183879 0.675 
-0.520203 -0.184423 0.677 
-0.503805 -0.190144 0.698 
-0.486125 -0.196137 0.72 
-0.473308 -0.205127 0.753 
-0.45039 -0.211392 0.776 
-0.430234 -0.219565 0.806 
-0.407245 -0.229916 0.844 
-0.392752 -0.245444 0.901 
-0.369053 -0.258247 0.948 
-0.33926 -0.269689 0.99 
-0.301323 -0.281675 1.034 
-0.266348 -0.296385 1.088 
-0.224158 -0.308099 1.131 
-0.180487 -0.327713 1.203 
-0.129792 -0.341878 1.255 
-0.0747051 -0.358223 1.315 
-0.0100711 -0.386826 1.42 
0.0602254 -0.415157 1.524 
0.140647 -0.44485 1.633 
0.224859 -0.461467 1.694 
0.342377 -0.520036 1.909 
0.467509 -0.563622 2.069 
0.56858 -0.568253 2.086 
0.67315 -0.574519 2.109 
0.775475 -0.577515 2.12 
0.877176 -0.579422 2.127 
0.969889 -0.575608 2.113 
1.07647 -0.579967 2.129 
1.18895 -0.586505 2.153 
1.2923 -0.587867 2.158 
1.40967 -0.594949 2.184 
1.51008 -0.594405 2.182 
1.59405 -0.587867 2.158 
1.74019 -0.603667 2.216 
1.84597 -0.604484 2.219 
1.9696 -0.610749 2.242 
2.07133 -0.609932 2.239 
2.1961 -0.615653 2.26 
-0.550943 -0.183101 0.676 
-0.520203 -0.183372 0.677 
-0.503805 -0.18906 0.698 
-0.486125 -0.195019 0.72 
-0.472138 -0.203957 0.753 
-0.449809 -0.209916 0.775 
-0.430767 -0.218583 0.807 
-0.406307 -0.225896 0.834 
-0.390918 -0.243773 0.9 
-0.36758 -0.256774 0.948 
-0.338063 -0.268421 0.991 
-0.300007 -0.280339 1.035 
-0.261757 -0.295236 1.09 
-0.219467 -0.307154 1.134 
-0.177042 -0.326385 1.205 
-0.126595 -0.341824 1.262 
-0.0710486 -0.358347 1.323 
-0.00567065 -0.385432 1.423 
0.0650036 -0.41306 1.525 
0.145989 -0.443125 1.636 
0.231074 -0.460731 1.701 
0.349586 -0.518966 1.916 
0.475771 -0.562574 2.077 
0.575062 -0.565012 2.086 
0.681959 -0.573138 2.116 
0.784645 -0.576117 2.127 
0.884616 -0.576659 2.129 
0.982925 -0.576117 2.127 
1.08563 -0.578013 2.134 
1.20064 -0.585597 2.162 
1.30322 -0.58641 2.165 
1.41645 -0.591556 2.184 
1.5252 -0.594265 2.194 
1.60373 -0.585597 2.162 
1.75101 -0.601578 2.221 
1.85454 -0.601578 2.221 
1.97833 -0.607808 2.244 
2.08757 -0.609162 2.249 
2.21579 -0.615663 2.273 
-0.553274 -0.181781 0.675 
-0.521812 -0.181781 0.675 
-0.505605 -0.187437 0.696 
-0.487441 -0.193092 0.717 
-0.473121 -0.20171 0.749 
-0.451081 -0.207634 0.771 
-0.432375 -0.216252 0.803 
-0.407735 -0.223254 0.829 
-0.395758 -0.24022 0.892 
-0.373638 -0.253416 0.941 
-0.339941 -0.261226 0.97 
-0.308337 -0.274691 1.02 
-0.273284 -0.291388 1.082 
-0.231502 -0.302699 1.124 
-0.188674 -0.318858 1.184 
-0.13935 -0.332861 1.236 
-0.0865007 -0.352251 1.308 
-0.0251733 -0.377297 1.401 
0.0423905 -0.398572 1.48 
0.119576 -0.427926 1.589 
0.20412 -0.451086 1.675 
0.317235 -0.507102 1.883 
0.430812 -0.539419 2.003 
0.548772 -0.564733 2.097 
0.651446 -0.569042 2.113 
0.752418 -0.570927 2.12 
0.85605 -0.574159 2.132 
0.95632 -0.574698 2.134 
1.05925 -0.576583 2.141 
1.16283 -0.578468 2.148 
1.26707 -0.580353 2.155 
1.38782 -0.588971 2.187 
1.4809 -0.58547 2.174 
1.59315 -0.589509 2.189 
1.71221 -0.595434 2.211 
1.82594 -0.598935 2.224 
1.94522 -0.603783 2.242 
2.04972 -0.603783 2.242 
2.1792 -0.610785 2.268 
-0.563137 -0.180197 0.673 
-0.531768 -0.180197 0.673 
-0.513039 -0.184749 0.69 
-0.49412 -0.189836 0.709 
-0.477981 -0.196798 0.735 
-0.455853 -0.203224 0.759 
-0.435433 -0.210453 0.786 
-0.415541 -0.219289 0.819 
-0.396259 -0.230266 0.86 
-0.380609 -0.246064 0.919 
-0.351373 -0.255971 0.956 
-0.323182 -0.269626 1.007 
-0.288315 -0.281407 1.051 
-0.251397 -0.295598 1.104 
-0.208813 -0.308718 1.153 
-0.163006 -0.324515 1.212 
-0.112755 -0.343525 1.283 
-0.0555125 -0.360126 1.345 
0.00764801 -0.383688 1.433 
0.0790639 -0.407518 1.522 
0.163507 -0.4442 1.659 
0.25085 -0.462675 1.728 
0.38561 -0.525597 1.963 
0.508703 -0.560404 2.093 
0.607417 -0.561475 2.097 
0.713565 -0.568169 2.122 
0.816301 -0.570847 2.132 
0.918681 -0.572721 2.139 
1.02505 -0.576469 2.153 
1.12174 -0.574595 2.146 
1.23543 -0.581021 2.17 
1.3452 -0.58477 2.184 
1.44368 -0.583431 2.179 
1.57361 -0.594141 2.219 
1.65285 -0.585573 2.187 
1.78448 -0.59548 2.224 
1.89918 -0.598961 2.237 
2.00792 -0.600299 2.242 
2.14634 -0.609938 2.278 
2.3425 -0.634304 2.369 
-0.545691 -0.17995 0.676 
-0.515704 -0.180482 0.678 
-0.501953 -0.187137 0.703 
-0.481199 -0.191929 0.721 
-0.465118 -0.200447 0.753 
-0.443156 -0.20657 0.776 
-0.424818 -0.21562 0.81 
-0.401877 -0.223873 0.841 
-0.38769 -0.239312 0.899 
-0.365019 -0.252622 0.949 
-0.335997 -0.264601 0.994 
-0.300449 -0.27445 1.031 
-0.265124 -0.288292 1.083 
-0.222969 -0.299473 1.125 
-0.181901 -0.319438 1.2 
-0.131112 -0.332481 1.249 
-0.0769817 -0.351115 1.319 
-0.0165958 -0.375872 1.412 
0.0520065 -0.397167 1.492 
0.130429 -0.426183 1.601 
0.216579 -0.450141 1.691 
0.341906 -0.503114 1.89 
0.472544 -0.552893 2.077 
0.574836 -0.558217 2.097 
0.681558 -0.565671 2.125 
0.783911 -0.568067 2.134 
0.88255 -0.567534 2.132 
0.992516 -0.573657 2.155 
1.08941 -0.571793 2.148 
1.21113 -0.582175 2.187 
1.30406 -0.578182 2.172 
1.41953 -0.584038 2.194 
1.52526 -0.585369 2.199 
1.61665 -0.581376 2.184 
1.75386 -0.593355 2.229 
1.85359 -0.592024 2.224 
1.98893 -0.601608 2.26 
2.10168 -0.603737 2.268 
2.21518 -0.605867 2.276 
-0.554094 -0.1789 0.676 
-0.521812 -0.178635 0.675 
-0.504879 -0.183928 0.695 
-0.486761 -0.189485 0.716 
-0.469331 -0.196631 0.743 
-0.449326 -0.203247 0.768 
-0.431837 -0.212245 0.802 
-0.407735 -0.21939 0.829 
-0.389547 -0.232358 0.878 
-0.37205 -0.247972 0.937 
-0.339941 -0.256705 0.97 
-0.308402 -0.268614 1.015 
-0.276784 -0.284757 1.076 
-0.232419 -0.296402 1.12 
-0.190674 -0.313604 1.185 
-0.140927 -0.326306 1.233 
-0.0886006 -0.346419 1.309 
-0.0292527 -0.367326 1.388 
0.0375362 -0.389027 1.47 
0.113268 -0.415492 1.57 
0.199984 -0.445661 1.684 
0.326142 -0.494091 1.867 
0.452112 -0.540668 2.043 
0.563679 -0.556812 2.104 
0.668981 -0.562899 2.127 
0.770649 -0.564751 2.134 
0.870931 -0.56528 2.136 
0.979123 -0.570309 2.155 
1.07706 -0.568985 2.15 
1.19206 -0.576131 2.177 
1.28937 -0.574278 2.17 
1.40269 -0.579306 2.189 
1.5061 -0.579836 2.191 
1.61409 -0.581953 2.199 
1.74001 -0.589892 2.229 
1.84142 -0.589098 2.226 
1.97663 -0.598625 2.262 
2.08943 -0.600743 2.27 
2.18556 -0.598096 2.26 
-0.554991 -0.176797 0.672 
-0.524448 -0.17706 0.673 
-0.506268 -0.181796 0.691 
-0.489153 -0.187584 0.713 
-0.469348 -0.193109 0.734 
-0.451735 -0.200475 0.762 
-0.432605 -0.208368 0.792 
-0.411177 -0.216524 0.823 
-0.390937 -0.227047 0.863 
-0.376315 -0.243622 0.926 
-0.345026 -0.252304 0.959 
-0.315359 -0.264932 1.007 
-0.28175 -0.278087 1.057 
-0.239612 -0.29282 1.113 
-0.197181 -0.307553 1.169 
-0.149529 -0.322286 1.225 
-0.0981658 -0.342281 1.301 
-0.0373056 -0.359645 1.367 
0.0282654 -0.384902 1.463 
0.101731 -0.405949 1.543 
0.189856 -0.443834 1.687 
0.286949 -0.474352 1.803 
0.424711 -0.523287 1.989 
0.549676 -0.555911 2.113 
0.650311 -0.557752 2.12 
0.754072 -0.561435 2.134 
0.857138 -0.563803 2.143 
0.964615 -0.568276 2.16 
1.06184 -0.566434 2.153 
1.16705 -0.568802 2.162 
1.27486 -0.571959 2.174 
1.38252 -0.57459 2.184 
1.48772 -0.575905 2.189 
1.6079 -0.582483 2.214 
1.72655 -0.587745 2.234 
1.82822 -0.586955 2.231 
1.95733 -0.594585 2.26 
2.07453 -0.598005 2.273 
2.17568 -0.59669 2.268 
-0.557293 -0.175491 0.671 
-0.526801 -0.175753 0.672 
-0.508014 -0.180199 0.689 
-0.491095 -0.185953 0.711 
-0.471481 -0.191445 0.732 
-0.453495 -0.198507 0.759 
-0.434644 -0.206353 0.789 
-0.412492 -0.213937 0.818 
-0.391298 -0.223614 0.855 
-0.378575 -0.240876 0.921 
-0.348038 -0.249768 0.955 
-0.320052 -0.263368 1.007 
-0.284507 -0.274352 1.049 
-0.222374 -0.293445 1.122 
-0.179063 -0.315414 1.206 
-0.124535 -0.329798 1.261 
-0.0691495 -0.346798 1.326 
-0.00790922 -0.373475 1.428 
0.0615253 -0.391782 1.498 
0.140817 -0.420028 1.606 
0.231654 -0.451151 1.725 
0.339011 -0.49012 1.874 
0.472544 -0.543212 2.077 
0.578674 -0.552105 2.111 
0.683804 -0.557597 2.132 
0.787218 -0.560474 2.143 
0.884206 -0.558643 2.136 
1.00035 -0.568058 2.172 
1.09905 -0.566751 2.167 
1.21777 -0.57512 2.199 
1.30826 -0.569889 2.179 
1.42082 -0.574335 2.196 
1.5322 -0.577735 2.209 
1.63516 -0.577735 2.209 
1.76566 -0.586889 2.244 
1.86192 -0.584274 2.234 
2.00477 -0.595781 2.278 
2.12577 -0.599966 2.294 
2.21713 -0.595781 2.278 
-0.553626 -0.176269 0.678 
-0.519715 -0.175489 0.675 
-0.503443 -0.180948 0.696 
-0.485213 -0.186408 0.717 
-0.466286 -0.192388 0.74 
-0.446966 -0.199147 0.766 
-0.430054 -0.208247 0.801 
-0.405957 -0.215266 0.828 
-0.383779 -0.224886 0.865 
-0.368874 -0.241524 0.929 
-0.33924 -0.251664 0.968 
-0.308098 -0.263623 1.014 
-0.274983 -0.277922 1.069 
-0.210604 -0.299761 1.153 
-0.165026 -0.31536 1.213 
-0.114301 -0.332259 1.278 
-0.0571311 -0.346818 1.334 
0.00542538 -0.372816 1.434 
0.0758425 -0.391275 1.505 
0.159087 -0.426373 1.64 
0.252187 -0.456531 1.756 
0.361617 -0.494228 1.901 
0.497353 -0.545965 2.1 
0.59892 -0.549345 2.113 
0.703678 -0.554284 2.132 
0.808325 -0.557924 2.146 
0.906234 -0.556624 2.141 
1.01965 -0.564164 2.17 
1.12286 -0.565204 2.174 
1.2394 -0.572223 2.201 
1.33345 -0.568583 2.187 
1.44983 -0.574303 2.209 
1.56685 -0.579503 2.229 
1.66325 -0.576903 2.219 
1.78897 -0.584183 2.247 
1.89792 -0.585482 2.252 
2.02423 -0.591722 2.276 
2.16026 -0.600042 2.308 
2.28651 -0.604981 2.327 
-0.545933 -0.17444 0.675 
-0.516757 -0.175215 0.678 
-0.500898 -0.180901 0.7 
-0.480312 -0.185552 0.718 
-0.464894 -0.193047 0.747 
-0.443894 -0.199249 0.771 
-0.42489 -0.207519 0.803 
-0.402419 -0.21553 0.834 
-0.380547 -0.225609 0.873 
-0.36555 -0.242665 0.939 
-0.334805 -0.252486 0.977 
-0.301998 -0.263598 1.02 
-0.269922 -0.279621 1.082 
-0.212887 -0.29616 1.146 
-0.168377 -0.3127 1.21 
-0.117809 -0.328981 1.273 
-0.0610926 -0.343711 1.33 
0.000968082 -0.370071 1.432 
0.0709768 -0.387903 1.501 
0.152206 -0.418914 1.621 
0.246168 -0.452769 1.752 
0.353464 -0.488174 1.889 
0.490127 -0.541927 2.097 
0.594316 -0.547871 2.12 
0.697053 -0.550972 2.132 
0.803151 -0.555624 2.15 
0.899581 -0.553298 2.141 
1.01478 -0.561826 2.174 
1.11868 -0.563118 2.179 
1.23536 -0.570096 2.206 
1.32666 -0.565186 2.187 
1.44427 -0.571388 2.211 
1.55992 -0.57604 2.229 
1.66158 -0.575264 2.226 
1.78833 -0.582759 2.255 
1.89344 -0.582759 2.255 
2.02602 -0.59077 2.286 
2.16055 -0.598523 2.316 
2.26557 -0.597748 2.313 
-0.54803 -0.173391 0.675 
-0.517334 -0.173648 0.676 
-0.501636 -0.179299 0.698 
-0.481871 -0.18418 0.717 
-0.465339 -0.191116 0.744 
-0.444553 -0.197281 0.768 
-0.425788 -0.205501 0.8 
-0.403554 -0.213464 0.831 
-0.380186 -0.222455 0.866 
-0.365836 -0.240436 0.936 
-0.334946 -0.24994 0.973 
-0.30269 -0.261243 1.017 
-0.27085 -0.277169 1.079 
-0.224653 -0.286674 1.116 
-0.185939 -0.308765 1.202 
-0.135102 -0.321095 1.25 
-0.0807729 -0.337535 1.314 
-0.0208645 -0.360654 1.404 
0.0470211 -0.380433 1.481 
0.123103 -0.403552 1.571 
0.214699 -0.441313 1.718 
0.315536 -0.472395 1.839 
0.435291 -0.512468 1.995 
0.563232 -0.546375 2.127 
0.662995 -0.546889 2.129 
0.768314 -0.551256 2.146 
0.869959 -0.552283 2.15 
0.979196 -0.557421 2.17 
1.08382 -0.559219 2.177 
1.19455 -0.563586 2.194 
1.29386 -0.562302 2.189 
1.40035 -0.5641 2.196 
1.5116 -0.567439 2.209 
1.62919 -0.572577 2.229 
1.7634 -0.582595 2.268 
1.84934 -0.57643 2.244 
1.98876 -0.586705 2.284 
2.10714 -0.590044 2.297 
2.18818 -0.583108 2.27 
-0.555208 -0.171321 0.671 
-0.523932 -0.171321 0.671 
-0.505139 -0.175662 0.688 
-0.488885 -0.181534 0.711 
-0.469206 -0.186896 0.732 
-0.450542 -0.193534 0.758 
-0.432192 -0.201449 0.789 
-0.409449 -0.208598 0.817 
-0.386368 -0.217024 0.85 
-0.373876 -0.234896 0.92 
-0.343587 -0.243833 0.955 
-0.315046 -0.256854 1.006 
-0.278018 -0.266301 1.043 
-0.24176 -0.282642 1.107 
-0.199439 -0.296429 1.161 
-0.153711 -0.313536 1.228 
-0.101894 -0.331153 1.297 
-0.0430063 -0.343664 1.346 
0.021373 -0.37226 1.458 
0.0933746 -0.389111 1.524 
0.180051 -0.426133 1.669 
0.277619 -0.458814 1.797 
0.388124 -0.492772 1.93 
0.52688 -0.54307 2.127 
0.62396 -0.541283 2.12 
0.728229 -0.545368 2.136 
0.833214 -0.548943 2.15 
0.937768 -0.551496 2.16 
1.04085 -0.552773 2.165 
1.15073 -0.557113 2.182 
1.26506 -0.56273 2.204 
1.36903 -0.563241 2.206 
1.48186 -0.567071 2.221 
1.5968 -0.571156 2.237 
1.71476 -0.575752 2.255 
1.82793 -0.578305 2.265 
1.94033 -0.580348 2.273 
2.05348 -0.58239 2.281 
2.19578 -0.592092 2.319 
2.31778 -0.595667 2.333 
-0.533006 -0.169517 0.668 
-0.512389 -0.17307 0.682 
-0.494695 -0.178146 0.702 
-0.474478 -0.182967 0.721 
-0.457993 -0.190073 0.749 
-0.438333 -0.196924 0.776 
-0.416156 -0.203776 0.803 
-0.394292 -0.212151 0.836 
-0.372752 -0.222555 0.877 
-0.356851 -0.239304 0.943 
-0.32982 -0.252246 0.994 
-0.29176 -0.259605 1.023 
-0.257916 -0.274324 1.081 
-0.216361 -0.285997 1.127 
-0.174734 -0.30503 1.202 
-0.124437 -0.319748 1.26 
-0.0687323 -0.334467 1.318 
-0.00793138 -0.363397 1.432 
0.0613199 -0.378877 1.493 
0.139765 -0.404507 1.594 
0.232057 -0.438512 1.728 
0.33865 -0.475055 1.872 
0.466629 -0.520479 2.051 
0.584979 -0.541542 2.134 
0.6822 -0.539766 2.127 
0.793462 -0.54814 2.16 
0.890001 -0.545603 2.15 
1.00357 -0.552962 2.179 
1.11122 -0.556007 2.191 
1.22331 -0.560575 2.209 
1.31547 -0.556007 2.191 
1.43376 -0.562351 2.216 
1.55301 -0.568188 2.239 
1.66329 -0.570218 2.247 
1.79084 -0.577577 2.276 
1.88109 -0.572756 2.257 
2.02413 -0.583668 2.3 
2.15635 -0.59052 2.327 
2.24632 -0.585698 2.308 
-0.54791 -0.169236 0.671 
-0.518945 -0.169993 0.674 
-0.501273 -0.174785 0.693 
-0.482749 -0.180334 0.715 
-0.465137 -0.186639 0.74 
-0.444612 -0.192692 0.764 
-0.425597 -0.200511 0.795 
-0.404181 -0.208582 0.827 
-0.37934 -0.2164 0.858 
-0.366639 -0.233803 0.927 
-0.337039 -0.24364 0.966 
-0.305616 -0.254989 1.011 
-0.2723 -0.268609 1.065 
-0.233322 -0.281472 1.116 
-0.191703 -0.297614 1.18 
-0.144001 -0.313503 1.243 
-0.090219 -0.328636 1.303 
-0.0306851 -0.342003 1.356 
0.0352044 -0.370252 1.468 
0.108852 -0.388915 1.542 
0.198188 -0.426495 1.691 
0.298138 -0.459031 1.82 
0.413989 -0.492576 1.953 
0.553116 -0.539488 2.139 
0.649764 -0.536966 2.129 
0.752515 -0.539488 2.139 
0.859784 -0.54428 2.158 
0.96749 -0.548315 2.174 
1.07275 -0.550333 2.182 
1.18361 -0.554621 2.199 
1.2902 -0.556386 2.206 
1.39933 -0.558908 2.216 
1.50805 -0.560926 2.224 
1.62113 -0.564205 2.237 
1.76319 -0.576563 2.286 
1.84848 -0.570006 2.26 
1.97889 -0.57732 2.289 
2.09013 -0.578581 2.294 
2.2028 -0.580094 2.3 
-0.557915 -0.167442 0.668 
-0.525991 -0.167191 0.667 
-0.507515 -0.171452 0.684 
-0.490932 -0.176967 0.706 
-0.471649 -0.182231 0.727 
-0.453419 -0.188748 0.753 
-0.434432 -0.196017 0.782 
-0.410197 -0.202033 0.806 
-0.388348 -0.210555 0.84 
-0.369566 -0.222838 0.889 
-0.34586 -0.235872 0.941 
-0.320614 -0.250411 0.999 
-0.283103 -0.258682 1.032 
-0.248892 -0.273973 1.093 
-0.207545 -0.287258 1.146 
-0.162603 -0.303049 1.209 
-0.112315 -0.320345 1.278 
-0.0548521 -0.333129 1.329 
0.00762667 -0.358195 1.429 
0.0784925 -0.378749 1.511 
0.159565 -0.405821 1.619 
0.253754 -0.438156 1.748 
0.364954 -0.477008 1.903 
0.506576 -0.532655 2.125 
0.608188 -0.534911 2.134 
0.706991 -0.53441 2.132 
0.816954 -0.541428 2.16 
0.917632 -0.541428 2.16 
1.02632 -0.54569 2.177 
1.13919 -0.551204 2.199 
1.25129 -0.555465 2.216 
1.3503 -0.553711 2.209 
1.47629 -0.562484 2.244 
1.59356 -0.566996 2.262 
1.69749 -0.566494 2.26 
1.81719 -0.571006 2.278 
1.91914 -0.569753 2.273 
2.04202 -0.574516 2.292 
2.21354 -0.591811 2.361 
2.29012 -0.583289 2.327 
-0.539463 -0.166155 0.667 
-0.515233 -0.168397 0.676 
-0.498751 -0.173628 0.697 
-0.478305 -0.178112 0.715 
-0.461782 -0.184838 0.742 
-0.442167 -0.191315 0.768 
-0.420657 -0.198041 0.795 
-0.401454 -0.207258 0.832 
-0.375752 -0.214731 0.862 
-0.358182 -0.232916 0.935 
-0.328364 -0.245371 0.985 
-0.291055 -0.252844 1.015 
-0.258875 -0.268538 1.078 
-0.216564 -0.278751 1.119 
-0.173862 -0.297933 1.196 
-0.124634 -0.314374 1.262 
-0.0685759 -0.327576 1.315 
-0.00562681 -0.35174 1.412 
0.0636822 -0.372167 1.494 
0.141706 -0.395583 1.588 
0.233791 -0.428714 1.721 
0.3432 -0.468571 1.881 
0.465921 -0.506685 2.034 
0.590224 -0.533339 2.141 
0.685505 -0.529852 2.127 
0.801983 -0.54156 2.174 
0.898328 -0.538571 2.162 
1.00834 -0.543553 2.182 
1.12124 -0.549033 2.204 
1.2323 -0.55277 2.219 
1.3279 -0.549531 2.206 
1.45407 -0.558499 2.242 
1.57247 -0.563481 2.262 
1.67791 -0.563481 2.262 
1.80226 -0.56946 2.286 
1.89128 -0.564229 2.265 
2.02506 -0.5722 2.297 
2.17297 -0.583161 2.341 
2.26843 -0.579673 2.327 
-0.541535 -0.165118 0.667 
-0.515803 -0.166851 0.674 
-0.498761 -0.171802 0.694 
-0.479855 -0.176753 0.714 
-0.462837 -0.18319 0.74 
-0.443395 -0.189626 0.766 
-0.422062 -0.19631 0.793 
-0.402583 -0.205222 0.829 
-0.376674 -0.212401 0.858 
-0.359542 -0.230473 0.931 
-0.32806 -0.241365 0.975 
-0.292056 -0.250772 1.013 
-0.259825 -0.26612 1.075 
-0.215017 -0.27726 1.12 
-0.173426 -0.295332 1.193 
-0.124634 -0.312413 1.262 
-0.0685237 -0.325286 1.314 
-0.0077486 -0.346328 1.399 
0.0612378 -0.369103 1.491 
0.138713 -0.39163 1.582 
0.230848 -0.425545 1.719 
0.339011 -0.463916 1.874 
0.454343 -0.494365 1.997 
0.587446 -0.530508 2.143 
0.682841 -0.527042 2.129 
0.799707 -0.538925 2.177 
0.897038 -0.536449 2.167 
1.00587 -0.540658 2.184 
1.11883 -0.546104 2.206 
1.22996 -0.549817 2.221 
1.32747 -0.547342 2.211 
1.45382 -0.556254 2.247 
1.56896 -0.559967 2.262 
1.67439 -0.559967 2.262 
1.80107 -0.566651 2.289 
1.88776 -0.56071 2.265 
2.01885 -0.567889 2.294 
2.16377 -0.578038 2.335 
2.26482 -0.576058 2.327 
-0.539689 -0.163836 0.666 
-0.514756 -0.165804 0.674 
-0.4984 -0.17097 0.695 
-0.479416 -0.17589 0.715 
-0.461687 -0.18204 0.74 
-0.442205 -0.188436 0.766 
-0.42083 -0.195078 0.793 
-0.401779 -0.20418 0.83 
-0.375341 -0.211068 0.858 
-0.360755 -0.227058 0.923 
-0.331847 -0.237144 0.964 
-0.294329 -0.24846 1.01 
-0.262186 -0.263466 1.071 
-0.215983 -0.274536 1.116 
-0.174839 -0.29274 1.19 
-0.126394 -0.30996 1.26 
-0.0704579 -0.322752 1.312 
-0.00980162 -0.339972 1.382 
0.0588422 -0.366294 1.489 
0.13548 -0.386958 1.573 
0.227647 -0.42189 1.715 
0.333589 -0.45756 1.86 
0.444462 -0.483882 1.967 
0.588816 -0.528408 2.148 
0.683804 -0.524473 2.132 
0.801544 -0.536772 2.182 
0.899108 -0.534312 2.172 
1.00818 -0.538495 2.189 
1.12035 -0.543414 2.209 
1.23162 -0.547105 2.224 
1.33048 -0.545137 2.216 
1.459 -0.554731 2.255 
1.57312 -0.557929 2.268 
1.67439 -0.556453 2.262 
1.80343 -0.563833 2.292 
1.88776 -0.557191 2.265 
2.01709 -0.563833 2.292 
2.16655 -0.575149 2.338 
2.26482 -0.572443 2.327 
-0.540723 -0.162801 0.666 
-0.514273 -0.164268 0.672 
-0.498043 -0.169401 0.693 
-0.479855 -0.174535 0.714 
-0.461586 -0.180402 0.738 
-0.442238 -0.186757 0.764 
-0.42153 -0.193602 0.792 
-0.403069 -0.202891 0.83 
-0.374479 -0.208513 0.853 
-0.359835 -0.224157 0.917 
-0.332999 -0.235402 0.963 
-0.29276 -0.246891 1.01 
-0.256246 -0.262536 1.074 
-0.214442 -0.273047 1.117 
-0.172699 -0.290403 1.188 
-0.124338 -0.307758 1.259 
-0.0684194 -0.320714 1.312 
-0.00762121 -0.336358 1.376 
0.0612378 -0.36447 1.491 
0.137924 -0.384514 1.573 
0.230445 -0.41947 1.716 
0.334851 -0.452471 1.851 
0.448428 -0.481804 1.971 
0.589365 -0.52556 2.15 
0.684445 -0.521649 2.134 
0.803381 -0.534605 2.187 
0.902006 -0.532649 2.179 
1.0091 -0.535582 2.191 
1.12136 -0.540471 2.211 
1.23273 -0.544138 2.226 
1.33528 -0.543649 2.224 
1.46353 -0.552938 2.262 
1.57451 -0.554894 2.27 
1.67661 -0.553671 2.265 
1.80343 -0.560271 2.292 
1.88776 -0.553671 2.265 
2.01709 -0.560271 2.292 
2.16377 -0.570783 2.335 
2.26482 -0.568827 2.327 
-0.539689 -0.161767 0.666 
-0.513228 -0.163224 0.672 
-0.497683 -0.168568 0.694 
-0.478746 -0.173426 0.714 
-0.46044 -0.179255 0.738 
-0.441628 -0.185813 0.765 
-0.4203 -0.192371 0.792 
-0.402263 -0.201844 0.831 
-0.373154 -0.207188 0.853 
-0.357237 -0.222004 0.914 
-0.331159 -0.233663 0.962 
-0.297468 -0.245322 1.01 
-0.257434 -0.260381 1.072 
-0.214058 -0.270826 1.115 
-0.172263 -0.287828 1.185 
-0.124042 -0.305073 1.256 
-0.0683673 -0.318433 1.311 
-0.00758798 -0.332763 1.37 
0.0612378 -0.362153 1.491 
0.137485 -0.380856 1.568 
0.230043 -0.416075 1.713 
0.330509 -0.443765 1.827 
0.445243 -0.475341 1.957 
0.590735 -0.523434 2.155 
0.686049 -0.519548 2.139 
0.80485 -0.532178 2.191 
0.904076 -0.530478 2.184 
1.01278 -0.534121 2.199 
1.12288 -0.537765 2.214 
1.23439 -0.541408 2.229 
1.33948 -0.541894 2.231 
1.4687 -0.551367 2.27 
1.57451 -0.551367 2.27 
1.67883 -0.550881 2.268 
1.805 -0.557196 2.294 
1.89026 -0.550881 2.268 
2.01885 -0.557196 2.294 
2.16377 -0.567155 2.335 
2.26482 -0.565212 2.327 
-0.540945 -0.160491 0.665 
-0.513783 -0.161697 0.67 
-0.497679 -0.166765 0.691 
-0.480964 -0.172316 0.714 
-0.462106 -0.177867 0.737 
-0.441684 -0.183659 0.761 
-0.421159 -0.190417 0.789 
-0.403871 -0.20007 0.829 
-0.37228 -0.203932 0.845 
-0.356138 -0.218171 0.904 
-0.333801 -0.231927 0.961 
-0.302542 -0.242787 1.006 
-0.263604 -0.258233 1.07 
-0.22192 -0.268128 1.111 
-0.18055 -0.284539 1.179 
-0.132627 -0.300467 1.245 
-0.0780124 -0.314224 1.302 
-0.0180311 -0.327015 1.355 
0.0492555 -0.356941 1.479 
0.123866 -0.374076 1.55 
0.213193 -0.406657 1.685 
0.304889 -0.424998 1.761 
0.42622 -0.464819 1.926 
0.577343 -0.520086 2.155 
0.676215 -0.518879 2.15 
0.7869 -0.525878 2.179 
0.891726 -0.527809 2.187 
1.00139 -0.531912 2.204 
1.10762 -0.533601 2.211 
1.2178 -0.536738 2.224 
1.33037 -0.540358 2.239 
1.45139 -0.546633 2.265 
1.55353 -0.545427 2.26 
1.66474 -0.547357 2.268 
1.79309 -0.554356 2.297 
1.88443 -0.549771 2.278 
2.00722 -0.554356 2.297 
2.14465 -0.56232 2.33 
2.24745 -0.560872 2.324 
-0.548177 -0.159457 0.665 
-0.517959 -0.159697 0.666 
-0.500076 -0.164013 0.684 
-0.485992 -0.170248 0.71 
-0.465018 -0.174804 0.729 
-0.446412 -0.181038 0.755 
-0.424294 -0.186793 0.779 
-0.40691 -0.195905 0.817 
-0.37831 -0.20094 0.838 
-0.357873 -0.21197 0.884 
-0.34067 -0.228036 0.951 
-0.309743 -0.238347 0.994 
-0.27918 -0.255611 1.066 
-0.239182 -0.266402 1.111 
-0.195157 -0.277432 1.157 
-0.145697 -0.289901 1.209 
-0.0948143 -0.307645 1.283 
-0.0363778 -0.319634 1.333 
0.0278017 -0.345051 1.439 
0.0999506 -0.363515 1.516 
0.186705 -0.397804 1.659 
0.277241 -0.417706 1.742 
0.39873 -0.457751 1.909 
0.551324 -0.517457 2.158 
0.653117 -0.518416 2.162 
0.753191 -0.517937 2.16 
0.865333 -0.52489 2.189 
0.973992 -0.528487 2.204 
1.0777 -0.528967 2.206 
1.19122 -0.533763 2.226 
1.30545 -0.538079 2.244 
1.41821 -0.541196 2.257 
1.52206 -0.540716 2.255 
1.64809 -0.54767 2.284 
1.77683 -0.554624 2.313 
1.86916 -0.550068 2.294 
1.98297 -0.551986 2.302 
2.12023 -0.559899 2.335 
2.23766 -0.562057 2.344 
-0.556637 -0.158186 0.664 
-0.525688 -0.158186 0.664 
-0.505915 -0.161759 0.679 
-0.49103 -0.167477 0.703 
-0.469997 -0.171765 0.721 
-0.453338 -0.178436 0.749 
-0.432393 -0.184391 0.774 
-0.40963 -0.190585 0.8 
-0.388631 -0.198924 0.835 
-0.36102 -0.205356 0.862 
-0.34913 -0.223461 0.938 
-0.318107 -0.232753 0.977 
-0.284007 -0.24252 1.018 
-0.250501 -0.256814 1.078 
-0.207685 -0.266343 1.118 
-0.16462 -0.281828 1.183 
-0.115958 -0.298504 1.253 
-0.0604036 -0.313275 1.315 
0.000932929 -0.32876 1.38 
0.0711186 -0.358301 1.504 
0.148732 -0.377359 1.584 
0.242796 -0.411665 1.728 
0.345079 -0.435726 1.829 
0.480679 -0.486708 2.043 
0.611705 -0.516963 2.17 
0.707264 -0.512913 2.153 
0.823746 -0.523157 2.196 
0.929476 -0.525063 2.204 
1.03689 -0.527445 2.214 
1.15296 -0.533401 2.239 
1.259 -0.534116 2.242 
1.37141 -0.537213 2.255 
1.50205 -0.546504 2.294 
1.60336 -0.544598 2.286 
1.7144 -0.546027 2.292 
1.82282 -0.546504 2.294 
1.90788 -0.54031 2.268 
2.04377 -0.54841 2.302 
2.19779 -0.560321 2.352 
2.25837 -0.54841 2.302 
-0.537257 -0.156918 0.663 
-0.512465 -0.158811 0.671 
-0.496249 -0.163781 0.692 
-0.479416 -0.169225 0.715 
-0.459192 -0.174195 0.736 
-0.439896 -0.180349 0.762 
-0.419769 -0.187212 0.791 
-0.401779 -0.196443 0.83 
-0.370092 -0.20023 0.846 
-0.34942 -0.21159 0.894 
-0.330126 -0.226974 0.959 
-0.299416 -0.238098 1.006 
-0.269846 -0.254429 1.075 
-0.226281 -0.262003 1.107 
-0.183678 -0.275493 1.164 
-0.136317 -0.290167 1.226 
-0.0833707 -0.305551 1.291 
-0.024221 -0.319042 1.348 
0.04219 -0.348627 1.473 
0.115814 -0.364248 1.539 
0.203267 -0.394779 1.668 
0.289942 -0.407323 1.721 
0.411455 -0.452765 1.913 
0.567875 -0.513592 2.17 
0.671178 -0.515248 2.177 
0.773358 -0.515722 2.179 
0.883756 -0.520929 2.201 
0.993067 -0.524479 2.216 
1.09537 -0.524005 2.214 
1.21101 -0.529449 2.237 
1.3288 -0.534893 2.26 
1.44747 -0.539863 2.281 
1.54289 -0.536076 2.265 
1.66811 -0.542466 2.292 
1.78733 -0.546253 2.308 
1.89244 -0.545543 2.305 
2.00509 -0.546963 2.311 
2.14754 -0.555957 2.349 
2.23878 -0.55146 2.33 
-0.552511 -0.156123 0.664 
-0.519991 -0.155652 0.662 
-0.503173 -0.16012 0.681 
-0.488738 -0.165998 0.706 
-0.465516 -0.169525 0.721 
-0.449282 -0.176343 0.75 
-0.425619 -0.182692 0.777 
-0.406442 -0.190686 0.811 
-0.37955 -0.196329 0.835 
-0.35654 -0.205499 0.874 
-0.34218 -0.222663 0.947 
-0.310314 -0.231833 0.986 
-0.280175 -0.245705 1.045 
-0.241435 -0.256286 1.09 
-0.196736 -0.266866 1.135 
-0.151183 -0.280504 1.193 
-0.100545 -0.295081 1.255 
-0.0444274 -0.311775 1.326 
0.0186228 -0.334112 1.421 
0.0899916 -0.354333 1.507 
0.174375 -0.385604 1.64 
0.265956 -0.408881 1.739 
0.369361 -0.435215 1.851 
0.530468 -0.506693 2.155 
0.640867 -0.514688 2.189 
0.736449 -0.51022 2.17 
0.850717 -0.518214 2.204 
0.959935 -0.521741 2.219 
1.06193 -0.521036 2.216 
1.18677 -0.530676 2.257 
1.29083 -0.530206 2.255 
1.40893 -0.535143 2.276 
1.52567 -0.538905 2.292 
1.6382 -0.540786 2.3 
1.7621 -0.545959 2.322 
1.86147 -0.543373 2.311 
1.9547 -0.539376 2.294 
2.09397 -0.54784 2.33 
2.23188 -0.555129 2.361 
2.22936 -0.527619 2.244 
-0.530276 -0.154624 0.662 
-0.509227 -0.15766 0.675 
-0.494373 -0.1635 0.7 
-0.472959 -0.16747 0.717 
-0.455478 -0.173543 0.743 
-0.432551 -0.17985 0.77 
-0.412116 -0.186857 0.8 
-0.389821 -0.194331 0.832 
-0.361098 -0.200637 0.859 
-0.348344 -0.217688 0.932 
-0.318644 -0.227498 0.974 
-0.285028 -0.237308 1.016 
-0.252176 -0.251789 1.078 
-0.208111 -0.259497 1.111 
-0.163089 -0.273745 1.172 
-0.115218 -0.290796 1.245 
-0.0604036 -0.307146 1.315 
0.000930224 -0.321393 1.376 
0.07326 -0.350356 1.5 
0.152339 -0.372779 1.596 
0.244912 -0.402676 1.724 
0.339985 -0.420895 1.802 
0.475033 -0.471579 2.019 
0.617624 -0.511754 2.191 
0.713506 -0.507316 2.172 
0.825622 -0.514089 2.201 
0.935802 -0.518294 2.219 
1.04391 -0.520629 2.229 
1.15811 -0.525301 2.249 
1.26462 -0.526001 2.252 
1.38418 -0.531607 2.276 
1.51122 -0.539081 2.308 
1.60898 -0.535811 2.294 
1.72413 -0.538381 2.305 
1.83395 -0.539081 2.308 
1.92134 -0.533476 2.284 
2.0562 -0.54095 2.316 
2.2006 -0.550059 2.355 
2.27505 -0.541651 2.319 
-0.531968 -0.152899 0.659 
-0.51038 -0.155683 0.671 
-0.493384 -0.160324 0.691 
-0.476084 -0.165892 0.715 
-0.456381 -0.170997 0.737 
-0.436345 -0.176797 0.762 
-0.416045 -0.18515 0.798 
-0.394516 -0.192806 0.831 
-0.366487 -0.198607 0.856 
-0.344902 -0.209743 0.904 
-0.322526 -0.223433 0.963 
-0.290614 -0.233873 1.008 
-0.259825 -0.249418 1.075 
-0.216547 -0.257539 1.11 
-0.171788 -0.268444 1.157 
-0.125602 -0.286077 1.233 
-0.0718885 -0.301854 1.301 
-0.0117067 -0.314151 1.354 
0.0565288 -0.345474 1.489 
0.130752 -0.358699 1.546 
0.220128 -0.389325 1.678 
0.30723 -0.400926 1.728 
0.42839 -0.442921 1.909 
0.595964 -0.510206 2.199 
0.695283 -0.507886 2.189 
0.800956 -0.510206 2.199 
0.910436 -0.51415 2.216 
1.02425 -0.519486 2.239 
1.12457 -0.51763 2.231 
1.23572 -0.520647 2.244 
1.36421 -0.529927 2.284 
1.48805 -0.536192 2.311 
1.58057 -0.531087 2.289 
1.70348 -0.536192 2.311 
1.80885 -0.535496 2.308 
1.91393 -0.5348 2.305 
2.03102 -0.537352 2.316 
2.17775 -0.547096 2.358 
2.27699 -0.544544 2.347 
-0.540362 -0.151645 0.658 
-0.515115 -0.153258 0.665 
-0.498679 -0.157867 0.685 
-0.484467 -0.16386 0.711 
-0.462118 -0.167777 0.728 
-0.442302 -0.173309 0.752 
-0.422956 -0.179992 0.781 
-0.403877 -0.188058 0.816 
-0.375258 -0.192898 0.837 
-0.353117 -0.202577 0.879 
-0.333704 -0.218479 0.948 
-0.303871 -0.229311 0.995 
-0.27535 -0.245213 1.064 
-0.231274 -0.251205 1.09 
-0.189078 -0.263189 1.142 
-0.143462 -0.277939 1.206 
-0.0910846 -0.290154 1.259 
-0.0344869 -0.308821 1.34 
0.0301001 -0.332328 1.442 
0.101834 -0.347769 1.509 
0.187457 -0.378651 1.643 
0.276573 -0.396628 1.721 
0.388508 -0.431889 1.874 
0.555843 -0.504485 2.189 
0.664484 -0.509555 2.211 
0.761638 -0.505637 2.194 
0.873745 -0.511398 2.219 
0.9851 -0.515547 2.237 
1.08791 -0.514855 2.234 
1.21018 -0.522691 2.268 
1.31879 -0.523843 2.273 
1.44855 -0.532601 2.311 
1.54347 -0.528222 2.292 
1.66975 -0.534445 2.319 
1.78857 -0.537671 2.333 
1.90382 -0.539515 2.341 
1.99831 -0.535597 2.324 
2.13745 -0.543433 2.358 
2.25022 -0.544124 2.361 
-0.555989 -0.151538 0.662 
-0.522754 -0.150852 0.659 
-0.50473 -0.154743 0.676 
-0.491729 -0.161152 0.704 
-0.468041 -0.164357 0.718 
-0.451522 -0.170767 0.746 
-0.4296 -0.176032 0.769 
-0.410142 -0.183357 0.801 
-0.387235 -0.190453 0.832 
-0.359764 -0.196634 0.859 
-0.33819 -0.215175 0.94 
-0.306649 -0.226392 0.989 
-0.275831 -0.239669 1.047 
-0.235053 -0.248138 1.084 
-0.192358 -0.258668 1.13 
-0.147847 -0.273776 1.196 
-0.0959517 -0.285222 1.246 
-0.0404895 -0.304908 1.332 
0.0229898 -0.324594 1.418 
0.0946744 -0.344967 1.507 
0.178705 -0.37381 1.633 
0.269175 -0.394869 1.725 
0.375113 -0.423712 1.851 
0.545141 -0.500626 2.187 
0.656546 -0.507951 2.219 
0.752097 -0.502686 2.196 
0.86418 -0.508409 2.221 
0.976852 -0.513216 2.242 
1.08232 -0.513674 2.244 
1.20225 -0.520312 2.273 
1.30819 -0.520312 2.273 
1.43591 -0.528324 2.308 
1.53948 -0.52695 2.302 
1.66108 -0.531529 2.322 
1.7815 -0.535191 2.338 
1.89937 -0.537709 2.349 
1.98748 -0.531986 2.324 
2.11835 -0.537709 2.349 
2.2468 -0.542287 2.369 
-0.553095 -0.150282 0.661 
-0.519682 -0.149828 0.659 
-0.503805 -0.154375 0.679 
-0.489141 -0.160286 0.705 
-0.465342 -0.163469 0.719 
-0.448045 -0.169608 0.746 
-0.427124 -0.175292 0.771 
-0.406916 -0.18234 0.802 
-0.383818 -0.189388 0.833 
-0.357416 -0.196208 0.863 
-0.334913 -0.213487 0.939 
-0.30326 -0.225765 0.993 
-0.273021 -0.239861 1.055 
-0.230849 -0.247363 1.088 
-0.187919 -0.258049 1.135 
-0.143224 -0.273737 1.204 
-0.0908675 -0.285559 1.256 
-0.0344354 -0.304202 1.338 
0.0298496 -0.325119 1.43 
0.101564 -0.342171 1.505 
0.186202 -0.371045 1.632 
0.276734 -0.391507 1.722 
0.387472 -0.424929 1.869 
0.559651 -0.501093 2.204 
0.668992 -0.506095 2.226 
0.76511 -0.501093 2.204 
0.876501 -0.506095 2.226 
0.989504 -0.510869 2.247 
1.09424 -0.510869 2.247 
1.21284 -0.51678 2.273 
1.32343 -0.518599 2.281 
1.45357 -0.527239 2.319 
1.55223 -0.524056 2.305 
1.67983 -0.530422 2.333 
1.7947 -0.532241 2.341 
1.92252 -0.53747 2.364 
2.00777 -0.530876 2.335 
2.13474 -0.535424 2.355 
2.26356 -0.539971 2.375 
-0.549182 -0.14903 0.66 
-0.516905 -0.149481 0.662 
-0.501467 -0.154223 0.683 
-0.483254 -0.159417 0.706 
-0.461829 -0.163481 0.724 
-0.442273 -0.1689 0.748 
-0.423204 -0.175448 0.777 
-0.401432 -0.181997 0.806 
-0.377407 -0.188771 0.836 
-0.353824 -0.197351 0.874 
-0.330675 -0.214964 0.952 
-0.294817 -0.226028 1.001 
-0.261633 -0.239802 1.062 
-0.22232 -0.251318 1.113 
-0.17519 -0.258318 1.144 
-0.130177 -0.275931 1.222 
-0.0714464 -0.291963 1.293 
-0.0116894 -0.305285 1.352 
0.0558834 -0.332381 1.472 
0.129737 -0.346381 1.534 
0.218423 -0.375961 1.665 
0.311142 -0.395154 1.75 
0.426595 -0.42925 1.901 
0.601926 -0.501507 2.221 
0.705447 -0.501507 2.221 
0.806419 -0.499927 2.214 
0.913723 -0.502185 2.224 
1.03477 -0.510765 2.262 
1.12861 -0.505572 2.239 
1.23847 -0.50783 2.249 
1.37496 -0.519797 2.302 
1.49835 -0.525442 2.327 
1.60336 -0.524313 2.322 
1.72338 -0.527926 2.338 
1.82844 -0.526797 2.333 
1.92805 -0.524313 2.322 
2.05031 -0.527926 2.338 
2.19068 -0.535603 2.372 
2.34393 -0.545539 2.416 
-0.536061 -0.146659 0.654 
-0.510982 -0.149125 0.665 
-0.495144 -0.153835 0.686 
-0.477167 -0.159217 0.71 
-0.457208 -0.163926 0.731 
-0.43587 -0.168859 0.753 
-0.418337 -0.17626 0.786 
-0.398698 -0.184108 0.821 
-0.371845 -0.189939 0.847 
-0.346885 -0.198236 0.884 
-0.325656 -0.215055 0.959 
-0.289335 -0.226267 1.009 
-0.255753 -0.238825 1.065 
-0.215596 -0.249813 1.114 
-0.168668 -0.257438 1.148 
-0.123285 -0.275602 1.229 
-0.0675851 -0.290626 1.296 
-0.00751044 -0.304081 1.356 
0.0604574 -0.330094 1.472 
0.13503 -0.345343 1.54 
0.224402 -0.37472 1.671 
0.319474 -0.396023 1.766 
0.433412 -0.427194 1.905 
0.610198 -0.499178 2.226 
0.713311 -0.498729 2.224 
0.815136 -0.497608 2.219 
0.923531 -0.500299 2.231 
1.04318 -0.507923 2.265 
1.14064 -0.504335 2.249 
1.24712 -0.505008 2.252 
1.38571 -0.517566 2.308 
1.51076 -0.523621 2.335 
1.61404 -0.521827 2.327 
1.73509 -0.525639 2.344 
1.84434 -0.525639 2.344 
1.93693 -0.521154 2.324 
2.06285 -0.525639 2.344 
2.20361 -0.533264 2.378 
2.37188 -0.546494 2.437 
-0.537077 -0.145643 0.654 
-0.512277 -0.14787 0.664 
-0.49655 -0.152546 0.685 
-0.478023 -0.157668 0.708 
-0.458222 -0.162345 0.729 
-0.437046 -0.167244 0.751 
-0.418638 -0.174148 0.782 
-0.398317 -0.181496 0.815 
-0.372267 -0.187509 0.842 
-0.348841 -0.196417 0.882 
-0.330233 -0.212674 0.955 
-0.294522 -0.222695 1 
-0.261299 -0.234721 1.054 
-0.224049 -0.24786 1.113 
-0.176348 -0.253872 1.14 
-0.131535 -0.27102 1.217 
-0.0782526 -0.283491 1.273 
-0.0198985 -0.298189 1.339 
0.0462591 -0.324467 1.457 
0.118794 -0.337606 1.516 
0.210559 -0.366111 1.644 
0.305704 -0.389716 1.75 
0.41759 -0.420226 1.887 
0.596364 -0.495719 2.226 
0.704207 -0.498614 2.239 
0.803873 -0.495719 2.226 
0.907628 -0.495719 2.226 
1.03137 -0.505518 2.27 
1.12816 -0.501509 2.252 
1.23477 -0.502177 2.255 
1.36959 -0.513312 2.305 
1.49625 -0.519993 2.335 
1.60508 -0.519993 2.335 
1.72639 -0.523779 2.352 
1.82509 -0.520661 2.338 
1.93903 -0.521997 2.344 
2.0579 -0.524447 2.355 
2.18884 -0.529569 2.378 
2.35383 -0.54204 2.434 
-0.537077 -0.144626 0.654 
-0.513565 -0.146617 0.663 
-0.497223 -0.15104 0.683 
-0.477347 -0.156347 0.707 
-0.457594 -0.160991 0.728 
-0.437046 -0.166077 0.751 
-0.418102 -0.172711 0.781 
-0.397828 -0.180009 0.814 
-0.371824 -0.18598 0.841 
-0.348841 -0.195047 0.882 
-0.324504 -0.212296 0.96 
-0.292289 -0.221805 1.003 
-0.25778 -0.232862 1.053 
-0.220591 -0.24613 1.113 
-0.172958 -0.252322 1.141 
-0.127963 -0.269571 1.219 
-0.074472 -0.282176 1.276 
-0.015773 -0.296772 1.342 
0.0529774 -0.321761 1.455 
0.126607 -0.337241 1.525 
0.213243 -0.363778 1.645 
0.310009 -0.388988 1.759 
0.420076 -0.416852 1.885 
0.600631 -0.492924 2.229 
0.709266 -0.496241 2.244 
0.809145 -0.493366 2.231 
0.914361 -0.49403 2.234 
1.03764 -0.503318 2.276 
1.13417 -0.499116 2.257 
1.23937 -0.499116 2.257 
1.37674 -0.511058 2.311 
1.50566 -0.518355 2.344 
1.61491 -0.518355 2.344 
1.73446 -0.521451 2.358 
1.83342 -0.518355 2.344 
1.94682 -0.519461 2.349 
2.06418 -0.521451 2.358 
2.1953 -0.526538 2.381 
2.37311 -0.541796 2.45 
-0.538093 -0.14361 0.654 
-0.513819 -0.145367 0.662 
-0.497554 -0.149759 0.682 
-0.478603 -0.15459 0.704 
-0.459721 -0.159421 0.726 
-0.438787 -0.164252 0.748 
-0.419043 -0.1704 0.776 
-0.398662 -0.177427 0.808 
-0.37351 -0.183575 0.836 
-0.351752 -0.193018 0.879 
-0.330126 -0.210585 0.959 
-0.294228 -0.219368 0.999 
-0.259812 -0.230128 1.048 
-0.223244 -0.243523 1.109 
-0.176039 -0.249891 1.138 
-0.131211 -0.26658 1.214 
-0.0779453 -0.278437 1.268 
-0.0198242 -0.29293 1.334 
0.0482564 -0.318183 1.449 
0.121389 -0.333554 1.519 
0.205728 -0.35705 1.626 
0.30385 -0.385376 1.755 
0.412241 -0.411947 1.876 
0.594237 -0.4899 2.231 
0.704797 -0.494512 2.252 
0.806168 -0.492316 2.242 
0.908637 -0.491218 2.237 
1.03147 -0.500221 2.278 
1.13116 -0.497366 2.265 
1.23673 -0.497366 2.265 
1.36956 -0.507467 2.311 
1.50157 -0.515812 2.349 
1.61106 -0.515812 2.349 
1.72933 -0.518447 2.361 
1.82847 -0.515372 2.347 
1.9519 -0.519105 2.364 
2.06471 -0.519764 2.367 
2.1879 -0.522838 2.381 
2.35584 -0.535794 2.44 
-0.542796 -0.14303 0.656 
-0.513782 -0.143466 0.658 
-0.499265 -0.148263 0.68 
-0.48092 -0.152842 0.701 
-0.462314 -0.157639 0.723 
-0.441657 -0.162435 0.745 
-0.42168 -0.168322 0.772 
-0.400685 -0.174863 0.802 
-0.376441 -0.181186 0.831 
-0.354776 -0.190344 0.873 
-0.326318 -0.197757 0.907 
-0.303878 -0.214764 0.985 
-0.270014 -0.224793 1.031 
-0.232293 -0.235259 1.079 
-0.190096 -0.245724 1.127 
-0.145257 -0.259461 1.19 
-0.0946195 -0.273415 1.254 
-0.0380738 -0.287805 1.32 
0.0247842 -0.304157 1.395 
0.0984342 -0.325525 1.493 
0.18029 -0.349291 1.602 
0.273421 -0.374582 1.718 
0.377366 -0.399874 1.834 
0.563798 -0.487088 2.234 
0.674802 -0.492103 2.257 
0.776546 -0.489923 2.247 
0.88324 -0.491013 2.252 
0.997422 -0.495591 2.273 
1.10968 -0.498426 2.286 
1.21942 -0.499734 2.292 
1.32625 -0.499734 2.292 
1.47247 -0.51347 2.355 
