# .PCD v.7 - Point Cloud Data file format
VERSION .7
FIELDS x y z
SIZE 4 4 4
TYPE F F F
COUNT 1 1 1
WIDTH 1891
HEIGHT 1
VIEWPOINT 0 0 0 1 0 0 0
POINTS 1891
DATA ascii
-0.125902 0.0724156 0.885 
-0.0873232 0.0759341 0.928 
-0.0430936 0.0794526 0.971 
0.00227208 0.0833802 1.019 
0.0523077 0.0876351 1.071 
0.107572 0.0922174 1.127 
0.165643 0.0954086 1.166 
0.230745 0.100073 1.223 
0.299513 0.104164 1.273 
0.382809 0.111119 1.358 
0.479284 0.119383 1.459 
1.42111 0.300054 3.667 
1.65108 0.311182 3.803 
1.84613 0.31421 3.84 
2.0172 0.312983 3.825 
2.14957 0.306437 3.745 
2.44576 0.322474 3.941 
2.70551 0.331803 4.055 
2.88309 0.330493 4.039 
2.90313 0.311755 3.81 
3.38475 0.342522 4.186 
3.62604 0.34694 4.24 
3.77497 0.342522 4.186 
3.96154 0.341785 4.177 
4.17415 0.343258 4.195 
-0.434798 0.047276 0.567 
-0.420614 0.0486935 0.584 
-0.402825 0.0498608 0.598 
-0.385611 0.0512782 0.615 
-0.363205 0.0530292 0.636 
-0.343001 0.05453 0.654 
-0.323987 0.0565311 0.678 
-0.302303 0.0584488 0.701 
-0.278476 0.0603665 0.724 
-0.252167 0.0622009 0.746 
-0.226721 0.064869 0.778 
-0.197802 0.0673704 0.808 
-0.163678 0.0699552 0.839 
-0.130808 0.0734571 0.881 
-0.0885737 0.0772091 0.926 
-0.0416706 0.081128 0.973 
0.00385527 0.0849634 1.019 
0.0540724 0.0894659 1.073 
0.109323 0.0939684 1.127 
0.167885 0.0974703 1.169 
0.232835 0.102056 1.224 
0.301964 0.106308 1.275 
0.384635 0.113146 1.357 
0.481881 0.121734 1.46 
1.44345 0.308086 3.695 
1.67252 0.318925 3.825 
1.86919 0.322094 3.863 
2.02113 0.317675 3.81 
2.18198 0.315257 3.781 
2.47796 0.331266 3.973 
2.75833 0.343105 4.115 
2.87199 0.334017 4.006 
3.00292 0.326596 3.917 
3.41158 0.349776 4.195 
3.63033 0.352027 4.222 
3.86065 0.355112 4.259 
4.00675 0.350526 4.204 
-0.448069 0.0470528 0.554 
-0.432918 0.0482419 0.568 
-0.418608 0.0496857 0.585 
-0.402044 0.0510447 0.601 
-0.383989 0.0524036 0.617 
-0.359817 0.0541022 0.637 
-0.339455 0.055631 0.655 
-0.322131 0.0580092 0.683 
-0.299222 0.0597927 0.704 
-0.275491 0.0618311 0.728 
-0.248194 0.0635298 0.748 
-0.222171 0.0661627 0.779 
-0.193735 0.0689655 0.812 
-0.161455 0.0714286 0.841 
-0.128216 0.0749108 0.882 
-0.0909573 0.0782232 0.921 
-0.0501152 0.0816205 0.961 
-0.0055996 0.0858671 1.011 
0.0432484 0.0894343 1.053 
0.0982037 0.0951248 1.12 
0.156719 0.0991167 1.167 
0.218892 0.102769 1.21 
0.288031 0.107525 1.266 
0.360472 0.111687 1.315 
0.46346 0.122728 1.445 
1.41701 0.315611 3.716 
1.62744 0.323 3.803 
1.84789 0.330729 3.894 
2.04554 0.333362 3.925 
2.12629 0.318074 3.745 
2.42126 0.33472 3.941 
2.64792 0.340241 4.006 
2.86365 0.343723 4.047 
2.93157 0.328775 3.871 
3.35077 0.354 4.168 
3.60628 0.360115 4.24 
3.84607 0.364107 4.287 
3.91659 0.352471 4.15 
4.21798 0.361729 4.259 
-0.432035 0.0491244 0.568 
-0.417699 0.0505946 0.585 
-0.40111 0.0519784 0.601 
-0.38303 0.0533622 0.617 
-0.358828 0.0550919 0.637 
-0.338437 0.0566487 0.655 
-0.32154 0.0591568 0.684 
-0.298552 0.060973 0.705 
-0.274736 0.0630487 0.729 
-0.247363 0.0647784 0.749 
-0.21826 0.0672865 0.778 
-0.190652 0.0704865 0.815 
-0.158284 0.0730811 0.845 
-0.124386 0.0764541 0.884 
-0.0869468 0.0799136 0.924 
-0.0459208 0.0836325 0.967 
-0.000889051 0.0876109 1.013 
0.0486138 0.0919352 1.063 
0.103701 0.0971244 1.123 
0.162853 0.101362 1.172 
0.226202 0.105427 1.219 
0.295093 0.109924 1.271 
0.368831 0.114422 1.323 
0.474729 0.125578 1.452 
1.46845 0.3264 3.774 
1.67659 0.3328 3.848 
1.882 0.337471 3.902 
2.05118 0.335395 3.878 
2.20143 0.330811 3.825 
2.48672 0.345687 3.997 
2.74057 0.354422 4.098 
2.87148 0.347157 4.014 
3.06425 0.345687 3.997 
3.42622 0.364368 4.213 
3.63033 0.365146 4.222 
3.9377 0.375698 4.344 
4.03248 0.365925 4.231 
-0.445429 0.0488623 0.555 
-0.428107 0.050271 0.571 
-0.410489 0.0518557 0.589 
-0.394741 0.0534404 0.607 
-0.3749 0.054673 0.621 
-0.353557 0.0563457 0.64 
-0.333843 0.0581065 0.66 
-0.31502 0.0603956 0.686 
-0.29171 0.0622444 0.707 
-0.266235 0.0651498 0.74 
-0.239007 0.0675269 0.767 
-0.209352 0.0695518 0.79 
-0.179955 0.0725451 0.824 
-0.147733 0.0757146 0.86 
-0.112029 0.078796 0.895 
-0.0731407 0.0819655 0.931 
-0.0269627 0.0869837 0.988 
0.0198418 0.0904173 1.027 
0.0717323 0.0957878 1.088 
0.127959 0.100102 1.137 
0.187639 0.103799 1.179 
0.25144 0.107585 1.222 
0.32884 0.114716 1.303 
0.418874 0.123344 1.401 
0.527028 0.134261 1.525 
1.54754 0.33288 3.781 
1.81495 0.350488 3.981 
1.97639 0.346262 3.933 
2.07624 0.33288 3.781 
2.33349 0.344854 3.917 
2.60471 0.357003 4.055 
2.87156 0.366952 4.168 
2.91652 0.34908 3.965 
3.10133 0.34908 3.965 
3.43946 0.365367 4.15 
3.74407 0.376548 4.277 
3.90931 0.373291 4.24 
4.17086 0.379101 4.306 
-0.437076 0.0503518 0.562 
-0.420386 0.0515165 0.575 
-0.40222 0.0531292 0.593 
-0.386582 0.0548315 0.612 
-0.367418 0.056265 0.628 
-0.347839 0.0578777 0.646 
-0.329532 0.0600279 0.67 
-0.305115 0.0622678 0.695 
-0.282923 0.0645972 0.721 
-0.251344 0.0669267 0.747 
-0.221886 0.0697041 0.778 
-0.192474 0.0727503 0.812 
-0.160339 0.0754381 0.842 
-0.126702 0.0789322 0.881 
-0.0893319 0.0823368 0.919 
-0.0444644 0.0867269 0.968 
0.000684148 0.090669 1.012 
0.0538708 0.0957759 1.069 
0.109032 0.100704 1.124 
0.168747 0.105273 1.175 
0.231313 0.108946 1.216 
0.302675 0.114501 1.278 
0.383893 0.120683 1.347 
0.483486 0.130628 1.458 
1.51205 0.341353 3.81 
1.76902 0.35739 3.989 
1.9275 0.352373 3.933 
2.0813 0.347445 3.878 
2.27139 0.348879 3.894 
2.57068 0.365633 4.081 
2.8502 0.377459 4.213 
2.89688 0.358913 4.006 
3.09592 0.360347 4.022 
3.44666 0.378265 4.222 
3.61238 0.37504 4.186 
3.93392 0.387494 4.325 
4.08101 0.382387 4.268 
-0.440034 0.0508604 0.558 
-0.425155 0.0522276 0.573 
-0.406827 0.0540505 0.593 
-0.389418 0.0555089 0.609 
-0.370518 0.0569672 0.625 
-0.350126 0.0584256 0.641 
-0.33174 0.060522 0.664 
-0.307023 0.0630741 0.692 
-0.285093 0.065444 0.718 
-0.254144 0.0679049 0.745 
-0.225512 0.0709128 0.778 
-0.195292 0.0736472 0.808 
-0.164068 0.0766551 0.841 
-0.130363 0.0800276 0.878 
-0.0931061 0.0833089 0.914 
-0.052825 0.0871371 0.956 
-0.00867196 0.091421 1.003 
0.0396347 0.0951581 1.044 
0.103516 0.102176 1.121 
0.162714 0.106734 1.171 
0.225645 0.110835 1.216 
0.295789 0.116122 1.274 
0.367159 0.120041 1.317 
0.473094 0.131891 1.447 
1.51822 0.352832 3.871 
1.73989 0.3614 3.965 
1.90917 0.358483 3.933 
2.09249 0.358483 3.933 
2.26192 0.356296 3.909 
2.55166 0.371973 4.081 
2.80638 0.380723 4.177 
2.90192 0.368145 4.039 
3.12231 0.371973 4.081 
3.41237 0.383184 4.204 
3.60059 0.382364 4.195 
3.91376 0.394213 4.325 
4.11535 0.394213 4.325 
-0.441842 0.0516346 0.557 
-0.426191 0.0530251 0.572 
-0.407981 0.0548791 0.592 
-0.390668 0.0563624 0.608 
-0.370672 0.0576602 0.622 
-0.351568 0.0593288 0.64 
-0.332797 0.0613682 0.662 
-0.307833 0.0638712 0.689 
-0.286123 0.0662814 0.715 
-0.256925 0.068877 0.743 
-0.226138 0.0719362 0.776 
-0.195574 0.0745318 0.804 
-0.165178 0.0778691 0.84 
-0.131277 0.0811136 0.875 
-0.0943193 0.0845435 0.912 
-0.0541967 0.088437 0.954 
-0.0101997 0.0927013 1 
0.0379763 0.0966874 1.043 
0.101593 0.103733 1.119 
0.16062 0.108368 1.169 
0.223572 0.112632 1.215 
0.293579 0.118009 1.273 
0.364004 0.121717 1.313 
0.46987 0.133861 1.444 
1.49668 0.362369 3.909 
1.65912 0.358105 3.863 
1.88393 0.366819 3.957 
2.09816 0.372103 4.014 
2.22548 0.362369 3.909 
2.47728 0.372844 4.022 
2.69787 0.37748 4.072 
2.90611 0.37989 4.098 
3.10392 0.380724 4.107 
3.32985 0.38471 4.15 
3.59205 0.392219 4.231 
3.91643 0.405383 4.373 
4.05713 0.399172 4.306 
4.35375 0.408164 4.403 
-0.43533 0.0529713 0.562 
-0.416461 0.0548564 0.582 
-0.397361 0.0559874 0.594 
-0.382744 0.0579668 0.615 
-0.362139 0.0592864 0.629 
-0.344462 0.06136 0.651 
-0.323769 0.0632451 0.671 
-0.297522 0.0659785 0.7 
-0.273979 0.0688061 0.73 
-0.246528 0.0706912 0.75 
-0.219468 0.0733303 0.778 
-0.190741 0.0763465 0.81 
-0.159408 0.0795512 0.844 
-0.119858 0.0830386 0.881 
-0.0798551 0.0871858 0.925 
-0.038528 0.0914273 0.97 
0.00700788 0.0958573 1.017 
0.0645527 0.10189 1.081 
0.119829 0.106225 1.127 
0.180924 0.111504 1.183 
0.241851 0.114237 1.212 
0.316312 0.121118 1.285 
0.399042 0.128469 1.363 
0.500242 0.138932 1.474 
1.53031 0.370705 3.933 
1.72409 0.372967 3.957 
1.89695 0.370705 3.933 
2.10565 0.375229 3.981 
2.27279 0.372213 3.949 
2.56013 0.387859 4.115 
2.77534 0.391158 4.15 
2.90081 0.382204 4.055 
3.1424 0.388707 4.124 
3.38475 0.394551 4.186 
3.57986 0.394551 4.186 
3.90844 0.408501 4.334 
4.18442 0.415853 4.412 
4.51246 0.427446 4.535 
-0.432387 0.0541319 0.565 
-0.414653 0.0557606 0.582 
-0.396181 0.0570061 0.595 
-0.381452 0.0590181 0.616 
-0.360757 0.0603594 0.63 
-0.342965 0.0624672 0.652 
-0.31954 0.0653415 0.682 
-0.295769 0.0671618 0.701 
-0.273979 0.0699403 0.73 
-0.246528 0.0718565 0.75 
-0.219468 0.0745391 0.778 
-0.184999 0.0783714 0.818 
-0.152259 0.0812457 0.848 
-0.116014 0.084599 0.883 
-0.0730622 0.089102 0.93 
-0.02382 0.0943715 0.985 
0.0232125 0.0991619 1.035 
0.0753893 0.104623 1.092 
0.131145 0.108647 1.134 
0.192763 0.113821 1.188 
0.254611 0.116791 1.219 
0.334869 0.124072 1.295 
0.431904 0.134899 1.408 
0.538875 0.146108 1.525 
1.56314 0.371546 3.878 
1.80865 0.385342 4.022 
1.95988 0.378348 3.949 
2.14829 0.379115 3.957 
2.3233 0.377582 3.941 
2.64566 0.398468 4.159 
2.87024 0.402779 4.204 
2.8802 0.378348 3.949 
3.17989 0.392624 4.098 
3.4877 0.406229 4.24 
3.63057 0.400193 4.177 
4.01391 0.419929 4.383 
4.23746 0.421845 4.403 
-0.442105 0.0538413 0.553 
-0.427623 0.0553018 0.568 
-0.408819 0.0568596 0.584 
-0.392706 0.0585147 0.601 
-0.374403 0.0600725 0.617 
-0.355728 0.0618251 0.635 
-0.336402 0.0637723 0.655 
-0.312581 0.0664984 0.683 
-0.289789 0.0686404 0.705 
-0.268226 0.0716586 0.736 
-0.240278 0.0736059 0.756 
-0.211821 0.0760399 0.781 
-0.180392 0.0804213 0.826 
-0.14653 0.08305 0.853 
-0.110762 0.0872366 0.896 
-0.0689491 0.090839 0.933 
-0.0192875 0.0961939 0.988 
0.028145 0.101159 1.039 
0.0807739 0.106709 1.096 
0.137634 0.111382 1.144 
0.198801 0.115958 1.191 
0.262214 0.119561 1.228 
0.336361 0.125889 1.293 
0.431291 0.136891 1.406 
1.38304 0.376111 3.863 
1.57564 0.379129 3.894 
1.81129 0.390812 4.014 
1.97399 0.386041 3.965 
2.16315 0.38682 3.973 
2.32942 0.383705 3.941 
2.6636 0.406682 4.177 
2.87061 0.408435 4.195 
2.88049 0.383705 3.941 
3.20647 0.401522 4.124 
3.50995 0.414666 4.259 
3.65273 0.408435 4.195 
4.03907 0.428686 4.403 
4.26261 0.430536 4.422 
-0.442164 0.0546016 0.552 
-0.427623 0.0561843 0.568 
-0.408819 0.0577669 0.584 
-0.392053 0.0593496 0.6 
-0.373796 0.0609322 0.616 
-0.355728 0.0628116 0.635 
-0.336402 0.06479 0.655 
-0.313183 0.0674607 0.682 
-0.290472 0.0696368 0.704 
-0.268638 0.0726043 0.734 
-0.241133 0.0746816 0.755 
-0.213034 0.0772534 0.781 
-0.184773 0.0808143 0.817 
-0.152079 0.0837818 0.847 
-0.115883 0.0872439 0.882 
-0.0716943 0.0920908 0.931 
-0.0237475 0.0971355 0.982 
0.0232349 0.102477 1.036 
0.0753203 0.107917 1.091 
0.131145 0.112171 1.134 
0.192763 0.117512 1.188 
0.255029 0.120776 1.221 
0.32778 0.126909 1.283 
0.417185 0.136603 1.381 
0.52549 0.149066 1.507 
1.57039 0.39141 3.957 
1.7872 0.398631 4.03 
1.94318 0.392202 3.965 
2.18113 0.401994 4.064 
2.3128 0.392202 3.965 
2.63682 0.414062 4.186 
2.86847 0.419404 4.24 
2.87302 0.392993 3.973 
3.22216 0.414062 4.186 
3.46135 0.419404 4.24 
3.59684 0.412282 4.168 
4.00487 0.435527 4.403 
4.31623 0.446507 4.514 
-0.445643 0.0553588 0.551 
-0.431393 0.0568658 0.566 
-0.413037 0.0583729 0.581 
-0.395257 0.0597794 0.595 
-0.379878 0.0617888 0.615 
-0.36035 0.0633963 0.631 
-0.341952 0.0655062 0.652 
-0.320642 0.0674151 0.671 
-0.299716 0.0698264 0.695 
-0.277322 0.0724386 0.721 
-0.251829 0.0748499 0.745 
-0.225555 0.0777635 0.774 
-0.195354 0.0801748 0.798 
-0.165691 0.0839926 0.836 
-0.128264 0.08771 0.873 
-0.0900684 0.0916283 0.912 
-0.0427385 0.0967523 0.963 
0.00224532 0.101173 1.007 
0.0516239 0.106196 1.057 
0.106427 0.112024 1.115 
0.165785 0.117248 1.167 
0.230933 0.122975 1.224 
0.300454 0.1283 1.277 
0.376043 0.134027 1.334 
0.472714 0.144576 1.439 
1.50872 0.400773 3.989 
1.66406 0.39354 3.917 
1.88057 0.400773 3.989 
2.12297 0.411725 4.098 
2.23436 0.397558 3.957 
2.50499 0.411725 4.098 
2.74797 0.419662 4.177 
2.89898 0.413433 4.115 
3.26279 0.43644 4.344 
3.31768 0.417853 4.159 
3.57233 0.425087 4.231 
3.99405 0.450405 4.483 
4.13644 0.443272 4.412 
4.70327 0.480144 4.779 
-0.433875 0.057031 0.559 
-0.418763 0.0585614 0.574 
-0.402936 0.0601938 0.59 
-0.386889 0.0620302 0.608 
-0.366428 0.0635605 0.623 
-0.34768 0.065499 0.642 
-0.32914 0.0678455 0.665 
-0.306662 0.0697839 0.684 
-0.284422 0.0722325 0.708 
-0.261365 0.0750892 0.736 
-0.23359 0.0776398 0.761 
-0.20593 0.0807004 0.791 
-0.177397 0.0846794 0.83 
-0.143724 0.0877401 0.86 
-0.108339 0.091719 0.899 
-0.0688013 0.0949837 0.931 
-0.0251703 0.0997788 0.978 
0.0216044 0.105594 1.035 
0.0734227 0.111001 1.088 
0.129269 0.115592 1.133 
0.190435 0.120898 1.185 
0.253961 0.124979 1.225 
0.325278 0.130692 1.281 
0.410231 0.139262 1.365 
0.532636 0.154463 1.514 
1.60168 0.406971 3.989 
1.81002 0.412072 4.039 
1.98195 0.408705 4.006 
2.22335 0.41901 4.107 
2.32188 0.40289 3.949 
2.67347 0.429824 4.213 
2.87597 0.430742 4.222 
2.88571 0.404522 3.965 
3.2982 0.434517 4.259 
3.5197 0.437374 4.287 
3.65531 0.429824 4.213 
4.04276 0.451147 4.422 
4.35745 0.462676 4.535 
-0.443075 0.0570709 0.551 
-0.427751 0.0587282 0.567 
-0.411232 0.0601782 0.581 
-0.394069 0.0617319 0.596 
-0.377352 0.0635963 0.614 
-0.358957 0.0654607 0.632 
-0.339926 0.0675322 0.652 
-0.319031 0.0696037 0.672 
-0.297556 0.071986 0.695 
-0.275845 0.0748862 0.723 
-0.249514 0.0771649 0.745 
-0.221886 0.0805829 0.778 
-0.191111 0.0829652 0.801 
-0.160879 0.0867975 0.838 
-0.127198 0.0906299 0.875 
-0.0899697 0.0943587 0.911 
-0.0467857 0.0988125 0.954 
-0.00242159 0.103163 0.996 
0.0463437 0.108652 1.049 
0.100504 0.11466 1.107 
0.159246 0.120046 1.159 
0.22578 0.127089 1.227 
0.292426 0.131336 1.268 
0.36733 0.13724 1.325 
0.468517 0.148426 1.433 
1.50892 0.414929 4.006 
1.66813 0.408197 3.941 
1.88988 0.416587 4.022 
2.13003 0.427152 4.124 
2.24623 0.413169 3.989 
2.50411 0.425391 4.107 
2.74739 0.433573 4.186 
2.89892 0.427152 4.124 
3.29276 0.455014 4.393 
3.31839 0.431709 4.168 
3.58935 0.441134 4.259 
3.9693 0.462264 4.463 
4.14924 0.459157 4.433 
4.81376 0.507424 4.899 
-0.435865 0.0584527 0.556 
-0.420859 0.0601347 0.572 
-0.405224 0.0618168 0.588 
-0.38874 0.0636041 0.605 
-0.368884 0.0650759 0.619 
-0.34992 0.0669682 0.637 
-0.332295 0.0694914 0.661 
-0.310607 0.071594 0.681 
-0.288694 0.0741171 0.705 
-0.263716 0.0770608 0.733 
-0.234405 0.0794788 0.756 
-0.208125 0.0830532 0.79 
-0.179542 0.0870482 0.828 
-0.145375 0.0897816 0.854 
-0.110885 0.0943022 0.897 
-0.0713862 0.0974561 0.927 
-0.0295768 0.102292 0.973 
0.0215418 0.108495 1.032 
0.0732203 0.114067 1.085 
0.129269 0.119113 1.133 
0.190274 0.124475 1.184 
0.255412 0.129521 1.232 
0.325024 0.134567 1.28 
0.408428 0.142873 1.359 
0.532035 0.159693 1.519 
1.61188 0.423677 4.03 
1.81491 0.427251 4.064 
2.00828 0.428092 4.072 
2.25475 0.439131 4.177 
2.31105 0.41432 3.941 
2.67832 0.444808 4.231 
2.88164 0.445754 4.24 
2.90933 0.421153 4.006 
3.34931 0.45469 4.325 
3.5197 0.450695 4.287 
3.67093 0.444808 4.231 
4.04276 0.464888 4.422 
4.32766 0.473509 4.504 
-0.442271 0.0586764 0.55 
-0.424839 0.0607034 0.569 
-0.407419 0.0620903 0.582 
-0.389256 0.0640106 0.6 
-0.370323 0.0656109 0.615 
-0.352212 0.0676379 0.634 
-0.333349 0.0698783 0.655 
-0.313915 0.0724387 0.679 
-0.291828 0.0748924 0.702 
-0.268704 0.0776662 0.728 
-0.23604 0.0800133 0.75 
-0.210734 0.0838539 0.786 
-0.182516 0.0879079 0.824 
-0.148131 0.0903616 0.847 
-0.11404 0.0948424 0.889 
-0.0752987 0.098363 0.922 
-0.0339717 0.103377 0.969 
0.0166019 0.109245 1.024 
0.0675977 0.114792 1.076 
0.123222 0.120127 1.126 
0.183507 0.125461 1.176 
0.250075 0.131648 1.234 
0.318061 0.136129 1.276 
0.399135 0.143917 1.349 
0.524537 0.1612 1.511 
1.60921 0.430898 4.039 
1.80859 0.433565 4.064 
2.02751 0.439966 4.124 
2.2628 0.448501 4.204 
2.30025 0.41959 3.933 
2.67743 0.452342 4.24 
2.87505 0.452342 4.24 
2.9147 0.429084 4.022 
3.38832 0.468664 4.393 
3.50638 0.457356 4.287 
3.67335 0.453302 4.249 
4.0026 0.468664 4.393 
4.30409 0.47944 4.494 
-0.441416 0.0595309 0.55 
-0.41997 0.0619121 0.572 
-0.40431 0.063644 0.588 
-0.386558 0.0655922 0.606 
-0.36659 0.0671076 0.62 
-0.348041 0.0691641 0.639 
-0.329712 0.0716536 0.662 
-0.307433 0.0737101 0.681 
-0.285812 0.076416 0.706 
-0.262578 0.0793385 0.733 
-0.231749 0.0817197 0.755 
-0.206191 0.0857245 0.792 
-0.17697 0.0896211 0.828 
-0.143724 0.0930847 0.86 
-0.10846 0.0974142 0.9 
-0.0685796 0.100445 0.928 
-0.0265533 0.105316 0.973 
0.0197838 0.110836 1.024 
0.071073 0.116681 1.078 
0.127284 0.122417 1.131 
0.18748 0.127504 1.178 
0.254527 0.13389 1.237 
0.322531 0.138328 1.278 
0.404224 0.146338 1.352 
0.536857 0.165171 1.526 
1.63126 0.438039 4.047 
1.84282 0.443559 4.098 
2.05517 0.448214 4.141 
2.30193 0.458929 4.24 
2.30443 0.423102 3.909 
2.69147 0.457955 4.231 
2.88253 0.456981 4.222 
2.99544 0.444534 4.107 
3.39328 0.473325 4.373 
3.53376 0.464991 4.296 
3.74269 0.466073 4.306 
4.04963 0.478629 4.422 
4.23864 0.474407 4.383 
-0.432495 0.0609344 0.555 
-0.415573 0.0633498 0.577 
-0.398109 0.0648869 0.591 
-0.379632 0.0669729 0.61 
-0.360988 0.0688394 0.627 
-0.342875 0.071145 0.648 
-0.321357 0.0731213 0.666 
-0.30034 0.0756465 0.689 
-0.278347 0.0785011 0.715 
-0.252903 0.0810263 0.738 
-0.221886 0.0854179 0.778 
-0.190872 0.0878334 0.8 
-0.159919 0.0914565 0.833 
-0.127344 0.0961775 0.876 
-0.0896734 0.0996909 0.908 
-0.0489679 0.103094 0.939 
-0.00548882 0.108804 0.991 
0.0428377 0.114513 1.043 
0.0960994 0.120332 1.096 
0.154167 0.126041 1.148 
0.221063 0.134165 1.222 
0.286439 0.138228 1.259 
0.361843 0.144925 1.32 
0.460178 0.156014 1.421 
1.49323 0.440704 4.014 
1.66651 0.437081 3.981 
1.90649 0.449926 4.098 
2.14254 0.459588 4.186 
2.35273 0.462552 4.213 
2.47407 0.448938 4.089 
2.70442 0.455636 4.15 
2.92299 0.459588 4.186 
3.36022 0.492196 4.483 
3.39084 0.467603 4.259 
3.65256 0.475837 4.334 
3.88925 0.480119 4.373 
4.17679 0.486707 4.433 
-0.447398 0.06124 0.55 
-0.425238 0.0630215 0.566 
-0.407419 0.064803 0.582 
-0.389817 0.0665845 0.598 
-0.371628 0.0683661 0.614 
-0.353065 0.0703703 0.632 
-0.333848 0.0725972 0.652 
-0.314163 0.0751581 0.675 
-0.291915 0.0776077 0.697 
-0.270222 0.0808367 0.726 
-0.241592 0.0826183 0.742 
-0.211147 0.0871834 0.783 
-0.18335 0.0915259 0.822 
-0.148389 0.0936415 0.841 
-0.115032 0.098652 0.886 
-0.0766479 0.102549 0.921 
-0.0352942 0.107337 0.964 
0.0100581 0.112013 1.006 
0.0598351 0.117692 1.057 
0.11447 0.123482 1.109 
0.174251 0.129495 1.163 
0.242799 0.137623 1.236 
0.308673 0.141409 1.27 
0.389882 0.149871 1.346 
0.483893 0.160226 1.439 
1.55559 0.44694 4.014 
1.73921 0.44605 4.006 
2.02545 0.469098 4.213 
2.22657 0.4701 4.222 
2.3275 0.451506 4.055 
2.60339 0.467094 4.195 
2.81093 0.469098 4.213 
3.21618 0.484798 4.354 
3.36651 0.477338 4.287 
3.60542 0.482571 4.334 
3.92076 0.496934 4.463 
4.12878 0.496934 4.463 
5.19622 0.58512 5.255 
-0.428232 0.0635622 0.563 
-0.410716 0.0653686 0.579 
-0.39367 0.067062 0.594 
-0.376458 0.0689813 0.611 
-0.357661 0.0709006 0.628 
-0.339371 0.0732715 0.649 
-0.317694 0.0753037 0.667 
-0.297347 0.0781261 0.692 
-0.275436 0.0811744 0.719 
-0.24798 0.0832066 0.737 
-0.21854 0.0879484 0.779 
-0.188781 0.0911095 0.807 
-0.156037 0.0940449 0.833 
-0.12312 0.0987867 0.875 
-0.0858176 0.102964 0.912 
-0.0448761 0.10669 0.945 
-0.000873253 0.112335 0.995 
0.0477906 0.11798 1.045 
0.101023 0.123512 1.094 
0.159518 0.129608 1.148 
0.22713 0.138188 1.224 
0.293468 0.142704 1.264 
0.371898 0.150607 1.334 
0.460759 0.159865 1.416 
1.5027 0.452274 4.006 
1.67888 0.449451 3.981 
1.95201 0.470563 4.168 
2.18336 0.478692 4.24 
2.40176 0.482869 4.277 
2.51841 0.467515 4.141 
2.7232 0.469547 4.159 
3.33883 0.504997 4.473 
3.39981 0.483998 4.287 
3.66344 0.492579 4.363 
3.99877 0.508497 4.504 
4.16643 0.49924 4.422 
-0.442271 0.062949 0.55 
-0.424486 0.0646658 0.565 
-0.406719 0.066497 0.581 
-0.390093 0.0683283 0.597 
-0.371975 0.0701595 0.613 
-0.352927 0.0721052 0.63 
-0.333834 0.0743943 0.65 
-0.314278 0.0770267 0.673 
-0.292578 0.0796591 0.696 
-0.270976 0.0829782 0.725 
-0.241436 0.0844661 0.738 
-0.21612 0.0891587 0.779 
-0.187196 0.0928212 0.811 
-0.153448 0.0953391 0.833 
-0.108881 0.102092 0.892 
-0.0697196 0.105754 0.924 
-0.0279208 0.11079 0.968 
0.0179441 0.115597 1.01 
0.0684325 0.121663 1.063 
0.124417 0.128302 1.121 
0.184231 0.133795 1.169 
0.252401 0.141464 1.236 
0.321799 0.146843 1.283 
0.400933 0.154282 1.348 
0.511929 0.170306 1.488 
1.57739 0.458498 4.006 
1.78216 0.46319 4.047 
2.08767 0.490659 4.287 
2.27735 0.488484 4.268 
2.29584 0.452889 3.957 
2.65202 0.48425 4.231 
2.85529 0.48528 4.24 
3.34656 0.501646 4.383 
3.42771 0.48425 4.231 
3.80655 0.508514 4.443 
3.92421 0.497183 4.344 
4.14223 0.495008 4.325 
-0.439707 0.0638035 0.55 
-0.423479 0.0656596 0.566 
-0.406514 0.0675157 0.582 
-0.389817 0.0693718 0.598 
-0.371023 0.0711119 0.613 
-0.352507 0.0732 0.631 
-0.332824 0.0754042 0.65 
-0.313698 0.0781883 0.674 
-0.291496 0.0807405 0.696 
-0.26985 0.0841046 0.725 
-0.239964 0.0854967 0.737 
-0.216772 0.090137 0.777 
-0.187759 0.0937332 0.808 
-0.154371 0.0964013 0.831 
-0.108515 0.10313 0.889 
-0.0696441 0.107074 0.923 
-0.0218824 0.112178 0.967 
0.0243169 0.117631 1.014 
0.0753917 0.123895 1.068 
0.132321 0.130971 1.129 
0.192643 0.136424 1.176 
0.261976 0.144428 1.245 
0.332857 0.150228 1.295 
0.410222 0.156725 1.351 
0.529933 0.175518 1.513 
1.61814 0.467506 4.03 
1.83242 0.47435 4.089 
2.12097 0.497319 4.287 
2.34623 0.502772 4.334 
2.35159 0.46275 3.989 
2.68574 0.489779 4.222 
2.90096 0.492911 4.249 
3.35147 0.505092 4.354 
3.46135 0.491867 4.24 
3.87817 0.521333 4.494 
4.01305 0.51182 4.412 
4.13265 0.500568 4.315 
-0.440562 0.064658 0.55 
-0.424486 0.0664214 0.565 
-0.408017 0.0680673 0.579 
-0.391559 0.0699482 0.595 
-0.372998 0.0717117 0.61 
-0.354733 0.0738277 0.628 
-0.336345 0.0762965 0.649 
-0.315528 0.0786477 0.669 
-0.294547 0.0814691 0.693 
-0.272463 0.0846433 0.72 
-0.244213 0.0865242 0.736 
-0.21989 0.0906388 0.771 
-0.190872 0.0940481 0.8 
-0.159343 0.0975749 0.83 
-0.121065 0.102277 0.87 
-0.0842156 0.10698 0.91 
-0.0433619 0.110977 0.944 
0.00532105 0.117207 0.997 
0.054285 0.12285 1.045 
0.108019 0.128846 1.096 
0.166653 0.134959 1.148 
0.234353 0.143658 1.222 
0.302515 0.149184 1.269 
0.383323 0.158118 1.345 
0.472211 0.167406 1.424 
1.5339 0.474825 4.039 
1.70809 0.470946 4.006 
2.00975 0.499513 4.249 
2.23222 0.505038 4.296 
2.45964 0.510681 4.344 
2.57179 0.492107 4.186 
2.83961 0.505038 4.296 
2.89079 0.468947 3.989 
3.39315 0.50398 4.287 
3.70611 0.519851 4.422 
4.18737 0.556412 4.733 
4.16583 0.525846 4.473 
4.49489 0.539483 4.589 
-0.433437 0.065989 0.554 
-0.417915 0.0676566 0.568 
-0.403156 0.0696816 0.585 
-0.38617 0.0715874 0.601 
-0.368288 0.0736123 0.618 
-0.348822 0.0756372 0.635 
-0.329781 0.0781386 0.656 
-0.309239 0.0807591 0.678 
-0.287465 0.0836179 0.702 
-0.26418 0.0867148 0.728 
-0.232145 0.0874295 0.734 
-0.209259 0.0924323 0.776 
-0.181565 0.0969586 0.814 
-0.14733 0.09946 0.835 
-0.106893 0.105654 0.887 
-0.0680623 0.109704 0.921 
-0.0232638 0.114587 0.962 
0.024269 0.120543 1.012 
0.0748976 0.12638 1.061 
0.133719 0.134122 1.126 
0.193974 0.13972 1.173 
0.264758 0.148773 1.249 
0.336162 0.154848 1.3 
0.412626 0.161042 1.352 
0.526655 0.178313 1.497 
1.62441 0.480028 4.03 
1.83878 0.487056 4.089 
2.12267 0.50945 4.277 
2.37414 0.520884 4.373 
2.42754 0.4892 4.107 
2.68656 0.501826 4.213 
2.93973 0.511713 4.296 
3.13582 0.4892 4.107 
3.60533 0.522076 4.383 
4.04517 0.554355 4.654 
4.17235 0.542682 4.556 
4.35347 0.532796 4.473 
-0.436289 0.0663671 0.55 
-0.421853 0.0681771 0.565 
-0.406719 0.0701078 0.581 
-0.389439 0.0719178 0.596 
-0.370418 0.0738485 0.612 
-0.352507 0.0761412 0.631 
-0.333336 0.0785545 0.651 
-0.313232 0.0812092 0.673 
-0.291078 0.0838639 0.695 
-0.268733 0.0871219 0.722 
-0.237847 0.0885699 0.734 
-0.213623 0.0929139 0.77 
-0.186273 0.0973786 0.807 
-0.150316 0.100154 0.83 
-0.111138 0.105825 0.877 
-0.0733855 0.110531 0.916 
-0.0290904 0.115479 0.957 
0.0162777 0.12115 1.004 
0.0660271 0.126821 1.051 
0.121143 0.133579 1.107 
0.181635 0.140457 1.164 
0.24967 0.148662 1.232 
0.321302 0.15554 1.289 
0.398543 0.162539 1.347 
0.498315 0.175571 1.455 
1.58369 0.485324 4.022 
1.77864 0.487376 4.039 
2.08767 0.517301 4.287 
2.32804 0.526472 4.363 
2.39273 0.497633 4.124 
2.64638 0.509458 4.222 
2.94486 0.527679 4.373 
2.8802 0.476516 3.949 
3.41967 0.508372 4.213 
4.00178 0.561586 4.654 
4.26947 0.568344 4.71 
4.19896 0.526472 4.363 
-0.440662 0.0669772 0.548 
-0.425725 0.0686883 0.562 
-0.409483 0.0703994 0.576 
-0.393264 0.0723549 0.592 
-0.37205 0.0745549 0.61 
-0.353758 0.0767549 0.628 
-0.335337 0.0793215 0.649 
-0.314959 0.0818881 0.67 
-0.293893 0.0848215 0.694 
-0.270214 0.0876325 0.717 
-0.239474 0.0894659 0.732 
-0.214332 0.0933769 0.764 
-0.187845 0.0981436 0.803 
-0.1551 0.101199 0.828 
-0.121431 0.105477 0.863 
-0.0825287 0.110855 0.907 
-0.0418509 0.115255 0.943 
0.00220296 0.120754 0.988 
0.0507448 0.126988 1.039 
0.104041 0.133221 1.09 
0.163864 0.139454 1.141 
0.230933 0.148376 1.214 
0.301254 0.155465 1.272 
0.380383 0.164021 1.342 
0.466698 0.172821 1.414 
1.56621 0.506118 4.141 
1.72651 0.496707 4.064 
2.02531 0.525062 4.296 
2.27061 0.535695 4.383 
2.48055 0.536917 4.393 
2.63763 0.527384 4.315 
2.90915 0.540462 4.422 
3.04658 0.527384 4.315 
3.12132 0.495607 4.055 
3.783 0.562095 4.599 
4.27581 0.592772 4.85 
4.23207 0.551706 4.514 
4.7387 0.588495 4.815 
-0.428183 0.068695 0.555 
-0.413188 0.0705516 0.57 
-0.398829 0.0727796 0.588 
-0.378388 0.0752551 0.608 
-0.358685 0.0771117 0.623 
-0.341287 0.0798347 0.645 
-0.320874 0.0823102 0.665 
-0.299032 0.0849095 0.686 
-0.276011 0.0877563 0.709 
-0.247762 0.0894892 0.723 
-0.216807 0.0930786 0.752 
-0.192633 0.0986485 0.797 
-0.161142 0.102238 0.826 
-0.127393 0.106199 0.858 
-0.090382 0.111521 0.901 
-0.0503731 0.116101 0.938 
-0.00693632 0.121052 0.978 
0.040822 0.127859 1.033 
0.0930185 0.133677 1.08 
0.150658 0.140484 1.135 
0.215936 0.149025 1.204 
0.286064 0.156699 1.266 
0.360064 0.163507 1.321 
0.43983 0.170562 1.378 
1.5442 0.518121 4.186 
1.70649 0.508343 4.107 
1.96816 0.527157 4.259 
2.21958 0.540029 4.363 
2.46737 0.549931 4.443 
2.6263 0.540029 4.363 
2.81086 0.53644 4.334 
3.06014 0.540029 4.363 
3.24014 0.514779 4.159 
3.95906 0.590158 4.768 
4.25321 0.600308 4.85 
4.39091 0.581618 4.699 
4.70019 0.593005 4.791 
-0.428183 0.0695573 0.555 
-0.413188 0.0714372 0.57 
-0.398151 0.0735678 0.587 
-0.379652 0.0760744 0.607 
-0.360042 0.0779543 0.622 
-0.342227 0.0805862 0.643 
-0.321969 0.0830928 0.663 
-0.300286 0.0857247 0.684 
-0.27743 0.0886072 0.707 
-0.250701 0.0908631 0.725 
-0.218848 0.0936204 0.747 
-0.194377 0.0988842 0.789 
-0.164193 0.10302 0.822 
-0.130933 0.107156 0.855 
-0.0953422 0.112169 0.895 
-0.0557831 0.116681 0.931 
-0.0129078 0.121569 0.97 
0.0341025 0.128336 1.024 
0.0853477 0.133851 1.068 
0.142845 0.141496 1.129 
0.205683 0.14889 1.188 
0.277537 0.15829 1.263 
0.349191 0.164306 1.311 
0.425945 0.170572 1.361 
0.531812 0.185361 1.479 
1.67667 0.511465 4.081 
1.91491 0.524625 4.186 
2.18463 0.543174 4.334 
2.46869 0.561848 4.483 
2.60059 0.54568 4.354 
2.79065 0.543174 4.334 
3.06715 0.548061 4.373 
3.34987 0.532521 4.249 
3.92427 0.584657 4.665 
4.31749 0.609472 4.863 
4.39821 0.588919 4.699 
4.80196 0.61248 4.887 
-0.428183 0.0704196 0.555 
-0.413188 0.0723228 0.57 
-0.398151 0.0744798 0.587 
-0.378708 0.0770175 0.607 
-0.359075 0.0789207 0.622 
-0.341759 0.0817121 0.644 
-0.320939 0.0841229 0.663 
-0.299661 0.0869143 0.685 
-0.276331 0.0897057 0.707 
-0.246392 0.0912283 0.719 
-0.218555 0.0946541 0.746 
-0.193884 0.0998562 0.787 
-0.163993 0.10417 0.821 
-0.13078 0.108357 0.854 
-0.0952357 0.113433 0.894 
-0.0557831 0.118127 0.931 
-0.0128945 0.122949 0.969 
0.0356586 0.1298 1.023 
0.0872514 0.135891 1.071 
0.144856 0.143504 1.131 
0.207879 0.15099 1.19 
0.279721 0.160379 1.264 
0.352032 0.166723 1.314 
0.429633 0.173321 1.366 
0.533749 0.187532 1.478 
1.67032 0.517806 4.081 
1.8961 0.527703 4.159 
2.16382 0.546355 4.306 
2.49028 0.575411 4.535 
2.59383 0.552445 4.354 
2.78392 0.549907 4.334 
2.99971 0.552445 4.354 
3.34327 0.539122 4.249 
4.01537 0.607892 4.791 
4.29088 0.615378 4.85 
4.57375 0.623118 4.911 
4.75054 0.615378 4.85 
-0.429133 0.0711534 0.554 
-0.414231 0.07308 0.569 
-0.398612 0.075135 0.585 
-0.381851 0.0778321 0.606 
-0.361774 0.0796302 0.62 
-0.343077 0.0820705 0.639 
-0.323589 0.0847676 0.66 
-0.302587 0.0875932 0.682 
-0.280328 0.0906757 0.706 
-0.254781 0.0933729 0.727 
-0.221695 0.095171 0.741 
-0.196249 0.0997946 0.777 
-0.166798 0.104804 0.816 
-0.134129 0.10917 0.85 
-0.0988467 0.114179 0.889 
-0.0597996 0.118932 0.926 
-0.0172853 0.123555 0.962 
0.037248 0.13139 1.023 
0.0890814 0.137812 1.073 
0.146613 0.145261 1.131 
0.21008 0.153095 1.192 
0.281685 0.162343 1.264 
0.354882 0.16915 1.317 
0.433335 0.176086 1.371 
0.53677 0.190085 1.48 
1.68365 0.52633 4.098 
1.9108 0.536476 4.177 
2.16094 0.550604 4.287 
2.49732 0.582456 4.535 
2.60059 0.55921 4.354 
2.81577 0.56165 4.373 
3.01269 0.560366 4.363 
3.00892 0.509248 3.965 
3.51431 0.560366 4.363 
4.15525 0.622914 4.85 
4.53544 0.64372 5.012 
4.29267 0.578475 4.504 
-0.440751 0.0709743 0.546 
-0.424852 0.0730541 0.562 
-0.407169 0.074614 0.574 
-0.392344 0.0769538 0.592 
-0.373377 0.0787736 0.606 
-0.355952 0.0812434 0.625 
-0.336277 0.0838432 0.645 
-0.315708 0.086443 0.665 
-0.294988 0.0895628 0.689 
-0.270504 0.0921626 0.709 
-0.237245 0.0929425 0.715 
-0.211288 0.0973621 0.749 
-0.186502 0.102952 0.792 
-0.151606 0.107891 0.83 
-0.117001 0.111791 0.86 
-0.0806724 0.117251 0.902 
-0.0402145 0.12206 0.939 
0.0130792 0.12973 0.998 
0.0622835 0.135579 1.043 
0.116533 0.142468 1.096 
0.176947 0.150398 1.157 
0.243247 0.158457 1.219 
0.316065 0.166907 1.284 
0.394943 0.175356 1.349 
0.483613 0.185235 1.425 
1.65403 0.554795 4.268 
1.79782 0.538287 4.141 
2.06535 0.558435 4.296 
2.37529 0.585473 4.504 
2.51577 0.569744 4.383 
2.72006 0.569744 4.383 
2.9844 0.581443 4.473 
3.04005 0.544136 4.186 
3.1942 0.537247 4.133 
4.11203 0.649817 4.999 
4.24803 0.627459 4.827 
4.6565 0.653197 5.025 
4.83477 0.641628 4.936 
-0.429218 0.0727434 0.553 
-0.414385 0.0747165 0.568 
-0.398838 0.0768212 0.584 
-0.383071 0.079189 0.602 
-0.362678 0.0808991 0.615 
-0.344875 0.0835299 0.635 
-0.324653 0.0865554 0.658 
-0.303812 0.0894494 0.68 
-0.282122 0.0927379 0.705 
-0.255979 0.0952373 0.724 
-0.223695 0.0973419 0.74 
-0.196618 0.101157 0.769 
-0.161835 0.10826 0.823 
-0.128126 0.112338 0.854 
-0.0922509 0.117337 0.892 
-0.0528333 0.122335 0.93 
-0.00387341 0.12786 0.972 
0.0437336 0.134963 1.026 
0.0965529 0.14233 1.082 
0.154457 0.149565 1.137 
0.2184 0.157457 1.197 
0.290456 0.166797 1.268 
0.367477 0.175347 1.333 
0.447979 0.182845 1.39 
1.59516 0.566425 4.306 
1.72705 0.54472 4.141 
1.97014 0.558927 4.249 
2.18248 0.56261 4.277 
2.50824 0.59247 4.504 
2.65119 0.577869 4.393 
2.88195 0.583131 4.433 
3.10251 0.585762 4.453 
3.04626 0.526962 4.006 
3.72043 0.606414 4.61 
4.18962 0.64443 4.899 
4.69961 0.6785 5.158 
4.77214 0.646009 4.911 
-0.430307 0.0732033 0.55 
-0.41615 0.075599 0.568 
-0.399281 0.0774624 0.582 
-0.383024 0.079725 0.599 
-0.363404 0.0815884 0.613 
-0.345756 0.0842503 0.633 
-0.327243 0.0871784 0.655 
-0.306679 0.0901066 0.677 
-0.283506 0.0935671 0.703 
-0.257159 0.0959628 0.721 
-0.221994 0.0987579 0.742 
-0.194229 0.102351 0.769 
-0.159472 0.109672 0.824 
-0.125619 0.113798 0.855 
-0.0895795 0.118855 0.893 
-0.0499972 0.123913 0.931 
-0.00686539 0.128838 0.968 
0.0403478 0.135892 1.021 
0.0929324 0.143611 1.079 
0.150393 0.150799 1.133 
0.213784 0.158651 1.192 
0.285838 0.168368 1.265 
0.362245 0.176886 1.329 
0.441745 0.184206 1.384 
1.57509 0.573115 4.306 
1.70074 0.548891 4.124 
1.92142 0.557143 4.186 
2.14838 0.565529 4.249 
2.52204 0.607853 4.567 
2.59538 0.576842 4.334 
2.82256 0.582033 4.373 
3.04715 0.586025 4.403 
3.12843 0.544233 4.089 
4.01676 0.653639 4.911 
4.36669 0.672272 5.051 
4.73167 0.686514 5.158 
4.84108 0.662024 4.974 
-0.431162 0.0740578 0.55 
-0.41615 0.0764815 0.568 
-0.399281 0.0783666 0.582 
-0.383024 0.0806557 0.599 
-0.363404 0.0825408 0.613 
-0.34521 0.0850991 0.632 
-0.324685 0.0883307 0.656 
-0.30442 0.0914277 0.679 
-0.279931 0.0949286 0.705 
-0.252328 0.0969484 0.72 
-0.221695 0.0997761 0.741 
-0.192783 0.103412 0.768 
-0.159278 0.110817 0.823 
-0.125619 0.115126 0.855 
-0.0893788 0.119974 0.891 
-0.0499435 0.125225 0.93 
-0.00235595 0.130476 0.969 
0.0452835 0.138017 1.025 
0.0983248 0.145827 1.083 
0.156636 0.153502 1.14 
0.219708 0.160773 1.194 
0.292196 0.170602 1.267 
0.371489 0.180432 1.34 
0.452406 0.188107 1.397 
1.59813 0.578459 4.296 
1.74479 0.561223 4.168 
1.97256 0.570918 4.24 
2.16558 0.569706 4.231 
2.52697 0.609294 4.525 
2.65801 0.59152 4.393 
2.85625 0.590173 4.383 
3.13037 0.603638 4.483 
3.40686 0.588827 4.373 
4.18026 0.676619 5.025 
4.39286 0.669752 4.974 
4.70838 0.68187 5.064 
4.89648 0.673118 4.999 
-0.427584 0.0751847 0.552 
-0.412463 0.0775002 0.569 
-0.394976 0.0796795 0.585 
-0.378395 0.0819949 0.602 
-0.359647 0.0841742 0.618 
-0.341013 0.0867621 0.637 
-0.318398 0.0901672 0.662 
-0.296663 0.0930275 0.683 
-0.270504 0.0965688 0.709 
-0.238462 0.0969774 0.712 
-0.213345 0.101336 0.744 
-0.184911 0.104877 0.77 
-0.151241 0.112777 0.828 
-0.116593 0.116727 0.857 
-0.0803146 0.122311 0.898 
-0.0372967 0.127896 0.939 
0.0129875 0.134978 0.991 
0.0621641 0.141789 1.041 
0.120267 0.149688 1.099 
0.181011 0.157997 1.16 
0.247643 0.166442 1.222 
0.321052 0.175431 1.288 
0.402685 0.185374 1.361 
0.488041 0.194091 1.425 
1.69235 0.587721 4.315 
1.84082 0.571377 4.195 
2.0946 0.587721 4.315 
2.41862 0.619184 4.546 
2.58827 0.609241 4.473 
2.77175 0.603793 4.433 
2.95822 0.599707 4.403 
3.20265 0.593033 4.354 
3.99873 0.67748 4.974 
4.42788 0.698864 5.131 
4.71616 0.706219 5.185 
4.95783 0.706219 5.185 
-0.436509 0.0752158 0.546 
-0.420847 0.0770067 0.559 
-0.404113 0.0793485 0.576 
-0.38971 0.0819659 0.595 
-0.368061 0.0833435 0.605 
-0.351097 0.0860987 0.625 
-0.332783 0.0889916 0.646 
-0.312044 0.0917467 0.666 
-0.288087 0.0954662 0.693 
-0.263537 0.0983591 0.714 
-0.230257 0.0983591 0.714 
-0.205805 0.102767 0.746 
-0.177454 0.106625 0.774 
-0.146271 0.114201 0.829 
-0.111916 0.118747 0.862 
-0.0715695 0.125497 0.911 
-0.0231187 0.131697 0.956 
0.0224051 0.13762 0.999 
0.0724207 0.144508 1.049 
0.127907 0.15236 1.106 
0.188869 0.16035 1.164 
0.257326 0.169718 1.232 
0.331356 0.178672 1.297 
0.413258 0.188453 1.368 
0.500733 0.19782 1.436 
1.69686 0.586711 4.259 
1.86289 0.576655 4.186 
2.11699 0.593185 4.306 
2.47002 0.632171 4.589 
2.59268 0.610681 4.433 
2.78604 0.607788 4.412 
2.97202 0.603793 4.383 
3.25543 0.616191 4.473 
4.0214 0.695815 5.051 
4.357 0.703116 5.104 
4.61455 0.704907 5.117 
4.81512 0.699397 5.077 
-0.438291 0.0757855 0.544 
-0.422584 0.0778752 0.559 
-0.404113 0.0802435 0.576 
-0.38971 0.0828904 0.595 
-0.367453 0.0841442 0.604 
-0.351097 0.0870697 0.625 
-0.332268 0.089856 0.645 
-0.312044 0.0927815 0.666 
-0.290284 0.0958463 0.688 
-0.266848 0.0990505 0.711 
-0.234037 0.0991898 0.712 
-0.209313 0.103369 0.742 
-0.18038 0.106713 0.766 
-0.155064 0.114375 0.821 
-0.121634 0.119111 0.855 
-0.0813458 0.124545 0.894 
-0.0344155 0.130953 0.94 
0.0145272 0.138058 0.991 
0.0637815 0.145023 1.041 
0.11802 0.152407 1.094 
0.17859 0.161044 1.156 
0.244538 0.169403 1.216 
0.318556 0.179155 1.286 
0.402042 0.1903 1.366 
0.485486 0.19838 1.424 
1.70373 0.605169 4.344 
1.86452 0.591935 4.249 
2.10382 0.603776 4.334 
2.40745 0.630385 4.525 
2.612 0.628852 4.514 
2.79676 0.623141 4.473 
2.97098 0.616036 4.422 
3.28918 0.637768 4.578 
3.58705 0.645291 4.632 
4.18689 0.709096 5.09 
4.58388 0.732082 5.255 
4.93366 0.72233 5.185 
-0.437446 0.0766307 0.544 
-0.41899 0.0788845 0.56 
-0.402324 0.0811384 0.576 
-0.387862 0.0838148 0.595 
-0.366181 0.0852235 0.605 
-0.349155 0.0880408 0.625 
-0.330776 0.0909989 0.646 
-0.31044 0.0939571 0.667 
-0.288983 0.097197 0.69 
-0.265383 0.100437 0.713 
-0.23215 0.100437 0.713 
-0.207007 0.104522 0.742 
-0.178 0.107903 0.766 
-0.151238 0.11565 0.821 
-0.117649 0.12044 0.855 
-0.0700771 0.128187 0.91 
-0.0245011 0.134104 0.952 
0.0223602 0.140443 0.997 
0.0724207 0.147768 1.049 
0.127329 0.155093 1.101 
0.188382 0.163545 1.161 
0.255864 0.17256 1.225 
0.337197 0.183688 1.304 
0.420866 0.194253 1.379 
0.508009 0.203409 1.444 
1.70107 0.592197 4.204 
1.90108 0.593465 4.213 
2.12035 0.599945 4.259 
2.48656 0.643332 4.567 
2.60249 0.62023 4.403 
2.80134 0.618821 4.393 
3.03347 0.624456 4.433 
3.29199 0.634457 4.504 
4.06117 0.722779 5.131 
4.33386 0.728414 5.171 
4.84168 0.742219 5.269 
-0.439173 0.0773335 0.543 
-0.420961 0.0794698 0.558 
-0.402899 0.081606 0.573 
-0.389978 0.0845968 0.594 
-0.367781 0.0858786 0.603 
-0.351505 0.0888694 0.624 
-0.332268 0.0918602 0.645 
-0.311107 0.0945662 0.664 
-0.289862 0.0978418 0.687 
-0.266117 0.101402 0.712 
-0.232931 0.101402 0.712 
-0.207599 0.10539 0.74 
-0.178488 0.108666 0.763 
-0.153227 0.116499 0.818 
-0.120306 0.121768 0.855 
-0.0774379 0.12775 0.897 
-0.0372569 0.133589 0.938 
0.00669091 0.138289 0.971 
0.0550526 0.146549 1.029 
0.108721 0.154667 1.086 
0.16785 0.162927 1.144 
0.232578 0.17133 1.203 
0.313581 0.182581 1.282 
0.397798 0.194544 1.366 
0.479372 0.202092 1.419 
1.72003 0.62707 4.403 
1.89115 0.615962 4.325 
2.10193 0.618668 4.344 
2.37284 0.63704 4.473 
2.64192 0.651994 4.578 
2.82224 0.644446 4.525 
2.97819 0.632767 4.443 
3.31289 0.658118 4.621 
3.65982 0.675778 4.745 
4.24548 0.736448 5.171 
5.08624 0.818766 5.749 
-0.43221 0.078753 0.547 
-0.414096 0.0812005 0.564 
-0.396568 0.083792 0.582 
-0.378962 0.0859516 0.597 
-0.360547 0.0882552 0.613 
-0.337513 0.0915666 0.636 
-0.317979 0.0948779 0.659 
-0.296417 0.0979014 0.68 
-0.272508 0.100781 0.7 
-0.241937 0.101645 0.706 
-0.216432 0.105244 0.731 
-0.189095 0.109131 0.758 
-0.164313 0.116618 0.81 
-0.13078 0.122953 0.854 
-0.0888773 0.12756 0.886 
-0.0496212 0.133031 0.924 
-0.00681575 0.138358 0.961 
0.0415645 0.1457 1.012 
0.098234 0.155778 1.082 
0.155674 0.163121 1.133 
0.218788 0.171183 1.189 
0.291735 0.182125 1.265 
0.370934 0.192635 1.338 
0.454996 0.202281 1.405 
1.6653 0.633911 4.403 
1.84121 0.623977 4.334 
2.03898 0.622681 4.325 
2.22088 0.61721 4.287 
2.60309 0.663714 4.61 
2.74033 0.645429 4.483 
2.92297 0.63967 4.443 
3.32661 0.679839 4.722 
3.38296 0.648453 4.504 
4.21431 0.760607 5.283 
4.40145 0.750529 5.213 
-0.438329 0.0790208 0.543 
-0.42118 0.0809126 0.556 
-0.403084 0.083241 0.572 
-0.388133 0.0864426 0.594 
-0.365907 0.0877523 0.603 
-0.345823 0.0910994 0.626 
-0.320647 0.0951742 0.654 
-0.298705 0.0986668 0.678 
-0.274983 0.101577 0.698 
-0.24488 0.102596 0.705 
-0.218636 0.105798 0.727 
-0.191612 0.109727 0.754 
-0.166221 0.116567 0.801 
-0.134494 0.122824 0.844 
-0.0965884 0.128209 0.881 
-0.0578567 0.133593 0.918 
-0.0156922 0.139123 0.956 
0.0301053 0.14509 0.997 
0.0887493 0.155568 1.069 
0.145057 0.162844 1.119 
0.207436 0.171284 1.177 
0.277896 0.181471 1.247 
0.35569 0.192095 1.32 
0.444714 0.204755 1.407 
0.533144 0.213924 1.47 
1.76175 0.617031 4.24 
2.01206 0.633621 4.354 
2.15701 0.617031 4.24 
2.56011 0.670876 4.61 
2.69252 0.650939 4.473 
2.84912 0.639297 4.393 
3.3389 0.698963 4.803 
3.35655 0.658506 4.525 
3.98216 0.735053 5.051 
4.38793 0.764741 5.255 
-0.436642 0.0798644 0.543 
-0.42118 0.0817764 0.556 
-0.404154 0.0839826 0.571 
-0.390763 0.0869242 0.591 
-0.369977 0.0885421 0.602 
-0.351744 0.0913366 0.621 
-0.324753 0.0953078 0.648 
-0.304549 0.0985436 0.67 
-0.281359 0.102221 0.695 
-0.253622 0.104133 0.708 
-0.224361 0.105898 0.72 
-0.197957 0.109869 0.747 
-0.168162 0.113252 0.77 
-0.139143 0.119135 0.81 
-0.107671 0.128107 0.871 
-0.069538 0.132813 0.903 
-0.0286648 0.138696 0.943 
0.0160345 0.145462 0.989 
0.0740505 0.154287 1.049 
0.12857 0.161347 1.097 
0.18822 0.168995 1.149 
0.255242 0.178408 1.213 
0.333114 0.190616 1.296 
0.420849 0.203853 1.386 
0.504365 0.211795 1.44 
1.73565 0.633326 4.306 
1.94041 0.63465 4.315 
2.13706 0.633326 4.306 
2.47947 0.671714 4.567 
2.7112 0.676421 4.599 
2.86513 0.662448 4.504 
3.17747 0.68451 4.654 
3.32269 0.668625 4.546 
3.77094 0.713338 4.85 
4.36539 0.779082 5.297 
4.69303 0.766728 5.213 
-0.423108 0.082343 0.554 
-0.408043 0.0845725 0.569 
-0.393591 0.0872479 0.587 
-0.374341 0.0891802 0.6 
-0.355612 0.0915583 0.616 
-0.332754 0.0957201 0.644 
-0.311198 0.0983955 0.662 
-0.289235 0.101517 0.683 
-0.265315 0.104638 0.704 
-0.234152 0.105381 0.709 
-0.209048 0.109543 0.737 
-0.179911 0.112813 0.759 
-0.15242 0.119947 0.807 
-0.116686 0.126041 0.848 
-0.0810729 0.132433 0.891 
-0.0412739 0.138229 0.93 
0.0021539 0.14358 0.966 
0.0533499 0.152647 1.027 
0.111992 0.161267 1.085 
0.169906 0.168551 1.134 
0.236316 0.178806 1.203 
0.309888 0.189508 1.275 
0.393068 0.201696 1.357 
0.477504 0.21106 1.42 
1.73463 0.66796 4.494 
1.94842 0.669446 4.504 
2.10516 0.652947 4.393 
2.34147 0.661865 4.453 
2.67038 0.693376 4.665 
2.8742 0.690106 4.643 
3.01206 0.672567 4.525 
3.44591 0.719089 4.838 
3.64485 0.713887 4.803 
4.25535 0.785231 5.283 
4.43002 0.772746 5.199 
-0.430571 0.0820023 0.546 
-0.414768 0.0839547 0.559 
-0.398251 0.0862075 0.574 
-0.383794 0.0890611 0.593 
-0.363361 0.0908633 0.605 
-0.345688 0.0937169 0.624 
-0.327258 0.0968708 0.645 
-0.30687 0.100025 0.666 
-0.285353 0.103479 0.689 
-0.260957 0.106633 0.71 
-0.228038 0.107234 0.714 
-0.202123 0.111289 0.741 
-0.172787 0.114743 0.764 
-0.142037 0.120901 0.805 
-0.108649 0.130363 0.868 
-0.0706268 0.135018 0.899 
-0.0300341 0.141176 0.94 
0.0144392 0.147934 0.985 
0.0636589 0.156045 1.039 
0.117265 0.163254 1.087 
0.175501 0.170613 1.136 
0.242125 0.180826 1.204 
0.316822 0.19209 1.279 
0.400276 0.204255 1.36 
0.487532 0.214768 1.43 
1.75128 0.67329 4.483 
1.97379 0.677945 4.514 
2.13967 0.664128 4.422 
2.38398 0.674942 4.494 
2.73137 0.710836 4.733 
2.9027 0.698972 4.654 
3.07606 0.689209 4.589 
3.44337 0.72135 4.803 
3.66724 0.72135 4.803 
4.27998 0.79344 5.283 
4.88148 0.831587 5.537 
-0.43491 0.0825471 0.544 
-0.416626 0.0846715 0.558 
-0.398641 0.0867958 0.572 
-0.384986 0.0898307 0.592 
-0.364637 0.0916516 0.604 
-0.346512 0.0943829 0.622 
-0.328751 0.0977212 0.644 
-0.308012 0.100756 0.664 
-0.286242 0.104094 0.686 
-0.262051 0.107281 0.707 
-0.230394 0.107888 0.711 
-0.205022 0.112137 0.739 
-0.176117 0.115778 0.763 
-0.148106 0.122 0.804 
-0.115585 0.127462 0.84 
-0.0810729 0.135201 0.891 
-0.0411852 0.140816 0.928 
0.00215613 0.146734 0.967 
0.0501098 0.155686 1.026 
0.102895 0.163577 1.078 
0.15996 0.17086 1.126 
0.224707 0.180724 1.191 
0.297395 0.191801 1.264 
0.37858 0.203788 1.343 
0.461873 0.213348 1.406 
1.7105 0.683441 4.504 
1.90721 0.678737 4.473 
2.10624 0.675703 4.453 
2.32419 0.678737 4.473 
2.61648 0.701195 4.621 
2.84534 0.704533 4.643 
3.01889 0.69467 4.578 
3.51187 0.75476 4.974 
3.6692 0.739737 4.875 
4.15538 0.788901 5.199 
4.35119 0.780556 5.144 
4.4826 0.711362 4.688 
-0.420526 0.0849252 0.554 
-0.403446 0.087378 0.57 
-0.390102 0.0904438 0.59 
-0.369977 0.0922834 0.602 
-0.350437 0.0945828 0.617 
-0.334713 0.0984152 0.642 
-0.312385 0.100868 0.658 
-0.290278 0.103934 0.678 
-0.266688 0.107153 0.699 
-0.235689 0.108379 0.707 
-0.209622 0.112672 0.735 
-0.180851 0.116197 0.758 
-0.151098 0.122636 0.8 
-0.118647 0.127848 0.834 
-0.0834651 0.135972 0.887 
-0.0439263 0.141798 0.925 
-0.000846924 0.147929 0.965 
0.046693 0.156514 1.021 
0.0989916 0.164332 1.072 
0.156044 0.17215 1.123 
0.219707 0.181501 1.184 
0.291843 0.192691 1.257 
0.373013 0.205108 1.338 
0.456203 0.214919 1.402 
1.67877 0.688906 4.494 
1.81723 0.662999 4.325 
2.0879 0.685687 4.473 
2.33387 0.696877 4.546 
2.57544 0.705002 4.599 
2.80982 0.710061 4.632 
3.01853 0.708375 4.621 
3.49845 0.76632 4.999 
3.61128 0.741639 4.838 
3.97477 0.768313 5.012 
4.33097 0.790694 5.158 
4.65471 0.754823 4.924 
-0.423296 0.0854763 0.552 
-0.40765 0.0876442 0.566 
-0.394067 0.0905863 0.585 
-0.375579 0.0927541 0.599 
-0.356365 0.0950769 0.614 
-0.33949 0.0984835 0.636 
-0.31764 0.100961 0.652 
-0.297383 0.104523 0.675 
-0.274195 0.107774 0.696 
-0.242449 0.108084 0.698 
-0.215929 0.111181 0.718 
-0.188925 0.115827 0.748 
-0.162301 0.12295 0.794 
-0.129711 0.127285 0.822 
-0.0934247 0.135802 0.877 
-0.055064 0.142306 0.919 
-0.0126949 0.147725 0.954 
0.0330701 0.153764 0.993 
0.087421 0.163055 1.053 
0.146402 0.172811 1.116 
0.207665 0.180863 1.168 
0.27759 0.191547 1.237 
0.356928 0.203935 1.317 
0.443088 0.216013 1.395 
0.535427 0.227627 1.47 
1.78249 0.666777 4.306 
2.0601 0.692637 4.473 
2.33807 0.713851 4.61 
2.57731 0.720664 4.654 
2.82786 0.729336 4.71 
2.99693 0.717257 4.632 
3.46739 0.774087 4.999 
3.58121 0.749156 4.838 
3.80671 0.749156 4.838 
4.35643 0.809392 5.227 
4.67486 0.822554 5.312 
-0.432375 0.0850827 0.544 
-0.417493 0.0872723 0.558 
-0.400605 0.0893055 0.571 
-0.384336 0.0924336 0.591 
-0.364637 0.0944668 0.604 
-0.346512 0.097282 0.622 
-0.32773 0.10041 0.642 
-0.308012 0.103851 0.664 
-0.285825 0.107135 0.685 
-0.26131 0.110263 0.705 
-0.230394 0.111202 0.711 
-0.20043 0.115581 0.739 
-0.172049 0.119804 0.766 
-0.141136 0.126216 0.807 
-0.108524 0.132316 0.846 
-0.0719434 0.140449 0.898 
-0.031327 0.146236 0.935 
0.0128302 0.153118 0.979 
0.0650219 0.161876 1.035 
0.124705 0.170947 1.093 
0.182721 0.177829 1.137 
0.251687 0.188464 1.205 
0.333576 0.201759 1.29 
0.419035 0.21474 1.373 
0.505898 0.224906 1.438 
1.75863 0.682382 4.363 
2.02989 0.705999 4.514 
2.30432 0.726174 4.643 
2.55113 0.734933 4.699 
2.85917 0.75855 4.85 
2.98218 0.733213 4.688 
3.43077 0.78592 5.025 
3.5286 0.756673 4.838 
3.7541 0.756673 4.838 
4.39335 0.835343 5.341 
4.52695 0.813134 5.199 
4.73553 0.789986 5.051 
-0.423296 0.0871915 0.552 
-0.40693 0.089245 0.565 
-0.392679 0.09272 0.587 
-0.373409 0.0947734 0.6 
-0.353503 0.0969848 0.614 
-0.337583 0.100776 0.638 
-0.315084 0.103145 0.653 
-0.293801 0.106462 0.674 
-0.270645 0.110253 0.698 
-0.239475 0.110885 0.702 
-0.213024 0.115466 0.731 
-0.18224 0.119099 0.754 
-0.153279 0.125101 0.792 
-0.121065 0.130155 0.824 
-0.0857353 0.139317 0.882 
-0.0466489 0.145635 0.922 
-0.00383356 0.151953 0.962 
0.0430516 0.159535 1.01 
0.094679 0.167591 1.061 
0.151876 0.176594 1.118 
0.214204 0.18544 1.174 
0.297465 0.198392 1.256 
0.3801 0.211819 1.341 
0.464718 0.222402 1.408 
1.69113 0.703377 4.453 
1.90295 0.704956 4.463 
2.15496 0.719646 4.556 
2.36732 0.719646 4.556 
2.62893 0.733388 4.643 
2.92869 0.75487 4.779 
3.14419 0.753133 4.768 
3.51187 0.785672 4.974 
3.76252 0.78962 4.999 
4.03709 0.797834 5.051 
4.19639 0.783618 4.961 
4.62754 0.819 5.185 
-0.432424 0.0866136 0.543 
-0.41836 0.0890062 0.558 
-0.401493 0.0910798 0.571 
-0.385519 0.0941105 0.59 
-0.365907 0.0961841 0.603 
-0.345955 0.0990553 0.621 
-0.326224 0.102245 0.641 
-0.30698 0.105914 0.664 
-0.285177 0.109423 0.686 
-0.260215 0.112454 0.705 
-0.228967 0.113252 0.71 
-0.195216 0.118196 0.741 
-0.16805 0.12362 0.775 
-0.137715 0.129043 0.809 
-0.105075 0.135583 0.85 
-0.069384 0.143718 0.901 
-0.0284521 0.149301 0.936 
0.0158723 0.15616 0.979 
0.0648334 0.164614 1.032 
0.118407 0.172589 1.082 
0.176485 0.180405 1.131 
0.242779 0.191092 1.198 
0.323793 0.204651 1.283 
0.406316 0.216773 1.359 
0.495579 0.228736 1.434 
1.72794 0.694504 4.354 
2.04441 0.735338 4.61 
2.30291 0.749534 4.699 
2.50368 0.744111 4.665 
2.87219 0.785424 4.924 
3.05509 0.77362 4.85 
3.41713 0.805682 5.051 
3.5694 0.787338 4.936 
3.84796 0.797387 4.999 
4.25566 0.831522 5.213 
4.34763 0.803608 5.038 
4.12255 0.716835 4.494 
-0.42711 0.0881015 0.547 
-0.411159 0.0901953 0.56 
-0.395372 0.0926112 0.575 
-0.378904 0.0956714 0.594 
-0.357606 0.0979263 0.608 
-0.336452 0.102114 0.634 
-0.315614 0.105013 0.652 
-0.294849 0.108556 0.674 
-0.27134 0.112261 0.697 
-0.239881 0.112744 0.7 
-0.207621 0.118542 0.736 
-0.178488 0.122891 0.763 
