# .PCD v.7 - Point Cloud Data file format
VERSION .7
FIELDS x y z
SIZE 4 4 4
TYPE F F F
COUNT 1 1 1
WIDTH 1809
HEIGHT 1
VIEWPOINT 0 0 0 1 0 0 0
POINTS 1809
DATA ascii
0.422125 -0.21429 1.285 
0.462138 -0.205452 1.232 
0.495524 -0.195946 1.175 
0.519381 -0.18494 1.109 
0.5376 -0.1741 1.044 
0.573907 -0.170431 1.022 
0.593568 -0.16276 0.976 
0.612868 -0.15609 0.936 
0.632649 -0.15042 0.902 
0.632055 -0.140914 0.845 
0.646808 -0.135745 0.814 
0.660354 -0.130909 0.785 
0.674747 -0.12674 0.76 
0.687016 -0.122404 0.734 
0.699611 -0.118735 0.712 
-0.681119 -0.13448 0.814 
-0.643968 -0.134645 0.815 
-0.601005 -0.133819 0.81 
-0.563946 -0.133985 0.811 
-0.524847 -0.133654 0.809 
-0.488946 -0.13415 0.812 
-0.444988 -0.132332 0.801 
-0.412742 -0.133985 0.811 
-0.384188 -0.137289 0.831 
-0.355847 -0.141419 0.856 
-0.323331 -0.144723 0.876 
-0.287982 -0.147532 0.893 
-0.253256 -0.151662 0.918 
-0.217346 -0.156618 0.948 
-0.177178 -0.160253 0.97 
-0.131014 -0.159096 0.963 
-0.086128 -0.159096 0.963 
-0.0383691 -0.159592 0.966 
0.00667024 -0.159922 0.968 
0.0547316 -0.169009 1.023 
0.110223 -0.181895 1.101 
0.173865 -0.195773 1.185 
0.248045 -0.211963 1.283 
0.337599 -0.232449 1.407 
0.386846 -0.223032 1.35 
0.426448 -0.211468 1.28 
0.464462 -0.202051 1.223 
0.499721 -0.193625 1.172 
0.51982 -0.181565 1.099 
0.541427 -0.172148 1.042 
0.576406 -0.168183 1.018 
0.596278 -0.160748 0.973 
0.615253 -0.15414 0.933 
0.633323 -0.148193 0.897 
0.631478 -0.13861 0.839 
0.649004 -0.13415 0.812 
0.661475 -0.129193 0.782 
0.669904 -0.123576 0.748 
0.689693 -0.120933 0.732 
0.702058 -0.117298 0.71 
-0.673531 -0.133215 0.814 
-0.637152 -0.133543 0.816 
-0.598384 -0.133379 0.815 
-0.559709 -0.133215 0.814 
-0.51664 -0.131906 0.806 
-0.482638 -0.132888 0.812 
-0.4426 -0.132234 0.808 
-0.410952 -0.134197 0.82 
-0.377732 -0.135998 0.831 
-0.350013 -0.140416 0.858 
-0.317971 -0.144017 0.88 
-0.281989 -0.146635 0.896 
-0.247197 -0.15089 0.922 
-0.209539 -0.154818 0.946 
-0.169643 -0.158746 0.97 
-0.123789 -0.157927 0.965 
-0.0788104 -0.157927 0.965 
-0.0308968 -0.158255 0.967 
0.0142926 -0.159564 0.975 
0.0631075 -0.168565 1.03 
0.119962 -0.181985 1.112 
0.185851 -0.196877 1.203 
0.260827 -0.212261 1.297 
0.349024 -0.23059 1.409 
0.394684 -0.219462 1.341 
0.431619 -0.207188 1.266 
0.469313 -0.198187 1.211 
0.505787 -0.190659 1.165 
0.52355 -0.178221 1.089 
0.551699 -0.170202 1.04 
0.580553 -0.164637 1.006 
0.6 -0.157436 0.962 
0.618697 -0.151054 0.923 
0.631607 -0.14418 0.881 
0.632967 -0.13567 0.829 
0.652974 -0.131906 0.806 
0.663983 -0.126833 0.775 
0.668733 -0.120941 0.739 
0.690808 -0.118814 0.726 
-0.71641 -0.134058 0.827 
-0.668027 -0.132113 0.815 
-0.631586 -0.132437 0.817 
-0.592779 -0.132275 0.816 
-0.554745 -0.132275 0.816 
-0.511012 -0.130816 0.807 
-0.473984 -0.130978 0.808 
-0.437403 -0.131302 0.81 
-0.406063 -0.13341 0.823 
-0.371723 -0.134869 0.832 
-0.345349 -0.139894 0.863 
-0.311842 -0.142974 0.882 
-0.276257 -0.145892 0.9 
-0.241337 -0.150268 0.927 
-0.203472 -0.154321 0.952 
-0.162107 -0.157239 0.97 
-0.116775 -0.157077 0.969 
-0.0714617 -0.156752 0.967 
-0.0263623 -0.15659 0.966 
0.0189531 -0.159022 0.981 
0.0681062 -0.167451 1.033 
0.130567 -0.183013 1.129 
0.197306 -0.197116 1.216 
0.2732 -0.212029 1.308 
0.359203 -0.227915 1.406 
0.401779 -0.215595 1.33 
0.438664 -0.203924 1.258 
0.474767 -0.194684 1.201 
0.508664 -0.185931 1.147 
0.529781 -0.175232 1.081 
0.558111 -0.166641 1.028 
0.584803 -0.160805 0.992 
0.604959 -0.154159 0.951 
0.623342 -0.147999 0.913 
0.626512 -0.139245 0.859 
0.63784 -0.133248 0.822 
0.654766 -0.129033 0.796 
0.665793 -0.12417 0.766 
0.67677 -0.119793 0.739 
0.690042 -0.116227 0.717 
-0.704423 -0.132452 0.825 
-0.661933 -0.131649 0.82 
-0.621431 -0.131168 0.817 
-0.58335 -0.131168 0.817 
-0.543268 -0.130686 0.814 
-0.504085 -0.130365 0.812 
-0.46107 -0.12892 0.803 
-0.427335 -0.130044 0.81 
-0.397276 -0.132613 0.826 
-0.36616 -0.135342 0.843 
-0.337337 -0.139677 0.87 
-0.303267 -0.142727 0.889 
-0.266837 -0.145456 0.906 
-0.231302 -0.149791 0.933 
-0.195263 -0.155732 0.97 
-0.150051 -0.155732 0.97 
-0.105055 -0.156053 0.972 
-0.0591351 -0.154447 0.962 
-0.0143555 -0.155089 0.966 
0.0320036 -0.161832 1.008 
0.0825913 -0.169218 1.054 
0.144743 -0.183667 1.144 
0.213301 -0.197795 1.232 
0.2927 -0.21385 1.332 
0.371321 -0.22252 1.386 
0.412649 -0.210639 1.312 
0.448883 -0.199561 1.243 
0.480919 -0.188644 1.175 
0.514259 -0.181098 1.128 
0.526447 -0.166649 1.038 
0.565968 -0.16408 1.022 
0.587787 -0.157176 0.979 
0.607538 -0.150755 0.939 
0.627029 -0.145135 0.904 
0.627712 -0.136145 0.848 
0.642058 -0.131007 0.816 
0.656756 -0.126512 0.788 
0.668843 -0.122016 0.76 
0.6811 -0.118003 0.735 
0.693947 -0.114471 0.713 
-0.692486 -0.130852 0.823 
-0.652536 -0.130534 0.821 
-0.610528 -0.129739 0.816 
-0.573897 -0.130057 0.818 
-0.53315 -0.129421 0.814 
-0.495209 -0.129421 0.814 
-0.453898 -0.128467 0.808 
-0.419328 -0.129421 0.814 
-0.387478 -0.131488 0.827 
-0.359479 -0.135463 0.852 
-0.326148 -0.138166 0.869 
-0.292217 -0.141346 0.889 
-0.258961 -0.145957 0.918 
-0.223002 -0.150568 0.947 
-0.183773 -0.154701 0.973 
-0.138137 -0.154384 0.971 
-0.0926867 -0.154066 0.969 
-0.0473742 -0.153589 0.966 
-0.00234865 -0.153589 0.966 
0.0447975 -0.16122 1.014 
0.102066 -0.172827 1.087 
0.165517 -0.187295 1.178 
0.234832 -0.199538 1.255 
0.3261 -0.220366 1.386 
0.381681 -0.215278 1.354 
0.420154 -0.203354 1.279 
0.456136 -0.193337 1.216 
0.49215 -0.185546 1.167 
0.517039 -0.17553 1.104 
0.542467 -0.16599 1.044 
0.572443 -0.160743 1.011 
0.593214 -0.153907 0.968 
0.614593 -0.148183 0.932 
0.626262 -0.141028 0.887 
0.628467 -0.13276 0.835 
0.647405 -0.128785 0.81 
0.659783 -0.124016 0.78 
0.67115 -0.119564 0.752 
0.687419 -0.116384 0.732 
0.700838 -0.113045 0.711 
-0.678941 -0.128944 0.819 
-0.641549 -0.129101 0.82 
-0.603329 -0.129101 0.82 
-0.564419 -0.128944 0.819 
-0.523675 -0.128314 0.815 
-0.486284 -0.128472 0.816 
-0.4477 -0.128314 0.815 
-0.412729 -0.129259 0.821 
-0.378567 -0.130676 0.83 
-0.350527 -0.134769 0.856 
-0.319338 -0.138548 0.88 
-0.282749 -0.140752 0.894 
-0.2489 -0.145318 0.923 
-0.210785 -0.148781 0.945 
-0.171856 -0.153347 0.974 
-0.126587 -0.153505 0.975 
-0.0808923 -0.153032 0.972 
-0.0356237 -0.15319 0.973 
0.00968815 -0.15256 0.969 
0.0576839 -0.160432 1.019 
0.119639 -0.174602 1.109 
0.186006 -0.189559 1.204 
0.256202 -0.200579 1.274 
0.347973 -0.219787 1.396 
0.395288 -0.210341 1.336 
0.431188 -0.198218 1.259 
0.467303 -0.189086 1.201 
0.504111 -0.182159 1.157 
0.523795 -0.170981 1.086 
0.551699 -0.163738 1.04 
0.577667 -0.157598 1.001 
0.598129 -0.150986 0.959 
0.618026 -0.14516 0.922 
0.622199 -0.136344 0.866 
0.63043 -0.129731 0.824 
0.652603 -0.126582 0.804 
0.662612 -0.121544 0.772 
0.670543 -0.116664 0.741 
0.687002 -0.113672 0.722 
-0.713811 -0.128451 0.824 
-0.670486 -0.127516 0.818 
-0.633905 -0.127827 0.82 
-0.594958 -0.127671 0.819 
-0.556784 -0.127671 0.819 
-0.516711 -0.127204 0.816 
-0.477504 -0.126892 0.814 
-0.440103 -0.127048 0.815 
-0.405569 -0.128139 0.822 
-0.373064 -0.130166 0.835 
-0.344148 -0.134063 0.86 
-0.312549 -0.137804 0.884 
-0.276564 -0.140454 0.901 
-0.241857 -0.144819 0.929 
-0.202617 -0.147781 0.948 
-0.162776 -0.151834 0.974 
-0.117859 -0.152457 0.978 
-0.0719051 -0.151678 0.973 
-0.026526 -0.151522 0.972 
0.0189531 -0.152925 0.981 
0.0678424 -0.160408 1.029 
0.127672 -0.174438 1.119 
0.194292 -0.188467 1.209 
0.265778 -0.199847 1.282 
0.355627 -0.216995 1.392 
0.402383 -0.207641 1.332 
0.437269 -0.195482 1.254 
0.471209 -0.185817 1.192 
0.505115 -0.178179 1.143 
0.524682 -0.167423 1.074 
0.554405 -0.161031 1.033 
0.580972 -0.155263 0.996 
0.600939 -0.148716 0.954 
0.620374 -0.142948 0.917 
0.621897 -0.134063 0.86 
0.631961 -0.127983 0.821 
0.652269 -0.124554 0.799 
0.661895 -0.119565 0.767 
0.673087 -0.115356 0.74 
0.686542 -0.111927 0.718 
-0.710387 -0.127016 0.823 
-0.668761 -0.126399 0.819 
-0.632897 -0.126862 0.822 
-0.593137 -0.126553 0.82 
-0.550941 -0.125936 0.816 
-0.514165 -0.126245 0.818 
-0.474291 -0.125782 0.815 
-0.436839 -0.125936 0.816 
-0.401738 -0.126862 0.822 
-0.369211 -0.129794 0.841 
-0.339822 -0.133653 0.866 
-0.306373 -0.136739 0.886 
-0.271359 -0.13998 0.907 
-0.236156 -0.144302 0.935 
-0.19793 -0.148314 0.961 
-0.155688 -0.150784 0.977 
-0.110375 -0.151092 0.979 
-0.0642804 -0.150012 0.972 
-0.0189556 -0.149858 0.971 
0.0268718 -0.153099 0.992 
0.0766468 -0.160507 1.04 
0.137096 -0.173625 1.125 
0.213993 -0.189058 1.225 
0.291892 -0.203566 1.319 
0.368106 -0.212054 1.374 
0.415479 -0.203874 1.321 
0.4478 -0.191373 1.24 
0.479501 -0.181496 1.176 
0.510235 -0.173316 1.123 
0.520998 -0.160507 1.04 
0.560712 -0.158037 1.024 
0.588239 -0.15279 0.99 
0.606188 -0.145999 0.946 
0.620723 -0.139363 0.903 
0.622442 -0.130875 0.848 
0.637768 -0.12609 0.817 
0.651425 -0.121306 0.786 
0.665301 -0.117293 0.76 
0.678597 -0.113589 0.736 
0.689655 -0.109885 0.712 
-0.700158 -0.125738 0.823 
-0.665014 -0.126349 0.827 
-0.623437 -0.125738 0.823 
-0.585788 -0.12589 0.824 
-0.539531 -0.124668 0.816 
-0.501497 -0.124668 0.816 
-0.461629 -0.124515 0.815 
-0.425201 -0.124974 0.818 
-0.389913 -0.12589 0.824 
-0.359057 -0.130015 0.851 
-0.326898 -0.133071 0.871 
-0.292875 -0.136127 0.891 
-0.259526 -0.140557 0.92 
-0.223002 -0.144682 0.947 
-0.183962 -0.148807 0.974 
-0.13899 -0.149266 0.977 
-0.0932606 -0.14896 0.975 
-0.0477175 -0.148655 0.973 
-0.00235595 -0.148043 0.969 
0.0443557 -0.153391 1.004 
0.0965998 -0.162558 1.064 
0.17246 -0.181502 1.188 
0.242983 -0.193572 1.267 
0.327069 -0.209614 1.372 
0.382753 -0.205183 1.343 
0.420069 -0.191738 1.255 
0.459117 -0.183947 1.204 
0.495979 -0.177072 1.159 
0.51868 -0.166988 1.093 
0.545131 -0.159807 1.046 
0.571742 -0.153849 1.007 
0.592875 -0.147432 0.965 
0.61538 -0.142238 0.931 
0.617734 -0.133377 0.873 
0.627502 -0.127113 0.832 
0.64546 -0.12314 0.806 
0.660867 -0.11871 0.777 
0.669272 -0.113974 0.746 
0.685168 -0.110918 0.726 
0.698209 -0.10771 0.705 
-0.676841 -0.123703 0.818 
-0.64496 -0.124913 0.826 
-0.604257 -0.124459 0.823 
-0.565897 -0.124459 0.823 
-0.528178 -0.12461 0.824 
-0.487393 -0.124005 0.82 
-0.447899 -0.124005 0.82 
-0.411677 -0.12461 0.824 
-0.375258 -0.126576 0.837 
-0.344681 -0.129752 0.858 
-0.313922 -0.133684 0.884 
-0.278272 -0.136406 0.902 
-0.243301 -0.140489 0.929 
-0.202798 -0.142455 0.942 
-0.16547 -0.148353 0.981 
-0.119989 -0.148655 0.983 
-0.0737187 -0.147748 0.977 
-0.0281516 -0.147597 0.976 
0.0174111 -0.148201 0.98 
0.0659862 -0.155007 1.025 
0.123196 -0.167861 1.11 
0.19471 -0.181471 1.2 
0.269023 -0.194779 1.288 
0.353583 -0.209297 1.384 
0.401779 -0.201131 1.33 
0.436766 -0.188579 1.247 
0.471474 -0.179656 1.188 
0.502899 -0.17149 1.134 
0.5239 -0.161661 1.069 
0.552259 -0.155612 1.029 
0.580388 -0.15047 0.995 
0.601569 -0.144421 0.955 
0.614285 -0.137313 0.908 
0.62045 -0.129752 0.858 
0.631192 -0.124005 0.82 
0.648187 -0.120073 0.794 
0.661358 -0.115688 0.765 
0.673325 -0.111756 0.739 
0.685742 -0.108278 0.716 
-0.704834 -0.122881 0.821 
-0.669003 -0.12333 0.824 
-0.631361 -0.12348 0.825 
-0.592189 -0.12333 0.824 
-0.549078 -0.122282 0.817 
-0.51475 -0.12318 0.823 
-0.474653 -0.122731 0.82 
-0.435368 -0.122432 0.818 
-0.399184 -0.123031 0.822 
-0.370528 -0.126323 0.844 
-0.339822 -0.129616 0.866 
-0.306373 -0.13261 0.886 
-0.272257 -0.136202 0.91 
-0.236156 -0.139944 0.935 
-0.196489 -0.142787 0.954 
-0.156325 -0.146829 0.981 
-0.110826 -0.147128 0.983 
-0.064611 -0.14623 0.977 
-0.0189947 -0.145631 0.973 
0.0268177 -0.148176 0.99 
0.0764994 -0.15536 1.038 
0.134145 -0.166885 1.115 
0.202842 -0.180205 1.204 
0.279824 -0.194724 1.301 
0.361137 -0.206548 1.38 
0.410353 -0.199214 1.331 
0.44202 -0.185594 1.24 
0.476438 -0.176913 1.182 
0.50545 -0.168232 1.124 
0.524092 -0.158054 1.056 
0.557025 -0.153564 1.026 
0.584214 -0.148325 0.991 
0.604959 -0.142338 0.951 
0.611735 -0.134106 0.896 
0.619948 -0.127221 0.85 
0.634736 -0.122432 0.818 
0.646938 -0.117493 0.785 
0.662629 -0.113901 0.761 
0.676083 -0.110308 0.737 
0.6873 -0.106716 0.713 
-0.698456 -0.121605 0.821 
-0.667427 -0.122938 0.83 
-0.626467 -0.122494 0.827 
-0.588632 -0.122642 0.828 
-0.544724 -0.121457 0.82 
-0.508357 -0.121902 0.823 
-0.469425 -0.121753 0.822 
-0.430063 -0.121457 0.82 
-0.392798 -0.121753 0.822 
-0.366128 -0.125753 0.849 
-0.334248 -0.128715 0.869 
-0.300167 -0.131529 0.888 
-0.267519 -0.135973 0.918 
-0.229872 -0.139083 0.939 
-0.191456 -0.143083 0.966 
-0.148553 -0.145156 0.98 
-0.103189 -0.145601 0.983 
-0.0569629 -0.144564 0.976 
-0.0114595 -0.144416 0.975 
0.0346129 -0.147082 0.993 
0.0849703 -0.154488 1.043 
0.142678 -0.165004 1.114 
0.213957 -0.179816 1.214 
0.291713 -0.193887 1.309 
0.368355 -0.202478 1.367 
0.415319 -0.194628 1.314 
0.446189 -0.181445 1.225 
0.482508 -0.173299 1.17 
0.508125 -0.163967 1.107 
0.531408 -0.155673 1.051 
0.562171 -0.150785 1.018 
0.586865 -0.145156 0.98 
0.608016 -0.139528 0.942 
0.612389 -0.1299 0.877 
0.62347 -0.123975 0.837 
0.638738 -0.119532 0.807 
0.652048 -0.115236 0.778 
0.666193 -0.111533 0.753 
0.680801 -0.108275 0.731 
0.69238 -0.104868 0.708 
-0.683629 -0.119744 0.817 
-0.656611 -0.121795 0.831 
-0.61416 -0.121063 0.826 
-0.576357 -0.121209 0.827 
-0.53846 -0.121356 0.828 
-0.498056 -0.120916 0.825 
-0.459602 -0.120916 0.825 
-0.421149 -0.120916 0.825 
-0.384087 -0.121356 0.828 
-0.355508 -0.124873 0.852 
-0.324321 -0.128244 0.875 
-0.290342 -0.131322 0.896 
-0.255792 -0.135133 0.922 
-0.218127 -0.138504 0.945 
-0.180159 -0.14334 0.978 
-0.135537 -0.144366 0.985 
-0.089444 -0.144073 0.983 
-0.0436705 -0.14422 0.984 
0.00217843 -0.143194 0.977 
0.0489377 -0.146858 1.002 
0.102514 -0.157411 1.074 
0.16408 -0.169282 1.155 
0.235273 -0.182766 1.247 
0.312689 -0.194785 1.329 
0.37858 -0.196837 1.343 
0.412899 -0.183353 1.251 
0.453882 -0.176611 1.205 
0.489307 -0.169429 1.156 
0.512176 -0.159756 1.09 
0.542321 -0.153893 1.05 
0.568738 -0.148031 1.01 
0.588987 -0.141582 0.966 
0.612354 -0.136745 0.933 
0.614196 -0.127218 0.868 
0.626748 -0.121795 0.831 
0.642257 -0.117545 0.802 
0.657605 -0.113734 0.776 
0.668742 -0.109631 0.748 
0.682912 -0.106406 0.726 
0.696019 -0.103328 0.705 
-0.672266 -0.118039 0.814 
-0.648352 -0.120649 0.832 
-0.605909 -0.119924 0.827 
-0.565304 -0.119489 0.824 
-0.529455 -0.120069 0.828 
-0.488491 -0.119489 0.824 
-0.448991 -0.119199 0.822 
-0.414175 -0.120214 0.829 
-0.377347 -0.120794 0.833 
-0.347461 -0.123985 0.855 
-0.316963 -0.127755 0.881 
-0.282163 -0.130655 0.901 
-0.246831 -0.13428 0.926 
-0.205869 -0.135731 0.936 
-0.167845 -0.142981 0.986 
-0.122011 -0.143126 0.987 
-0.0758527 -0.142836 0.985 
-0.0299111 -0.142691 0.984 
0.0159372 -0.142546 0.983 
0.0640167 -0.147766 1.019 
0.120158 -0.159222 1.098 
0.182883 -0.169953 1.172 
0.260005 -0.186049 1.283 
0.343985 -0.200116 1.38 
0.391146 -0.191705 1.322 
0.425024 -0.179959 1.241 
0.463023 -0.172563 1.19 
0.496704 -0.165313 1.14 
0.522348 -0.157047 1.083 
0.545852 -0.149652 1.032 
0.575536 -0.145011 1 
0.598505 -0.139501 0.962 
0.600725 -0.12906 0.89 
0.616953 -0.123985 0.855 
0.630686 -0.119054 0.821 
0.644509 -0.114704 0.791 
0.660704 -0.111224 0.767 
0.671029 -0.107163 0.739 
0.683518 -0.103828 0.716 
-0.705273 -0.118066 0.823 
-0.675016 -0.1195 0.833 
-0.633898 -0.11907 0.83 
-0.595929 -0.119213 0.831 
-0.553173 -0.118352 0.825 
-0.517215 -0.118926 0.829 
-0.475688 -0.118209 0.824 
-0.43622 -0.117922 0.822 
-0.399843 -0.118496 0.826 
-0.367904 -0.120648 0.841 
-0.339258 -0.124521 0.868 
-0.304653 -0.12696 0.885 
-0.271438 -0.130833 0.912 
-0.233448 -0.133416 0.93 
-0.188382 -0.137432 0.958 
-0.14778 -0.141306 0.985 
-0.102283 -0.14188 0.989 
-0.055901 -0.141162 0.984 
-0.00999571 -0.140588 0.98 
0.0360829 -0.142166 0.991 
0.0864247 -0.149339 1.041 
0.143372 -0.158664 1.106 
0.212195 -0.172723 1.204 
0.301651 -0.187642 1.308 
0.376774 -0.192807 1.344 
0.41227 -0.180039 1.255 
0.45276 -0.173153 1.207 
0.486668 -0.16555 1.154 
0.510483 -0.156369 1.09 
0.540175 -0.150487 1.049 
0.56773 -0.145036 1.011 
0.587486 -0.13858 0.966 
0.609594 -0.133559 0.931 
0.612908 -0.124808 0.87 
0.624166 -0.119213 0.831 
0.638967 -0.11491 0.801 
0.65435 -0.11118 0.775 
0.667309 -0.10745 0.749 
0.680656 -0.10415 0.726 
0.696781 -0.101568 0.708 
-0.672309 -0.115084 0.811 
-0.652502 -0.118348 0.834 
-0.609215 -0.117496 0.828 
-0.569243 -0.117213 0.826 
-0.532671 -0.117638 0.829 
-0.492839 -0.117355 0.827 
-0.452644 -0.116929 0.824 
-0.417254 -0.11778 0.83 
-0.378567 -0.11778 0.83 
-0.349708 -0.121186 0.854 
-0.318975 -0.124734 0.879 
-0.283698 -0.127288 0.897 
-0.249439 -0.131261 0.925 
-0.209001 -0.132964 0.937 
-0.169377 -0.139917 0.986 
-0.12392 -0.140485 0.99 
-0.0776187 -0.140201 0.988 
-0.0315678 -0.140201 0.988 
0.0144392 -0.139775 0.985 
0.0621272 -0.143891 1.014 
0.117589 -0.154675 1.09 
0.179517 -0.164892 1.162 
0.260365 -0.180927 1.275 
0.348525 -0.195969 1.381 
0.393759 -0.186887 1.317 
0.427152 -0.175393 1.236 
0.465544 -0.16844 1.187 
0.497614 -0.160919 1.134 
0.524742 -0.153398 1.081 
0.54427 -0.145168 1.023 
0.577486 -0.14162 0.998 
0.599619 -0.136086 0.959 
0.596675 -0.125443 0.884 
0.615509 -0.121044 0.853 
0.630686 -0.116503 0.821 
0.644509 -0.112246 0.791 
0.659842 -0.108698 0.766 
0.671029 -0.104867 0.739 
0.683518 -0.101603 0.716 
-0.70955 -0.115789 0.825 
-0.679231 -0.117192 0.835 
-0.638778 -0.116912 0.833 
-0.600672 -0.117052 0.834 
-0.557757 -0.11621 0.828 
-0.521672 -0.116771 0.832 
-0.478249 -0.115649 0.824 
-0.439842 -0.115649 0.824 
-0.405332 -0.116771 0.832 
-0.366993 -0.116912 0.833 
-0.340774 -0.121403 0.865 
-0.308097 -0.124491 0.887 
-0.273069 -0.127438 0.908 
-0.235067 -0.129824 0.925 
-0.195066 -0.131929 0.94 
-0.154527 -0.138806 0.989 
-0.108539 -0.138947 0.99 
-0.0622684 -0.138666 0.988 
-0.0161354 -0.137964 0.983 
0.0298939 -0.138947 0.99 
0.0793408 -0.144982 1.033 
0.135264 -0.153824 1.096 
0.201992 -0.166736 1.188 
0.283648 -0.182455 1.3 
0.366231 -0.191859 1.367 
0.40236 -0.178666 1.273 
0.441022 -0.170666 1.216 
0.476826 -0.163508 1.165 
0.502861 -0.154806 1.103 
0.531157 -0.14835 1.057 
0.557361 -0.142455 1.015 
0.579649 -0.136561 0.973 
0.603804 -0.131929 0.94 
0.604902 -0.123227 0.878 
0.61861 -0.118035 0.841 
0.634344 -0.113824 0.811 
0.645624 -0.109333 0.779 
0.661799 -0.106105 0.756 
0.674909 -0.102736 0.732 
0.689655 -0.0999293 0.712 
-0.691245 -0.113397 0.817 
-0.669154 -0.116173 0.837 
-0.628636 -0.115895 0.835 
-0.589716 -0.115895 0.835 
-0.548818 -0.115479 0.832 
-0.51249 -0.116034 0.836 
-0.470125 -0.115201 0.83 
-0.429879 -0.114785 0.827 
-0.391806 -0.114924 0.828 
-0.362171 -0.117838 0.849 
-0.331718 -0.121169 0.873 
-0.296361 -0.12339 0.889 
-0.263814 -0.127693 0.92 
-0.225015 -0.130052 0.937 
-0.184906 -0.135882 0.979 
-0.141409 -0.137964 0.994 
-0.0949823 -0.137825 0.993 
-0.0487964 -0.138103 0.995 
-0.00238755 -0.136298 0.982 
0.0438697 -0.137825 0.993 
0.0964182 -0.147402 1.062 
0.154025 -0.155591 1.121 
0.223204 -0.16836 1.213 
0.300959 -0.181129 1.305 
0.375372 -0.185849 1.339 
0.412598 -0.174328 1.256 
0.451635 -0.167111 1.204 
0.484137 -0.159338 1.148 
0.510483 -0.151288 1.09 
0.53863 -0.145181 1.046 
0.566607 -0.140046 1.009 
0.585662 -0.133661 0.963 
0.603702 -0.12797 0.922 
0.610204 -0.120753 0.87 
0.622331 -0.115479 0.832 
0.636478 -0.111176 0.801 
0.6511 -0.107429 0.774 
0.664981 -0.103959 0.749 
0.6784 -0.100766 0.726 
0.69458 -0.098268 0.708 
-0.672754 -0.110755 0.807 
-0.660325 -0.115147 0.839 
-0.617517 -0.114461 0.834 
-0.577256 -0.114186 0.832 
-0.537829 -0.114049 0.831 
-0.501498 -0.114598 0.835 
-0.458701 -0.113637 0.828 
-0.420615 -0.113774 0.829 
-0.382896 -0.114049 0.831 
-0.353275 -0.117068 0.853 
-0.323072 -0.120636 0.879 
-0.286595 -0.122558 0.893 
-0.25375 -0.12695 0.925 
-0.213596 -0.128734 0.938 
-0.173267 -0.134772 0.982 
-0.129313 -0.136694 0.996 
-0.0826399 -0.136282 0.993 
-0.0364291 -0.136557 0.995 
0.00981813 -0.134772 0.982 
0.056948 -0.138066 1.006 
0.111889 -0.148771 1.084 
0.171704 -0.15728 1.146 
0.242602 -0.169495 1.235 
0.330214 -0.185278 1.35 
0.384402 -0.181161 1.32 
0.421846 -0.170593 1.243 
0.459325 -0.163319 1.19 
0.490566 -0.155633 1.134 
0.52042 -0.149046 1.086 
0.542645 -0.141635 1.032 
0.573574 -0.137517 1.002 
0.59304 -0.131479 0.958 
0.592428 -0.122146 0.89 
0.612543 -0.118029 0.86 
0.62455 -0.112951 0.823 
0.639551 -0.108971 0.794 
0.654406 -0.105403 0.768 
0.668634 -0.102109 0.744 
0.680624 -0.0988149 0.72 
0.699305 -0.0967562 0.705 
-0.681612 -0.112622 0.83 
-0.64782 -0.113708 0.838 
-0.606581 -0.1133 0.835 
-0.563583 -0.112486 0.829 
-0.528742 -0.1133 0.835 
-0.486303 -0.112486 0.829 
-0.447123 -0.112351 0.828 
-0.412477 -0.113436 0.836 
-0.369489 -0.112215 0.827 
-0.345349 -0.1171 0.863 
-0.314317 -0.120628 0.889 
-0.277485 -0.122663 0.904 
-0.239514 -0.124834 0.92 
-0.200694 -0.127412 0.939 
-0.158237 -0.134739 0.993 
-0.112066 -0.134875 0.994 
-0.0654707 -0.134332 0.99 
-0.0193265 -0.134332 0.99 
0.0268447 -0.134468 0.991 
0.0756887 -0.139353 1.027 
0.131257 -0.148037 1.091 
0.196631 -0.159842 1.178 
0.274172 -0.174225 1.284 
0.357172 -0.186301 1.373 
0.395246 -0.173954 1.282 
0.432641 -0.165405 1.219 
0.471791 -0.159435 1.175 
0.494741 -0.149801 1.104 
0.526904 -0.144509 1.065 
0.548393 -0.137453 1.013 
0.577382 -0.133247 0.982 
0.597771 -0.127819 0.942 
0.598763 -0.119271 0.879 
0.616444 -0.114929 0.847 
0.631142 -0.110587 0.815 
0.644499 -0.106516 0.785 
0.657662 -0.102852 0.758 
0.671051 -0.0995959 0.734 
0.685085 -0.0967464 0.713 
-0.69888 -0.109991 0.82 
-0.678384 -0.112942 0.842 
-0.623082 -0.112406 0.838 
-0.583326 -0.112271 0.837 
-0.541712 -0.111735 0.833 
-0.505904 -0.112406 0.838 
-0.462945 -0.111467 0.831 
-0.423701 -0.111332 0.83 
-0.385479 -0.111467 0.831 
-0.355091 -0.114149 0.851 
-0.325804 -0.117905 0.879 
-0.28937 -0.119783 0.893 
-0.256347 -0.123941 0.924 
-0.216742 -0.125953 0.939 
-0.180711 -0.131587 0.981 
-0.137739 -0.13427 1.001 
-0.0907179 -0.133733 0.997 
-0.0443362 -0.134001 0.999 
0.00219181 -0.131855 0.983 
0.0487912 -0.134001 0.999 
0.102227 -0.143659 1.071 
0.159534 -0.150634 1.123 
0.228858 -0.162706 1.213 
0.307748 -0.175449 1.308 
0.375281 -0.177595 1.324 
0.413559 -0.168072 1.253 
0.452729 -0.16056 1.197 
0.485156 -0.153183 1.142 
0.515755 -0.146744 1.094 
0.53929 -0.139635 1.041 
0.566355 -0.134538 1.003 
0.587431 -0.128904 0.961 
0.593491 -0.120722 0.9 
0.610729 -0.116027 0.865 
0.620941 -0.110662 0.825 
0.636216 -0.106772 0.796 
0.650479 -0.10315 0.769 
0.666687 -0.100199 0.747 
0.678028 -0.0968458 0.722 
0.693938 -0.0944314 0.704 
-0.677596 -0.108982 0.822 
-0.65717 -0.112032 0.845 
-0.611204 -0.110838 0.836 
-0.570869 -0.110573 0.834 
-0.534548 -0.111104 0.838 
-0.494306 -0.110838 0.836 
-0.452071 -0.110043 0.83 
-0.415875 -0.110706 0.835 
-0.373409 -0.110043 0.83 
-0.347091 -0.114551 0.864 
-0.315698 -0.117865 0.889 
-0.278581 -0.119721 0.903 
-0.241206 -0.122108 0.921 
-0.202798 -0.124892 0.942 
-0.166313 -0.130726 0.986 
-0.12182 -0.132317 0.998 
-0.0748505 -0.131521 0.992 
-0.0287861 -0.132317 0.998 
0.017571 -0.131123 0.989 
0.0650205 -0.133908 1.01 
0.120643 -0.144116 1.087 
0.182813 -0.153795 1.16 
0.254851 -0.165462 1.248 
0.341363 -0.180444 1.361 
0.388144 -0.173019 1.305 
0.425576 -0.164004 1.237 
0.462919 -0.157109 1.185 
0.490605 -0.148757 1.122 
0.523063 -0.143321 1.081 
0.542681 -0.135631 1.023 
0.574205 -0.131919 0.995 
0.591268 -0.125688 0.948 
0.591214 -0.116937 0.882 
0.613684 -0.11349 0.856 
0.624569 -0.108452 0.818 
0.640822 -0.104872 0.791 
0.653702 -0.10116 0.763 
0.669391 -0.0982431 0.741 
0.67828 -0.0946634 0.714 
-0.705693 -0.107705 0.822 
-0.685241 -0.110588 0.844 
-0.647432 -0.11085 0.846 
-0.604407 -0.110195 0.841 
-0.564535 -0.110064 0.84 
-0.526008 -0.110195 0.841 
-0.483915 -0.10954 0.836 
-0.443884 -0.109277 0.834 
-0.406468 -0.109671 0.837 
-0.366138 -0.109277 0.834 
-0.340214 -0.113601 0.867 
-0.308102 -0.116746 0.891 
-0.272257 -0.119236 0.91 
-0.23363 -0.121201 0.925 
-0.196901 -0.125263 0.956 
-0.158397 -0.130242 0.994 
-0.112517 -0.130766 0.998 
-0.0654707 -0.129718 0.99 
-0.0194437 -0.130504 0.996 
0.0269802 -0.130504 0.996 
0.0754676 -0.134173 1.024 
0.131137 -0.142821 1.09 
0.195796 -0.153696 1.173 
0.272891 -0.167454 1.278 
0.354311 -0.17846 1.362 
0.393561 -0.168109 1.283 
0.431807 -0.160116 1.222 
0.470766 -0.15422 1.177 
0.493026 -0.144655 1.104 
0.524756 -0.139414 1.064 
0.546819 -0.132732 1.013 
0.574684 -0.128408 0.98 
0.591425 -0.122118 0.932 
0.5974 -0.114912 0.877 
0.615716 -0.11085 0.846 
0.628044 -0.106264 0.811 
0.642857 -0.102595 0.783 
0.655059 -0.0989263 0.755 
0.670136 -0.0960436 0.733 
0.684124 -0.0932921 0.712 
-0.689972 -0.105392 0.814 
-0.677664 -0.109535 0.846 
-0.637477 -0.109406 0.845 
-0.597384 -0.109276 0.844 
-0.554739 -0.108629 0.839 
-0.518091 -0.109147 0.843 
-0.476526 -0.108629 0.839 
-0.431439 -0.107464 0.83 
-0.394172 -0.107852 0.833 
-0.360464 -0.109406 0.845 
-0.329818 -0.112384 0.868 
-0.297361 -0.115491 0.892 
-0.262667 -0.118599 0.916 
-0.224294 -0.120929 0.934 
-0.188889 -0.126367 0.976 
-0.146923 -0.129474 1 
-0.100313 -0.129474 1 
-0.0535952 -0.129216 0.998 
-0.00702852 -0.128309 0.991 
0.0395575 -0.129604 1.001 
0.0892289 -0.134136 1.036 
0.145747 -0.142163 1.098 
0.21486 -0.15511 1.198 
0.292617 -0.167669 1.295 
0.366061 -0.173884 1.343 
0.402166 -0.163138 1.26 
0.440045 -0.155758 1.203 
0.480034 -0.150708 1.164 
0.503994 -0.142163 1.098 
0.529385 -0.13556 1.047 
0.55444 -0.129992 1.004 
0.576684 -0.124684 0.963 
0.588007 -0.117951 0.911 
0.602786 -0.112772 0.871 
0.61753 -0.108241 0.836 
0.630582 -0.103968 0.803 
0.646381 -0.100602 0.777 
0.657999 -0.0969764 0.749 
0.671632 -0.0939985 0.726 
0.687009 -0.0915385 0.707 
-0.676922 -0.103872 0.812 
-0.671343 -0.109116 0.853 
-0.62418 -0.107837 0.843 
-0.5835 -0.107581 0.841 
-0.543007 -0.107326 0.839 
-0.505102 -0.107581 0.841 
-0.464241 -0.107198 0.838 
-0.421856 -0.106686 0.834 
-0.383442 -0.106814 0.835 
-0.352775 -0.109372 0.855 
-0.322073 -0.11257 0.88 
-0.286485 -0.114745 0.897 
-0.25204 -0.118199 0.924 
-0.21327 -0.120629 0.943 
-0.176139 -0.12549 0.981 
-0.133738 -0.128688 1.006 
-0.0861572 -0.127665 0.998 
-0.039799 -0.128177 1.002 
0.00685629 -0.127281 0.995 
0.0537685 -0.12856 1.005 
0.10762 -0.137515 1.075 
0.165062 -0.143911 1.125 
0.233352 -0.1544 1.207 
0.317684 -0.169367 1.324 
0.376243 -0.16796 1.313 
0.416453 -0.159901 1.25 
0.45193 -0.152226 1.19 
0.486077 -0.14583 1.14 
0.518401 -0.140201 1.096 
0.53831 -0.132526 1.036 
0.562817 -0.127153 0.994 
0.585247 -0.122164 0.955 
0.588875 -0.114233 0.893 
0.607199 -0.110012 0.86 
0.61793 -0.105023 0.821 
0.635416 -0.101697 0.795 
0.649633 -0.0982432 0.768 
0.665795 -0.0954289 0.746 
0.673332 -0.0917192 0.717 
0.689995 -0.0895446 0.7 
-0.686539 -0.105643 0.836 
-0.661516 -0.107918 0.854 
-0.613703 -0.106527 0.843 
-0.575773 -0.10678 0.845 
-0.535752 -0.106654 0.844 
-0.495825 -0.106527 0.843 
-0.451659 -0.10539 0.834 
-0.413463 -0.105896 0.838 
-0.372617 -0.10539 0.834 
-0.346149 -0.109308 0.865 
-0.31467 -0.112467 0.89 
-0.277792 -0.114362 0.905 
-0.241076 -0.117016 0.926 
-0.204113 -0.120681 0.955 
-0.164948 -0.124724 0.987 
-0.121113 -0.126999 1.005 
-0.0731614 -0.125103 0.99 
-0.0273447 -0.12662 1.002 
0.0192622 -0.125988 0.997 
0.0666557 -0.127757 1.011 
0.123678 -0.136982 1.084 
0.18706 -0.147091 1.164 
0.257485 -0.156948 1.242 
0.343053 -0.170722 1.351 
0.387691 -0.163014 1.29 
0.429072 -0.15619 1.236 
0.464239 -0.148987 1.179 
0.49277 -0.141405 1.119 
0.521065 -0.135213 1.07 
0.542658 -0.128515 1.017 
0.570334 -0.124219 0.983 
0.583558 -0.117648 0.931 
0.589914 -0.110698 0.876 
0.611304 -0.107286 0.849 
0.623772 -0.10261 0.812 
0.640435 -0.0993246 0.786 
0.652951 -0.0957863 0.758 
0.667397 -0.0928798 0.735 
0.678744 -0.089847 0.711 
-0.693352 -0.101723 0.815 
-0.67611 -0.105967 0.849 
-0.635788 -0.105842 0.848 
-0.596965 -0.105967 0.849 
-0.551484 -0.104843 0.84 
-0.515381 -0.105467 0.845 
-0.474869 -0.105218 0.843 
-0.429376 -0.10372 0.831 
-0.392053 -0.104094 0.834 
-0.358262 -0.105592 0.846 
-0.32599 -0.107964 0.865 
-0.29558 -0.111708 0.895 
-0.260104 -0.114454 0.917 
-0.222577 -0.1172 0.939 
-0.185856 -0.121818 0.976 
-0.144247 -0.125188 1.003 
-0.0975944 -0.125313 1.004 
-0.0506965 -0.125063 1.002 
-0.00398898 -0.124938 1.001 
0.0429663 -0.125812 1.008 
0.0920019 -0.128683 1.031 
0.153265 -0.137669 1.103 
0.22212 -0.149402 1.197 
0.305482 -0.163131 1.307 
0.371167 -0.165253 1.324 
0.410647 -0.156766 1.256 
0.446029 -0.149027 1.194 
0.486555 -0.144534 1.158 
0.513924 -0.13742 1.101 
0.533412 -0.129681 1.039 
0.5572 -0.124189 0.995 
0.581132 -0.119571 0.958 
0.584632 -0.111708 0.895 
0.602554 -0.107464 0.861 
0.618799 -0.10347 0.829 
0.632855 -0.0996011 0.798 
0.648219 -0.096356 0.772 
0.662931 -0.0933605 0.748 
0.671675 -0.0898657 0.72 
0.685645 -0.0873694 0.7 
-0.682618 -0.104031 0.844 
-0.650139 -0.105141 0.853 
-0.609665 -0.105017 0.852 
-0.565939 -0.104278 0.846 
-0.527675 -0.104771 0.85 
-0.485186 -0.104155 0.845 
-0.439997 -0.102799 0.834 
-0.402086 -0.103045 0.836 
-0.36616 -0.103908 0.843 
-0.334622 -0.106373 0.863 
-0.30429 -0.109948 0.892 
-0.267721 -0.112043 0.909 
-0.23155 -0.115125 0.934 
-0.193451 -0.118453 0.961 
-0.153763 -0.12252 0.994 
-0.10873 -0.123999 1.006 
-0.0612251 -0.122767 0.996 
-0.0149499 -0.123999 1.006 
0.0320671 -0.124492 1.01 
0.0801621 -0.126095 1.023 
0.136093 -0.13423 1.089 
0.202122 -0.1452 1.178 
0.280394 -0.157279 1.276 
0.358247 -0.165784 1.345 
0.398092 -0.156786 1.272 
0.435446 -0.149268 1.211 
0.480518 -0.145816 1.183 
0.500693 -0.135832 1.102 
0.526008 -0.129423 1.05 
0.54976 -0.123753 1.004 
0.572196 -0.118699 0.963 
0.581197 -0.111797 0.907 
0.597352 -0.107113 0.869 
0.613634 -0.103045 0.836 
0.62762 -0.0991009 0.804 
0.641932 -0.0956496 0.776 
0.656256 -0.0925681 0.751 
0.669169 -0.0896099 0.727 
0.68468 -0.0872679 0.708 
-0.685718 -0.101625 0.835 
-0.66384 -0.104302 0.857 
-0.619527 -0.103572 0.851 
-0.578498 -0.103328 0.849 
-0.530941 -0.103572 0.851 
-0.488966 -0.103085 0.847 
-0.443119 -0.101625 0.835 
-0.405652 -0.10199 0.838 
-0.368779 -0.102598 0.843 
-0.337304 -0.105032 0.863 
-0.307406 -0.108684 0.893 
-0.270546 -0.110631 0.909 
-0.234703 -0.113795 0.935 
-0.19562 -0.116473 0.957 
-0.154995 -0.120732 0.992 
-0.110512 -0.12268 1.008 
-0.0613481 -0.121463 0.998 
-0.0149796 -0.12268 1.008 
0.0321306 -0.123167 1.012 
0.0800054 -0.124262 1.021 
0.135843 -0.132295 1.087 
0.20195 -0.143248 1.177 
0.275575 -0.153715 1.263 
0.355893 -0.163573 1.344 
0.396427 -0.154932 1.273 
0.434996 -0.147873 1.215 
0.480518 -0.143978 1.183 
0.499887 -0.134364 1.104 
0.525375 -0.128035 1.052 
0.548201 -0.122193 1.004 
0.5707 -0.117203 0.963 
0.579149 -0.110266 0.906 
0.596001 -0.105763 0.869 
0.612335 -0.101746 0.836 
0.62715 -0.0979734 0.805 
0.640726 -0.0944439 0.776 
0.655089 -0.0914013 0.751 
0.668958 -0.088602 0.728 
0.68358 -0.0861679 0.708 
-0.68677 -0.0997265 0.83 
-0.669166 -0.102971 0.857 
-0.625549 -0.10237 0.852 
-0.585837 -0.10237 0.852 
-0.534907 -0.10225 0.851 
-0.494078 -0.102009 0.849 
-0.447546 -0.100447 0.836 
-0.410046 -0.100808 0.839 
-0.372267 -0.101168 0.842 
-0.341326 -0.103692 0.863 
-0.31122 -0.107176 0.892 
-0.273573 -0.108738 0.905 
-0.238806 -0.112222 0.934 
-0.200289 -0.115106 0.958 
-0.16051 -0.118711 0.988 
-0.117008 -0.121354 1.01 
-0.0691702 -0.120032 0.999 
-0.0228101 -0.121114 1.008 
0.024197 -0.121234 1.009 
0.0715798 -0.121835 1.014 
0.126226 -0.129404 1.077 
0.191496 -0.140458 1.169 
0.258188 -0.147427 1.227 
0.345195 -0.161365 1.343 
0.388359 -0.153675 1.279 
0.430111 -0.147547 1.228 
0.467742 -0.141059 1.174 
0.494871 -0.13361 1.112 
0.521797 -0.127121 1.058 
0.54466 -0.121234 1.009 
0.56882 -0.116548 0.97 
0.576195 -0.109098 0.908 
0.593313 -0.104653 0.871 
0.609894 -0.100688 0.838 
0.625721 -0.0970832 0.808 
0.63793 -0.0933584 0.777 
0.652456 -0.0903546 0.752 
0.667394 -0.0877113 0.73 
0.681241 -0.0851881 0.709 
-0.68776 -0.097844 0.825 
-0.672917 -0.101402 0.855 
-0.632325 -0.101283 0.854 
-0.591826 -0.101165 0.853 
-0.534212 -0.101046 0.852 
-0.49392 -0.100928 0.851 
-0.446247 -0.0991486 0.836 
-0.408743 -0.0995044 0.839 
-0.371399 -0.0999787 0.843 
-0.339198 -0.102114 0.861 
-0.310181 -0.105909 0.893 
-0.272468 -0.10745 0.906 
-0.237609 -0.11089 0.935 
-0.198386 -0.11338 0.956 
-0.1576 -0.117294 0.989 
-0.113983 -0.119903 1.011 
-0.0647075 -0.118836 1.002 
-0.0181478 -0.119785 1.01 
0.0290718 -0.120378 1.015 
0.076607 -0.120734 1.018 
0.13149 -0.127968 1.079 
0.19745 -0.138998 1.172 
0.266488 -0.146944 1.239 
0.35067 -0.158922 1.34 
0.392163 -0.150858 1.272 
0.432641 -0.144572 1.219 
0.470988 -0.139116 1.173 
0.496085 -0.131289 1.107 
0.523099 -0.125003 1.054 
0.546167 -0.11931 1.006 
0.568886 -0.114448 0.965 
0.576466 -0.107213 0.904 
0.593967 -0.102944 0.868 
0.610305 -0.09903 0.835 
0.626677 -0.0955906 0.806 
0.638697 -0.091914 0.775 
0.653922 -0.0890677 0.751 
0.667827 -0.0863399 0.728 
0.68248 -0.0839679 0.708 
-0.686857 -0.0967963 0.827 
-0.671045 -0.100191 0.856 
-0.630409 -0.100074 0.855 
-0.590557 -0.100074 0.855 
-0.536859 -0.0997224 0.852 
-0.496564 -0.0996054 0.851 
-0.450456 -0.0982008 0.839 
-0.41184 -0.0983179 0.84 
-0.374018 -0.098669 0.843 
-0.341476 -0.100659 0.86 
-0.312606 -0.104404 0.892 
-0.274979 -0.105926 0.905 
-0.240257 -0.10932 0.934 
-0.201357 -0.111895 0.956 
-0.160348 -0.115523 0.987 
-0.117124 -0.118333 1.011 
-0.0697241 -0.117864 1.007 
-0.0228554 -0.118216 1.01 
0.0243409 -0.118801 1.015 
0.0715798 -0.118684 1.014 
0.125523 -0.125355 1.071 
0.19166 -0.136943 1.17 
0.256084 -0.142444 1.217 
0.34391 -0.156606 1.338 
0.387448 -0.14935 1.276 
0.42836 -0.143146 1.223 
0.461155 -0.136006 1.162 
0.492699 -0.130037 1.111 
0.519661 -0.123717 1.057 
0.542554 -0.117981 1.008 
0.567313 -0.113534 0.97 
0.572885 -0.105926 0.905 
0.59128 -0.101829 0.87 
0.607865 -0.0979667 0.837 
0.624465 -0.0945724 0.808 
0.635904 -0.090827 0.776 
0.651288 -0.0880179 0.752 
0.666259 -0.0854429 0.73 
0.67918 -0.0828679 0.708 
-0.682809 -0.0938945 0.813 
-0.674265 -0.0981677 0.85 
-0.639873 -0.0989761 0.857 
-0.599227 -0.0988606 0.856 
-0.546868 -0.0978212 0.847 
-0.50739 -0.0978212 0.847 
-0.469568 -0.0981677 0.85 
-0.426408 -0.0973592 0.843 
-0.387116 -0.0973592 0.843 
-0.352775 -0.0987451 0.855 
-0.320975 -0.101286 0.877 
-0.286804 -0.103711 0.898 
-0.252586 -0.106945 0.926 
-0.2144 -0.109486 0.948 
-0.171741 -0.113413 0.982 
-0.12892 -0.116069 1.005 
-0.0826489 -0.116877 1.012 
-0.0353741 -0.116531 1.009 
0.0117019 -0.116993 1.013 
0.0586855 -0.116531 1.009 
0.110116 -0.121381 1.051 
0.173182 -0.132122 1.144 
0.238384 -0.139052 1.204 
0.323855 -0.152911 1.324 
0.377995 -0.149908 1.298 
0.420253 -0.143671 1.244 
0.454017 -0.136395 1.181 
0.484063 -0.129697 1.123 
0.514434 -0.124384 1.077 
0.535809 -0.117686 1.019 
0.558691 -0.11272 0.976 
0.570325 -0.106137 0.919 
0.58447 -0.10117 0.876 
0.600317 -0.0971283 0.841 
0.619745 -0.0941255 0.815 
0.631908 -0.0904298 0.783 
0.647916 -0.087658 0.759 
0.661687 -0.0848862 0.735 
0.675115 -0.0823454 0.713 
0.693446 -0.080613 0.698 
-0.678574 -0.0955937 0.839 
-0.656236 -0.0981004 0.861 
-0.615389 -0.0979864 0.86 
-0.56527 -0.0962774 0.845 
-0.531485 -0.0973028 0.854 
-0.492256 -0.0974167 0.855 
-0.443938 -0.0955937 0.839 
-0.40449 -0.0958216 0.841 
-0.367029 -0.0962774 0.845 
-0.334235 -0.0982143 0.862 
-0.304632 -0.101746 0.893 
-0.268015 -0.103683 0.91 
-0.231798 -0.106532 0.935 
-0.187399 -0.108583 0.953 
-0.147735 -0.113368 0.995 
-0.103598 -0.115875 1.017 
-0.0558641 -0.115191 1.011 
-0.00875842 -0.115419 1.013 
0.0387995 -0.116444 1.022 
0.0865198 -0.116558 1.023 
0.141155 -0.122597 1.076 
0.209798 -0.134447 1.18 
0.283873 -0.144131 1.265 
0.360722 -0.151651 1.331 
0.399574 -0.143334 1.258 
0.439269 -0.137409 1.206 
0.476322 -0.131598 1.155 
0.504912 -0.125331 1.1 
0.527462 -0.118495 1.04 
0.551451 -0.11314 0.993 
0.574259 -0.108697 0.954 
0.580635 -0.101519 0.891 
0.597027 -0.0974167 0.855 
0.616022 -0.0942265 0.827 
0.631615 -0.0909223 0.798 
0.642829 -0.0873902 0.767 
0.659115 -0.0848836 0.745 
0.669625 -0.0819212 0.719 
0.685535 -0.0798703 0.701 
-0.684654 -0.0931664 0.829 
-0.667055 -0.0962007 0.856 
-0.631552 -0.096875 0.862 
-0.586572 -0.0960883 0.855 
-0.544802 -0.0957512 0.852 
-0.502126 -0.0951893 0.847 
-0.464285 -0.0955264 0.85 
-0.42017 -0.094515 0.841 
-0.383689 -0.0951893 0.847 
-0.347867 -0.0962007 0.856 
-0.318043 -0.0993475 0.884 
-0.28185 -0.101146 0.9 
-0.247897 -0.104517 0.93 
-0.209389 -0.10699 0.952 
-0.165639 -0.110361 0.982 
-0.122431 -0.112721 1.003 
-0.0768123 -0.114407 1.018 
-0.0291899 -0.113733 1.012 
0.0180863 -0.114407 1.018 
0.0650849 -0.11362 1.011 
0.117313 -0.11879 1.057 
0.183819 -0.129804 1.155 
0.247942 -0.135423 1.205 
0.335907 -0.149583 1.331 
0.383594 -0.144189 1.283 
0.422659 -0.137446 1.223 
0.454001 -0.129579 1.153 
0.486165 -0.124072 1.104 
0.516549 -0.118453 1.054 
0.539915 -0.113058 1.006 
0.565222 -0.1089 0.969 
0.569585 -0.10137 0.902 
0.589251 -0.0976617 0.869 
0.604391 -0.0937283 0.834 
0.623981 -0.0909187 0.809 
0.633445 -0.0868729 0.773 
0.651288 -0.0845128 0.752 
0.666259 -0.0820403 0.73 
0.678221 -0.0794555 0.707 
-0.672632 -0.0881101 0.795 
-0.672352 -0.0932083 0.841 
-0.648963 -0.0955358 0.862 
-0.607372 -0.0953141 0.86 
-0.56201 -0.0944275 0.852 
-0.522911 -0.0945383 0.853 
-0.486551 -0.0952033 0.859 
-0.440795 -0.0939841 0.848 
-0.399377 -0.0935408 0.844 
-0.361744 -0.0939841 0.848 
-0.329818 -0.0962008 0.868 
-0.297694 -0.0989715 0.893 
-0.261807 -0.101188 0.913 
-0.226215 -0.104402 0.942 
-0.186179 -0.106619 0.962 
-0.144788 -0.110387 0.996 
-0.100734 -0.113047 1.02 
-0.0530876 -0.112825 1.018 
-0.00560514 -0.11216 1.012 
0.0418931 -0.113047 1.02 
0.0899616 -0.113712 1.026 
0.14423 -0.119032 1.074 
0.231418 -0.132664 1.197 
0.311925 -0.144079 1.3 
0.373951 -0.144634 1.305 
0.414121 -0.137762 1.243 
0.450411 -0.131445 1.186 
0.477976 -0.124241 1.121 
0.509887 -0.119475 1.078 
0.533633 -0.113823 1.027 
0.554324 -0.108503 0.979 
0.567685 -0.102407 0.924 
0.581009 -0.0974199 0.879 
0.595798 -0.0933192 0.842 
0.616943 -0.0906592 0.818 
0.631046 -0.0873343 0.788 
0.644047 -0.0842311 0.76 
0.658908 -0.081682 0.737 
0.672565 -0.0792437 0.715 
0.689108 -0.0773596 0.698 
-0.682781 -0.0910275 0.833 
-0.663281 -0.0937594 0.858 
-0.626922 -0.0943058 0.863 
-0.579899 -0.093213 0.853 
-0.539446 -0.0933223 0.854 
-0.497886 -0.0929945 0.851 
-0.457682 -0.0928852 0.85 
-0.416588 -0.0925574 0.847 
-0.376664 -0.0924481 0.846 
-0.341616 -0.0936501 0.857 
-0.312584 -0.0970377 0.888 
-0.276385 -0.0988954 0.905 
-0.24119 -0.101846 0.932 
-0.203478 -0.104796 0.959 
-0.159698 -0.107419 0.983 
-0.116545 -0.109932 1.006 
-0.0707627 -0.111681 1.022 
-0.0229233 -0.110697 1.013 
0.0245567 -0.111899 1.024 
0.0717915 -0.111134 1.017 
0.124351 -0.115943 1.061 
0.20962 -0.128837 1.179 
0.2832 -0.137907 1.262 
0.358825 -0.144682 1.324 
0.397668 -0.136814 1.252 
0.43968 -0.131351 1.202 
0.468487 -0.124138 1.136 
0.50124 -0.11933 1.092 
0.525846 -0.113648 1.04 
0.548918 -0.108621 0.994 
0.571295 -0.10425 0.954 
0.575743 -0.0974748 0.892 
0.594481 -0.0938687 0.859 
0.612359 -0.0905904 0.829 
0.628226 -0.0874214 0.8 
0.640558 -0.0841431 0.77 
0.656242 -0.0816297 0.747 
0.666082 -0.0786792 0.72 
0.684094 -0.0769308 0.704 
-0.685259 -0.0885483 0.822 
-0.668195 -0.0914568 0.849 
-0.641951 -0.0933959 0.867 
-0.596683 -0.0926418 0.86 
-0.553325 -0.0923186 0.857 
-0.509786 -0.0916723 0.851 
-0.473987 -0.0924263 0.858 
-0.430961 -0.09178 0.852 
-0.39033 -0.0915646 0.85 
-0.352775 -0.0921032 0.855 
-0.320975 -0.0944731 0.877 
-0.286804 -0.0967353 0.898 
-0.251768 -0.0994283 0.923 
-0.214853 -0.102337 0.95 
-0.172561 -0.105353 0.978 
-0.129313 -0.107292 0.996 
-0.0850534 -0.110093 1.022 
-0.0370882 -0.109123 1.013 
0.0101281 -0.109123 1.013 
0.0571745 -0.1088 1.01 
0.10776 -0.112463 1.044 
0.164812 -0.118495 1.1 
0.234745 -0.128729 1.195 
0.318718 -0.140363 1.303 
0.377122 -0.139501 1.295 
0.416537 -0.132822 1.233 
0.450834 -0.12582 1.168 
0.477156 -0.118818 1.103 
0.508919 -0.114402 1.062 
0.534758 -0.109554 1.017 
0.556973 -0.104814 0.973 
0.563326 -0.0980279 0.91 
0.581112 -0.0940422 0.873 
0.594737 -0.0899487 0.835 
0.616961 -0.0875788 0.813 
0.627873 -0.0838085 0.778 
0.647916 -0.0817618 0.759 
0.660787 -0.0790687 0.734 
0.674168 -0.0766988 0.712 
-0.674787 -0.0834491 0.786 
-0.676637 -0.0886514 0.835 
-0.658338 -0.091518 0.862 
-0.621028 -0.0919426 0.866 
-0.574629 -0.0909871 0.857 
-0.530241 -0.0904563 0.852 
-0.49168 -0.0906686 0.854 
-0.450817 -0.0904563 0.852 
-0.405222 -0.0900316 0.848 
-0.365697 -0.0900316 0.848 
-0.334248 -0.0922612 0.869 
-0.300843 -0.0944907 0.89 
-0.266062 -0.0969326 0.913 
-0.229137 -0.0993745 0.936 
-0.18987 -0.10171 0.958 
-0.150675 -0.105532 0.994 
-0.107283 -0.108505 1.022 
-0.0599979 -0.109142 1.028 
-0.0119179 -0.107656 1.014 
0.0356586 -0.108611 1.023 
0.0835854 -0.10893 1.026 
0.138316 -0.113283 1.067 
0.206731 -0.124537 1.173 
0.278565 -0.132712 1.25 
0.356229 -0.140356 1.322 
0.39608 -0.132393 1.247 
0.437448 -0.127509 1.201 
0.464257 -0.119971 1.13 
0.497713 -0.115512 1.088 
0.524734 -0.110522 1.041 
0.547373 -0.105532 0.994 
0.569813 -0.101286 0.954 
0.573713 -0.0945969 0.891 
0.593147 -0.0911995 0.859 
0.610334 -0.0879082 0.828 
0.626983 -0.0849355 0.8 
0.640558 -0.0817504 0.77 
0.655364 -0.0792023 0.746 
0.665157 -0.0763358 0.719 
0.68215 -0.0745309 0.702 
-0.681805 -0.0862033 0.824 
-0.6637 -0.0889233 0.85 
-0.638765 -0.0910156 0.87 
-0.592714 -0.0901787 0.862 
-0.552535 -0.0901787 0.862 
-0.505225 -0.0889233 0.85 
-0.471631 -0.0900741 0.861 
-0.426488 -0.0890279 0.851 
-0.385954 -0.0891325 0.852 
-0.34868 -0.0897602 0.858 
-0.316604 -0.0920618 0.88 
-0.28185 -0.0941541 0.9 
-0.247098 -0.0969787 0.927 
-0.210268 -0.100013 0.956 
-0.168003 -0.102314 0.978 
-0.124671 -0.104197 0.996 
-0.0806041 -0.107336 1.026 
-0.0323985 -0.10608 1.014 
0.014923 -0.106499 1.018 
0.0619434 -0.105766 1.011 
0.113058 -0.109637 1.048 
0.170248 -0.115286 1.102 
0.239913 -0.124806 1.193 
0.323262 -0.136523 1.305 
0.379968 -0.135059 1.291 
0.416618 -0.12784 1.222 
0.450183 -0.12104 1.157 
0.477533 -0.114659 1.096 
0.508843 -0.11037 1.055 
0.533157 -0.105453 1.008 
0.55827 -0.101477 0.97 
0.561798 -0.0944679 0.903 
0.583156 -0.0912248 0.872 
0.595901 -0.0871448 0.833 
0.61644 -0.0846341 0.809 
0.62867 -0.0811817 0.776 
0.648561 -0.0791941 0.757 
0.662164 -0.0766833 0.733 
0.67353 -0.0741725 0.709 
-0.671705 -0.081522 0.791 
-0.670753 -0.086469 0.839 
-0.651221 -0.0891486 0.865 
-0.612316 -0.0893547 0.867 
-0.572564 -0.0894578 0.868 
-0.52475 -0.0882211 0.856 
-0.487118 -0.0886333 0.86 
-0.444954 -0.0882211 0.856 
-0.400796 -0.0872935 0.847 
-0.36345 -0.0878088 0.852 
-0.331338 -0.08987 0.872 
-0.297028 -0.0918282 0.891 
-0.26238 -0.0943017 0.915 
-0.225735 -0.0968783 0.94 
-0.18734 -0.099764 0.968 
-0.146629 -0.102856 0.998 
-0.102821 -0.105639 1.025 
-0.0554211 -0.10636 1.032 
-0.00719164 -0.104505 1.014 
0.0403873 -0.105329 1.022 
0.0890566 -0.106566 1.034 
0.141765 -0.11007 1.068 
0.211273 -0.121407 1.178 
0.288395 -0.129755 1.259 
0.360861 -0.134908 1.309 
0.400281 -0.128003 1.242 
0.441207 -0.122747 1.191 
0.467526 -0.115532 1.121 
0.499374 -0.110998 1.077 
0.527632 -0.106566 1.034 
0.55188 -0.102134 0.991 
0.566333 -0.096466 0.936 
0.576073 -0.0911068 0.884 
0.594234 -0.0877057 0.851 
0.611552 -0.0846139 0.821 
0.627657 -0.0817282 0.793 
0.640314 -0.0787394 0.764 
0.655576 -0.0763689 0.741 
0.664968 -0.0735863 0.714 
0.677903 -0.0712158 0.691 
-0.681805 -0.0836428 0.824 
-0.662138 -0.086079 0.848 
-0.642436 -0.0888198 0.875 
-0.595464 -0.0879062 0.866 
-0.55574 -0.0880077 0.867 
-0.506868 -0.0867896 0.855 
-0.472479 -0.0878047 0.865 
-0.425166 -0.0863836 0.851 
-0.38686 -0.0866881 0.854 
-0.349087 -0.0871956 0.859 
-0.316963 -0.0894288 0.881 
-0.282163 -0.091459 0.901 
-0.247364 -0.0941997 0.928 
-0.210928 -0.0973465 0.959 
-0.169522 -0.0992751 0.978 
-0.126472 -0.101305 0.998 
-0.0823584 -0.104351 1.028 
-0.0341414 -0.103437 1.019 
0.0133413 -0.103335 1.018 
0.060492 -0.102828 1.013 
0.111217 -0.106178 1.046 
0.167618 -0.111253 1.096 
0.23746 -0.120795 1.19 
0.321528 -0.131758 1.298 
0.379674 -0.130946 1.29 
0.415595 -0.123739 1.219 
0.449548 -0.11775 1.16 
0.476264 -0.111355 1.097 
0.506723 -0.10699 1.054 
0.532646 -0.102523 1.01 
0.556763 -0.0984631 0.97 
0.560395 -0.091662 0.903 
0.582468 -0.0886168 0.873 
0.596034 -0.0847594 0.835 
0.614423 -0.0820187 0.808 
0.627873 -0.0789735 0.778 
0.645355 -0.0767403 0.756 
0.659887 -0.0744056 0.733 
0.67148 -0.0718679 0.708 
-0.673565 -0.0785643 0.786 
-0.674205 -0.0831622 0.832 
-0.65681 -0.085961 0.86 
-0.628916 -0.0876602 0.877 
-0.584016 -0.0870605 0.871 
-0.533436 -0.0854612 0.855 
-0.491852 -0.0851614 0.852 
-0.457978 -0.0862608 0.863 
-0.412913 -0.0852613 0.853 
-0.373154 -0.0852613 0.853 
-0.338867 -0.0866607 0.867 
-0.304653 -0.0884598 0.885 
-0.270248 -0.0907588 0.908 
-0.233699 -0.0930578 0.931 
-0.197868 -0.0967561 0.968 
-0.15559 -0.0985553 0.986 
-0.112634 -0.101254 1.013 
-0.0667095 -0.103253 1.033 
-0.0183634 -0.102154 1.022 
0.0292723 -0.102154 1.022 
0.0772091 -0.102553 1.026 
0.128931 -0.105752 1.058 
0.190543 -0.113049 1.131 
0.260896 -0.121245 1.213 
0.343866 -0.13134 1.314 
0.389954 -0.124543 1.246 
0.430412 -0.119646 1.197 
0.461969 -0.113249 1.133 
0.491606 -0.108151 1.082 
0.520998 -0.103953 1.04 
0.544285 -0.0993549 0.994 
0.568631 -0.0956566 0.957 
0.571585 -0.0891595 0.892 
0.588415 -0.0855612 0.856 
0.606293 -0.0825625 0.826 
0.624497 -0.0799637 0.8 
0.636969 -0.0769651 0.77 
0.651886 -0.0745662 0.746 
0.667328 -0.0724671 0.725 
0.676094 -0.0697683 0.698 
-0.687008 -0.080492 0.818 
-0.667125 -0.0827552 0.841 
-0.648832 -0.0855104 0.869 
-0.611128 -0.085904 0.873 
-0.571744 -0.0861008 0.875 
-0.524285 -0.0850184 0.864 
-0.484574 -0.0851168 0.865 
-0.434932 -0.0838376 0.852 
-0.394756 -0.0837392 0.851 
-0.356343 -0.0840344 0.854 
-0.324692 -0.0861992 0.876 
-0.290342 -0.0881673 0.896 
-0.255515 -0.0906273 0.921 
-0.219281 -0.0934809 0.95 
-0.179238 -0.0957441 0.973 
-0.137876 -0.0985978 1.002 
-0.0935386 -0.101156 1.028 
-0.0459339 -0.101845 1.035 
0.00227208 -0.100271 1.019 
0.0499145 -0.100566 1.022 
0.100032 -0.103124 1.048 
0.15371 -0.10647 1.082 
0.223575 -0.116605 1.185 
0.295748 -0.12369 1.257 
0.365331 -0.127528 1.296 
0.409457 -0.120935 1.229 
0.445474 -0.115424 1.173 
0.473712 -0.109323 1.111 
0.502319 -0.104502 1.062 
0.529996 -0.100369 1.02 
0.553191 -0.0961377 0.977 
0.56196 -0.0902337 0.917 
0.581009 -0.0864944 0.879 
0.595091 -0.0827552 0.841 
0.611664 -0.0798032 0.811 
0.62544 -0.0768511 0.781 
0.640657 -0.0743911 0.756 
0.656225 -0.0722263 0.734 
0.669907 -0.0699631 0.711 
0.678327 -0.0675031 0.686 
-0.674205 -0.0805769 0.832 
-0.655283 -0.083095 0.858 
-0.630351 -0.0851288 0.879 
-0.586698 -0.0847414 0.875 
-0.536556 -0.0832887 0.86 
-0.492256 -0.0828044 0.855 
-0.458225 -0.0838697 0.866 
-0.408457 -0.0825139 0.852 
-0.371342 -0.083095 0.858 
-0.335985 -0.0842571 0.87 
-0.301546 -0.0860004 0.888 
-0.267481 -0.0884216 0.913 
-0.230345 -0.0905522 0.935 
-0.193356 -0.0937482 0.968 
-0.152219 -0.0962662 0.994 
-0.108765 -0.0988811 1.021 
-0.0620744 -0.100334 1.036 
-0.0120355 -0.0991716 1.024 
0.0355889 -0.0988811 1.021 
0.084563 -0.100527 1.038 
0.136274 -0.103046 1.064 
0.201764 -0.111859 1.155 
0.270869 -0.118541 1.224 
0.349085 -0.126192 1.303 
0.390947 -0.120381 1.243 
0.430827 -0.115539 1.193 
0.462376 -0.109825 1.134 
0.490243 -0.104498 1.079 
0.519996 -0.100527 1.038 
0.544285 -0.0962662 0.994 
0.568037 -0.092586 0.956 
0.571044 -0.0860972 0.889 
0.587623 -0.082417 0.851 
0.606649 -0.0797053 0.823 
0.625416 -0.0772841 0.798 
0.63687 -0.0742819 0.767 
0.650697 -0.0718607 0.742 
0.665887 -0.0698269 0.721 
0.674268 -0.0673089 0.695 
-0.680978 -0.0784266 0.823 
-0.659796 -0.0805231 0.845 
-0.644639 -0.0836678 0.878 
-0.603028 -0.0835725 0.877 
-0.560868 -0.0833819 0.875 
-0.514735 -0.0825243 0.866 
-0.476302 -0.083096 0.872 
-0.423346 -0.0809996 0.85 
-0.389145 -0.0821431 0.862 
-0.349371 -0.0822384 0.863 
-0.316669 -0.0842395 0.884 
-0.281698 -0.0861454 0.904 
-0.246187 -0.0885278 0.929 
-0.210093 -0.0916725 0.962 
