# .PCD v.7 - Point Cloud Data file format
VERSION .7
FIELDS x y z
SIZE 4 4 4
TYPE F F F
COUNT 1 1 1
WIDTH 1892
HEIGHT 1
VIEWPOINT 0 0 0 1 0 0 0
POINTS 1892
DATA ascii
-0.0626454 0.200311 0.721 
-0.0339006 0.200311 0.721 
-0.00516299 0.200588 0.722 
0.0237198 0.201422 0.725 
0.0525515 0.201144 0.724 
0.0815283 0.201422 0.725 
0.110585 0.2017 0.726 
0.139913 0.202255 0.728 
0.169169 0.202533 0.729 
0.198505 0.202811 0.73 
0.227297 0.202533 0.729 
0.256009 0.202255 0.728 
0.285424 0.202533 0.729 
0.309311 0.199199 0.717 
0.318103 0.187531 0.675 
0.318356 0.17225 0.62 
0.323154 0.162249 0.584 
0.328153 0.153081 0.551 
0.349484 0.152803 0.55 
0.372762 0.153358 0.552 
0.394769 0.153358 0.552 
0.416777 0.153358 0.552 
0.438784 0.153358 0.552 
0.460791 0.153358 0.552 
0.482798 0.153358 0.552 
0.505719 0.153636 0.553 
0.527766 0.153636 0.553 
0.552796 0.15447 0.556 
-0.566458 0.195558 0.698 
-0.542489 0.196958 0.703 
-0.515925 0.197519 0.705 
-0.488511 0.197799 0.706 
-0.468841 0.201441 0.719 
-0.437149 0.203963 0.728 
-0.399155 0.19948 0.712 
-0.3691 0.19948 0.712 
-0.339757 0.19892 0.71 
-0.311889 0.1992 0.711 
-0.282347 0.198359 0.708 
-0.254838 0.19892 0.71 
-0.227808 0.20004 0.714 
-0.198226 0.19892 0.71 
-0.171355 0.200601 0.716 
-0.14261 0.20032 0.715 
-0.114903 0.201721 0.72 
-0.0860781 0.201441 0.719 
-0.0575728 0.202001 0.721 
-0.028828 0.202001 0.721 
-8.32328e-05 0.202001 0.721 
0.0288206 0.203122 0.725 
0.0575656 0.202562 0.723 
0.0865096 0.202842 0.724 
0.115693 0.203402 0.726 
0.145035 0.203963 0.728 
0.174298 0.204243 0.729 
0.203362 0.204243 0.729 
0.232426 0.204243 0.729 
0.261131 0.203963 0.728 
0.290154 0.203963 0.728 
0.31304 0.20004 0.714 
0.318069 0.186312 0.665 
0.319709 0.172864 0.617 
0.325581 0.162778 0.581 
0.332029 0.154373 0.551 
0.353996 0.154373 0.551 
0.376646 0.154653 0.552 
0.398653 0.154653 0.552 
0.421422 0.154933 0.553 
0.442667 0.154653 0.552 
0.465516 0.154933 0.553 
0.487563 0.154933 0.553 
0.508689 0.154653 0.552 
0.531657 0.154933 0.553 
-0.589423 0.19776 0.7 
-0.561515 0.19776 0.7 
-0.536657 0.19889 0.704 
-0.509312 0.199172 0.705 
-0.483253 0.20002 0.708 
-0.465952 0.204822 0.725 
-0.426258 0.20454 0.724 
-0.384765 0.19889 0.704 
-0.359738 0.200585 0.71 
-0.331431 0.200585 0.71 
-0.303552 0.200867 0.711 
-0.274045 0.20002 0.708 
-0.247207 0.20115 0.712 
-0.219436 0.201715 0.714 
-0.190435 0.20115 0.712 
-0.16296 0.20228 0.716 
-0.134414 0.20228 0.716 
-0.106608 0.203692 0.721 
-0.0775392 0.202845 0.718 
-0.0490503 0.20341 0.72 
-0.0204019 0.203975 0.722 
0.00837111 0.203692 0.721 
0.0372703 0.20454 0.724 
0.0660434 0.204257 0.723 
0.0948679 0.204257 0.723 
0.124377 0.205387 0.727 
0.153572 0.20567 0.728 
0.182846 0.205952 0.729 
0.211619 0.20567 0.728 
0.240974 0.205952 0.729 
0.270037 0.205952 0.729 
0.296229 0.203975 0.722 
0.31466 0.197477 0.699 
0.317046 0.182786 0.647 
0.321645 0.171486 0.607 
0.328389 0.162163 0.574 
0.336586 0.155382 0.55 
0.359165 0.155665 0.551 
0.381132 0.155665 0.551 
0.403831 0.155948 0.552 
0.425838 0.155948 0.552 
0.447845 0.155948 0.552 
0.469853 0.155948 0.552 
0.493642 0.156513 0.554 
0.512936 0.155665 0.551 
0.536845 0.15623 0.553 
-0.577917 0.198831 0.698 
-0.552453 0.199686 0.701 
-0.526751 0.200541 0.704 
-0.498684 0.200541 0.704 
-0.475296 0.202535 0.711 
-0.46078 0.208801 0.733 
-0.412622 0.204529 0.718 
-0.375328 0.20168 0.708 
-0.348082 0.20225 0.71 
-0.319776 0.20225 0.71 
-0.29147 0.20225 0.71 
-0.262051 0.201395 0.707 
-0.235519 0.202819 0.712 
-0.207133 0.202819 0.712 
-0.1795 0.203674 0.715 
-0.150783 0.203389 0.714 
-0.123003 0.204529 0.718 
-0.0943776 0.204529 0.718 
-0.065844 0.204813 0.719 
-0.0371789 0.204813 0.719 
-0.00853758 0.205383 0.721 
0.0202633 0.205953 0.723 
0.0491557 0.206238 0.724 
0.0779123 0.205953 0.723 
0.106737 0.205953 0.723 
0.136311 0.207092 0.727 
0.165523 0.207377 0.728 
0.194814 0.207662 0.729 
0.22357 0.207377 0.728 
0.252594 0.207377 0.728 
0.282005 0.207662 0.729 
0.305948 0.204244 0.717 
0.31727 0.193704 0.68 
0.317539 0.178606 0.627 
0.322335 0.166642 0.585 
0.330043 0.157242 0.552 
0.351412 0.156957 0.551 
0.374057 0.157242 0.552 
0.396064 0.157242 0.552 
0.418828 0.157527 0.553 
0.440078 0.157242 0.552 
0.462085 0.157242 0.552 
0.484969 0.157527 0.553 
0.506099 0.157242 0.552 
0.528107 0.157242 0.552 
-0.590265 0.20133 0.701 
-0.560713 0.200756 0.699 
-0.536657 0.202192 0.704 
-0.50859 0.202192 0.704 
-0.483935 0.203628 0.709 
-0.465952 0.208223 0.725 
-0.428547 0.208223 0.725 
-0.383114 0.202192 0.704 
-0.358072 0.203915 0.71 
-0.329766 0.203915 0.71 
-0.302309 0.204489 0.712 
-0.272 0.203053 0.707 
-0.245537 0.204489 0.712 
-0.217151 0.204489 0.712 
-0.18903 0.204776 0.713 
-0.161055 0.205351 0.715 
-0.132735 0.205638 0.716 
-0.104626 0.2065 0.719 
-0.0758554 0.206212 0.718 
-0.047296 0.2065 0.719 
-0.0187346 0.207648 0.723 
0.010062 0.207074 0.721 
0.0389144 0.207648 0.723 
0.0677389 0.207648 0.723 
0.0965634 0.207648 0.723 
0.125908 0.20851 0.726 
0.155066 0.208797 0.727 
0.184556 0.209372 0.729 
0.213327 0.209084 0.728 
0.24235 0.209084 0.728 
0.271747 0.209372 0.729 
0.297097 0.206787 0.72 
0.314489 0.199607 0.695 
0.316618 0.183811 0.64 
0.320329 0.170599 0.594 
0.325633 0.160834 0.56 
0.341745 0.157962 0.55 
0.364995 0.158537 0.552 
0.387002 0.158537 0.552 
0.40975 0.158824 0.553 
0.431016 0.158537 0.552 
0.453024 0.158537 0.552 
0.475031 0.158537 0.552 
0.497938 0.158824 0.553 
0.518104 0.158249 0.551 
0.541052 0.158537 0.552 
-0.572185 0.201816 0.697 
-0.549084 0.203553 0.703 
-0.521798 0.203843 0.704 
-0.495133 0.204422 0.706 
-0.47294 0.207028 0.715 
-0.443368 0.210502 0.727 
-0.408684 0.207607 0.717 
-0.372007 0.205001 0.708 
-0.344752 0.20558 0.71 
-0.316446 0.20558 0.71 
-0.287328 0.205001 0.708 
-0.258735 0.204711 0.707 
-0.231853 0.205869 0.711 
-0.204079 0.206449 0.713 
-0.176393 0.207317 0.716 
-0.147641 0.207028 0.715 
-0.119635 0.207896 0.718 
-0.0908831 0.207607 0.717 
-0.0624716 0.208186 0.719 
-0.0338066 0.208186 0.719 
-0.00515584 0.208765 0.721 
0.0236544 0.209344 0.723 
0.0524789 0.209344 0.723 
0.0813034 0.209344 0.723 
0.109976 0.209054 0.722 
0.139529 0.210213 0.726 
0.168937 0.210792 0.728 
0.198233 0.211081 0.729 
0.226985 0.210792 0.728 
0.256009 0.210792 0.728 
0.285033 0.210792 0.728 
0.30888 0.207317 0.716 
0.31669 0.194577 0.672 
0.317842 0.179231 0.619 
0.3226 0.168807 0.583 
0.329344 0.160121 0.553 
0.35012 0.159542 0.551 
0.372762 0.159831 0.552 
0.394054 0.159542 0.551 
0.417532 0.160121 0.553 
0.439579 0.160121 0.553 
0.460791 0.159831 0.552 
0.482798 0.159831 0.552 
0.50389 0.159542 0.551 
0.525858 0.159542 0.551 
0.550808 0.16041 0.554 
-0.564012 0.20345 0.697 
-0.54161 0.205494 0.704 
-0.513543 0.205494 0.704 
-0.488234 0.206661 0.708 
-0.468454 0.210456 0.721 
-0.437651 0.211915 0.726 
-0.401951 0.208413 0.714 
-0.368063 0.207245 0.71 
-0.339757 0.207245 0.71 
-0.31145 0.207245 0.71 
-0.281948 0.206369 0.707 
-0.25412 0.206661 0.708 
-0.226532 0.207245 0.71 
-0.199342 0.208413 0.714 
-0.171355 0.208996 0.716 
-0.14261 0.208704 0.715 
-0.114743 0.209872 0.719 
-0.0858387 0.209288 0.717 
-0.0573332 0.20958 0.718 
-0.028748 0.209872 0.719 
-8.32328e-05 0.210456 0.721 
0.028741 0.21104 0.723 
0.0575656 0.21104 0.723 
0.0863901 0.21104 0.723 
0.115215 0.21104 0.723 
0.144637 0.211915 0.726 
0.174059 0.212499 0.728 
0.203362 0.212791 0.729 
0.232107 0.212499 0.728 
0.261131 0.212499 0.728 
0.290154 0.212499 0.728 
0.312163 0.207829 0.712 
0.317591 0.193818 0.664 
0.319074 0.178931 0.613 
0.325021 0.169299 0.58 
0.331337 0.161126 0.552 
0.352704 0.160834 0.551 
0.374671 0.160834 0.551 
0.396639 0.160834 0.551 
0.419366 0.161126 0.552 
0.441373 0.161126 0.552 
0.46338 0.161126 0.552 
0.485387 0.161126 0.552 
0.506475 0.160834 0.551 
0.529401 0.161126 0.552 
-0.595246 0.20685 0.703 
-0.562378 0.205085 0.697 
-0.539959 0.207145 0.704 
-0.511892 0.207145 0.704 
-0.486574 0.208322 0.708 
-0.467411 0.212441 0.722 
-0.435348 0.213324 0.725 
-0.398595 0.209204 0.711 
-0.368063 0.20891 0.71 
-0.339278 0.208616 0.709 
-0.31145 0.20891 0.71 
-0.282347 0.208322 0.708 
-0.25412 0.208322 0.708 
-0.226213 0.208616 0.709 
-0.199342 0.210087 0.714 
-0.171355 0.210675 0.716 
-0.14261 0.210381 0.715 
-0.114584 0.211264 0.718 
-0.0858387 0.21097 0.717 
-0.0572534 0.21097 0.717 
-0.028748 0.211558 0.719 
-8.32328e-05 0.212147 0.721 
0.028741 0.212735 0.723 
0.0575656 0.212735 0.723 
0.0863901 0.212735 0.723 
0.115055 0.212441 0.722 
0.144438 0.213324 0.725 
0.174059 0.214206 0.728 
0.203362 0.214501 0.729 
0.232107 0.214206 0.728 
0.261131 0.214206 0.728 
0.290154 0.214206 0.728 
0.312163 0.209498 0.712 
0.316634 0.194787 0.662 
0.318673 0.180957 0.615 
0.324219 0.170953 0.581 
0.330641 0.162714 0.553 
0.351412 0.162126 0.551 
0.373379 0.162126 0.551 
0.395346 0.162126 0.551 
0.418071 0.16242 0.552 
0.440875 0.162714 0.553 
0.462085 0.16242 0.552 
0.484092 0.16242 0.552 
0.505183 0.162126 0.551 
0.52715 0.162126 0.551 
-0.597744 0.208796 0.704 
-0.564012 0.20672 0.697 
-0.54161 0.208796 0.704 
-0.513543 0.208796 0.704 
-0.487544 0.209685 0.707 
-0.469104 0.214134 0.722 
-0.437048 0.215024 0.725 
-0.400825 0.211168 0.712 
-0.37087 0.210279 0.709 
-0.342604 0.210279 0.709 
-0.314337 0.210279 0.709 
-0.286071 0.210279 0.709 
-0.257441 0.209982 0.708 
-0.229214 0.209982 0.708 
-0.202691 0.211761 0.714 
-0.174714 0.212355 0.716 
-0.145964 0.212058 0.715 
-0.117787 0.212651 0.717 
-0.0890772 0.212355 0.716 
-0.0607009 0.212948 0.718 
-0.0321204 0.213244 0.719 
-0.00346017 0.213541 0.72 
0.0253149 0.214134 0.722 
0.0541744 0.214431 0.723 
0.082999 0.214431 0.723 
0.111669 0.214134 0.722 
0.141037 0.215024 0.725 
0.17041 0.215617 0.727 
0.199668 0.215914 0.728 
0.228692 0.215914 0.728 
0.257716 0.215914 0.728 
0.28674 0.215914 0.728 
0.310559 0.212355 0.716 
0.316845 0.198415 0.669 
0.318155 0.182103 0.614 
0.324693 0.171129 0.577 
0.332632 0.163715 0.552 
0.353996 0.163418 0.551 
0.375964 0.163418 0.551 
0.397931 0.163418 0.551 
0.42066 0.163715 0.552 
0.442667 0.163715 0.552 
0.464674 0.163715 0.552 
0.486681 0.163715 0.552 
0.507767 0.163418 0.551 
0.530696 0.163715 0.552 
-0.593597 0.210148 0.703 
-0.560743 0.208354 0.697 
-0.538308 0.210447 0.704 
-0.510241 0.210447 0.704 
-0.484228 0.211343 0.707 
-0.467007 0.216425 0.724 
-0.428467 0.215827 0.722 
-0.390825 0.211044 0.706 
-0.364733 0.21224 0.71 
-0.335953 0.211941 0.709 
-0.30812 0.21224 0.71 
-0.279026 0.211642 0.708 
-0.251508 0.21224 0.71 
-0.222573 0.211642 0.708 
-0.196268 0.213735 0.715 
-0.167762 0.213735 0.715 
-0.139257 0.213735 0.715 
-0.111061 0.214333 0.717 
-0.0824757 0.214333 0.717 
-0.0538904 0.214333 0.717 
-0.0254463 0.215528 0.721 
0.00329851 0.215528 0.721 
0.0320877 0.215827 0.722 
0.0609567 0.216126 0.723 
0.0899054 0.216425 0.724 
0.118442 0.215827 0.722 
0.147838 0.216724 0.725 
0.17723 0.217322 0.727 
0.206497 0.217621 0.728 
0.235521 0.217621 0.728 
0.264182 0.217322 0.727 
0.292359 0.216724 0.725 
0.312844 0.211044 0.706 
0.315953 0.194603 0.651 
0.319324 0.181749 0.608 
0.325714 0.169493 0.567 
0.337876 0.164411 0.55 
0.360457 0.16471 0.551 
0.382425 0.16471 0.551 
0.405126 0.165009 0.552 
0.427133 0.165009 0.552 
0.448326 0.16471 0.551 
0.471147 0.165009 0.552 
0.493154 0.165009 0.552 
0.514228 0.16471 0.551 
0.537168 0.165009 0.552 
-0.581214 0.210892 0.7 
-0.553307 0.210892 0.7 
-0.527651 0.211796 0.703 
-0.500335 0.212098 0.704 
-0.47428 0.213001 0.707 
-0.463761 0.221437 0.735 
-0.414831 0.215713 0.716 
-0.380351 0.212399 0.705 
-0.354742 0.213905 0.71 
-0.326436 0.213905 0.71 
-0.29813 0.213905 0.71 
-0.269064 0.213303 0.708 
-0.241517 0.213905 0.71 
-0.213812 0.214508 0.712 
-0.186207 0.215412 0.715 
-0.157922 0.215713 0.716 
-0.129377 0.215713 0.716 
-0.100831 0.215713 0.716 
-0.0723868 0.216014 0.717 
-0.0438626 0.216315 0.718 
-0.0153011 0.217219 0.721 
0.0134624 0.217521 0.722 
0.0421885 0.217219 0.721 
0.0710317 0.217521 0.722 
0.100231 0.218424 0.725 
0.128423 0.217219 0.721 
0.157822 0.218123 0.724 
0.187459 0.219027 0.727 
0.216443 0.219027 0.727 
0.245765 0.219328 0.728 
0.274789 0.219328 0.728 
0.299639 0.216315 0.718 
0.316378 0.208482 0.692 
0.316131 0.191611 0.636 
0.319473 0.179259 0.595 
0.32589 0.17022 0.565 
0.339166 0.165701 0.55 
0.36175 0.166003 0.551 
0.383717 0.166003 0.551 
0.40642 0.166304 0.552 
0.428427 0.166304 0.552 
0.449618 0.166003 0.551 
0.472442 0.166304 0.552 
0.494449 0.166304 0.552 
0.51552 0.166003 0.551 
0.539438 0.166605 0.553 
-0.578745 0.212231 0.699 
-0.552453 0.212838 0.701 
-0.526002 0.213445 0.703 
-0.498684 0.213749 0.704 
-0.473291 0.214963 0.708 
-0.4491 0.221035 0.728 
-0.413152 0.217392 0.716 
-0.378698 0.214052 0.705 
-0.353077 0.21557 0.71 
-0.325228 0.215874 0.711 
-0.296465 0.21557 0.71 
-0.267781 0.215267 0.709 
-0.239852 0.21557 0.71 
-0.212142 0.216178 0.712 
-0.184272 0.216785 0.714 
-0.156243 0.217392 0.716 
-0.127698 0.217392 0.716 
-0.0991521 0.217392 0.716 
-0.0707053 0.217696 0.717 
-0.0421787 0.217999 0.718 
-0.0136102 0.21891 0.721 
0.0151556 0.219214 0.722 
0.0438794 0.21891 0.721 
0.0727249 0.219214 0.722 
0.101931 0.220125 0.725 
0.130294 0.219214 0.722 
0.159299 0.219517 0.723 
0.188904 0.220428 0.726 
0.217848 0.220428 0.726 
0.247472 0.221035 0.728 
0.276496 0.221035 0.728 
0.301323 0.217999 0.718 
0.317541 0.209802 0.691 
0.31602 0.189459 0.624 
0.32123 0.178529 0.588 
0.32663 0.168509 0.555 
0.345615 0.166991 0.55 
0.367542 0.166991 0.55 
0.390178 0.167295 0.551 
0.412893 0.167598 0.552 
0.4349 0.167598 0.552 
0.456079 0.167295 0.551 
0.478914 0.167598 0.552 
0.500014 0.167295 0.551 
0.521981 0.167295 0.551 
0.545923 0.167902 0.553 
-0.568916 0.213258 0.697 
-0.545786 0.215094 0.703 
-0.517759 0.215094 0.703 
-0.491125 0.215706 0.705 
-0.470527 0.219989 0.719 
-0.439459 0.223049 0.729 
-0.399699 0.217235 0.71 
-0.371916 0.217541 0.711 
-0.342604 0.216929 0.709 
-0.314337 0.216929 0.709 
-0.285667 0.216623 0.708 
-0.257805 0.216929 0.709 
-0.229862 0.217235 0.71 
-0.202691 0.218459 0.714 
-0.17447 0.218765 0.715 
-0.146168 0.219071 0.716 
-0.117623 0.219071 0.716 
-0.0890772 0.219071 0.716 
-0.0606164 0.219377 0.717 
-0.0321204 0.219989 0.719 
-0.00345536 0.219989 0.719 
0.0252798 0.220601 0.721 
0.0540995 0.220907 0.722 
0.0828842 0.220907 0.722 
0.111823 0.221213 0.723 
0.140453 0.220907 0.722 
0.169941 0.221825 0.725 
0.198846 0.221825 0.725 
0.228378 0.222437 0.727 
0.257716 0.222743 0.728 
0.28674 0.222743 0.728 
0.310125 0.218765 0.715 
0.315678 0.201937 0.66 
0.317119 0.187251 0.612 
0.323661 0.17746 0.58 
0.329445 0.168587 0.551 
0.350774 0.168281 0.55 
0.373379 0.168587 0.551 
0.395346 0.168587 0.551 
0.418071 0.168893 0.552 
0.440078 0.168893 0.552 
0.462085 0.168893 0.552 
0.484092 0.168893 0.552 
0.505183 0.168587 0.551 
0.528107 0.168893 0.552 
-0.596093 0.217051 0.704 
-0.562378 0.214892 0.697 
-0.539192 0.216742 0.703 
-0.511164 0.216742 0.703 
-0.484512 0.217359 0.705 
-0.468705 0.223217 0.724 
-0.43604 0.224758 0.729 
-0.394136 0.217667 0.706 
-0.369618 0.219825 0.713 
-0.339278 0.218592 0.709 
-0.310573 0.218284 0.708 
-0.281948 0.217976 0.707 
-0.254479 0.218592 0.709 
-0.226851 0.219209 0.711 
-0.199621 0.220442 0.715 
-0.171355 0.22075 0.716 
-0.14261 0.220442 0.715 
-0.114264 0.22075 0.716 
-0.085719 0.22075 0.716 
-0.0572534 0.221059 0.717 
-0.028748 0.221675 0.719 
-8.30019e-05 0.221675 0.719 
0.0286615 0.222292 0.721 
0.0574859 0.2226 0.722 
0.0863901 0.222909 0.723 
0.115215 0.222909 0.723 
0.144039 0.222909 0.723 
0.173103 0.223217 0.724 
0.202246 0.223525 0.725 
0.231788 0.224142 0.727 
0.260772 0.224142 0.727 
0.289756 0.224142 0.727 
0.311725 0.219209 0.711 
0.315468 0.200402 0.65 
0.318798 0.187144 0.607 
0.324351 0.17697 0.574 
0.332716 0.169571 0.55 
0.354644 0.169571 0.55 
0.377256 0.169879 0.551 
0.399223 0.169879 0.551 
0.421955 0.170187 0.552 
0.443962 0.170187 0.552 
0.465969 0.170187 0.552 
0.487976 0.170187 0.552 
0.509059 0.169879 0.551 
0.532954 0.170496 0.553 
-0.591949 0.218391 0.703 
-0.559911 0.216838 0.698 
-0.535894 0.218391 0.703 
-0.507867 0.218391 0.703 
-0.480523 0.218702 0.704 
-0.467238 0.225847 0.727 
-0.43433 0.226468 0.729 
-0.39248 0.219323 0.706 
-0.367946 0.221498 0.713 
-0.338092 0.220566 0.71 
-0.308476 0.219634 0.707 
-0.28029 0.219634 0.707 
-0.253173 0.220566 0.71 
-0.225183 0.220876 0.711 
-0.197945 0.222119 0.715 
-0.169676 0.222429 0.716 
-0.141131 0.222429 0.716 
-0.112585 0.222429 0.716 
-0.0840398 0.222429 0.716 
-0.0555719 0.22274 0.717 
-0.0270995 0.223672 0.72 
0.00160318 0.223361 0.719 
0.0303524 0.223983 0.721 
0.0591792 0.224293 0.722 
0.0880856 0.224604 0.723 
0.11691 0.224604 0.723 
0.145936 0.224915 0.724 
0.174801 0.224915 0.724 
0.203665 0.224915 0.724 
0.233493 0.225847 0.727 
0.262477 0.225847 0.727 
0.290659 0.225225 0.725 
0.311629 0.219634 0.707 
0.315468 0.201926 0.65 
0.317748 0.187947 0.605 
0.324916 0.178627 0.575 
0.332716 0.170861 0.55 
0.354644 0.170861 0.55 
0.377256 0.171171 0.551 
0.399223 0.171171 0.551 
0.421955 0.171482 0.552 
0.443962 0.171482 0.552 
0.465969 0.171482 0.552 
0.487976 0.171482 0.552 
0.509983 0.171482 0.552 
0.532954 0.171793 0.553 
-0.5903 0.22004 0.703 
-0.558274 0.218475 0.698 
-0.533486 0.219727 0.702 
-0.506218 0.22004 0.703 
-0.478872 0.220353 0.704 
-0.466813 0.228178 0.729 
-0.432621 0.228178 0.729 
-0.390271 0.220666 0.705 
-0.36576 0.222857 0.712 
-0.336427 0.222231 0.71 
-0.306818 0.221292 0.707 
-0.279026 0.221605 0.708 
-0.251508 0.222231 0.71 
-0.22383 0.222857 0.712 
-0.196268 0.223796 0.715 
-0.167997 0.224109 0.716 
-0.139452 0.224109 0.716 
-0.110906 0.224109 0.716 
-0.0824757 0.224422 0.717 
-0.0538904 0.224422 0.717 
-0.025411 0.225361 0.72 
0.00328936 0.225048 0.719 
0.0319988 0.225361 0.72 
0.0608724 0.225987 0.722 
0.0897812 0.2263 0.723 
0.118442 0.225987 0.722 
0.147838 0.226926 0.725 
0.176742 0.226926 0.725 
0.205079 0.2263 0.723 
0.235198 0.227552 0.727 
0.264182 0.227552 0.727 
0.291956 0.226613 0.724 
0.312401 0.220666 0.705 
0.314132 0.199695 0.638 
0.318612 0.186549 0.596 
0.325714 0.177471 0.567 
0.337932 0.171524 0.548 
0.361093 0.17215 0.55 
0.383717 0.172463 0.551 
0.405684 0.172463 0.551 
0.428427 0.172776 0.552 
0.450434 0.172776 0.552 
0.472442 0.172776 0.552 
0.494449 0.172776 0.552 
0.516456 0.172776 0.552 
0.539438 0.173089 0.553 
-0.577917 0.220112 0.698 
-0.553241 0.221373 0.702 
-0.523758 0.220742 0.7 
-0.497975 0.221688 0.703 
-0.471954 0.222634 0.706 
-0.455001 0.230833 0.732 
-0.419419 0.227364 0.721 
-0.382004 0.222319 0.705 
-0.356407 0.223896 0.71 
-0.329025 0.224526 0.712 
-0.298106 0.222634 0.706 
-0.271489 0.223896 0.71 
-0.243183 0.223896 0.71 
-0.215482 0.224526 0.712 
-0.187621 0.225157 0.714 
-0.159601 0.225788 0.716 
-0.131056 0.225788 0.716 
-0.10251 0.225788 0.716 
-0.0740683 0.226103 0.717 
-0.045483 0.226103 0.717 
-0.0169448 0.226734 0.719 
0.0117203 0.226734 0.719 
0.0404415 0.227049 0.72 
0.0693384 0.22768 0.722 
0.0985308 0.228626 0.725 
0.126908 0.22768 0.722 
0.156339 0.228626 0.725 
0.185499 0.228941 0.726 
0.214148 0.228626 0.725 
0.243723 0.229257 0.727 
0.272707 0.229257 0.727 
0.298371 0.226734 0.719 
0.314755 0.218219 0.692 
0.313627 0.198037 0.628 
0.318711 0.186369 0.591 
0.326057 0.17754 0.563 
0.339217 0.17281 0.548 
0.362383 0.17344 0.55 
0.385009 0.173756 0.551 
0.406976 0.173756 0.551 
0.429722 0.174071 0.552 
0.451729 0.174071 0.552 
0.473736 0.174071 0.552 
0.494845 0.173756 0.551 
0.51775 0.174071 0.552 
0.541713 0.174702 0.554 
-0.581214 0.222384 0.7 
-0.554097 0.222702 0.701 
-0.524649 0.222066 0.699 
-0.499624 0.223337 0.703 
-0.472268 0.223655 0.704 
-0.461237 0.232232 0.731 
-0.423446 0.230326 0.725 
-0.383114 0.223655 0.704 
-0.358072 0.225561 0.71 
-0.330695 0.226196 0.712 
-0.299762 0.22429 0.706 
-0.273154 0.225561 0.71 
-0.244848 0.225561 0.71 
-0.217456 0.226514 0.713 
-0.189296 0.226832 0.714 
-0.161506 0.227785 0.717 
-0.132735 0.227467 0.716 
-0.10419 0.227467 0.716 
-0.0757497 0.227785 0.717 
-0.0471644 0.227785 0.717 
-0.018631 0.22842 0.719 
0.0100341 0.22842 0.719 
0.0387529 0.228738 0.72 
0.0676452 0.229373 0.722 
0.0968305 0.230326 0.725 
0.125215 0.229373 0.722 
0.154852 0.230644 0.726 
0.183796 0.230644 0.726 
0.211861 0.229691 0.723 
0.241685 0.230644 0.726 
0.271374 0.231279 0.728 
0.297097 0.228738 0.72 
0.313584 0.22016 0.693 
0.313627 0.19951 0.628 
0.318711 0.187755 0.591 
0.325633 0.177907 0.56 
0.342411 0.174412 0.549 
0.364963 0.17473 0.55 
0.387593 0.175048 0.551 
0.409561 0.175048 0.551 
0.432311 0.175366 0.552 
0.453495 0.175048 0.551 
0.476325 0.175366 0.552 
0.497429 0.175048 0.551 
0.520339 0.175366 0.552 
0.544311 0.176001 0.554 
-0.57382 0.223065 0.697 
-0.549949 0.224666 0.702 
-0.518987 0.223385 0.698 
-0.494678 0.224986 0.703 
-0.472625 0.227866 0.712 
-0.451568 0.234267 0.732 
-0.413729 0.229466 0.717 
-0.378698 0.225626 0.705 
-0.353077 0.227226 0.71 
-0.325686 0.227866 0.712 
-0.294795 0.225946 0.706 
-0.268159 0.227226 0.71 
-0.240528 0.227866 0.712 
-0.212738 0.228506 0.714 
-0.184272 0.228506 0.714 
-0.156243 0.229146 0.716 
-0.127698 0.229146 0.716 
-0.0991521 0.229146 0.716 
-0.0707053 0.229466 0.717 
-0.04212 0.229466 0.717 
-0.0135724 0.230106 0.719 
0.0150926 0.230106 0.719 
0.0438794 0.230746 0.721 
0.0728256 0.231386 0.723 
0.101791 0.231706 0.724 
0.130475 0.231386 0.723 
0.15996 0.232346 0.726 
0.188644 0.232026 0.725 
0.217548 0.232026 0.725 
0.247132 0.232666 0.727 
0.276496 0.232986 0.728 
0.301743 0.230106 0.719 
0.316162 0.220185 0.688 
0.315513 0.199383 0.623 
0.32123 0.188181 0.588 
0.324865 0.17666 0.552 
0.344986 0.1757 0.549 
0.367542 0.17602 0.55 
0.390178 0.17634 0.551 
0.412145 0.17634 0.551 
0.434112 0.17634 0.551 
0.456079 0.17634 0.551 
0.478914 0.17666 0.552 
0.500921 0.17666 0.552 
0.523876 0.17698 0.553 
0.54691 0.1773 0.554 
-0.571364 0.224378 0.696 
-0.547521 0.225989 0.701 
-0.516609 0.2247 0.697 
-0.493029 0.226634 0.703 
-0.472278 0.23018 0.714 
-0.452665 0.235661 0.731 
-0.416569 0.231792 0.719 
-0.380351 0.227279 0.705 
-0.354243 0.228569 0.709 
-0.327356 0.229536 0.712 
-0.29603 0.227279 0.705 
-0.269824 0.228891 0.71 
-0.242198 0.229536 0.712 
-0.214412 0.23018 0.714 
-0.185947 0.23018 0.714 
-0.157922 0.230825 0.716 
-0.129377 0.230825 0.716 
-0.100972 0.231148 0.717 
-0.0723868 0.231148 0.717 
-0.0438015 0.231148 0.717 
-0.0152586 0.231792 0.719 
0.0134064 0.231792 0.719 
0.0421885 0.232437 0.721 
0.07113 0.233082 0.723 
0.100093 0.233404 0.724 
0.128601 0.232759 0.722 
0.158476 0.234371 0.727 
0.187202 0.234049 0.726 
0.215848 0.233727 0.725 
0.245427 0.234371 0.727 
0.274789 0.234694 0.728 
0.300057 0.231792 0.719 
0.315463 0.222443 0.69 
0.314598 0.202133 0.627 
0.32123 0.18956 0.588 
0.325329 0.178922 0.555 
0.343699 0.176987 0.549 
0.366252 0.17731 0.55 
0.388886 0.177632 0.551 
0.410853 0.177632 0.551 
0.43282 0.177632 0.551 
0.455613 0.177955 0.552 
0.47762 0.177955 0.552 
0.499627 0.177955 0.552 
0.522579 0.178277 0.553 
0.545611 0.178599 0.554 
-0.57382 0.226335 0.697 
-0.548382 0.227309 0.7 
-0.5175 0.22601 0.696 
-0.494678 0.228283 0.703 
-0.472625 0.231205 0.712 
-0.454379 0.237375 0.731 
-0.42 0.234453 0.722 
-0.381463 0.228608 0.704 
-0.355905 0.230231 0.709 
-0.329025 0.231205 0.712 
-0.297684 0.228932 0.705 
-0.271489 0.230556 0.71 
-0.243525 0.230881 0.711 
-0.215784 0.23153 0.713 
-0.187884 0.23218 0.715 
-0.159378 0.23218 0.715 
-0.131056 0.232504 0.716 
-0.102654 0.232829 0.717 
-0.0740683 0.232829 0.717 
-0.0455464 0.233154 0.718 
-0.0169448 0.233479 0.719 
0.0117203 0.233479 0.719 
0.0404976 0.234128 0.721 
0.0693384 0.234453 0.722 
0.0983949 0.235102 0.724 
0.126908 0.234453 0.722 
0.156771 0.236076 0.727 
0.185499 0.235752 0.726 
0.213557 0.234777 0.723 
0.243723 0.236076 0.727 
0.273082 0.236401 0.728 
0.298786 0.233803 0.72 
0.3143 0.224386 0.691 
0.315134 0.206851 0.637 
0.317325 0.191913 0.591 
0.326467 0.183795 0.566 
0.339836 0.178275 0.549 
0.363042 0.178924 0.551 
0.385009 0.178924 0.551 
0.406976 0.178924 0.551 
0.428943 0.178924 0.551 
0.451729 0.179249 0.552 
0.473736 0.179249 0.552 
0.495743 0.179249 0.552 
0.51775 0.179249 0.552 
0.541713 0.179899 0.554 
-0.577917 0.228296 0.698 
-0.550877 0.228623 0.699 
-0.521513 0.227969 0.697 
-0.497267 0.229604 0.702 
-0.471954 0.230913 0.706 
-0.458434 0.239417 0.732 
-0.426319 0.237781 0.727 
-0.384765 0.230259 0.704 
-0.358724 0.231567 0.708 
-0.331898 0.232548 0.711 
-0.30099 0.230586 0.705 
-0.274819 0.232221 0.71 
-0.24686 0.232548 0.711 
-0.218514 0.232548 0.711 
-0.191238 0.233856 0.715 
-0.162732 0.233856 0.715 
-0.134414 0.234183 0.716 
-0.106017 0.234511 0.717 
-0.0773232 0.234183 0.716 
-0.0489141 0.234838 0.718 
-0.0203171 0.235165 0.719 
0.00834789 0.235165 0.719 
0.0371159 0.235819 0.721 
0.065952 0.236146 0.722 
0.0949991 0.2368 0.724 
0.12335 0.235819 0.721 
0.153361 0.237781 0.727 
0.182345 0.237781 0.727 
0.210166 0.236473 0.723 
0.239982 0.237454 0.726 
0.269667 0.238108 0.728 
0.295819 0.235819 0.721 
0.313132 0.226334 0.692 
0.315117 0.209326 0.64 
0.316474 0.193627 0.592 
0.326289 0.185777 0.568 
0.338549 0.179562 0.549 
0.361093 0.17989 0.55 
0.383717 0.180217 0.551 
0.405684 0.180217 0.551 
0.427651 0.180217 0.551 
0.449618 0.180217 0.551 
0.472442 0.180544 0.552 
0.494449 0.180544 0.552 
0.516456 0.180544 0.552 
0.540414 0.181198 0.554 
-0.577917 0.229933 0.698 
-0.550089 0.229933 0.698 
-0.521513 0.229604 0.697 
-0.497267 0.231251 0.702 
-0.471954 0.232568 0.706 
-0.458434 0.241133 0.732 
-0.426319 0.239486 0.727 
-0.384765 0.23191 0.704 
-0.358724 0.233227 0.708 
-0.331431 0.233886 0.71 
-0.30099 0.232239 0.705 
-0.274432 0.233557 0.709 
-0.247207 0.234545 0.712 
-0.218514 0.234216 0.711 
-0.191238 0.235533 0.715 
-0.162732 0.235533 0.715 
-0.134414 0.235863 0.716 
-0.106017 0.236192 0.717 
-0.0773232 0.235863 0.716 
-0.0489141 0.236521 0.718 
-0.0203171 0.236851 0.719 
0.00834789 0.236851 0.719 
0.0371159 0.23751 0.721 
0.065952 0.237839 0.722 
0.0949991 0.238498 0.724 
0.12335 0.23751 0.721 
0.153361 0.239486 0.727 
0.182345 0.239486 0.727 
0.210166 0.238169 0.723 
0.239982 0.239157 0.726 
0.269667 0.239816 0.728 
0.295819 0.23751 0.721 
0.311959 0.228286 0.693 
0.316556 0.212803 0.646 
0.314553 0.194685 0.591 
0.326101 0.187768 0.57 
0.337261 0.18085 0.549 
0.359803 0.181179 0.55 
0.382425 0.181509 0.551 
0.404392 0.181509 0.551 
0.427133 0.181838 0.552 
0.448326 0.181509 0.551 
0.471147 0.181838 0.552 
0.493154 0.181838 0.552 
0.515161 0.181838 0.552 
0.539115 0.182497 0.554 
-0.577917 0.23157 0.698 
-0.549301 0.231238 0.697 
-0.522261 0.23157 0.698 
-0.497267 0.232897 0.702 
-0.471954 0.234224 0.706 
-0.457808 0.242518 0.731 
-0.422278 0.239864 0.723 
-0.383114 0.233561 0.704 
-0.356559 0.234556 0.707 
-0.330231 0.235883 0.711 
-0.299337 0.233892 0.705 
-0.272769 0.235219 0.709 
-0.245537 0.236215 0.712 
-0.216541 0.235551 0.71 
-0.189561 0.23721 0.715 
-0.161055 0.23721 0.715 
-0.132735 0.237542 0.716 
-0.104335 0.237874 0.717 
-0.0756441 0.237542 0.716 
-0.0472302 0.238205 0.718 
-0.018631 0.238537 0.719 
0.0100341 0.238537 0.719 
0.0388068 0.239201 0.721 
0.0676452 0.239532 0.722 
0.0965634 0.239864 0.723 
0.125041 0.239201 0.721 
0.155066 0.241191 0.727 
0.18405 0.241191 0.727 
0.212155 0.240196 0.724 
0.241685 0.240859 0.726 
0.271374 0.241523 0.728 
0.297097 0.238869 0.72 
0.313132 0.229579 0.692 
0.316102 0.212991 0.642 
0.318172 0.19574 0.59 
0.325778 0.185123 0.558 
0.342411 0.182137 0.549 
0.364963 0.182469 0.55 
0.387593 0.182801 0.551 
0.409561 0.182801 0.551 
0.431528 0.182801 0.551 
0.453495 0.182801 0.551 
0.476325 0.183133 0.552 
0.498332 0.183133 0.552 
0.520339 0.183133 0.552 
0.544311 0.183796 0.554 
-0.568095 0.233207 0.698 
-0.541816 0.233875 0.7 
-0.51244 0.233207 0.698 
-0.488083 0.234878 0.703 
-0.470527 0.240223 0.719 
-0.443486 0.243898 0.73 
-0.404165 0.237884 0.712 
-0.37314 0.236214 0.707 
-0.344465 0.23588 0.706 
-0.319007 0.237884 0.712 
-0.28858 0.236214 0.707 
-0.261498 0.237216 0.71 
-0.23352 0.23755 0.711 
-0.205463 0.237884 0.712 
-0.177077 0.237884 0.712 
-0.149526 0.239221 0.716 
-0.120981 0.239221 0.716 
-0.0925646 0.239555 0.717 
-0.0638901 0.239221 0.716 
-0.0354928 0.240223 0.719 
-0.00683721 0.240557 0.72 
0.0218677 0.240557 0.72 
0.0507131 0.241226 0.722 
0.0794977 0.241226 0.722 
0.108282 0.241226 0.722 
0.137257 0.24156 0.723 
0.167 0.242896 0.727 
0.195445 0.242228 0.725 
0.224349 0.242228 0.725 
0.254651 0.243564 0.729 
0.282936 0.242896 0.727 
0.30763 0.239555 0.717 
0.315582 0.224854 0.673 
0.315957 0.207481 0.621 
0.323412 0.194451 0.582 
0.328249 0.183425 0.549 
0.350774 0.183759 0.55 
0.372702 0.183759 0.55 
0.395346 0.184093 0.551 
0.418071 0.184427 0.552 
0.439281 0.184093 0.551 
0.461248 0.184093 0.551 
0.484092 0.184427 0.552 
0.506099 0.184427 0.552 
0.529063 0.184761 0.553 
-0.589375 0.234844 0.698 
-0.555839 0.234507 0.697 
-0.531082 0.235853 0.701 
-0.503852 0.23619 0.702 
-0.475865 0.23619 0.702 
-0.463828 0.244601 0.727 
-0.410898 0.240564 0.715 
-0.377044 0.237199 0.705 
-0.349432 0.237536 0.706 
-0.324016 0.239554 0.712 
-0.293139 0.237536 0.706 
-0.265367 0.237872 0.707 
-0.238523 0.239218 0.711 
-0.210177 0.239218 0.711 
-0.182342 0.239891 0.713 
-0.154348 0.240564 0.715 
-0.126018 0.2409 0.716 
-0.0978814 0.241909 0.719 
-0.0688313 0.240564 0.715 
-0.0405513 0.241909 0.719 
-0.0119028 0.242246 0.72 
0.0167788 0.241909 0.719 
0.0455702 0.242582 0.721 
0.074315 0.242582 0.721 
0.104751 0.242582 0.721 
0.133681 0.242919 0.722 
0.16359 0.244601 0.727 
0.192045 0.243928 0.725 
0.220949 0.243928 0.725 
0.250887 0.244937 0.728 
0.279911 0.244937 0.728 
0.304267 0.241236 0.717 
0.315211 0.228451 0.679 
0.317033 0.210619 0.626 
0.322047 0.195815 0.582 
0.326961 0.184712 0.549 
0.349484 0.185049 0.55 
0.371412 0.185049 0.55 
0.393339 0.185049 0.55 
0.416021 0.185385 0.551 
0.437989 0.185385 0.551 
0.459956 0.185385 0.551 
0.482798 0.185722 0.552 
0.504805 0.185722 0.552 
0.526812 0.185722 0.552 
0.550808 0.186395 0.554 
-0.561548 0.236481 0.698 
-0.536014 0.237497 0.701 
-0.508066 0.237497 0.701 
-0.481489 0.238175 0.703 
-0.466362 0.244951 0.723 
-0.395792 0.239191 0.706 
-0.368686 0.239869 0.708 
-0.339498 0.239191 0.706 
-0.313116 0.240546 0.71 
-0.284007 0.239869 0.708 
-0.257226 0.241224 0.712 
-0.227875 0.240208 0.709 
-0.200172 0.240885 0.711 
-0.172551 0.241902 0.714 
-0.144489 0.242579 0.716 
-0.115944 0.242579 0.716 
-0.0875202 0.242918 0.717 
-0.0588527 0.242579 0.716 
-0.0304342 0.243596 0.719 
-0.0017741 0.244273 0.721 
0.0268959 0.243596 0.719 
0.0557927 0.244612 0.722 
0.0845774 0.244612 0.722 
0.113362 0.244612 0.722 
0.142344 0.244951 0.723 
0.171878 0.245967 0.726 
0.200546 0.245628 0.725 
0.228817 0.244951 0.723 
0.25978 0.246984 0.729 
0.287259 0.245628 0.725 
0.31093 0.241563 0.713 
0.315082 0.224284 0.662 
0.316082 0.206667 0.61 
0.323567 0.194809 0.575 
0.333399 0.186 0.549 
0.355934 0.186339 0.55 
0.378548 0.186678 0.551 
0.399788 0.186339 0.55 
0.422482 0.186678 0.551 
0.44445 0.186678 0.551 
0.466417 0.186678 0.551 
0.488384 0.186678 0.551 
0.511278 0.187016 0.552 
0.534251 0.187355 0.553 
-0.579525 0.237435 0.696 
-0.55257 0.237777 0.697 
-0.527041 0.2388 0.7 
-0.50056 0.239482 0.702 
-0.473919 0.240165 0.704 
-0.406974 0.243576 0.714 
-0.37314 0.241188 0.707 
-0.344465 0.240847 0.706 
-0.319007 0.242894 0.712 
-0.288172 0.240847 0.706 
-0.261498 0.242211 0.71 
-0.232864 0.24187 0.709 
-0.204886 0.242211 0.71 
-0.177077 0.242894 0.712 
-0.149526 0.244258 0.716 
-0.120981 0.244258 0.716 
-0.0926937 0.244941 0.718 
-0.0638009 0.243917 0.715 
-0.0354928 0.245282 0.719 
-0.00683721 0.245623 0.72 
0.0218373 0.245282 0.719 
0.0506428 0.245964 0.721 
0.0793876 0.245964 0.721 
0.108132 0.245964 0.721 
0.137257 0.246646 0.723 
0.16677 0.24767 0.726 
0.195445 0.247329 0.725 
0.22373 0.246646 0.723 
0.254301 0.248352 0.728 
0.282936 0.248011 0.727 
0.307201 0.244258 0.716 
0.314645 0.228907 0.671 
0.316465 0.212191 0.622 
0.319866 0.198886 0.583 
0.324977 0.187629 0.55 
0.346905 0.187629 0.55 
0.368832 0.187629 0.55 
0.390759 0.187629 0.55 
0.413437 0.18797 0.551 
0.435404 0.18797 0.551 
0.456542 0.187629 0.55 
0.479339 0.18797 0.551 
0.502216 0.188311 0.552 
0.524223 0.188311 0.552 
0.54722 0.188652 0.553 
-0.571351 0.241129 0.702 
-0.540268 0.239755 0.698 
-0.514642 0.240785 0.701 
-0.488083 0.241472 0.703 
-0.469872 0.246624 0.718 
-0.380351 0.242159 0.705 
-0.353243 0.242846 0.707 
-0.327356 0.244564 0.712 
-0.29603 0.242159 0.705 
-0.268684 0.242846 0.707 
-0.241858 0.24422 0.711 
-0.213211 0.243877 0.71 
-0.185426 0.244564 0.712 
-0.157481 0.24525 0.714 
-0.129377 0.245937 0.716 
-0.101395 0.247311 0.72 
-0.0721849 0.245594 0.715 
-0.0439236 0.246968 0.719 
-0.0152586 0.246968 0.719 
0.0134064 0.246968 0.719 
0.0421885 0.247655 0.721 
0.0709333 0.247655 0.721 
0.0995398 0.247311 0.72 
0.128779 0.248342 0.723 
0.15804 0.249029 0.725 
0.187202 0.249372 0.726 
0.215848 0.249029 0.725 
0.244752 0.249029 0.725 
0.274789 0.250059 0.728 
0.299222 0.246281 0.717 
0.315006 0.236663 0.689 
0.316628 0.218802 0.637 
0.317325 0.203001 0.591 
0.32432 0.192353 0.56 
0.340456 0.188918 0.55 
0.362383 0.188918 0.55 
0.385009 0.189262 0.551 
0.406976 0.189262 0.551 
0.428943 0.189262 0.551 
0.450092 0.188918 0.55 
0.472878 0.189262 0.551 
0.495743 0.189605 0.552 
0.51775 0.189605 0.552 
0.540735 0.189949 0.553 
-0.574643 0.241392 0.698 
-0.546815 0.241392 0.698 
-0.521218 0.242429 0.701 
-0.494678 0.243121 0.703 
-0.472625 0.246233 0.712 
-0.390271 0.243812 0.705 
-0.364733 0.245542 0.71 
-0.335953 0.245196 0.709 
-0.306384 0.244158 0.706 
-0.278238 0.244158 0.706 
-0.252216 0.246233 0.712 
-0.222573 0.24485 0.708 
-0.194895 0.245542 0.71 
-0.167528 0.246925 0.714 
-0.139452 0.247617 0.716 
-0.111371 0.248654 0.719 
-0.0824757 0.247962 0.717 
-0.0538904 0.247962 0.717 
-0.0253757 0.248654 0.719 
0.00329393 0.249 0.72 
0.0319544 0.248654 0.719 
0.0607881 0.249346 0.721 
0.0895328 0.249346 0.721 
0.11877 0.250383 0.724 
0.147634 0.250383 0.724 
0.176255 0.250037 0.723 
0.20593 0.251075 0.726 
0.23358 0.249692 0.722 
0.264545 0.251767 0.728 
0.290746 0.249346 0.721 
0.311958 0.243467 0.704 
0.314427 0.225137 0.651 
0.316172 0.208192 0.602 
0.323786 0.198162 0.573 
0.334006 0.190208 0.55 
0.355934 0.190208 0.55 
0.377861 0.190208 0.55 
0.399061 0.189862 0.549 
0.422482 0.190554 0.551 
0.44445 0.190554 0.551 
0.466417 0.190554 0.551 
0.488384 0.190554 0.551 
0.511278 0.1909 0.552 
0.533285 0.1909 0.552 
-0.584422 0.242332 0.696 
-0.559873 0.243725 0.7 
-0.531206 0.243377 0.699 
-0.505498 0.244421 0.702 
-0.478191 0.244769 0.703 
-0.466173 0.253474 0.728 
-0.372533 0.246859 0.709 
-0.34281 0.245814 0.706 
-0.317337 0.247903 0.712 
-0.286516 0.245814 0.706 
-0.259467 0.246859 0.709 
-0.230875 0.24651 0.708 
-0.203221 0.247207 0.71 
-0.1759 0.248599 0.714 
-0.147847 0.249296 0.716 
-0.119468 0.249644 0.717 
-0.0908831 0.249644 0.717 
-0.062211 0.249296 0.716 
-0.0337596 0.249992 0.718 
-0.00514869 0.250688 0.72 
0.0234908 0.249992 0.718 
0.0523337 0.251037 0.721 
0.080966 0.250688 0.72 
0.109823 0.251037 0.721 
0.139145 0.252081 0.724 
0.167777 0.251733 0.723 
0.197417 0.252778 0.726 
0.225426 0.251733 0.723 
0.256009 0.253474 0.728 
0.28425 0.252778 0.726 
0.308017 0.248599 0.714 
0.315276 0.232931 0.669 
0.316902 0.215871 0.62 
0.320682 0.20264 0.582 
0.327557 0.191498 0.55 
0.349484 0.191498 0.55 
0.371412 0.191498 0.55 
0.393339 0.191498 0.55 
0.416021 0.191846 0.551 
0.437989 0.191846 0.551 
0.459121 0.191498 0.55 
0.481923 0.191846 0.551 
0.504805 0.192195 0.552 
0.526812 0.192195 0.552 
0.548819 0.192195 0.552 
-0.566412 0.246068 0.702 
-0.53459 0.244315 0.697 
-0.510437 0.246068 0.702 
-0.483137 0.246418 0.703 
-0.467411 0.253078 0.722 
-0.375858 0.248521 0.709 
-0.346121 0.24747 0.706 
-0.320677 0.249573 0.712 
-0.289827 0.24747 0.706 
-0.262422 0.248171 0.708 
-0.234196 0.248171 0.708 
-0.206842 0.249222 0.711 
-0.178747 0.249573 0.712 
-0.150994 0.250624 0.715 
-0.12266 0.250975 0.716 
-0.0943776 0.251676 0.718 
-0.0655692 0.250975 0.716 
-0.0371272 0.251676 0.718 
-0.0085139 0.252026 0.719 
0.0201231 0.251676 0.718 
0.048952 0.252728 0.721 
0.077589 0.252377 0.72 
0.106442 0.252728 0.721 
0.135749 0.253779 0.724 
0.164386 0.253429 0.723 
0.194012 0.25448 0.726 
0.222649 0.25413 0.725 
0.252247 0.254831 0.727 
0.281231 0.254831 0.727 
0.305521 0.250975 0.716 
0.314937 0.236603 0.675 
0.317483 0.218727 0.624 
0.319866 0.204355 0.583 
0.324276 0.193138 0.551 
0.345615 0.192788 0.55 
0.367542 0.192788 0.55 
0.38947 0.192788 0.55 
0.412145 0.193138 0.551 
0.434112 0.193138 0.551 
0.455252 0.192788 0.55 
0.478047 0.193138 0.551 
0.500921 0.193489 0.552 
0.522928 0.193489 0.552 
0.544936 0.193489 0.552 
-0.570537 0.247361 0.701 
-0.540268 0.246302 0.698 
-0.515376 0.247714 0.702 
-0.488083 0.248067 0.703 
-0.469218 0.253007 0.717 
-0.379772 0.249478 0.707 
-0.352083 0.249831 0.708 
-0.326601 0.251948 0.714 
-0.294795 0.249125 0.706 
-0.267403 0.249831 0.708 
-0.239852 0.250537 0.71 
-0.212142 0.251243 0.712 
-0.183498 0.25089 0.711 
-0.155807 0.251948 0.714 
-0.127519 0.252301 0.715 
-0.0995675 0.253713 0.719 
-0.0706067 0.252654 0.716 
-0.0421787 0.25336 0.718 
-0.0135724 0.253713 0.719 
0.0150506 0.253007 0.717 
0.0438794 0.254418 0.721 
0.0725234 0.254066 0.72 
0.101228 0.254066 0.72 
0.130655 0.255477 0.724 
0.159299 0.255124 0.723 
0.188644 0.25583 0.725 
0.217848 0.256183 0.726 
0.246792 0.256183 0.726 
0.276496 0.256888 0.728 
0.300484 0.252654 0.716 
0.314324 0.241362 0.684 
0.317123 0.224072 0.635 
0.318711 0.208545 0.591 
0.32374 0.197254 0.559 
0.340456 0.194078 0.55 
0.362383 0.194078 0.55 
0.385009 0.194431 0.551 
0.406238 0.194078 0.55 
0.428943 0.194431 0.551 
0.450092 0.194078 0.55 
0.472878 0.194431 0.551 
0.494845 0.194431 0.551 
0.51775 0.194784 0.552 
0.539757 0.194784 0.552 
-0.575454 0.247584 0.697 
-0.548452 0.247939 0.698 
-0.523608 0.24936 0.702 
-0.495621 0.24936 0.702 
-0.47163 0.251491 0.708 
-0.387513 0.250781 0.706 
-0.362421 0.252912 0.712 
-0.334035 0.252912 0.712 
-0.303073 0.250781 0.706 
-0.274926 0.250781 0.706 
-0.248178 0.252202 0.71 
-0.220181 0.252557 0.711 
-0.191295 0.251847 0.709 
-0.164409 0.253978 0.715 
-0.135903 0.253978 0.715 
-0.107998 0.255399 0.719 
-0.0791127 0.254688 0.717 
-0.0505274 0.254688 0.717 
-0.0220033 0.255399 0.719 
0.00666171 0.255399 0.719 
0.0353268 0.255399 0.719 
0.0641698 0.256109 0.721 
0.0927857 0.255754 0.72 
0.122166 0.257175 0.724 
0.150613 0.256464 0.722 
0.179397 0.256464 0.722 
0.209624 0.258241 0.727 
0.237295 0.25682 0.723 
0.26796 0.258596 0.728 
0.293312 0.255399 0.719 
0.313469 0.24865 0.7 
0.316017 0.230179 0.648 
0.317057 0.213484 0.601 
0.323995 0.202827 0.571 
0.335296 0.195368 0.55 
0.357223 0.195368 0.55 
0.379151 0.195368 0.55 
0.400349 0.195012 0.549 
0.423775 0.195723 0.551 
0.445742 0.195723 0.551 
0.46686 0.195368 0.55 
0.489676 0.195723 0.551 
0.512572 0.196078 0.552 
0.534579 0.196078 0.552 
-0.58279 0.248861 0.696 
-0.556637 0.249576 0.698 
-0.528809 0.249576 0.698 
-0.503134 0.250649 0.701 
-0.476543 0.251364 0.703 
-0.463828 0.259946 0.727 
-0.370769 0.254582 0.712 
-0.341422 0.253867 0.71 
-0.313116 0.253867 0.71 
-0.283205 0.252437 0.706 
-0.256503 0.253867 0.71 
-0.227233 0.252794 0.707 
-0.199891 0.253867 0.71 
-0.172551 0.255297 0.714 
-0.144085 0.255297 0.714 
-0.116105 0.25637 0.717 
-0.0876422 0.256727 0.718 
-0.0588527 0.256012 0.716 
-0.0303919 0.256727 0.718 
-0.00176918 0.257085 0.719 
0.026821 0.25637 0.717 
0.0557154 0.2578 0.721 
0.0842259 0.257085 0.719 
0.113519 0.258515 0.723 
0.142344 0.258515 0.723 
0.170931 0.258158 0.722 
0.201099 0.259946 0.727 
0.228817 0.258515 0.723 
0.259067 0.259946 0.727 
0.287259 0.25923 0.725 
0.309621 0.253867 0.71 
0.314606 0.236347 0.661 
0.317747 0.220256 0.616 
0.322856 0.207742 0.581 
0.328847 0.196658 0.55 
0.350774 0.196658 0.55 
0.372024 0.1963 0.549 
0.393911 0.1963 0.549 
0.417314 0.197015 0.551 
0.439281 0.197015 0.551 
0.460411 0.196658 0.55 
0.483215 0.197015 0.551 
0.506099 0.197373 0.552 
0.528107 0.197373 0.552 
-0.593498 0.251573 0.699 
-0.56644 0.251933 0.7 
-0.536994 0.251213 0.698 
-0.512084 0.252653 0.702 
-0.484786 0.253013 0.703 
-0.467155 0.258771 0.719 
-0.376988 0.254812 0.708 
-0.348762 0.254812 0.708 
-0.322346 0.256252 0.712 
-0.291483 0.254092 0.706 
-0.264455 0.255172 0.709 
-0.236189 0.255172 0.709 
-0.208803 0.256252 0.712 
-0.17991 0.255532 0.71 
-0.152458 0.256972 0.714 
-0.124339 0.257691 0.716 
-0.0959276 0.258051 0.717 
-0.0672484 0.257691 0.716 
-0.038757 0.258051 0.717 
-0.0102001 0.258771 0.719 
0.0184136 0.258051 0.717 
0.0472611 0.259491 0.721 
0.0760059 0.259491 0.721 
0.104896 0.259851 0.722 
0.133866 0.260211 0.723 
0.162465 0.259851 0.722 
0.19178 0.260571 0.724 
0.220949 0.260931 0.725 
0.250542 0.26165 0.727 
0.279526 0.26165 0.727 
0.303418 0.257332 0.715 
0.315211 0.244375 0.679 
0.316069 0.22566 0.627 
0.319851 0.211624 0.588 
0.324276 0.198307 0.551 
0.345615 0.197947 0.55 
0.366874 0.197587 0.549 
0.38947 0.197947 0.55 
0.412145 0.198307 0.551 
0.434112 0.198307 0.551 
0.455252 0.197947 0.55 
0.477179 0.197947 0.55 
0.500014 0.198307 0.551 
0.522928 0.198667 0.552 
0.544936 0.198667 0.552 
-0.571369 0.25285 0.698 
-0.545099 0.253575 0.7 
-0.518669 0.254299 0.702 
-0.491381 0.254661 0.703 
-0.471263 0.259008 0.715 
-0.391369 0.255024 0.704 
-0.36743 0.257922 0.712 
-0.339044 0.257922 0.712 
-0.308476 0.25611 0.707 
-0.279893 0.255748 0.706 
-0.253173 0.257197 0.71 
-0.22455 0.256835 0.709 
-0.196284 0.256835 0.709 
-0.169202 0.258646 0.714 
-0.140736 0.258646 0.714 
-0.112742 0.259733 0.717 
-0.0841572 0.259733 0.717 
-0.0554944 0.259371 0.716 
-0.0269866 0.259733 0.717 
0.00160318 0.260457 0.719 
0.030184 0.259733 0.717 
0.0591792 0.261544 0.722 
0.0875983 0.260457 0.719 
0.11691 0.261906 0.723 
0.145735 0.261906 0.723 
0.174318 0.261544 0.722 
0.204509 0.263355 0.727 
0.232529 0.262269 0.724 
0.262477 0.263355 0.727 
0.289456 0.261544 0.722 
0.310748 0.255386 0.705 
0.315784 0.237998 0.657 
0.316992 0.22061 0.609 
0.322779 0.208656 0.576 
0.332716 0.199237 0.55 
0.353999 0.198875 0.549 
0.375886 0.198875 0.549 
0.397774 0.198875 0.549 
0.42119 0.199599 0.551 
0.442353 0.199237 0.55 
0.464281 0.199237 0.55 
0.487092 0.199599 0.551 
0.509983 0.199962 0.552 
0.53199 0.199962 0.552 
-0.589375 0.254487 0.698 
-0.561548 0.254487 0.698 
-0.534484 0.254852 0.699 
-0.508791 0.255945 0.702 
-0.481489 0.25631 0.703 
-0.465072 0.262873 0.721 
-0.382004 0.257039 0.705 
-0.356407 0.258862 0.71 
-0.329025 0.259591 0.712 
-0.298106 0.257404 0.706 
-0.270342 0.257768 0.707 
-0.243525 0.259227 0.711 
-0.215784 0.259956 0.713 
-0.186044 0.258133 0.708 
-0.159378 0.260685 0.715 
-0.130873 0.260685 0.715 
-0.102654 0.261414 0.717 
-0.073965 0.26105 0.716 
-0.045483 0.261414 0.717 
-0.0169448 0.262144 0.719 
0.0116876 0.261414 0.717 
0.0403853 0.262144 0.719 
0.0693384 0.263237 0.722 
0.0981231 0.263237 0.722 
0.127083 0.263602 0.723 
0.155692 0.263237 0.722 
0.184477 0.263237 0.722 
0.214148 0.264331 0.725 
0.243387 0.264696 0.726 
0.272707 0.26506 0.727 
0.297126 0.26105 0.716 
0.3143 0.251935 0.691 
0.315134 0.232247 0.637 
0.318612 0.217298 0.596 
0.325313 0.205631 0.564 
0.340456 0.200527 0.55 
0.361065 0.199798 0.548 
0.38431 0.200527 0.55 
0.406238 0.200527 0.55 
0.428165 0.200527 0.55 
0.450092 0.200527 0.55 
0.47202 0.200527 0.55 
0.494845 0.200892 0.551 
0.51775 0.201256 0.552 
0.539757 0.201256 0.552 
-0.580358 0.255757 0.697 
-0.553363 0.256124 0.698 
-0.527041 0.256858 0.7 
-0.50056 0.257592 0.702 
-0.473919 0.258326 0.704 
-0.43666 0.262729 0.716 
-0.375923 0.259059 0.706 
-0.329025 0.261261 0.712 
-0.293139 0.259059 0.706 
-0.263163 0.260527 0.71 
-0.229214 0.259793 0.708 
-0.201556 0.260527 0.71 
-0.174226 0.261995 0.714 
-0.145556 0.261628 0.713 
-0.117623 0.262729 0.716 
-0.0892017 0.263096 0.717 
-0.0605318 0.262729 0.716 
-0.032031 0.263096 0.717 
-0.00345536 0.26383 0.719 
0.0251396 0.263096 0.717 
0.0540246 0.264564 0.721 
0.0825398 0.26383 0.719 
0.111669 0.264931 0.722 
0.140453 0.264931 0.722 
0.169238 0.264931 0.722 
0.198846 0.266031 0.725 
0.227122 0.265297 0.723 
0.257716 0.267132 0.728 
0.285558 0.266031 0.725 
0.307523 0.26016 0.709 
0.315897 0.244749 0.667 
0.316302 0.226035 0.616 
0.3223 0.212825 0.58 
0.327557 0.201817 0.55 
0.348849 0.20145 0.549 
0.370736 0.20145 0.549 
0.392624 0.20145 0.549 
0.416021 0.202184 0.551 
0.437194 0.201817 0.55 
0.459121 0.201817 0.55 
0.481049 0.201817 0.55 
0.504805 0.202551 0.552 
0.526812 0.202551 0.552 
0.548819 0.202551 0.552 
-0.568095 0.257761 0.698 
-0.540946 0.258869 0.701 
-0.512998 0.258869 0.701 
-0.486435 0.259607 0.703 
-0.467537 0.264777 0.717 
-0.387515 0.259607 0.703 
-0.324771 0.262192 0.71 
-0.294795 0.260715 0.706 
-0.267403 0.261454 0.708 
-0.239852 0.262192 0.71 
-0.212142 0.262931 0.712 
-0.18324 0.262192 0.71 
-0.155807 0.263669 0.714 
-0.127519 0.264039 0.715 
-0.0992906 0.264777 0.717 
-0.0706067 0.264408 0.716 
-0.04212 0.264777 0.717 
-0.0135536 0.265147 0.718 
0.0150506 0.264777 0.717 
0.0437576 0.265516 0.719 
0.0727249 0.266624 0.722 
0.10165 0.266993 0.723 
0.130294 0.266624 0.722 
0.158858 0.266254 0.721 
0.187603 0.266254 0.721 
0.216948 0.266993 0.723 
0.247132 0.26847 0.727 
0.275737 0.268101 0.726 
0.300064 0.264039 0.715 
0.313865 0.252222 0.683 
0.314598 0.231542 0.627 
0.319555 0.217878 0.59 
0.325051 0.20643 0.559 
0.341124 0.202737 0.549 
0.36235 0.202368 0.548 
0.3856 0.203107 0.55 
0.407527 0.203107 0.55 
0.429455 0.203107 0.55 
0.451382 0.203107 0.55 
0.473309 0.203107 0.55 
0.496137 0.203476 0.551 
0.519045 0.203845 0.552 
0.541052 0.203845 0.552 
-0.577917 0.259398 0.698 
-0.550877 0.259769 0.699 
-0.523758 0.260141 0.7 
-0.497975 0.261256 0.703 
-0.472622 0.262743 0.707 
-0.395759 0.261256 0.703 
-0.370249 0.264229 0.711 
-0.306818 0.262743 0.707 
-0.278632 0.262743 0.707 
-0.251154 0.263486 0.709 
-0.222573 0.263114 0.708 
-0.194346 0.263114 0.708 
-0.167762 0.265716 0.715 
-0.139062 0.265344 0.714 
-0.110906 0.266087 0.716 
-0.0824757 0.266459 0.717 
-0.0538152 0.266087 0.716 
-0.0253404 0.26683 0.718 
0.00328936 0.267202 0.719 
0.03191 0.26683 0.718 
0.0609567 0.268689 0.723 
0.0894087 0.267574 0.72 
0.118442 0.268317 0.722 
0.147022 0.267945 0.721 
0.176011 0.268317 0.722 
0.205363 0.26906 0.724 
0.234227 0.26906 0.724 
0.263818 0.269803 0.726 
0.290746 0.267945 0.721 
0.311515 0.261256 0.703 
0.314909 0.242303 0.652 
0.318273 0.225208 0.606 
0.323786 0.212944 0.573 
0.332111 0.204025 0.549 
0.353354 0.203653 0.548 
0.375886 0.204025 0.549 
0.397774 0.204025 0.549 
0.42119 0.204768 0.551 
0.442353 0.204397 0.55 
0.464281 0.204397 0.55 
0.486208 0.204397 0.55 
0.509983 0.20514 0.552 
0.53199 0.20514 0.552 
-0.589423 0.261783 0.7 
-0.560713 0.261409 0.699 
-0.532083 0.261035 0.698 
-0.507145 0.262531 0.702 
-0.479157 0.262531 0.702 
-0.462739 0.269262 0.72 
-0.374268 0.264027 0.706 
-0.311792 0.264401 0.707 
-0.283606 0.264401 0.707 
-0.255781 0.264775 0.708 
-0.227554 0.264775 0.708 
-0.199609 0.265149 0.709 
-0.172551 0.267018 0.714 
-0.143884 0.266644 0.713 
-0.115944 0.267766 0.716 
-0.0875202 0.26814 0.717 
-0.0587705 0.267392 0.715 
-0.0303496 0.26814 0.717 
-0.00176918 0.268888 0.719 
0.026821 0.26814 0.717 
0.0557927 0.27001 0.722 
0.0842259 0.268888 0.719 
0.113362 0.27001 0.722 
0.14195 0.269636 0.721 
0.170931 0.27001 0.722 
0.199993 0.270384 0.723 
0.228817 0.270384 0.723 
0.258711 0.271506 0.726 
0.286466 0.270384 0.723 
0.307877 0.264027 0.706 
0.316034 0.24832 0.664 
0.316082 0.228125 0.61 
0.321658 0.214662 0.574 
0.330137 0.205686 0.55 
0.350784 0.204938 0.548 
0.373311 0.205312 0.549 
0.395199 0.205312 0.549 
0.418606 0.20606 0.551 
0.439774 0.205686 0.55 
0.461701 0.205686 0.55 
0.482749 0.205312 0.549 
0.506475 0.20606 0.551 
0.528442 0.20606 0.551 
-0.593553 0.263801 0.701 
-0.563991 0.263048 0.699 
-0.536124 0.263048 0.699 
-0.508983 0.263424 0.7 
-0.48245 0.264177 0.702 
-0.465468 0.270574 0.719 
-0.375391 0.265306 0.705 
-0.316767 0.266059 0.707 
-0.288172 0.265682 0.706 
-0.260393 0.266059 0.707 
-0.232207 0.266059 0.707 
-0.204886 0.267188 0.71 
-0.177326 0.268317 0.713 
-0.148691 0.26794 0.712 
