# .PCD v.7 - Point Cloud Data file format
VERSION .7
FIELDS x y z
SIZE 4 4 4
TYPE F F F
COUNT 1 1 1
WIDTH 1825
HEIGHT 1
VIEWPOINT 0 0 0 1 0 0 0
POINTS 1825
DATA ascii
-0.0138651 -0.49914 0.933 
0.0294636 -0.496465 0.928 
0.0727179 -0.496465 0.928 
0.116847 -0.50021 0.935 
0.158884 -0.495395 0.926 
0.201172 -0.493255 0.922 
0.244941 -0.49486 0.925 
0.286498 -0.492185 0.92 
0.32938 -0.492185 0.92 
0.371047 -0.49058 0.917 
0.416045 -0.493255 0.922 
0.453046 -0.486836 0.91 
0.493283 -0.484696 0.906 
0.534921 -0.484161 0.905 
0.582205 -0.48844 0.913 
0.618602 -0.483626 0.904 
0.660737 -0.483626 0.904 
0.698208 -0.480416 0.898 
0.735943 -0.477741 0.893 
0.788886 -0.484696 0.906 
0.821024 -0.478811 0.895 
0.877199 -0.486836 0.91 
-0.470136 -0.317391 0.595 
-0.467684 -0.335528 0.629 
-0.466243 -0.356865 0.669 
-0.466807 -0.38567 0.723 
-0.46306 -0.412342 0.773 
-0.459072 -0.443281 0.831 
-0.565018 -0.607044 1.138 
-0.512425 -0.607577 1.139 
-0.454496 -0.601176 1.127 
-0.40482 -0.605443 1.135 
-0.348817 -0.600109 1.125 
-0.268209 -0.559568 1.049 
-0.218269 -0.556901 1.044 
-0.170421 -0.559568 1.049 
-0.121411 -0.559035 1.048 
-0.075194 -0.579305 1.086 
-0.00371401 -0.497157 0.932 
0.0396842 -0.496624 0.931 
0.0832568 -0.497691 0.933 
0.126744 -0.497691 0.933 
0.168954 -0.493957 0.926 
0.210741 -0.490756 0.92 
0.253898 -0.491289 0.921 
0.296826 -0.491289 0.921 
0.339017 -0.490222 0.919 
0.380605 -0.488622 0.916 
0.424224 -0.489689 0.918 
0.462943 -0.485422 0.91 
0.505358 -0.485422 0.91 
0.545366 -0.483288 0.906 
0.588243 -0.483821 0.907 
0.630519 -0.483821 0.907 
0.670569 -0.482221 0.904 
0.707974 -0.47902 0.898 
0.74482 -0.47582 0.892 
0.800502 -0.484355 0.908 
0.827973 -0.47582 0.892 
0.884172 -0.483821 0.907 
-0.469478 -0.315403 0.593 
-0.467916 -0.334019 0.628 
-0.466584 -0.355294 0.668 
-0.468405 -0.384015 0.722 
-0.463054 -0.409013 0.769 
-0.461098 -0.441458 0.83 
-0.571587 -0.604744 1.137 
-0.518591 -0.604744 1.137 
-0.460681 -0.598361 1.125 
-0.412237 -0.604212 1.136 
-0.356441 -0.599425 1.127 
-0.279313 -0.560598 1.054 
-0.22822 -0.555811 1.045 
-0.180887 -0.560066 1.053 
-0.131305 -0.557939 1.049 
-0.085632 -0.579746 1.09 
-0.0123623 -0.494113 0.929 
0.0308721 -0.49305 0.927 
0.0740798 -0.49305 0.927 
0.1183 -0.497305 0.935 
0.159803 -0.490922 0.923 
0.201945 -0.488795 0.919 
0.245313 -0.489858 0.921 
0.286676 -0.487199 0.916 
0.329731 -0.487731 0.917 
0.37166 -0.486667 0.915 
0.417025 -0.489858 0.921 
0.454959 -0.48454 0.911 
0.494691 -0.48188 0.906 
0.533957 -0.479221 0.901 
0.581706 -0.484008 0.91 
0.61932 -0.480285 0.903 
0.661409 -0.480285 0.903 
0.698824 -0.477093 0.897 
0.734854 -0.47337 0.89 
0.789421 -0.481348 0.905 
0.822414 -0.47603 0.895 
0.875717 -0.482412 0.907 
-0.471219 -0.310769 0.586 
-0.468146 -0.32774 0.618 
-0.467777 -0.348953 0.658 
-0.467001 -0.372817 0.703 
-0.463265 -0.397742 0.75 
-0.462001 -0.429031 0.809 
-0.452615 -0.457669 0.863 
-0.535517 -0.598204 1.128 
-0.487222 -0.603508 1.138 
-0.436468 -0.60669 1.144 
-0.377453 -0.597674 1.127 
-0.305106 -0.564264 1.064 
-0.251671 -0.555779 1.048 
-0.203791 -0.55843 1.053 
-0.154416 -0.55737 1.051 
-0.108137 -0.571688 1.078 
-0.032324 -0.488958 0.922 
0.0107316 -0.49267 0.929 
0.0539162 -0.491609 0.927 
0.0976478 -0.494261 0.932 
0.139878 -0.490018 0.924 
0.18255 -0.488958 0.922 
0.22479 -0.487367 0.919 
0.267625 -0.487367 0.919 
0.310122 -0.486837 0.918 
0.351757 -0.485246 0.915 
0.394406 -0.485246 0.915 
0.436576 -0.484715 0.914 
0.473936 -0.479412 0.904 
0.513788 -0.477291 0.9 
0.559442 -0.480473 0.906 
0.597686 -0.477291 0.9 
0.643189 -0.479942 0.905 
0.682342 -0.477821 0.901 
0.720318 -0.475169 0.896 
0.76038 -0.474109 0.894 
0.807433 -0.477291 0.9 
0.844663 -0.474639 0.895 
0.895293 -0.479412 0.904 
-0.469275 -0.31779 0.601 
-0.467694 -0.336826 0.637 
-0.471695 -0.362736 0.686 
-0.466001 -0.384415 0.727 
-0.463024 -0.411911 0.779 
-0.457389 -0.441522 0.835 
-0.565056 -0.598038 1.131 
-0.513699 -0.599624 1.134 
-0.45556 -0.59275 1.121 
-0.407987 -0.599624 1.134 
-0.351373 -0.593279 1.122 
-0.280373 -0.559438 1.058 
-0.229312 -0.555208 1.05 
-0.18123 -0.557852 1.055 
-0.131931 -0.557323 1.054 
-0.0853963 -0.574772 1.087 
-0.0123356 -0.490169 0.927 
0.0308388 -0.48964 0.926 
0.0739999 -0.48964 0.926 
0.118047 -0.493342 0.933 
0.15911 -0.485939 0.919 
0.201286 -0.484353 0.916 
0.243981 -0.484353 0.916 
0.285111 -0.481709 0.911 
0.328652 -0.483295 0.914 
0.371254 -0.483295 0.914 
0.415667 -0.48541 0.918 
0.45446 -0.48118 0.91 
0.494145 -0.478536 0.905 
0.531586 -0.474306 0.897 
0.579788 -0.479594 0.907 
0.617948 -0.476421 0.901 
0.659944 -0.476421 0.901 
0.697266 -0.473249 0.895 
0.734028 -0.470076 0.889 
0.787677 -0.477479 0.903 
0.822414 -0.473249 0.895 
0.869924 -0.476421 0.901 
-0.471426 -0.307894 0.584 
-0.469306 -0.325292 0.617 
-0.468394 -0.345853 0.656 
-0.467851 -0.369578 0.701 
-0.463734 -0.39383 0.747 
-0.462218 -0.424409 0.805 
-0.455296 -0.454987 0.863 
-0.537588 -0.593118 1.125 
-0.489895 -0.598917 1.136 
-0.440023 -0.603135 1.144 
-0.380279 -0.593118 1.125 
-0.312181 -0.567811 1.077 
-0.256144 -0.555158 1.053 
-0.208046 -0.557794 1.058 
-0.158132 -0.555685 1.054 
-0.11097 -0.565702 1.073 
-0.0617525 -0.573083 1.087 
0.00781953 -0.488202 0.926 
0.0510357 -0.488729 0.927 
0.0945485 -0.490311 0.93 
0.13671 -0.486093 0.922 
0.179685 -0.486093 0.922 
0.221693 -0.483984 0.918 
0.263617 -0.482402 0.915 
0.305261 -0.480821 0.912 
0.348151 -0.481348 0.913 
0.390279 -0.480821 0.912 
0.433262 -0.481348 0.913 
0.471648 -0.47713 0.905 
0.509543 -0.471858 0.895 
0.557418 -0.47713 0.905 
0.594963 -0.47344 0.898 
0.638946 -0.475021 0.901 
0.678675 -0.47344 0.898 
0.716519 -0.470804 0.893 
0.75984 -0.471858 0.895 
0.805139 -0.473967 0.899 
0.845157 -0.472912 0.897 
0.885978 -0.472385 0.896 
-0.46974 -0.3175 0.604 
-0.467908 -0.336424 0.64 
-0.472302 -0.362707 0.69 
-0.465018 -0.383208 0.729 
-0.462377 -0.411068 0.782 
-0.459152 -0.443133 0.843 
-0.556054 -0.592421 1.127 
-0.504865 -0.593998 1.13 
-0.448593 -0.589267 1.121 
-0.39705 -0.590318 1.123 
-0.341944 -0.585588 1.114 
-0.276483 -0.558253 1.062 
-0.225487 -0.554573 1.055 
-0.176814 -0.55615 1.058 
-0.127862 -0.557727 1.061 
-0.0798864 -0.568241 1.081 
-0.00942452 -0.485712 0.924 
0.0337162 -0.486763 0.926 
0.0767113 -0.485712 0.924 
0.120298 -0.487814 0.928 
0.16179 -0.482558 0.918 
0.203464 -0.479929 0.913 
0.246288 -0.480455 0.914 
0.286994 -0.477301 0.908 
0.330404 -0.478878 0.911 
0.373684 -0.479929 0.913 
0.41624 -0.479929 0.913 
0.457287 -0.478352 0.91 
0.496408 -0.475198 0.904 
0.534374 -0.471519 0.897 
0.579395 -0.474147 0.902 
0.61937 -0.47257 0.899 
0.660537 -0.472045 0.898 
0.699265 -0.469942 0.894 
0.73679 -0.467314 0.889 
0.788732 -0.473621 0.901 
0.825196 -0.470468 0.895 
0.866912 -0.470468 0.895 
-0.471111 -0.307652 0.587 
-0.46903 -0.326519 0.623 
-0.466829 -0.346436 0.661 
-0.468342 -0.372117 0.71 
-0.463448 -0.396226 0.756 
-0.462762 -0.428196 0.817 
-0.577276 -0.589098 1.124 
-0.523018 -0.587001 1.12 
-0.473757 -0.59067 1.127 
-0.423844 -0.594339 1.134 
-0.366735 -0.587525 1.121 
-0.298794 -0.56132 1.071 
-0.245388 -0.553458 1.056 
-0.198026 -0.558699 1.066 
-0.147504 -0.555555 1.06 
-0.100874 -0.571278 1.09 
-0.0238062 -0.4848 0.925 
0.0192874 -0.484276 0.924 
0.0624228 -0.4848 0.925 
0.105309 -0.483752 0.923 
0.146884 -0.479035 0.914 
0.189901 -0.480083 0.916 
0.23285 -0.480607 0.917 
0.274088 -0.477987 0.912 
0.315903 -0.476939 0.91 
0.358712 -0.477463 0.911 
0.400734 -0.476939 0.91 
0.443636 -0.477463 0.911 
0.481296 -0.472746 0.902 
0.515215 -0.465408 0.888 
0.567261 -0.474318 0.905 
0.604056 -0.470125 0.897 
0.646585 -0.470649 0.898 
0.686908 -0.469601 0.896 
0.722978 -0.465932 0.889 
0.773873 -0.471697 0.9 
0.809477 -0.468029 0.893 
0.853959 -0.469601 0.896 
-0.474505 -0.303082 0.58 
-0.471387 -0.319281 0.611 
-0.467555 -0.337048 0.645 
-0.470727 -0.362653 0.694 
-0.464909 -0.3846 0.736 
-0.461612 -0.412296 0.789 
-0.461451 -0.447829 0.857 
-0.546328 -0.587874 1.125 
-0.496525 -0.591009 1.131 
-0.441847 -0.588397 1.126 
-0.386597 -0.584216 1.118 
-0.329999 -0.576378 1.103 
-0.266332 -0.554431 1.061 
-0.217696 -0.556521 1.065 
-0.166951 -0.552863 1.058 
-0.118861 -0.558611 1.069 
-0.0698092 -0.564882 1.081 
0.00636015 -0.482318 0.923 
0.0494885 -0.483363 0.925 
0.0923027 -0.481795 0.922 
0.13469 -0.479705 0.918 
0.177479 -0.479705 0.918 
0.220027 -0.479183 0.917 
0.261336 -0.47657 0.912 
0.302179 -0.473957 0.907 
0.345594 -0.475525 0.91 
0.388009 -0.475525 0.91 
0.430424 -0.475525 0.91 
0.470761 -0.473435 0.906 
0.506196 -0.467164 0.894 
0.554606 -0.472912 0.905 
0.590854 -0.468209 0.896 
0.63191 -0.467686 0.895 
0.672121 -0.466641 0.893 
0.710547 -0.464551 0.889 
0.755367 -0.466641 0.893 
0.80056 -0.468732 0.897 
0.844248 -0.469777 0.899 
0.874322 -0.463506 0.887 
-0.468791 -0.311559 0.598 
-0.465986 -0.329273 0.632 
-0.471755 -0.355844 0.683 
-0.466328 -0.377205 0.724 
-0.461859 -0.402734 0.773 
-0.459984 -0.435036 0.835 
-0.554574 -0.585605 1.124 
-0.502631 -0.586126 1.125 
-0.448593 -0.584042 1.121 
-0.394575 -0.581437 1.116 
-0.341637 -0.579874 1.113 
-0.277524 -0.555387 1.066 
-0.226555 -0.552261 1.06 
-0.177315 -0.552782 1.061 
-0.128705 -0.556429 1.068 
-0.0795169 -0.560597 1.076 
-0.000810063 -0.480884 0.923 
0.0423027 -0.481926 0.925 
0.0849555 -0.479321 0.92 
0.127698 -0.4788 0.919 
0.169976 -0.477237 0.916 
0.211743 -0.475153 0.912 
0.253694 -0.474111 0.91 
0.294482 -0.471506 0.905 
0.33778 -0.473069 0.908 
0.380521 -0.47359 0.909 
0.421494 -0.472027 0.906 
0.46577 -0.474111 0.91 
0.502043 -0.46838 0.899 
0.546366 -0.470464 0.903 
0.583242 -0.466296 0.895 
0.623561 -0.465254 0.893 
0.66295 -0.463691 0.89 
0.704433 -0.463691 0.89 
0.74424 -0.462649 0.888 
0.794477 -0.467859 0.898 
0.831676 -0.465254 0.893 
0.867432 -0.462128 0.887 
-0.469478 -0.308032 0.593 
-0.467171 -0.325693 0.627 
-0.469378 -0.349069 0.672 
-0.468041 -0.372963 0.718 
-0.461206 -0.395819 0.762 
-0.46256 -0.430102 0.828 
-0.561802 -0.5823 1.121 
-0.508188 -0.580742 1.118 
-0.459341 -0.584898 1.126 
-0.403245 -0.579703 1.116 
-0.349654 -0.577106 1.111 
-0.286878 -0.555809 1.07 
-0.235233 -0.551653 1.062 
-0.186432 -0.553731 1.066 
-0.136746 -0.553731 1.066 
-0.0881207 -0.560484 1.079 
-0.00941432 -0.47945 0.923 
0.0336434 -0.479969 0.924 
0.0762962 -0.477372 0.919 
0.119001 -0.476853 0.918 
0.161085 -0.474775 0.914 
0.202127 -0.471139 0.907 
0.24521 -0.472697 0.91 
0.286045 -0.4701 0.905 
0.328228 -0.4701 0.905 
0.372047 -0.472178 0.909 
0.412592 -0.4701 0.905 
0.456282 -0.471658 0.908 
0.494211 -0.467503 0.9 
0.532586 -0.464386 0.894 
0.576183 -0.465944 0.897 
0.615237 -0.463866 0.893 
0.655388 -0.462828 0.891 
0.6977 -0.463347 0.892 
0.733475 -0.459711 0.885 
0.783479 -0.464905 0.895 
0.81782 -0.46075 0.887 
0.859163 -0.46075 0.887 
-0.471 -0.304521 0.588 
-0.469244 -0.32213 0.622 
-0.465733 -0.340774 0.658 
-0.4668 -0.365633 0.706 
-0.464008 -0.39101 0.755 
-0.461759 -0.421048 0.813 
-0.568984 -0.579005 1.118 
-0.514099 -0.575898 1.112 
-0.468089 -0.583148 1.126 
-0.412653 -0.579005 1.118 
-0.35764 -0.574344 1.109 
-0.296017 -0.5557 1.073 
-0.244171 -0.551557 1.065 
-0.195992 -0.5557 1.073 
-0.144891 -0.551557 1.065 
-0.0970394 -0.561915 1.085 
-0.0180381 -0.478534 0.924 
0.0249756 -0.477498 0.922 
0.0678766 -0.47698 0.921 
0.109963 -0.473355 0.914 
0.152564 -0.473355 0.914 
0.193885 -0.470247 0.908 
0.237768 -0.473355 0.914 
0.277609 -0.468694 0.905 
0.319085 -0.467658 0.903 
0.362774 -0.46973 0.907 
0.404156 -0.468694 0.905 
0.446338 -0.468694 0.905 
0.486361 -0.466622 0.901 
0.52132 -0.460407 0.889 
0.570353 -0.466622 0.901 
0.606912 -0.462479 0.893 
0.647809 -0.461961 0.892 
0.690158 -0.462479 0.893 
0.723586 -0.4573 0.883 
0.77427 -0.462997 0.894 
0.808638 -0.458854 0.886 
0.852813 -0.460407 0.889 
-0.47324 -0.301543 0.584 
-0.469106 -0.319098 0.618 
-0.467375 -0.338719 0.656 
-0.467428 -0.362471 0.702 
-0.46505 -0.387771 0.751 
-0.460968 -0.415654 0.805 
-0.570721 -0.577268 1.118 
-0.515363 -0.573654 1.111 
-0.469838 -0.581399 1.126 
-0.41439 -0.577268 1.118 
-0.358715 -0.571588 1.107 
-0.298239 -0.555065 1.075 
-0.246518 -0.551451 1.068 
-0.198027 -0.555065 1.075 
-0.146683 -0.550418 1.066 
-0.0987251 -0.560229 1.085 
-0.0194737 -0.477098 0.924 
0.0235431 -0.476065 0.922 
0.0663735 -0.475033 0.92 
0.108424 -0.471418 0.913 
0.15131 -0.472451 0.915 
0.192262 -0.46832 0.907 
0.236348 -0.471935 0.914 
0.276203 -0.467288 0.905 
0.31733 -0.465739 0.902 
0.360966 -0.467804 0.906 
0.401415 -0.465739 0.902 
0.444932 -0.467288 0.905 
0.484423 -0.464706 0.9 
0.519939 -0.459026 0.889 
0.568953 -0.465222 0.901 
0.604846 -0.460575 0.892 
0.645698 -0.460059 0.891 
0.687999 -0.460575 0.892 
0.720579 -0.454895 0.881 
0.770287 -0.460059 0.891 
0.80635 -0.456961 0.885 
0.849516 -0.457994 0.887 
-0.474148 -0.300635 0.584 
-0.468277 -0.320197 0.622 
-0.465417 -0.339244 0.659 
-0.467023 -0.364469 0.708 
-0.463448 -0.389178 0.756 
-0.462195 -0.420066 0.816 
-0.567247 -0.575531 1.118 
-0.511911 -0.571928 1.111 
-0.466339 -0.579649 1.126 
-0.409445 -0.573472 1.114 
-0.354312 -0.568324 1.104 
-0.28795 -0.55288 1.074 
-0.236119 -0.548762 1.066 
-0.186782 -0.549792 1.068 
-0.137387 -0.551336 1.071 
-0.0879573 -0.554425 1.077 
-0.00944492 -0.476692 0.926 
0.033607 -0.475148 0.923 
0.0760471 -0.471544 0.916 
0.118613 -0.471029 0.915 
0.160908 -0.47 0.913 
0.201681 -0.465882 0.905 
0.244402 -0.466911 0.907 
0.285097 -0.464337 0.902 
0.327502 -0.464852 0.903 
0.370819 -0.466396 0.906 
0.410313 -0.463308 0.9 
0.45578 -0.466911 0.907 
0.493113 -0.462278 0.898 
0.531395 -0.459189 0.892 
0.574256 -0.460219 0.894 
0.612481 -0.457645 0.889 
0.651711 -0.456101 0.886 
0.696136 -0.45816 0.89 
0.728503 -0.452497 0.879 
0.780485 -0.45816 0.89 
0.816427 -0.455071 0.884 
0.847929 -0.449923 0.874 
-0.471 -0.301781 0.588 
-0.464512 -0.323337 0.63 
-0.471064 -0.350025 0.682 
-0.466328 -0.37158 0.724 
-0.462457 -0.397242 0.774 
-0.461086 -0.429576 0.837 
-0.554835 -0.575334 1.121 
-0.502137 -0.574821 1.12 
-0.450335 -0.575334 1.121 
-0.395244 -0.571228 1.113 
-0.341516 -0.568148 1.107 
-0.275241 -0.549159 1.07 
-0.224946 -0.548132 1.068 
-0.173362 -0.542487 1.057 
-0.126326 -0.552238 1.076 
-0.0758902 -0.550185 1.072 
0.0049101 -0.472174 0.92 
0.0477396 -0.471661 0.919 
0.089786 -0.467555 0.911 
0.133264 -0.471148 0.918 
0.173943 -0.465502 0.907 
0.216457 -0.466015 0.908 
0.258779 -0.466015 0.908 
0.299111 -0.462936 0.902 
0.342289 -0.464476 0.905 
0.383196 -0.462936 0.902 
0.424296 -0.461909 0.9 
0.468318 -0.463962 0.904 
0.505371 -0.459343 0.895 
0.547699 -0.459856 0.896 
0.584856 -0.456264 0.889 
0.626997 -0.456777 0.89 
0.664725 -0.454211 0.885 
0.705975 -0.454211 0.885 
0.743004 -0.451645 0.88 
0.79293 -0.456777 0.89 
0.831601 -0.455237 0.887 
0.86015 -0.448565 0.874 
-0.470136 -0.304449 0.595 
-0.46555 -0.330033 0.645 
-0.469245 -0.355617 0.695 
-0.464508 -0.378131 0.739 
-0.46207 -0.406273 0.794 
-0.584024 -0.566428 1.107 
-0.538679 -0.57308 1.12 
-0.489951 -0.577174 1.128 
-0.431558 -0.569499 1.113 
-0.37934 -0.568987 1.112 
-0.325742 -0.565917 1.106 
-0.261696 -0.546985 1.069 
-0.212465 -0.54852 1.072 
-0.160831 -0.542891 1.061 
-0.112952 -0.550566 1.076 
-0.0628577 -0.551078 1.077 
0.010593 -0.46921 0.917 
0.0532765 -0.468698 0.916 
0.0953429 -0.465628 0.91 
0.138818 -0.46921 0.917 
0.179184 -0.463069 0.905 
0.221855 -0.464093 0.907 
0.264713 -0.465116 0.909 
0.304041 -0.460511 0.9 
0.347528 -0.462558 0.904 
0.387078 -0.459488 0.898 
0.429889 -0.460511 0.9 
0.470266 -0.458976 0.897 
0.509792 -0.456929 0.893 
0.55265 -0.457953 0.895 
0.590381 -0.454883 0.889 
0.633239 -0.455906 0.891 
0.67174 -0.453859 0.887 
0.709867 -0.451812 0.883 
0.748473 -0.450277 0.88 
0.79577 -0.453859 0.887 
0.835226 -0.452836 0.885 
0.866572 -0.447719 0.875 
-0.471789 -0.315768 0.619 
-0.466551 -0.332602 0.652 
-0.466933 -0.356067 0.698 
-0.464272 -0.380553 0.746 
-0.461166 -0.40861 0.801 
-0.577666 -0.565219 1.108 
-0.52887 -0.56828 1.114 
-0.482512 -0.574911 1.127 
-0.423497 -0.566239 1.11 
-0.370419 -0.564199 1.106 
-0.316274 -0.559607 1.097 
-0.253379 -0.548895 1.076 
-0.203982 -0.550935 1.08 
-0.152078 -0.545324 1.069 
-0.103495 -0.551956 1.082 
-0.0252707 -0.472376 0.926 
0.0176779 -0.466765 0.915 
0.0602604 -0.466254 0.914 
0.102637 -0.465234 0.912 
0.146101 -0.468295 0.918 
0.185802 -0.460643 0.903 
0.229658 -0.464214 0.91 
0.271177 -0.462684 0.907 
0.311033 -0.459113 0.9 
0.354551 -0.461153 0.904 
0.392737 -0.456562 0.895 
0.436395 -0.458603 0.899 
0.475638 -0.456052 0.894 
0.515572 -0.454522 0.891 
0.558977 -0.456052 0.894 
0.596615 -0.452991 0.888 
0.638724 -0.453501 0.889 
0.679395 -0.452991 0.888 
0.714292 -0.44891 0.88 
0.754451 -0.4484 0.879 
0.799946 -0.450951 0.884 
0.837343 -0.44891 0.88 
-0.479676 -0.296497 0.583 
-0.469454 -0.315823 0.621 
-0.465336 -0.333623 0.656 
-0.466572 -0.358034 0.704 
-0.463332 -0.382446 0.752 
-0.460744 -0.411434 0.809 
-0.573018 -0.564006 1.109 
-0.521328 -0.564006 1.109 
-0.475989 -0.571634 1.124 
-0.417569 -0.563497 1.108 
-0.364274 -0.560954 1.103 
-0.309175 -0.554343 1.09 
-0.255525 -0.54824 1.078 
-0.205851 -0.549766 1.081 
-0.152363 -0.54468 1.071 
-0.103495 -0.550274 1.082 
-0.0267094 -0.470937 0.926 
0.0162208 -0.464326 0.913 
0.0587116 -0.463817 0.912 
0.100998 -0.4628 0.91 
0.144674 -0.466869 0.918 
0.184195 -0.458732 0.902 
0.227492 -0.461274 0.907 
0.269767 -0.461274 0.907 
0.309635 -0.457714 0.9 
0.352365 -0.458732 0.902 
0.390472 -0.454154 0.893 
0.434031 -0.456189 0.897 
0.473188 -0.453646 0.892 
0.514187 -0.453137 0.891 
0.556341 -0.453646 0.892 
0.594566 -0.451103 0.887 
0.637343 -0.45212 0.889 
0.676489 -0.450594 0.886 
0.713735 -0.448052 0.881 
0.751371 -0.446017 0.877 
0.797669 -0.449069 0.883 
0.835026 -0.447034 0.879 
-0.480582 -0.295591 0.583 
-0.471789 -0.313844 0.619 
-0.466181 -0.336153 0.663 
-0.468105 -0.361504 0.713 
-0.463538 -0.385334 0.76 
-0.46473 -0.41829 0.825 
-0.568168 -0.564311 1.113 
-0.513508 -0.561269 1.107 
-0.468586 -0.569381 1.123 
-0.411054 -0.562283 1.109 
-0.356447 -0.55772 1.1 
-0.301014 -0.550114 1.085 
-0.249057 -0.547072 1.079 
-0.200054 -0.550621 1.086 
-0.146387 -0.545551 1.076 
-0.0965922 -0.547579 1.08 
-0.0196002 -0.471527 0.93 
0.0231857 -0.460372 0.908 
0.0656521 -0.461386 0.91 
0.108305 -0.4624 0.912 
0.151475 -0.464428 0.916 
0.191202 -0.45733 0.902 
0.234538 -0.459865 0.907 
0.275287 -0.45733 0.902 
0.316274 -0.455809 0.899 
0.358575 -0.456316 0.9 
0.39652 -0.451753 0.891 
0.440999 -0.454795 0.897 
0.481194 -0.453274 0.894 
0.520524 -0.451246 0.89 
0.561376 -0.450739 0.889 
0.599422 -0.448204 0.884 
0.64135 -0.448711 0.885 
0.681829 -0.448204 0.884 
0.717307 -0.444655 0.877 
0.758184 -0.444655 0.877 
0.802706 -0.446683 0.881 
0.834192 -0.441613 0.871 
-0.47687 -0.295191 0.584 
-0.471789 -0.312882 0.619 
-0.465025 -0.33209 0.657 
-0.4668 -0.356858 0.706 
-0.463393 -0.38112 0.754 
-0.462327 -0.411448 0.814 
-0.571468 -0.559043 1.106 
-0.518977 -0.558033 1.104 
-0.475565 -0.567636 1.123 
-0.416438 -0.558538 1.105 
-0.363283 -0.556011 1.1 
-0.309459 -0.551461 1.091 
-0.256236 -0.546407 1.081 
-0.206422 -0.547923 1.084 
-0.152647 -0.542363 1.073 
-0.1034 -0.546407 1.081 
-0.0224658 -0.469576 0.929 
0.0203193 -0.457951 0.906 
0.0627554 -0.459467 0.909 
0.10524 -0.459972 0.91 
0.148466 -0.4625 0.915 
0.1884 -0.455929 0.902 
0.231208 -0.457445 0.905 
0.272787 -0.456434 0.903 
0.313132 -0.453907 0.898 
0.354988 -0.453907 0.898 
0.393309 -0.449863 0.89 
0.437723 -0.452896 0.896 
0.47681 -0.450369 0.891 
0.517177 -0.449358 0.889 
0.557985 -0.448852 0.888 
0.596 -0.446325 0.883 
0.639322 -0.447841 0.886 
0.677546 -0.445819 0.882 
0.715397 -0.443798 0.878 
0.755459 -0.443292 0.877 
0.79906 -0.444809 0.88 
0.83244 -0.440765 0.872 
-0.475962 -0.294284 0.584 
-0.471588 -0.312425 0.62 
-0.466181 -0.334093 0.663 
-0.468105 -0.359288 0.713 
-0.464148 -0.383476 0.761 
-0.46473 -0.415726 0.825 
-0.566126 -0.558837 1.109 
-0.512116 -0.556317 1.104 
-0.468169 -0.565388 1.122 
-0.409942 -0.557325 1.106 
-0.356771 -0.554805 1.101 
-0.301846 -0.548255 1.088 
-0.249749 -0.545231 1.082 
-0.200422 -0.548255 1.088 
-0.146659 -0.543216 1.078 
-0.0963239 -0.542712 1.077 
-0.0152982 -0.469645 0.932 
0.0272971 -0.455535 0.904 
0.0698168 -0.458055 0.909 
0.112556 -0.459566 0.912 
0.154554 -0.458055 0.909 
0.195407 -0.454527 0.902 
0.238502 -0.456543 0.906 
0.277942 -0.452008 0.897 
0.319752 -0.452008 0.897 
0.361561 -0.452008 0.897 
0.399773 -0.447976 0.889 
0.444187 -0.451 0.895 
0.484818 -0.449992 0.893 
0.524083 -0.447976 0.889 
0.562339 -0.445457 0.884 
0.602177 -0.444449 0.882 
0.642558 -0.443945 0.881 
0.682845 -0.443441 0.88 
0.718104 -0.439914 0.873 
0.762272 -0.44193 0.877 
0.803149 -0.44193 0.877 
0.83344 -0.436386 0.866 
-0.47213 -0.294381 0.586 
-0.468594 -0.313973 0.625 
-0.467937 -0.3411 0.679 
-0.465846 -0.364209 0.725 
-0.460658 -0.388322 0.773 
-0.460884 -0.421477 0.839 
-0.549129 -0.555607 1.106 
-0.502977 -0.561635 1.118 
-0.449254 -0.559626 1.114 
-0.39626 -0.558118 1.111 
-0.341375 -0.553095 1.101 
-0.286896 -0.547067 1.089 
-0.231584 -0.536517 1.068 
-0.177952 -0.529987 1.055 
-0.13183 -0.542545 1.08 
-0.0796041 -0.529987 1.055 
0.000618572 -0.459657 0.915 
0.0427941 -0.454633 0.905 
0.0851642 -0.455638 0.907 
0.128142 -0.458149 0.912 
0.168405 -0.452121 0.9 
0.210588 -0.452624 0.901 
0.253145 -0.453628 0.903 
0.291965 -0.448605 0.893 
0.333961 -0.449107 0.894 
0.375211 -0.448605 0.893 
0.414967 -0.446595 0.889 
0.457943 -0.448102 0.892 
0.49728 -0.446093 0.888 
0.540489 -0.4476 0.891 
0.57614 -0.443079 0.882 
0.616551 -0.442576 0.881 
0.656121 -0.441572 0.879 
0.697092 -0.441572 0.879 
0.731345 -0.437553 0.871 
0.778147 -0.441069 0.878 
0.816272 -0.439562 0.875 
0.847261 -0.434539 0.865 
-0.468934 -0.298979 0.597 
-0.468446 -0.317509 0.634 
-0.470445 -0.346556 0.692 
-0.464786 -0.36759 0.734 
-0.461665 -0.394132 0.787 
-0.453063 -0.420174 0.839 
-0.540538 -0.553888 1.106 
-0.494734 -0.560399 1.119 
-0.43704 -0.553388 1.105 
-0.387629 -0.556392 1.111 
-0.332822 -0.551384 1.101 
-0.277413 -0.543371 1.085 
-0.223078 -0.534357 1.067 
-0.169113 -0.526344 1.051 
-0.123325 -0.540367 1.079 
-0.0712054 -0.526845 1.052 
0.00344667 -0.456232 0.911 
0.0455559 -0.452726 0.904 
0.0879826 -0.454229 0.907 
0.130402 -0.454729 0.908 
0.170631 -0.44922 0.897 
0.213151 -0.450723 0.9 
0.255951 -0.452225 0.903 
0.29474 -0.447217 0.893 
0.335609 -0.446216 0.891 
0.377139 -0.446216 0.891 
0.417729 -0.445214 0.889 
0.458649 -0.444713 0.888 
0.498913 -0.443712 0.886 
0.542648 -0.445715 0.89 
0.578225 -0.441208 0.881 
0.618585 -0.440707 0.88 
0.658853 -0.440206 0.879 
0.698231 -0.439204 0.877 
0.734052 -0.4362 0.871 
0.779985 -0.439204 0.877 
0.818991 -0.438203 0.875 
0.850931 -0.433696 0.866 
-0.471296 -0.302545 0.606 
-0.464829 -0.321517 0.644 
-0.466414 -0.346479 0.694 
-0.462837 -0.369445 0.74 
-0.464234 -0.400398 0.802 
-0.578096 -0.548675 1.099 
-0.52783 -0.549674 1.101 
-0.483004 -0.557162 1.116 
-0.425195 -0.549674 1.101 
-0.373197 -0.548675 1.099 
-0.322852 -0.550173 1.102 
-0.266806 -0.540687 1.083 
-0.214729 -0.536693 1.075 
-0.162479 -0.529704 1.061 
-0.114624 -0.537193 1.076 
-0.030992 -0.461806 0.925 
0.0118604 -0.451821 0.905 
0.0540427 -0.451821 0.905 
0.0964377 -0.452819 0.907 
0.138254 -0.451322 0.904 
0.178594 -0.446828 0.895 
0.220803 -0.447827 0.897 
0.263783 -0.449824 0.901 
0.303064 -0.44583 0.893 
0.342757 -0.443334 0.888 
0.383282 -0.442335 0.886 
0.426975 -0.444831 0.891 
0.465875 -0.442335 0.886 
0.5066 -0.441836 0.885 
0.549088 -0.442834 0.887 
0.585772 -0.43934 0.88 
0.628213 -0.440338 0.882 
0.665529 -0.437842 0.877 
0.705601 -0.437343 0.876 
0.744727 -0.436344 0.874 
0.786363 -0.436843 0.875 
0.822421 -0.434347 0.87 
0.86198 -0.433848 0.869 
-0.471794 -0.305585 0.614 
-0.466662 -0.325991 0.655 
-0.466762 -0.348885 0.701 
-0.463192 -0.372276 0.748 
-0.463258 -0.402636 0.809 
-0.570888 -0.544977 1.095 
-0.520325 -0.545475 1.096 
-0.476518 -0.553935 1.113 
-0.419681 -0.547465 1.1 
-0.367405 -0.545972 1.097 
-0.317427 -0.547963 1.101 
-0.261517 -0.538507 1.082 
-0.210889 -0.538009 1.081 
-0.156767 -0.531041 1.067 
-0.108037 -0.536018 1.077 
-0.023832 -0.460866 0.926 
0.0188282 -0.448922 0.902 
0.0610731 -0.450415 0.905 
0.10337 -0.450912 0.906 
0.144474 -0.447429 0.899 
0.185962 -0.446433 0.897 
0.227771 -0.446433 0.897 
0.26958 -0.446433 0.897 
0.309654 -0.443945 0.892 
0.349656 -0.441954 0.888 
0.389284 -0.439963 0.884 
0.433896 -0.443447 0.891 
0.473292 -0.441456 0.887 
0.513475 -0.440461 0.885 
0.552218 -0.43847 0.881 
0.591261 -0.436977 0.878 
0.634345 -0.43847 0.881 
0.671575 -0.435982 0.876 
0.709966 -0.434488 0.873 
0.749797 -0.433991 0.872 
0.788628 -0.432995 0.87 
0.824414 -0.430507 0.865 
-0.475237 -0.288755 0.582 
-0.470265 -0.30612 0.617 
-0.468242 -0.328942 0.663 
-0.466363 -0.350773 0.707 
-0.4659 -0.377068 0.76 
-0.465027 -0.407333 0.821 
-0.562023 -0.541291 1.091 
-0.511639 -0.541787 1.092 
-0.467492 -0.549725 1.108 
-0.411719 -0.544268 1.097 
-0.360259 -0.543772 1.096 
-0.309456 -0.544268 1.097 
-0.254792 -0.536826 1.082 
-0.205304 -0.539306 1.087 
-0.152078 -0.530376 1.069 
-0.102921 -0.533849 1.076 
-0.0180381 -0.458435 0.924 
0.0243797 -0.446528 0.9 
0.0666974 -0.449009 0.905 
0.108399 -0.447024 0.901 
0.149727 -0.445039 0.897 
0.191109 -0.444047 0.895 
0.233346 -0.445039 0.897 
0.274542 -0.444047 0.895 
0.314844 -0.442063 0.891 
0.355174 -0.440574 0.888 
0.394331 -0.438094 0.883 
0.43894 -0.441566 0.89 
0.479344 -0.440574 0.888 
0.518975 -0.439086 0.885 
0.555794 -0.435613 0.878 
0.596717 -0.435613 0.878 
0.637641 -0.435613 0.878 
0.675474 -0.433628 0.874 
0.712114 -0.431148 0.869 
0.753484 -0.431644 0.87 
0.788559 -0.428667 0.864 
0.827871 -0.428171 0.863 
-0.47324 -0.28884 0.584 
-0.468904 -0.30615 0.619 
-0.467256 -0.329396 0.666 
-0.465688 -0.351652 0.711 
-0.464791 -0.377866 0.764 
-0.465695 -0.410014 0.829 
-0.556427 -0.539101 1.09 
-0.507013 -0.540585 1.093 
-0.460241 -0.545531 1.103 
-0.405123 -0.540585 1.093 
-0.354502 -0.54108 1.094 
-0.303788 -0.541574 1.095 
-0.249518 -0.53465 1.081 
-0.200054 -0.537123 1.086 
-0.147921 -0.531683 1.075 
-0.0973602 -0.52921 1.07 
-0.00934293 -0.453043 0.916 
0.0326603 -0.443646 0.897 
0.0752169 -0.448097 0.906 
0.11602 -0.442657 0.895 
0.157736 -0.442657 0.895 
0.199007 -0.441667 0.893 
0.241977 -0.44414 0.898 
0.282885 -0.442657 0.895 
0.322425 -0.439689 0.889 
0.363043 -0.4387 0.887 
0.402563 -0.436722 0.883 
0.44573 -0.4387 0.887 
0.486524 -0.438205 0.886 
0.527225 -0.437711 0.885 
0.562051 -0.432765 0.875 
0.604902 -0.434249 0.878 
0.642884 -0.43227 0.874 
0.681275 -0.430787 0.871 
0.7169 -0.427819 0.865 
0.758093 -0.428314 0.866 
0.795691 -0.42683 0.863 
0.835916 -0.42683 0.863 
-0.471914 -0.289904 0.588 
-0.469119 -0.309133 0.627 
-0.465546 -0.329347 0.668 
-0.465625 -0.353013 0.716 
-0.461859 -0.379144 0.769 
-0.462025 -0.411191 0.834 
-0.548462 -0.537901 1.091 
-0.500803 -0.541352 1.098 
-0.448397 -0.539873 1.095 
-0.396633 -0.538887 1.093 
-0.345687 -0.538887 1.093 
-0.295012 -0.53938 1.094 
-0.238444 -0.527054 1.069 
-0.189147 -0.528533 1.072 
-0.13996 -0.531492 1.078 
-0.0877997 -0.520152 1.055 
0.00765064 -0.44669 0.906 
0.0496043 -0.444224 0.901 
0.0920068 -0.446196 0.905 
0.132706 -0.441266 0.895 
0.173253 -0.438308 0.889 
0.214448 -0.437815 0.888 
0.257855 -0.441266 0.895 
0.298567 -0.439787 0.892 
0.337474 -0.436336 0.885 
0.377441 -0.434857 0.882 
0.417602 -0.433871 0.88 
0.459661 -0.434857 0.882 
0.499068 -0.433378 0.879 
0.543725 -0.436336 0.885 
0.578365 -0.431405 0.875 
0.618441 -0.430912 0.874 
0.65767 -0.429926 0.872 
0.695912 -0.428447 0.869 
0.735569 -0.427954 0.868 
0.775133 -0.427461 0.867 
0.811781 -0.425489 0.863 
0.858917 -0.42894 0.87 
-0.468007 -0.293414 0.597 
-0.468169 -0.314056 0.639 
-0.462719 -0.332241 0.676 
-0.466294 -0.359273 0.731 
-0.459947 -0.384338 0.782 
-0.582988 -0.535223 1.089 
-0.536139 -0.539155 1.097 
-0.486334 -0.540629 1.1 
-0.431899 -0.536697 1.092 
-0.381698 -0.53768 1.094 
-0.330102 -0.536697 1.092 
-0.277925 -0.53424 1.087 
-0.22266 -0.523427 1.065 
-0.170583 -0.516055 1.05 
-0.124423 -0.527851 1.074 
-0.0383301 -0.439876 0.895 
0.00765064 -0.445282 0.906 
0.0495492 -0.442333 0.9 
0.0919052 -0.444299 0.904 
0.132262 -0.438401 0.892 
0.173253 -0.436927 0.889 
0.213482 -0.434469 0.884 
0.257279 -0.438893 0.893 
0.298567 -0.438401 0.892 
0.337093 -0.434469 0.884 
0.376585 -0.432503 0.88 
0.417127 -0.432012 0.879 
0.45914 -0.432995 0.881 
0.4985 -0.43152 0.878 
0.541882 -0.433486 0.882 
0.577043 -0.429063 0.873 
0.617734 -0.429063 0.873 
0.656162 -0.427589 0.87 
0.695111 -0.426606 0.868 
0.734722 -0.426114 0.867 
0.772451 -0.42464 0.864 
0.811781 -0.424148 0.863 
0.858917 -0.427589 0.87 
-0.469075 -0.291997 0.596 
-0.468169 -0.313064 0.639 
-0.462397 -0.330211 0.674 
-0.466151 -0.357157 0.729 
-0.459982 -0.382143 0.78 
-0.581917 -0.532551 1.087 
-0.535162 -0.536471 1.095 
-0.485008 -0.53745 1.097 
-0.430712 -0.533531 1.089 
-0.381 -0.535001 1.092 
-0.329497 -0.534021 1.09 
-0.277669 -0.532061 1.086 
-0.222451 -0.521283 1.064 
-0.170421 -0.513934 1.049 
-0.124307 -0.525692 1.073 
-0.0368157 -0.437015 0.892 
0.00624301 -0.443874 0.906 
0.0480439 -0.439955 0.898 
0.0904005 -0.442404 0.903 
0.130729 -0.436525 0.891 
0.171679 -0.435056 0.888 
0.211629 -0.432116 0.882 
0.255318 -0.436525 0.891 
0.297181 -0.437015 0.892 
0.335719 -0.433096 0.884 
0.374791 -0.430646 0.879 
0.414815 -0.429666 0.877 
0.457771 -0.431626 0.881 
0.49657 -0.429666 0.877 
0.539286 -0.431136 0.88 
0.575687 -0.427707 0.873 
0.616377 -0.427707 0.873 
0.654058 -0.425747 0.869 
0.692963 -0.424767 0.867 
0.731683 -0.423787 0.865 
0.768431 -0.421828 0.861 
0.809501 -0.422317 0.862 
0.858551 -0.426727 0.871 
-0.470136 -0.290582 0.595 
-0.468169 -0.312071 0.639 
-0.462034 -0.329652 0.675 
-0.466294 -0.357001 0.731 
-0.462782 -0.386304 0.791 
-0.57632 -0.530374 1.086 
-0.529574 -0.534281 1.094 
-0.479457 -0.535258 1.096 
-0.425245 -0.531351 1.088 
-0.376254 -0.533792 1.093 
-0.324119 -0.531839 1.089 
-0.271854 -0.528909 1.083 
-0.218718 -0.52256 1.07 
-0.165847 -0.513281 1.051 
-0.119083 -0.523048 1.071 
-0.0326215 -0.435141 0.891 
0.00905827 -0.442467 0.906 
0.0507211 -0.437583 0.896 
0.093 -0.440025 0.901 
0.133348 -0.434653 0.89 
0.174438 -0.433676 0.888 
0.213884 -0.429769 0.88 
0.257797 -0.434653 0.89 
0.29928 -0.434653 0.89 
0.338083 -0.431234 0.883 
0.376663 -0.428304 0.877 
0.417541 -0.428304 0.877 
0.459986 -0.429769 0.88 
0.498156 -0.427327 0.875 
0.538325 -0.426839 0.874 
0.577074 -0.425374 0.871 
0.617672 -0.425374 0.871 
0.655246 -0.42342 0.867 
0.695658 -0.42342 0.867 
0.73522 -0.422932 0.866 
0.770211 -0.420001 0.86 
0.811238 -0.42049 0.861 
0.863235 -0.42635 0.873 
-0.471387 -0.297447 0.611 
-0.46683 -0.313512 0.644 
-0.466545 -0.336393 0.691 
-0.461994 -0.357813 0.735 
-0.464813 -0.390917 0.803 
-0.565792 -0.526739 1.082 
-0.522028 -0.533555 1.096 
-0.470513 -0.533068 1.095 
-0.416793 -0.52966 1.088 
-0.367427 -0.531608 1.092 
-0.315079 -0.529173 1.087 
-0.262468 -0.525279 1.079 
-0.211389 -0.523332 1.075 
-0.158882 -0.515542 1.059 
-0.110039 -0.517977 1.064 
-0.0257287 -0.434244 0.892 
0.0160787 -0.440572 0.905 
0.0576172 -0.435704 0.895 
0.0993334 -0.435704 0.895 
0.140262 -0.43327 0.89 
0.181541 -0.432783 0.889 
0.22072 -0.428402 0.88 
0.264116 -0.432296 0.888 
0.30585 -0.432783 0.889 
0.344552 -0.429375 0.882 
0.383476 -0.426941 0.877 
0.425321 -0.427915 0.879 
0.466822 -0.428402 0.88 
0.504954 -0.425968 0.875 
0.541996 -0.423047 0.869 
0.5825 -0.423047 0.869 
0.623721 -0.423533 0.87 
0.661982 -0.422073 0.867 
0.701583 -0.421586 0.866 
0.74109 -0.421099 0.865 
0.776891 -0.418665 0.86 
0.816976 -0.418665 0.86 
-0.47197 -0.280484 0.578 
-0.468904 -0.30038 0.619 
-0.467066 -0.31882 0.657 
-0.468994 -0.342598 0.706 
-0.459559 -0.361038 0.744 
-0.466871 -0.398889 0.822 
-0.552488 -0.523602 1.079 
-0.507781 -0.529426 1.091 
-0.456929 -0.529426 1.091 
-0.404588 -0.527485 1.087 
-0.353272 -0.526514 1.085 
-0.303816 -0.528455 1.089 
-0.248874 -0.51972 1.071 
-0.198769 -0.519235 1.07 
-0.149035 -0.51972 1.071 
-0.0972643 -0.510015 1.051 
-0.0188836 -0.434799 0.896 
0.0229814 -0.43674 0.9 
0.0644256 -0.433343 0.893 
0.105455 -0.430917 0.888 
0.147341 -0.432372 0.891 
0.188447 -0.431402 0.889 
0.228332 -0.42849 0.883 
0.270709 -0.430431 0.887 
0.312053 -0.430431 0.887 
0.351006 -0.42752 0.881 
0.391179 -0.426549 0.879 
0.433625 -0.428005 0.882 
0.47312 -0.426549 0.879 
0.511166 -0.424123 0.874 
0.547483 -0.420726 0.867 
0.590607 -0.422667 0.871 
0.62903 -0.421211 0.868 
0.669488 -0.421211 0.868 
0.707492 -0.419755 0.865 
0.746945 -0.41927 0.864 
0.782661 -0.416844 0.859 
0.825573 -0.4183 0.862 
-0.468197 -0.280553 0.58 
-0.467844 -0.301837 0.624 
-0.467588 -0.321669 0.665 
-0.466792 -0.34392 0.711 
-0.462997 -0.369073 0.763 
-0.464407 -0.400998 0.829 
-0.547966 -0.52241 1.08 
-0.500853 -0.525796 1.087 
-0.450187 -0.525796 1.087 
-0.399154 -0.525312 1.086 
-0.346931 -0.522893 1.081 
-0.298465 -0.526279 1.088 
-0.240694 -0.511284 1.057 
-0.191789 -0.512252 1.059 
-0.144312 -0.519024 1.073 
-0.0915746 -0.504029 1.042 
-0.0147237 -0.43389 0.897 
0.0270555 -0.433407 0.896 
0.0685879 -0.431955 0.893 
0.109224 -0.428086 0.885 
0.151494 -0.430988 0.891 
0.192807 -0.430504 0.89 
0.232711 -0.427602 0.884 
0.275154 -0.429537 0.888 
0.315118 -0.427602 0.884 
0.354709 -0.425667 0.88 
0.394827 -0.4247 0.878 
0.436743 -0.425667 0.88 
0.476674 -0.4247 0.878 
0.514061 -0.421797 0.872 
0.553509 -0.419863 0.868 
0.597388 -0.422281 0.873 
0.632963 -0.418895 0.866 
0.674882 -0.419863 0.868 
0.712868 -0.418412 0.865 
0.750574 -0.41696 0.862 
0.788 -0.415509 0.859 
0.833822 -0.418412 0.865 
-0.46739 -0.27917 0.579 
-0.467684 -0.303278 0.629 
-0.46694 -0.323047 0.67 
-0.465625 -0.345226 0.716 
-0.461859 -0.37078 0.769 
-0.459809 -0.400192 0.83 
-0.54243 -0.52025 1.079 
-0.494874 -0.523143 1.085 
-0.443483 -0.522178 1.083 
-0.393367 -0.52266 1.084 
-0.340943 -0.519767 1.078 
-0.292855 -0.523625 1.086 
-0.232868 -0.503374 1.044 
-0.184736 -0.504821 1.047 
-0.138921 -0.51591 1.07 
-0.0861353 -0.499035 1.035 
-0.0119497 -0.432979 0.898 
0.0297398 -0.430568 0.893 
0.071203 -0.429604 0.891 
0.111847 -0.426229 0.884 
0.154262 -0.429604 0.891 
0.195573 -0.429122 0.89 
0.235458 -0.426229 0.884 
0.2776 -0.427675 0.887 
0.317145 -0.425264 0.882 
0.357037 -0.423818 0.879 
0.397102 -0.422853 0.877 
0.437979 -0.422853 0.877 
0.478856 -0.422853 0.877 
0.515585 -0.419478 0.87 
0.554858 -0.418514 0.868 
0.598059 -0.420443 0.872 
0.633576 -0.417068 0.865 
0.675452 -0.418032 0.867 
0.713386 -0.416585 0.864 
0.75104 -0.415139 0.861 
0.789334 -0.414175 0.859 
0.835165 -0.417068 0.865 
-0.472485 -0.284038 0.591 
-0.466469 -0.302781 0.63 
-0.466245 -0.322967 0.672 
-0.465342 -0.345555 0.719 
-0.462457 -0.371989 0.774 
-0.590961 -0.521457 1.085 
-0.536902 -0.518093 1.078 
-0.489365 -0.520976 1.084 
-0.437625 -0.519534 1.081 
-0.387239 -0.519534 1.081 
-0.335296 -0.517131 1.076 
-0.286468 -0.519534 1.081 
-0.22691 -0.499349 1.039 
-0.178482 -0.499349 1.039 
-0.133683 -0.513287 1.068 
-0.0810754 -0.495985 1.032 
-0.00775548 -0.431103 0.897 
0.0337882 -0.427739 0.89 
0.0752714 -0.427739 0.89 
0.115705 -0.423894 0.882 
0.158593 -0.4287 0.892 
0.199496 -0.427258 0.889 
0.239578 -0.424855 0.884 
0.281417 -0.425816 0.886 
0.320892 -0.423413 0.881 
0.360723 -0.421972 0.878 
0.400732 -0.42101 0.876 
0.441563 -0.42101 0.876 
0.480741 -0.419569 0.873 
0.519043 -0.417646 0.869 
0.559547 -0.417646 0.869 
0.601433 -0.418607 0.871 
0.636871 -0.415243 0.864 
0.678709 -0.416204 0.866 
0.716583 -0.414762 0.863 
0.7533 -0.41284 0.859 
0.793338 -0.41284 0.859 
0.840167 -0.416204 0.866 
-0.470651 -0.294617 0.615 
-0.466421 -0.310905 0.649 
-0.467086 -0.332941 0.695 
-0.45971 -0.352103 0.735 
-0.463469 -0.385637 0.805 
-0.567473 -0.518334 1.082 
-0.518474 -0.519771 1.085 
-0.468764 -0.520729 1.087 
-0.415407 -0.517376 1.08 
-0.36642 -0.519292 1.084 
-0.313563 -0.51546 1.076 
-0.262431 -0.513543 1.072 
-0.210483 -0.508753 1.062 
-0.15977 -0.50492 1.054 
-0.110853 -0.505879 1.056 
-0.031132 -0.425398 0.888 
0.0103735 -0.430188 0.898 
0.0517061 -0.425877 0.889 
0.0932474 -0.426356 0.89 
0.133368 -0.422045 0.881 
0.175026 -0.423482 0.884 
0.214762 -0.420607 0.878 
0.258015 -0.42444 0.886 
0.297961 -0.422524 0.882 
0.338302 -0.421566 0.88 
0.376302 -0.418212 0.873 
0.41747 -0.418691 0.874 
0.458732 -0.41917 0.875 
0.49552 -0.415817 0.868 
0.53289 -0.413422 0.863 
0.575771 -0.415338 0.867 
0.61405 -0.413901 0.864 
0.651292 -0.411984 0.86 
0.693789 -0.413422 0.863 
0.731462 -0.411984 0.86 
0.767061 -0.409589 0.855 
0.806913 -0.409589 0.855 
-0.472485 -0.282201 0.591 
-0.468594 -0.298436 0.625 
-0.467621 -0.318969 0.668 
-0.466543 -0.340934 0.714 
-0.462417 -0.364808 0.764 
-0.460884 -0.393936 0.825 
-0.544415 -0.512355 1.073 
-0.49947 -0.517608 1.084 
-0.448531 -0.51713 1.083 
-0.397684 -0.516653 1.082 
-0.345326 -0.513788 1.076 
-0.295996 -0.51522 1.079 
-0.236823 -0.496598 1.04 
-0.189435 -0.499463 1.046 
-0.143639 -0.509968 1.068 
-0.091311 -0.49612 1.039 
-0.0160814 -0.427361 0.895 
0.0255775 -0.426406 0.893 
0.0668242 -0.424018 0.888 
0.107239 -0.420198 0.88 
0.149267 -0.423063 0.886 
0.190564 -0.423063 0.886 
0.230814 -0.421153 0.882 
0.272232 -0.421631 0.883 
0.311615 -0.419243 0.878 
0.35294 -0.419721 0.879 
0.391222 -0.416856 0.873 
0.430923 -0.415901 0.871 
0.472062 -0.416378 0.872 
0.509178 -0.413513 0.866 
0.549543 -0.413513 0.866 
0.589226 -0.413036 0.865 
0.626633 -0.411126 0.861 
0.667539 -0.411603 0.862 
0.707717 -0.411603 0.862 
0.743557 -0.409216 0.857 
0.782588 -0.408738 0.856 
0.822486 -0.408738 0.856 
-0.470209 -0.286043 0.601 
-0.46574 -0.301273 0.633 
-0.466141 -0.324118 0.681 
-0.46438 -0.346487 0.728 
-0.463521 -0.374092 0.786 
-0.583606 -0.517352 1.087 
-0.526077 -0.510688 1.073 
-0.480057 -0.514972 1.082 
-0.429624 -0.514972 1.082 
-0.378141 -0.513544 1.079 
-0.326329 -0.511164 1.074 
-0.275755 -0.510212 1.072 
-0.219681 -0.49641 1.043 
-0.170246 -0.49403 1.038 
-0.125035 -0.506881 1.065 
-0.0729877 -0.490699 1.031 
-0.000786367 -0.426446 0.896 
0.0404734 -0.421211 0.885 
0.0818159 -0.421687 0.886 
0.122279 -0.418831 0.88 
0.164966 -0.423115 0.889 
0.204081 -0.418355 0.879 
0.246166 -0.420259 0.883 
0.286998 -0.419783 0.882 
0.326992 -0.418355 0.879 
0.366288 -0.416451 0.875 
0.406142 -0.415499 0.873 
0.447856 -0.416451 0.875 
0.483614 -0.412168 0.866 
0.521558 -0.410264 0.862 
0.565647 -0.41312 0.868 
0.602613 -0.41074 0.863 
0.639113 -0.40836 0.858 
0.680688 -0.409312 0.86 
0.719934 -0.408836 0.859 
0.755549 -0.406456 0.854 
0.795354 -0.406456 0.854 
0.838093 -0.407884 0.857 
-0.470991 -0.285583 0.602 
-0.46574 -0.300289 0.633 
-0.466513 -0.322586 0.68 
-0.464233 -0.344408 0.726 
-0.463521 -0.372871 0.786 
-0.579695 -0.515188 1.086 
-0.522742 -0.509021 1.073 
-0.476254 -0.512816 1.081 
-0.42705 -0.51424 1.084 
-0.374093 -0.510919 1.077 
-0.322691 -0.509021 1.073 
-0.271662 -0.507124 1.069 
-0.217062 -0.496213 1.046 
-0.167503 -0.493841 1.041 
-0.121268 -0.503329 1.061 
-0.0391881 -0.418887 0.883 
0.00199559 -0.42458 0.895 
0.0431746 -0.419361 0.884 
0.0844735 -0.419836 0.885 
0.124587 -0.416041 0.877 
0.167351 -0.420785 0.887 
0.206106 -0.415566 0.876 
0.24891 -0.418887 0.883 
0.289082 -0.417464 0.88 
0.329348 -0.416515 0.878 
0.368164 -0.414143 0.873 
0.407918 -0.413194 0.871 
0.45109 -0.415566 0.876 
0.485744 -0.410348 0.865 
0.523629 -0.40845 0.861 
0.568344 -0.411771 0.868 
0.60319 -0.407976 0.86 
0.641031 -0.406553 0.857 
0.680976 -0.406553 0.857 
0.721763 -0.407027 0.858 
0.756427 -0.404181 0.852 
0.797074 -0.404655 0.853 
0.833889 -0.403232 0.85 
-0.471291 -0.283702 0.6 
-0.465491 -0.297887 0.63 
-0.466559 -0.320111 0.677 
-0.463918 -0.341388 0.722 
-0.464185 -0.370231 0.783 
-0.582532 -0.513028 1.085 
-0.525096 -0.506408 1.071 
-0.478726 -0.510191 1.079 
-0.430419 -0.512555 1.084 
-0.376388 -0.507827 1.074 
-0.326025 -0.507354 1.073 
-0.274726 -0.50499 1.068 
-0.21926 -0.492223 1.041 
-0.170246 -0.490805 1.038 
-0.124682 -0.502153 1.062 
-0.0729877 -0.487495 1.031 
-0.000785489 -0.423189 0.895 
0.0403362 -0.417042 0.882 
0.0814465 -0.417042 0.882 
0.121723 -0.414205 0.876 
0.164595 -0.419406 0.887 
0.20292 -0.41326 0.874 
0.245609 -0.416569 0.881 
0.285696 -0.415151 0.878 
0.326248 -0.414678 0.877 
0.365451 -0.412787 0.873 
0.404281 -0.410895 0.869 
0.447856 -0.413732 0.875 
0.482497 -0.408531 0.864 
0.520348 -0.40664 0.86 
0.564995 -0.40995 0.867 
0.59982 -0.406167 0.859 
0.636878 -0.404276 0.855 
0.678313 -0.405221 0.857 
0.71742 -0.404748 0.856 
0.752895 -0.402384 0.851 
0.793492 -0.402857 0.852 
0.831248 -0.401911 0.85 
-0.471926 -0.283713 0.602 
-0.465249 -0.29738 0.631 
-0.467199 -0.320944 0.681 
-0.464233 -0.342152 0.726 
-0.462888 -0.3709 0.787 
-0.573667 -0.509457 1.081 
-0.518924 -0.505216 1.072 
-0.470708 -0.507101 1.076 
-0.423682 -0.510871 1.084 
-0.368681 -0.504744 1.071 
-0.318762 -0.504744 1.071 
-0.266834 -0.500974 1.063 
-0.214221 -0.493905 1.048 
-0.165058 -0.492962 1.046 
-0.117415 -0.497675 1.056 
-0.0363617 -0.415201 0.881 
0.00475532 -0.419913 0.891 
0.0458176 -0.415672 0.882 
0.0869279 -0.415672 0.882 
0.127022 -0.412373 0.875 
0.169148 -0.415672 0.882 
0.207636 -0.410488 0.871 
0.251084 -0.415201 0.881 
0.29049 -0.412844 0.876 
0.330942 -0.412373 0.875 
0.370027 -0.410488 0.871 
0.408739 -0.408603 0.867 
0.453294 -0.412373 0.875 
0.487302 -0.406717 0.863 
0.525693 -0.405304 0.86 
0.568409 -0.407189 0.864 
0.603749 -0.40389 0.857 
0.641441 -0.402476 0.854 
0.679651 -0.401533 0.852 
0.721896 -0.402947 0.855 
0.756402 -0.40012 0.849 
0.798787 -0.401533 0.852 
0.832594 -0.398706 0.846 
-0.471737 -0.286065 0.609 
-0.467375 -0.301566 0.642 
-0.466657 -0.323174 0.688 
-0.465541 -0.346191 0.737 
-0.463368 -0.372026 0.792 
-0.56987 -0.505899 1.077 
-0.517259 -0.50355 1.072 
-0.467728 -0.50402 1.073 
-0.421998 -0.509187 1.084 
-0.366332 -0.502141 1.069 
-0.316802 -0.502611 1.07 
-0.264184 -0.497444 1.059 
-0.21239 -0.491807 1.047 
-0.163745 -0.492277 1.048 
-0.115555 -0.495095 1.054 
-0.0336241 -0.413832 0.881 
0.00749864 -0.41712 0.888 
0.0485583 -0.414302 0.882 
0.0895669 -0.413832 0.881 
0.129593 -0.410544 0.874 
0.17111 -0.412423 0.878 
0.210101 -0.408665 0.87 
0.253533 -0.413362 0.88 
0.292207 -0.410074 0.873 
0.332898 -0.410074 0.873 
0.372305 -0.408665 0.87 
0.410484 -0.406316 0.865 
0.455492 -0.410544 0.874 
0.489416 -0.404907 0.862 
0.527751 -0.403498 0.859 
0.569111 -0.404437 0.861 
0.605705 -0.402089 0.856 
0.644095 -0.401149 0.854 
0.679896 -0.3988 0.849 
0.722858 -0.400679 0.853 
0.758146 -0.398331 0.848 
0.800493 -0.39974 0.851 
0.83621 -0.397861 0.847 
-0.471563 -0.285587 0.61 
-0.46783 -0.301505 0.644 
-0.467046 -0.321637 0.687 
-0.465541 -0.345046 0.737 
-0.463368 -0.370795 0.792 
-0.567754 -0.502353 1.073 
-0.516776 -0.501417 1.071 
-0.467292 -0.501885 1.072 
-0.421608 -0.507035 1.083 
-0.365646 -0.499544 1.067 
-0.316505 -0.50048 1.069 
-0.263436 -0.494394 1.056 
-0.212187 -0.489712 1.046 
-0.163745 -0.490648 1.048 
-0.115446 -0.492989 1.053 
-0.0336241 -0.412463 0.881 
0.00748175 -0.414804 0.886 
0.0485032 -0.412463 0.881 
0.0894652 -0.411995 0.88 
0.129593 -0.409186 0.874 
0.170915 -0.41059 0.877 
0.209618 -0.406377 0.868 
0.252957 -0.411058 0.878 
0.291538 -0.407781 0.871 
0.332136 -0.407781 0.871 
0.371449 -0.406377 0.868 
0.410484 -0.404972 0.865 
0.455492 -0.409186 0.874 
0.488848 -0.4031 0.861 
0.527137 -0.401695 0.858 
0.56845 -0.402631 0.86 
0.604289 -0.399822 0.854 
0.644095 -0.399822 0.854 
0.679095 -0.397013 0.848 
0.72201 -0.398886 0.852 
0.756358 -0.396077 0.846 
0.799553 -0.39795 0.85 
0.83621 -0.396545 0.847 
-0.472074 -0.28324 0.607 
-0.467176 -0.298172 0.639 
-0.46751 -0.318703 0.683 
-0.465795 -0.341568 0.732 
-0.462341 -0.365832 0.784 
-0.57609 -0.500686 1.073 
-0.524115 -0.498819 1.069 
-0.475176 -0.499752 1.071 
-0.430816 -0.506285 1.085 
-0.372884 -0.496486 1.064 
-0.326025 -0.500686 1.073 
-0.272668 -0.49462 1.06 
-0.218838 -0.484821 1.039 
-0.170082 -0.483887 1.037 
-0.124095 -0.49322 1.057 
-0.0726337 -0.478754 1.026 
0.000599643 -0.413894 0.887 
0.0414228 -0.408761 0.876 
0.0823473 -0.409228 0.877 
0.122663 -0.407361 0.873 
0.163915 -0.408761 0.876 
0.202875 -0.405028 0.868 
0.245296 -0.408294 0.875 
0.284118 -0.405495 0.869 
0.325369 -0.406428 0.871 
0.364286 -0.404562 0.867 
0.403297 -0.403162 0.864 
0.449216 -0.408294 0.875 
0.4816 -0.401295 0.86 
0.520471 -0.400362 0.858 
0.561116 -0.400829 0.859 
0.596955 -0.398029 0.853 
0.634475 -0.396629 0.85 
0.67568 -0.397562 0.852 
0.715391 -0.397562 0.852 
0.749786 -0.394762 0.846 
0.792017 -0.396162 0.849 
0.82865 -0.394762 0.846 
-0.472862 -0.279971 0.602 
-0.465491 -0.292993 0.63 
-0.466586 -0.313456 0.674 
-0.463579 -0.333919 0.718 
-0.462461 -0.359033 0.772 
-0.587211 -0.498554 1.072 
-0.534238 -0.495763 1.066 
-0.488643 -0.499949 1.075 
-0.442208 -0.504134 1.084 
-0.38301 -0.492973 1.06 
-0.33738 -0.498554 1.072 
-0.28366 -0.492043 1.058 
-0.228145 -0.479021 1.03 
-0.180486 -0.479951 1.032 
-0.135463 -0.491112 1.056 
-0.0836289 -0.47623 1.024 
-0.0118566 -0.414376 0.891 
0.0292402 -0.40833 0.878 
0.0701641 -0.40833 0.878 
0.110202 -0.405075 0.871 
0.1508 -0.405075 0.871 
0.190299 -0.402749 0.866 
0.231462 -0.404145 0.869 
0.271654 -0.40368 0.868 
0.312471 -0.404145 0.869 
0.353381 -0.40461 0.87 
0.392121 -0.402749 0.866 
0.432985 -0.403215 0.867 
0.467936 -0.398564 0.857 
0.509066 -0.399494 0.859 
0.550383 -0.400424 0.861 
0.585714 -0.397169 0.854 
0.621124 -0.394378 0.848 
0.665324 -0.397169 0.854 
0.701827 -0.395308 0.85 
0.738828 -0.393913 0.847 
0.779226 -0.394378 0.848 
0.81489 -0.392518 0.844 
-9.908 -4.79414 10.343 
-0.468904 -0.286916 0.619 
-0.464934 -0.303139 0.654 
-0.467665 -0.326315 0.704 
-0.465736 -0.34949 0.754 
-0.464286 -0.376838 0.813 
-0.550384 -0.492253 1.062 
-0.505128 -0.496425 1.071 
-0.454358 -0.495497 1.069 
-0.40264 -0.49318 1.064 
-0.352383 -0.492253 1.062 
-0.302598 -0.491789 1.061 
-0.249088 -0.48391 1.044 
-0.200811 -0.484837 1.046 
-0.15322 -0.488545 1.054 
-0.103006 -0.483446 1.043 
-0.0280851 -0.40743 0.879 
0.0128854 -0.40743 0.879 
0.0537333 -0.406503 0.877 
0.0945026 -0.406039 0.876 
0.135333 -0.406039 0.876 
0.175359 -0.404185 0.872 
0.214517 -0.401404 0.866 
0.256353 -0.403722 0.871 
0.295928 -0.402331 0.868 
0.334836 -0.400477 0.864 
0.375975 -0.401404 0.866 
0.414898 -0.400013 0.863 
0.456704 -0.401404 0.866 
0.492477 -0.397696 0.858 
0.532469 -0.397696 0.858 
0.570459 -0.396305 0.855 
0.606742 -0.393988 0.85 
0.648642 -0.395378 0.853 
0.682751 -0.392134 0.846 
0.724744 -0.393524 0.849 
0.758915 -0.390743 0.843 
0.801995 -0.392597 0.847 
0.841474 -0.392597 0.847 
-0.469343 -0.289188 0.626 
-0.466181 -0.30628 0.663 
-0.467449 -0.328916 0.712 
-0.463538 -0.351091 0.76 
-0.459096 -0.376498 0.815 
-0.54492 -0.490141 1.061 
-0.500603 -0.495222 1.072 
-0.449796 -0.494299 1.07 
-0.396933 -0.490603 1.062 
-0.348087 -0.491527 1.064 
-0.296811 -0.488755 1.058 
-0.243052 -0.479978 1.039 
-0.195748 -0.48275 1.045 
-0.148166 -0.486445 1.053 
-0.0974858 -0.478592 1.036 
-0.0226481 -0.406526 0.88 
0.0210315 -0.40514 0.877 
0.0616264 -0.403292 0.873 
0.102434 -0.403754 0.874 
0.143008 -0.403292 0.873 
0.182436 -0.40052 0.867 
0.22259 -0.400058 0.866 
0.263258 -0.40052 0.867 
0.303319 -0.400058 0.866 
0.342096 -0.398211 0.862 
0.384492 -0.40052 0.867 
0.423923 -0.399597 0.865 
0.46102 -0.396825 0.859 
0.500475 -0.396363 0.858 
0.540467 -0.396363 0.858 
0.5764 -0.393591 0.852 
0.612496 -0.391281 0.847 
0.655824 -0.393591 0.852 
0.691454 -0.391281 0.847 
0.730933 -0.391281 0.847 
0.767683 -0.389895 0.844 
0.806066 -0.389433 0.843 
-8.88953 -4.24496 9.22 
-0.469343 -0.288215 0.626 
-0.466181 -0.30525 0.663 
-0.467449 -0.32781 0.712 
-0.463538 -0.34991 0.76 
-0.593253 -0.487572 1.059 
-0.54492 -0.488492 1.061 
-0.500136 -0.493097 1.071 
-0.448956 -0.491715 1.068 
-0.394911 -0.488492 1.061 
-0.34676 -0.490334 1.065 
-0.294888 -0.486651 1.057 
-0.240741 -0.476982 1.036 
-0.193753 -0.480205 1.043 
-0.146252 -0.483888 1.051 
-0.095506 -0.475141 1.032 
-0.0212567 -0.404698 0.879 
0.0223685 -0.403317 0.876 
