# .PCD v.7 - Point Cloud Data file format
VERSION .7
FIELDS x y z
SIZE 4 4 4
TYPE F F F
COUNT 1 1 1
WIDTH 1817
HEIGHT 1
VIEWPOINT 0 0 0 1 0 0 0
POINTS 1817
DATA ascii
0.61486 -0.199969 1.192 
0.665161 -0.200808 1.197 
0.714074 -0.201144 1.199 
0.765053 -0.201982 1.204 
0.811028 -0.201479 1.201 
0.85891 -0.201479 1.201 
0.911321 -0.202486 1.207 
0.959442 -0.202486 1.207 
1.01007 -0.202989 1.21 
1.05831 -0.202989 1.21 
1.10929 -0.203492 1.213 
1.1586 -0.20366 1.214 
1.20899 -0.203995 1.216 
-0.633238 -0.150362 0.909 
-0.619328 -0.155986 0.943 
-0.413205 -0.154166 0.932 
-0.421457 -0.183444 1.109 
-0.378944 -0.184271 1.114 
-0.342339 -0.188572 1.14 
-0.297671 -0.189068 1.143 
-0.252984 -0.18973 1.147 
-0.207978 -0.190392 1.151 
-0.162513 -0.190888 1.154 
-0.116505 -0.190888 1.154 
-0.0709254 -0.192046 1.161 
-0.0247448 -0.192873 1.166 
0.0217785 -0.193204 1.168 
0.0685197 -0.1937 1.171 
0.1155 -0.194196 1.174 
0.162305 -0.194196 1.174 
0.209823 -0.194858 1.178 
0.257441 -0.195354 1.181 
0.304783 -0.19552 1.182 
0.352204 -0.195685 1.183 
0.400043 -0.196016 1.185 
0.448419 -0.196512 1.188 
0.494948 -0.196181 1.186 
0.543145 -0.196512 1.188 
0.592497 -0.197174 1.192 
0.642167 -0.197835 1.196 
0.690426 -0.198001 1.197 
0.740614 -0.198663 1.201 
0.790465 -0.199159 1.204 
0.838466 -0.199159 1.204 
0.887204 -0.199324 1.205 
0.937573 -0.19982 1.208 
0.986549 -0.199986 1.209 
1.03389 -0.19982 1.208 
1.08474 -0.200317 1.211 
1.13583 -0.200813 1.214 
1.18423 -0.200813 1.214 
-0.642239 -0.144968 0.889 
-0.631369 -0.150839 0.925 
-0.430475 -0.148882 0.913 
-0.402708 -0.152143 0.933 
-0.405852 -0.180844 1.109 
-0.370769 -0.18541 1.137 
-0.327157 -0.186388 1.143 
-0.281834 -0.186551 1.144 
-0.23829 -0.188182 1.154 
-0.191949 -0.187856 1.152 
-0.146402 -0.188345 1.155 
-0.100615 -0.188834 1.158 
-0.0545889 -0.189323 1.161 
-0.00834517 -0.190302 1.167 
0.0382461 -0.190628 1.169 
0.0851421 -0.19128 1.173 
0.131907 -0.19128 1.173 
0.179129 -0.191769 1.176 
0.226206 -0.191932 1.177 
0.274059 -0.192585 1.181 
0.322231 -0.193237 1.185 
0.369474 -0.193237 1.185 
0.416718 -0.193237 1.185 
0.465136 -0.193726 1.188 
0.512499 -0.193726 1.188 
0.558448 -0.193237 1.185 
0.608758 -0.194215 1.191 
0.658996 -0.195031 1.196 
0.707269 -0.195194 1.197 
0.758144 -0.196009 1.202 
0.805395 -0.195846 1.201 
0.852566 -0.195683 1.2 
0.90491 -0.196661 1.206 
0.954571 -0.196987 1.208 
1.00439 -0.197314 1.21 
1.05176 -0.197151 1.209 
1.10178 -0.197477 1.211 
1.15196 -0.197803 1.213 
1.2023 -0.198129 1.215 
-0.63893 -0.145937 0.908 
-0.621316 -0.150438 0.936 
-0.429741 -0.147223 0.916 
-0.400949 -0.150116 0.934 
-0.403251 -0.178243 1.109 
-0.368427 -0.182904 1.138 
-0.324476 -0.183707 1.143 
-0.279151 -0.183868 1.144 
-0.235584 -0.185475 1.154 
-0.189248 -0.185154 1.152 
-0.143942 -0.185958 1.157 
-0.0978992 -0.186118 1.158 
-0.0518662 -0.1866 1.161 
-0.00560354 -0.187404 1.166 
0.0409876 -0.187886 1.169 
0.087893 -0.188529 1.173 
0.134658 -0.188529 1.173 
0.181887 -0.189011 1.176 
0.228772 -0.189011 1.176 
0.277063 -0.189976 1.182 
0.324461 -0.190136 1.183 
0.372253 -0.190458 1.185 
0.419851 -0.190619 1.186 
0.467922 -0.19094 1.188 
0.515285 -0.19094 1.188 
0.561227 -0.190458 1.185 
0.612065 -0.191583 1.192 
0.661801 -0.192226 1.196 
0.711262 -0.192708 1.199 
0.760963 -0.19319 1.202 
0.808212 -0.193029 1.201 
0.85538 -0.192869 1.2 
0.907738 -0.193833 1.206 
0.957404 -0.194154 1.208 
1.00723 -0.194476 1.21 
1.05547 -0.194476 1.21 
1.10462 -0.194637 1.211 
1.15481 -0.194958 1.213 
1.20416 -0.195119 1.214 
-0.637502 -0.143966 0.909 
-0.623751 -0.149351 0.943 
-0.632935 -0.162497 1.026 
-0.421564 -0.148243 0.936 
-0.426352 -0.176592 1.115 
-0.381557 -0.176434 1.114 
-0.345013 -0.180552 1.14 
-0.300877 -0.181344 1.145 
-0.255451 -0.181502 1.146 
-0.210678 -0.182294 1.151 
-0.165219 -0.182769 1.154 
-0.119212 -0.182769 1.154 
-0.0736481 -0.183878 1.161 
-0.0274793 -0.18467 1.166 
0.019023 -0.184828 1.167 
0.0657174 -0.185303 1.17 
0.112747 -0.185937 1.174 
0.159552 -0.185937 1.174 
0.20706 -0.18657 1.178 
0.25424 -0.186729 1.179 
0.302011 -0.187204 1.182 
0.34943 -0.187362 1.183 
0.397264 -0.187679 1.185 
0.445633 -0.188154 1.188 
0.492166 -0.187837 1.186 
0.540814 -0.188312 1.189 
0.589207 -0.188629 1.191 
0.639897 -0.189579 1.197 
0.687044 -0.189421 1.196 
0.737798 -0.190213 1.201 
0.786333 -0.190371 1.202 
0.835643 -0.190688 1.204 
0.884378 -0.190846 1.205 
0.93474 -0.191322 1.208 
0.983714 -0.19148 1.209 
1.03106 -0.191322 1.208 
1.0819 -0.191797 1.211 
1.13298 -0.192272 1.214 
1.18041 -0.192113 1.213 
-0.641594 -0.139026 0.891 
-0.6326 -0.145111 0.93 
-0.6269 -0.152757 0.979 
-0.435459 -0.143395 0.919 
-0.410972 -0.147764 0.947 
-0.401734 -0.173509 1.112 
-0.365758 -0.177566 1.138 
-0.322077 -0.178502 1.144 
-0.276468 -0.178502 1.144 
-0.232474 -0.179751 1.152 
-0.186546 -0.179751 1.152 
-0.141228 -0.180531 1.157 
-0.0954301 -0.181155 1.161 
-0.0491434 -0.181155 1.161 
-0.00287154 -0.182091 1.167 
0.0436917 -0.182247 1.168 
0.0906439 -0.183027 1.173 
0.137526 -0.183183 1.174 
0.184645 -0.183495 1.176 
0.23153 -0.183495 1.176 
0.279598 -0.184276 1.181 
0.326959 -0.184432 1.182 
0.375032 -0.1849 1.185 
0.422632 -0.185056 1.186 
0.469915 -0.185056 1.186 
0.518071 -0.185368 1.188 
0.564482 -0.185056 1.186 
0.615892 -0.186304 1.194 
0.664606 -0.186616 1.196 
0.71467 -0.18724 1.2 
0.763782 -0.187552 1.202 
0.811704 -0.187552 1.202 
0.85891 -0.187396 1.201 
0.910566 -0.188176 1.206 
0.960237 -0.188489 1.208 
1.0109 -0.188957 1.211 
1.05831 -0.188801 1.21 
1.10746 -0.188957 1.211 
1.15574 -0.188957 1.211 
1.208 -0.189581 1.215 
-0.636768 -0.14001 0.911 
-0.627472 -0.146311 0.952 
-0.634722 -0.157531 1.025 
-0.430554 -0.142469 0.927 
-0.40039 -0.144928 0.943 
-0.394619 -0.171209 1.114 
-0.358066 -0.175051 1.139 
-0.314029 -0.17582 1.144 
-0.268185 -0.175666 1.143 
-0.224369 -0.177049 1.152 
-0.178441 -0.177049 1.152 
-0.132858 -0.17751 1.155 
-0.087337 -0.178586 1.162 
-0.0410105 -0.178586 1.162 
0.00533434 -0.179201 1.166 
0.0519537 -0.179662 1.169 
0.0988965 -0.180276 1.173 
0.145786 -0.18043 1.174 
0.193083 -0.180891 1.177 
0.239803 -0.180738 1.176 
0.287907 -0.181506 1.181 
0.335275 -0.18166 1.182 
0.382722 -0.181813 1.183 
0.431703 -0.182582 1.188 
0.478259 -0.182274 1.186 
0.526872 -0.182735 1.189 
0.573792 -0.182582 1.188 
0.624292 -0.183504 1.194 
0.67302 -0.183811 1.196 
0.723113 -0.184426 1.2 
0.772239 -0.184733 1.202 
0.82016 -0.184733 1.202 
0.867359 -0.18458 1.201 
0.919051 -0.185348 1.206 
0.968736 -0.185656 1.208 
1.01858 -0.185963 1.21 
1.06682 -0.185963 1.21 
1.11782 -0.186424 1.213 
1.16426 -0.186117 1.211 
-0.650578 -0.134544 0.889 
-0.636586 -0.139236 0.92 
-0.628599 -0.145895 0.964 
-0.63302 -0.156489 1.034 
-0.431018 -0.140446 0.928 
-0.446126 -0.171321 1.132 
-0.395328 -0.168899 1.116 
-0.358066 -0.17238 1.139 
-0.313754 -0.172985 1.143 
-0.268185 -0.172985 1.143 
-0.224174 -0.174196 1.151 
-0.178441 -0.174347 1.152 
-0.132858 -0.174801 1.155 
-0.087337 -0.175861 1.162 
-0.0411164 -0.176315 1.165 
0.00533434 -0.176466 1.166 
0.0519981 -0.177072 1.17 
0.0988965 -0.177526 1.173 
0.14591 -0.177828 1.175 
0.193083 -0.178131 1.177 
0.239803 -0.17798 1.176 
0.287907 -0.178736 1.181 
0.335275 -0.178888 1.182 
0.382722 -0.179039 1.183 
0.431703 -0.179796 1.188 
0.479066 -0.179796 1.188 
0.526872 -0.179947 1.189 
0.572826 -0.179493 1.186 
0.624292 -0.180704 1.194 
0.671895 -0.180704 1.194 
0.723113 -0.181612 1.2 
0.772239 -0.181915 1.202 
0.82016 -0.181915 1.202 
0.867359 -0.181763 1.201 
0.919051 -0.18252 1.206 
0.968736 -0.182823 1.208 
1.01858 -0.183125 1.21 
1.06682 -0.183125 1.21 
1.11782 -0.183579 1.213 
1.16426 -0.183277 1.211 
-0.650578 -0.132459 0.889 
-0.636586 -0.137078 0.92 
-0.631859 -0.144379 0.969 
-0.634857 -0.154511 1.037 
-0.609393 -0.166133 1.115 
-0.424297 -0.141101 0.947 
-0.418507 -0.166133 1.115 
-0.379758 -0.168666 1.132 
-0.336992 -0.169858 1.14 
-0.292566 -0.170454 1.144 
-0.24782 -0.17105 1.148 
-0.202756 -0.171646 1.152 
-0.157509 -0.172391 1.157 
-0.111381 -0.172391 1.157 
-0.0654799 -0.172987 1.161 
-0.0192759 -0.173732 1.166 
0.0272334 -0.173881 1.167 
0.0740121 -0.174477 1.171 
0.121007 -0.174924 1.174 
0.167955 -0.175073 1.175 
0.214982 -0.175222 1.176 
0.262535 -0.175669 1.179 
0.310064 -0.175967 1.181 
0.358358 -0.176563 1.185 
0.405601 -0.176563 1.185 
0.453227 -0.176712 1.186 
0.501776 -0.177159 1.189 
0.549179 -0.177159 1.189 
0.598088 -0.177606 1.192 
0.647777 -0.178202 1.196 
0.69604 -0.178351 1.197 
0.746248 -0.178947 1.201 
0.796113 -0.179394 1.204 
0.844114 -0.179394 1.204 
0.892115 -0.179394 1.204 
0.943239 -0.17999 1.208 
0.993861 -0.180437 1.211 
1.04042 -0.180139 1.209 
1.08952 -0.180288 1.21 
1.1387 -0.180437 1.211 
1.18894 -0.180735 1.213 
-0.643169 -0.132281 0.902 
-0.631443 -0.13756 0.938 
-0.633945 -0.1468 1.001 
-0.632611 -0.156332 1.066 
-0.617237 -0.163518 1.115 
-0.439724 -0.136094 0.928 
-0.41401 -0.139907 0.954 
-0.405347 -0.164545 1.122 
-0.365758 -0.166891 1.138 
-0.321796 -0.167624 1.143 
-0.276227 -0.167624 1.143 
-0.232272 -0.168797 1.151 
-0.18687 -0.169237 1.154 
-0.140984 -0.169384 1.155 
-0.0954301 -0.170264 1.161 
-0.0491858 -0.170411 1.162 
-0.00286907 -0.170997 1.166 
0.0436917 -0.171291 1.168 
0.0905666 -0.171877 1.172 
0.137643 -0.172317 1.175 
0.184645 -0.172464 1.176 
0.23153 -0.172464 1.176 
0.279835 -0.173344 1.182 
0.326682 -0.173197 1.181 
0.374399 -0.17349 1.183 
0.422632 -0.17393 1.186 
0.469915 -0.17393 1.186 
0.518507 -0.17437 1.189 
0.564006 -0.173784 1.185 
0.615892 -0.175104 1.194 
0.663494 -0.175104 1.194 
0.71467 -0.175983 1.2 
0.763782 -0.176277 1.202 
0.813054 -0.17657 1.204 
0.85891 -0.17613 1.201 
0.909811 -0.176717 1.205 
0.960237 -0.177157 1.208 
1.01007 -0.17745 1.21 
1.05831 -0.17745 1.21 
1.10746 -0.177597 1.211 
1.15574 -0.177597 1.211 
1.208 -0.178183 1.215 
-0.636025 -0.131753 0.913 
-0.636404 -0.139834 0.969 
-0.63787 -0.149214 1.034 
-0.637616 -0.15946 1.105 
-0.598396 -0.160759 1.114 
-0.433662 -0.134062 0.929 
-0.461238 -0.163068 1.13 
-0.413241 -0.161913 1.122 
-0.373764 -0.164222 1.138 
-0.329549 -0.164799 1.142 
-0.284517 -0.165088 1.144 
-0.24037 -0.166098 1.151 
-0.194989 -0.166531 1.154 
-0.149369 -0.166964 1.157 
-0.10342 -0.167253 1.159 
-0.057361 -0.167686 1.162 
-0.0110725 -0.168263 1.166 
0.0354439 -0.168407 1.167 
0.082321 -0.169129 1.172 
0.129266 -0.169417 1.174 
0.176221 -0.169562 1.175 
0.223256 -0.169706 1.176 
0.271289 -0.170427 1.181 
0.318373 -0.170427 1.181 
0.366695 -0.171005 1.185 
0.414288 -0.171149 1.186 
0.461182 -0.171005 1.185 
0.511 -0.17187 1.191 
0.556138 -0.171149 1.186 
0.607491 -0.172303 1.194 
0.655094 -0.172303 1.194 
0.705639 -0.173025 1.199 
0.754697 -0.173314 1.201 
0.805252 -0.173891 1.205 
0.851168 -0.173458 1.202 
0.900585 -0.173746 1.204 
0.951738 -0.174324 1.208 
1.00238 -0.174757 1.211 
1.04979 -0.174612 1.21 
1.09894 -0.174757 1.211 
1.14722 -0.174757 1.211 
1.19846 -0.17519 1.214 
-0.636025 -0.129612 0.913 
-0.638374 -0.137988 0.972 
-0.63787 -0.146789 1.034 
-0.638193 -0.157011 1.106 
-0.598933 -0.158288 1.115 
-0.547773 -0.157862 1.112 
-0.459605 -0.15985 1.126 
-0.414346 -0.159708 1.125 
-0.373764 -0.161553 1.138 
-0.329549 -0.162121 1.142 
-0.284517 -0.162405 1.144 
-0.24037 -0.163399 1.151 
-0.194989 -0.163825 1.154 
-0.149369 -0.164251 1.157 
-0.10342 -0.164535 1.159 
-0.057361 -0.16496 1.162 
-0.0110725 -0.165528 1.166 
0.0354439 -0.16567 1.167 
0.0823912 -0.166522 1.173 
0.129266 -0.166664 1.174 
0.176221 -0.166806 1.175 
0.223256 -0.166948 1.176 
0.271289 -0.167658 1.181 
0.318373 -0.167658 1.181 
0.366076 -0.167942 1.183 
0.414288 -0.168368 1.186 
0.461571 -0.168368 1.186 
0.511 -0.169077 1.191 
0.556138 -0.168368 1.186 
0.606474 -0.169219 1.192 
0.655094 -0.169503 1.194 
0.705639 -0.170213 1.199 
0.754697 -0.170497 1.201 
0.805252 -0.171065 1.205 
0.85046 -0.170497 1.201 
0.901333 -0.171065 1.205 
0.952526 -0.171633 1.209 
1.00238 -0.171917 1.211 
1.04979 -0.171775 1.21 
1.09894 -0.171917 1.211 
1.14722 -0.171917 1.211 
1.19846 -0.172343 1.214 
-0.635328 -0.127331 0.912 
-0.639688 -0.135987 0.974 
-0.639104 -0.144644 1.036 
-0.63877 -0.154556 1.107 
-0.598933 -0.155673 1.115 
-0.553983 -0.155534 1.114 
-0.472389 -0.15707 1.125 
-0.425637 -0.156371 1.12 
-0.386428 -0.158605 1.136 
-0.342339 -0.159164 1.14 
-0.297671 -0.159583 1.143 
-0.252102 -0.159583 1.143 
-0.207617 -0.16042 1.149 
-0.162654 -0.161258 1.155 
-0.116808 -0.161537 1.157 
-0.0711697 -0.162654 1.165 
-0.0247448 -0.162794 1.166 
0.0217598 -0.162933 1.167 
0.0685782 -0.163632 1.172 
0.115402 -0.163771 1.173 
0.162582 -0.16419 1.176 
0.209644 -0.16433 1.177 
0.257005 -0.164609 1.179 
0.304525 -0.164888 1.181 
0.352204 -0.165167 1.183 
0.400043 -0.165447 1.185 
0.448419 -0.165865 1.188 
0.497452 -0.166424 1.192 
0.544517 -0.166284 1.191 
0.591006 -0.166005 1.189 
0.641093 -0.166703 1.194 
0.689849 -0.166982 1.196 
0.740614 -0.16768 1.201 
0.791122 -0.168239 1.205 
0.838466 -0.168099 1.204 
0.886467 -0.168099 1.204 
0.937573 -0.168658 1.208 
0.988181 -0.169077 1.211 
1.03561 -0.168937 1.21 
1.08474 -0.169077 1.211 
1.13302 -0.169077 1.211 
1.18325 -0.169356 1.213 
-0.646021 -0.124369 0.906 
-0.637501 -0.129997 0.947 
-0.636478 -0.137959 1.005 
-0.637952 -0.147568 1.075 
-0.617791 -0.153196 1.116 
-0.572271 -0.152921 1.114 
-0.527384 -0.152784 1.113 
-0.451282 -0.154431 1.125 
-0.410044 -0.155804 1.135 
-0.365758 -0.156216 1.138 
-0.321514 -0.156765 1.142 
-0.275985 -0.156765 1.142 
-0.232272 -0.158 1.151 
-0.18687 -0.158412 1.154 
-0.140984 -0.158549 1.155 
-0.0955123 -0.15951 1.162 
-0.0493127 -0.159922 1.165 
-0.00287154 -0.160197 1.167 
0.0436917 -0.160334 1.168 
0.0906439 -0.16102 1.173 
0.137643 -0.161295 1.175 
0.184645 -0.161432 1.176 
0.23153 -0.161432 1.176 
0.279835 -0.162256 1.182 
0.326682 -0.162118 1.181 
0.374399 -0.162393 1.183 
0.423345 -0.163079 1.188 
0.469915 -0.162805 1.186 
0.519379 -0.163491 1.191 
0.564482 -0.162805 1.186 
0.615892 -0.163903 1.194 
0.663494 -0.163903 1.194 
0.71467 -0.164727 1.2 
0.763782 -0.165001 1.202 
0.813729 -0.165413 1.205 
0.85891 -0.164864 1.201 
0.910566 -0.16555 1.206 
0.961826 -0.166099 1.21 
1.01007 -0.166099 1.21 
1.05918 -0.166237 1.211 
1.10929 -0.166511 1.213 
1.15574 -0.166237 1.211 
1.208 -0.166786 1.215 
-0.633049 -0.123863 0.918 
-0.638683 -0.132633 0.983 
-0.639743 -0.141538 1.049 
-0.631791 -0.150174 1.113 
-0.587946 -0.150309 1.114 
-0.544509 -0.150579 1.116 
-0.476392 -0.151388 1.122 
-0.43166 -0.151388 1.122 
-0.392101 -0.153412 1.137 
-0.347686 -0.153817 1.14 
-0.303032 -0.154222 1.143 
-0.257238 -0.154087 1.142 
-0.213006 -0.155031 1.149 
-0.168071 -0.155841 1.155 
-0.122235 -0.156111 1.157 
-0.076634 -0.15719 1.165 
-0.0302138 -0.157325 1.166 
0.0162862 -0.15746 1.167 
0.0630273 -0.158 1.171 
0.1099 -0.158269 1.173 
0.157066 -0.158674 1.176 
0.204471 -0.159079 1.179 
0.251262 -0.158944 1.178 
0.298986 -0.159349 1.181 
0.346656 -0.159619 1.183 
0.394485 -0.159889 1.185 
0.44322 -0.160428 1.189 
0.491448 -0.160698 1.191 
0.538026 -0.160428 1.189 
0.584936 -0.160293 1.188 
0.635493 -0.161103 1.194 
0.683095 -0.161103 1.194 
0.734981 -0.162047 1.201 
0.78547 -0.162587 1.205 
0.832819 -0.162452 1.204 
0.88082 -0.162452 1.204 
0.931907 -0.162992 1.208 
0.98169 -0.163262 1.21 
1.02993 -0.163262 1.21 
1.07906 -0.163397 1.211 
1.12734 -0.163397 1.211 
1.17756 -0.163666 1.213 
-0.647447 -0.120384 0.908 
-0.638848 -0.12582 0.949 
-0.639012 -0.133775 1.009 
-0.639733 -0.142923 1.078 
-0.618344 -0.148094 1.117 
-0.573298 -0.147961 1.116 
-0.528332 -0.147829 1.115 
-0.471549 -0.148889 1.123 
-0.428298 -0.14942 1.127 
-0.386768 -0.150746 1.137 
-0.342339 -0.151143 1.14 
-0.297671 -0.151541 1.143 
-0.252322 -0.151674 1.144 
-0.207978 -0.152602 1.151 
-0.162654 -0.153132 1.155 
-0.116909 -0.15353 1.158 
-0.0711697 -0.154458 1.165 
-0.0247448 -0.15459 1.166 
0.0217598 -0.154723 1.167 
0.0685782 -0.155386 1.172 
0.1155 -0.155651 1.174 
0.16272 -0.156049 1.177 
0.209823 -0.156181 1.178 
0.257005 -0.156314 1.179 
0.304525 -0.156579 1.181 
0.352204 -0.156844 1.183 
0.400381 -0.157242 1.186 
0.448797 -0.15764 1.189 
0.497452 -0.158038 1.192 
0.544517 -0.157905 1.191 
0.591006 -0.15764 1.189 
0.641093 -0.158303 1.194 
0.689849 -0.158568 1.196 
0.739998 -0.159098 1.2 
0.791122 -0.159761 1.205 
0.839163 -0.159761 1.205 
0.886467 -0.159629 1.204 
0.938349 -0.160291 1.209 
0.987365 -0.160424 1.21 
1.03561 -0.160424 1.21 
1.08474 -0.160557 1.211 
1.13302 -0.160557 1.211 
1.18325 -0.160822 1.213 
-0.640337 -0.118515 0.91 
-0.642558 -0.126069 0.968 
-0.63953 -0.133493 1.025 
-0.643054 -0.143391 1.101 
-0.607866 -0.145474 1.117 
-0.563334 -0.145474 1.117 
-0.517872 -0.145214 1.115 
-0.475543 -0.145865 1.12 
-0.433199 -0.146646 1.126 
-0.392101 -0.148079 1.137 
-0.347686 -0.14847 1.14 
-0.303032 -0.148861 1.143 
-0.257238 -0.14873 1.142 
-0.213006 -0.149642 1.149 
-0.168071 -0.150423 1.155 
-0.122235 -0.150684 1.157 
-0.076634 -0.151726 1.165 
-0.0301879 -0.151726 1.165 
0.0162862 -0.151986 1.167 
0.0630273 -0.152507 1.171 
0.1099 -0.152768 1.173 
0.157333 -0.153419 1.178 
0.204471 -0.153549 1.179 
0.251475 -0.153549 1.179 
0.299239 -0.15394 1.182 
0.346656 -0.15407 1.183 
0.394818 -0.154461 1.186 
0.44322 -0.154851 1.189 
0.491448 -0.155112 1.191 
0.538026 -0.154851 1.189 
0.585429 -0.154851 1.189 
0.635493 -0.155503 1.194 
0.683095 -0.155503 1.194 
0.734369 -0.156284 1.2 
0.78547 -0.156935 1.205 
0.833511 -0.156935 1.205 
0.88082 -0.156805 1.204 
0.931907 -0.157326 1.208 
0.98169 -0.157586 1.21 
1.02993 -0.157586 1.21 
1.07906 -0.157717 1.211 
1.12734 -0.157717 1.211 
1.17756 -0.157977 1.213 
-0.643177 -0.116509 0.911 
-0.640831 -0.123032 0.962 
-0.641307 -0.130961 1.024 
-0.64329 -0.140297 1.097 
-0.610486 -0.142855 1.117 
-0.567473 -0.143238 1.12 
-0.521421 -0.142855 1.117 
-0.477742 -0.143111 1.119 
-0.436227 -0.144134 1.127 
-0.395115 -0.145541 1.138 
-0.350052 -0.145668 1.139 
-0.305713 -0.14618 1.143 
-0.259916 -0.146052 1.142 
-0.215701 -0.146947 1.149 
-0.170632 -0.147587 1.154 
-0.124948 -0.14797 1.157 
-0.0791617 -0.14861 1.162 
-0.0328352 -0.14861 1.162 
0.0135494 -0.149249 1.167 
0.0602811 -0.149761 1.171 
0.107149 -0.150017 1.173 
0.15457 -0.150656 1.178 
0.201706 -0.150784 1.179 
0.24871 -0.150784 1.179 
0.296467 -0.151168 1.182 
0.343591 -0.151168 1.182 
0.392037 -0.151679 1.186 
0.440431 -0.152063 1.189 
0.488655 -0.152319 1.191 
0.535237 -0.152063 1.189 
0.58362 -0.152319 1.191 
0.632693 -0.152702 1.194 
0.679156 -0.152447 1.192 
0.731555 -0.15347 1.2 
0.781995 -0.153981 1.204 
0.830685 -0.154109 1.205 
0.876538 -0.153726 1.202 
0.928305 -0.154365 1.207 
0.978852 -0.154749 1.21 
1.02624 -0.154621 1.209 
1.07622 -0.154877 1.211 
1.12636 -0.155132 1.213 
1.17472 -0.155132 1.213 
-0.646029 -0.114122 0.909 
-0.639976 -0.119771 0.954 
-0.641062 -0.127555 1.016 
-0.641933 -0.136343 1.086 
-0.615725 -0.140235 1.117 
-0.572726 -0.140612 1.12 
-0.529017 -0.140863 1.122 
-0.482128 -0.140235 1.117 
-0.442296 -0.141742 1.129 
-0.400452 -0.142872 1.138 
-0.355707 -0.143123 1.14 
-0.310802 -0.143374 1.142 
-0.265272 -0.143374 1.142 
-0.220898 -0.144127 1.148 
-0.176045 -0.14488 1.154 
-0.130375 -0.145257 1.157 
-0.0846119 -0.145885 1.162 
-0.0382525 -0.145759 1.161 
0.00807573 -0.146513 1.167 
0.054742 -0.146889 1.17 
0.101561 -0.14714 1.172 
0.148792 -0.147642 1.176 
0.19601 -0.147894 1.178 
0.242974 -0.147894 1.178 
0.290923 -0.148396 1.182 
0.338047 -0.148396 1.182 
0.386474 -0.148898 1.186 
0.433757 -0.148898 1.186 
0.483474 -0.149651 1.192 
0.529661 -0.149275 1.189 
0.578034 -0.149526 1.191 
0.628143 -0.150153 1.196 
0.674695 -0.149902 1.194 
0.725322 -0.15053 1.199 
0.776348 -0.151158 1.204 
0.825033 -0.151283 1.205 
0.870176 -0.150781 1.201 
0.922644 -0.151534 1.207 
0.973981 -0.152037 1.211 
1.02142 -0.151911 1.21 
1.06966 -0.151911 1.21 
1.12067 -0.152288 1.213 
1.16903 -0.152288 1.213 
-0.649577 -0.111867 0.908 
-0.641073 -0.116918 0.949 
-0.639471 -0.12394 1.006 
-0.642856 -0.132934 1.079 
-0.619852 -0.137369 1.115 
-0.57798 -0.137985 1.12 
-0.535709 -0.138601 1.125 
-0.488676 -0.137985 1.12 
-0.447988 -0.139217 1.13 
-0.405433 -0.14008 1.137 
-0.360737 -0.140326 1.139 
-0.316158 -0.140696 1.142 
-0.270866 -0.140819 1.143 
-0.226282 -0.141435 1.148 
-0.181457 -0.142174 1.154 
-0.135802 -0.142544 1.157 
-0.0900621 -0.14316 1.162 
-0.0436227 -0.14279 1.159 
0.0026021 -0.143776 1.167 
0.0492122 -0.144022 1.169 
0.0960637 -0.144392 1.172 
0.143276 -0.144885 1.176 
0.190323 -0.145008 1.177 
0.237449 -0.145131 1.178 
0.285379 -0.145624 1.182 
0.332503 -0.145624 1.182 
0.380911 -0.146117 1.186 
0.427834 -0.145993 1.185 
0.477483 -0.146733 1.191 
0.524084 -0.146486 1.189 
0.57389 -0.147102 1.194 
0.621492 -0.147102 1.194 
0.670215 -0.147349 1.196 
0.719698 -0.147718 1.199 
0.7707 -0.148334 1.204 
0.819381 -0.148457 1.205 
0.864543 -0.147965 1.201 
0.916223 -0.148581 1.206 
0.968301 -0.149197 1.211 
1.01574 -0.149073 1.21 
1.06398 -0.149073 1.21 
1.11498 -0.149443 1.213 
1.16142 -0.149197 1.211 
-0.657247 -0.108891 0.901 
-0.641324 -0.112396 0.93 
-0.64518 -0.12001 0.993 
-0.640963 -0.12702 1.051 
-0.633831 -0.134392 1.112 
-0.593209 -0.135238 1.119 
-0.552029 -0.136084 1.126 
-0.505336 -0.1356 1.122 
-0.463888 -0.136567 1.13 
-0.421061 -0.137292 1.136 
-0.376433 -0.137534 1.138 
-0.332227 -0.138018 1.142 
-0.2872 -0.138259 1.144 
-0.242647 -0.138864 1.149 
-0.197867 -0.139589 1.155 
-0.152082 -0.13983 1.157 
-0.106138 -0.140072 1.159 
-0.0600861 -0.140435 1.162 
-0.013807 -0.140918 1.166 
0.0327351 -0.14116 1.168 
0.0795045 -0.141522 1.171 
0.126621 -0.142006 1.175 
0.173761 -0.142247 1.177 
0.220498 -0.142127 1.176 
0.268747 -0.142852 1.182 
0.315069 -0.142489 1.179 
0.363916 -0.143214 1.185 
0.411506 -0.143335 1.186 
0.45995 -0.143698 1.189 
0.508207 -0.143939 1.191 
0.556156 -0.14406 1.192 
0.603679 -0.14406 1.192 
0.653386 -0.144544 1.196 
0.701068 -0.144544 1.196 
0.752507 -0.145269 1.202 
0.802426 -0.145631 1.205 
0.850467 -0.145631 1.205 
0.898507 -0.145631 1.205 
0.951261 -0.146357 1.211 
0.997891 -0.146115 1.209 
1.04696 -0.146236 1.21 
1.0961 -0.146357 1.211 
1.14344 -0.146236 1.21 
1.19562 -0.146719 1.214 
-0.644559 -0.108556 0.916 
-0.645213 -0.115193 0.972 
-0.640153 -0.121592 1.026 
-0.645974 -0.131073 1.106 
-0.608955 -0.132614 1.119 
-0.56636 -0.133088 1.123 
-0.521588 -0.133088 1.123 
-0.47809 -0.133443 1.126 
-0.436277 -0.134391 1.134 
-0.392101 -0.134747 1.137 
-0.347686 -0.135102 1.14 
-0.303032 -0.135458 1.143 
-0.257688 -0.135576 1.144 
-0.213377 -0.136406 1.151 
-0.168071 -0.13688 1.155 
-0.122341 -0.137236 1.158 
-0.076634 -0.138065 1.165 
-0.0301101 -0.13771 1.162 
0.0163001 -0.138421 1.168 
0.0630273 -0.138776 1.171 
0.1099 -0.139013 1.173 
0.157199 -0.139487 1.177 
0.204297 -0.139606 1.178 
0.251902 -0.139961 1.181 
0.299239 -0.14008 1.182 
0.346363 -0.14008 1.182 
0.394818 -0.140554 1.186 
0.44322 -0.140909 1.189 
0.491861 -0.141265 1.192 
0.538026 -0.140909 1.189 
0.586906 -0.141265 1.192 
0.636557 -0.141739 1.196 
0.681951 -0.141265 1.192 
0.734369 -0.142213 1.2 
0.784818 -0.142687 1.204 
0.834203 -0.142924 1.206 
0.879357 -0.14245 1.202 
0.931907 -0.143161 1.208 
0.98169 -0.143398 1.21 
1.02908 -0.14328 1.209 
1.07817 -0.143398 1.21 
1.12734 -0.143517 1.211 
1.17853 -0.143872 1.214 
-0.650292 -0.105595 0.909 
-0.6431 -0.11059 0.952 
-0.642014 -0.117327 1.01 
-0.644644 -0.125691 1.082 
-0.619852 -0.129525 1.115 
-0.57798 -0.130106 1.12 
-0.536661 -0.130919 1.127 
-0.491293 -0.130803 1.126 
-0.449574 -0.131732 1.134 
-0.405433 -0.13208 1.137 
-0.360737 -0.132313 1.139 
-0.316158 -0.132661 1.142 
-0.270866 -0.132777 1.143 
-0.226282 -0.133358 1.148 
-0.181614 -0.134171 1.155 
-0.135802 -0.134404 1.157 
-0.0900621 -0.134984 1.162 
-0.0436979 -0.134868 1.161 
0.0026021 -0.135565 1.167 
0.0492543 -0.135914 1.17 
0.0959817 -0.13603 1.171 
0.143154 -0.136495 1.175 
0.190484 -0.136843 1.178 
0.23765 -0.136959 1.179 
0.28562 -0.137424 1.183 
0.332784 -0.137424 1.183 
0.380911 -0.137772 1.186 
0.427834 -0.137656 1.185 
0.477483 -0.138353 1.191 
0.524965 -0.138353 1.191 
0.572929 -0.138469 1.192 
0.622533 -0.138934 1.196 
0.670215 -0.138934 1.196 
0.718498 -0.13905 1.197 
0.77134 -0.13998 1.205 
0.820061 -0.140096 1.206 
0.864543 -0.139515 1.201 
0.916223 -0.140096 1.206 
0.968301 -0.140677 1.211 
1.0149 -0.140444 1.209 
1.06398 -0.14056 1.21 
1.11498 -0.140909 1.213 
1.16334 -0.140909 1.213 
-0.655195 -0.102894 0.904 
-0.645181 -0.107219 0.942 
-0.644393 -0.113707 0.999 
-0.645111 -0.121333 1.066 
-0.629746 -0.126796 1.114 
-0.587961 -0.127365 1.119 
-0.547233 -0.128276 1.127 
-0.502302 -0.128276 1.127 
-0.460211 -0.129072 1.134 
-0.415367 -0.129186 1.135 
-0.371421 -0.129642 1.139 
-0.326871 -0.129983 1.142 
-0.281834 -0.130211 1.144 
-0.237051 -0.130666 1.148 
-0.192782 -0.13169 1.157 
-0.146782 -0.131804 1.158 
-0.100876 -0.132146 1.161 
-0.0545889 -0.132146 1.161 
-0.00833802 -0.132715 1.166 
0.0382134 -0.132942 1.168 
0.0849969 -0.133284 1.171 
0.132132 -0.133739 1.175 
0.179282 -0.133967 1.177 
0.226398 -0.134081 1.178 
0.274291 -0.134536 1.182 
0.321415 -0.134536 1.182 
0.369474 -0.134877 1.185 
0.416718 -0.134877 1.185 
0.465527 -0.135333 1.189 
0.513793 -0.13556 1.191 
0.560333 -0.135333 1.189 
0.610292 -0.135902 1.194 
0.658996 -0.136129 1.196 
0.706678 -0.136129 1.196 
0.759406 -0.13704 1.204 
0.808078 -0.137154 1.205 
0.855408 -0.13704 1.204 
0.904159 -0.137154 1.205 
0.956941 -0.137837 1.211 
1.00273 -0.137495 1.208 
1.05263 -0.137723 1.21 
1.1036 -0.138064 1.213 
1.15006 -0.137837 1.211 
1.20329 -0.138406 1.216 
-0.647867 -0.103672 0.93 
-0.647569 -0.109915 0.986 
-0.644656 -0.116492 1.045 
-0.641078 -0.123849 1.111 
-0.601619 -0.124852 1.12 
-0.559453 -0.12541 1.125 
-0.515059 -0.125521 1.126 
-0.472673 -0.12619 1.132 
-0.428676 -0.126524 1.135 
-0.384439 -0.126859 1.138 
-0.339964 -0.127193 1.141 
-0.29499 -0.127416 1.143 
-0.250076 -0.127751 1.146 
-0.205993 -0.128754 1.155 
-0.159945 -0.128754 1.155 
-0.114292 -0.1292 1.159 
-0.0684376 -0.129869 1.165 
-0.0220104 -0.12998 1.166 
0.0245176 -0.130203 1.168 
0.0712659 -0.130538 1.171 
0.118253 -0.130872 1.174 
0.16534 -0.131095 1.176 
0.212405 -0.131206 1.177 
0.260431 -0.131764 1.182 
0.307295 -0.131652 1.181 
0.355579 -0.132098 1.185 
0.403162 -0.13221 1.186 
0.452345 -0.132767 1.191 
0.500247 -0.132879 1.192 
0.545932 -0.132433 1.188 
0.595292 -0.132879 1.192 
0.644972 -0.133324 1.196 
0.692654 -0.133324 1.196 
0.743431 -0.133882 1.201 
0.793289 -0.134216 1.204 
0.842687 -0.134439 1.206 
0.89003 -0.134328 1.205 
0.941184 -0.134774 1.209 
0.989385 -0.134774 1.209 
1.03844 -0.134885 1.21 
1.08758 -0.134997 1.211 
1.13586 -0.134997 1.211 
1.18708 -0.135331 1.214 
-0.651689 -0.1004 0.92 
-0.649103 -0.105965 0.971 
-0.643708 -0.111749 1.024 
-0.64704 -0.119934 1.099 
-0.613105 -0.121898 1.117 
-0.571118 -0.122444 1.122 
-0.528732 -0.12299 1.127 
-0.484659 -0.123208 1.129 
-0.441595 -0.123754 1.134 
-0.397434 -0.124081 1.137 
-0.353033 -0.124408 1.14 
-0.308393 -0.124736 1.143 
-0.263054 -0.124845 1.144 
-0.218776 -0.125609 1.151 
-0.173789 -0.126264 1.157 
-0.127662 -0.126264 1.157 
-0.0820983 -0.127137 1.165 
-0.0355603 -0.126809 1.162 
0.0108125 -0.127355 1.167 
0.0575349 -0.127791 1.171 
0.104398 -0.12801 1.173 
0.15155 -0.128337 1.176 
0.198772 -0.128555 1.178 
0.246571 -0.128992 1.182 
0.293695 -0.128992 1.182 
0.341107 -0.129101 1.183 
0.389255 -0.129428 1.186 
0.436539 -0.129428 1.186 
0.48627 -0.130083 1.192 
0.533345 -0.129974 1.191 
0.581315 -0.130083 1.192 
0.630948 -0.13052 1.196 
0.67863 -0.13052 1.196 
0.728134 -0.130847 1.199 
0.779171 -0.131393 1.204 
0.828546 -0.131611 1.206 
0.875173 -0.131393 1.204 
0.925474 -0.13172 1.207 
0.976015 -0.132047 1.21 
1.02256 -0.131829 1.208 
1.0725 -0.132047 1.21 
1.12351 -0.132375 1.213 
1.17284 -0.132484 1.214 
-0.653859 -0.0972811 0.911 
-0.646688 -0.101873 0.954 
-0.644382 -0.107853 1.01 
-0.646583 -0.115435 1.081 
-0.622467 -0.119065 1.115 
-0.580606 -0.119599 1.12 
-0.538825 -0.12024 1.126 
-0.493934 -0.12024 1.126 
-0.452233 -0.121094 1.134 
-0.407741 -0.121308 1.136 
-0.363089 -0.121521 1.138 
-0.319115 -0.122055 1.143 
-0.273546 -0.122055 1.143 
-0.229573 -0.122909 1.151 
-0.184642 -0.12355 1.157 
-0.138515 -0.12355 1.157 
-0.0927872 -0.124084 1.162 
-0.0464607 -0.124084 1.162 
-0.000134719 -0.124618 1.167 
0.0465104 -0.124938 1.17 
0.0932355 -0.125045 1.171 
0.140399 -0.125472 1.175 
0.187562 -0.125686 1.177 
0.234885 -0.125899 1.179 
0.282846 -0.126327 1.183 
0.330568 -0.12654 1.185 
0.377811 -0.12654 1.185 
0.425413 -0.126647 1.186 
0.47469 -0.127181 1.191 
0.522172 -0.127181 1.191 
0.569655 -0.127181 1.191 
0.618692 -0.127501 1.194 
0.66741 -0.127715 1.196 
0.71569 -0.127822 1.197 
0.767877 -0.128569 1.204 
0.817233 -0.128783 1.206 
0.862444 -0.128356 1.202 
0.913394 -0.128783 1.206 
0.965461 -0.129317 1.211 
1.01123 -0.128996 1.208 
1.06114 -0.12921 1.21 
1.11214 -0.12953 1.213 
1.16145 -0.129637 1.214 
-0.655996 -0.0951446 0.911 
-0.647565 -0.0994267 0.952 
-0.64547 -0.105275 1.008 
-0.647317 -0.112586 1.078 
-0.625082 -0.11645 1.115 
-0.582712 -0.116868 1.119 
-0.541466 -0.117599 1.126 
-0.496575 -0.117599 1.126 
-0.454491 -0.11833 1.133 
-0.410405 -0.118644 1.136 
-0.365758 -0.118852 1.138 
-0.321796 -0.119375 1.143 
-0.276227 -0.119375 1.143 
-0.232474 -0.120315 1.152 
-0.187356 -0.120837 1.157 
-0.141228 -0.120837 1.157 
-0.0955123 -0.121359 1.162 
-0.0491858 -0.121359 1.162 
-0.00287154 -0.121881 1.167 
0.0437666 -0.122195 1.17 
0.0904893 -0.122299 1.171 
0.137643 -0.122717 1.175 
0.184802 -0.122926 1.177 
0.232514 -0.123343 1.181 
0.280072 -0.123552 1.183 
0.327789 -0.123761 1.185 
0.375032 -0.123761 1.185 
0.422632 -0.123866 1.186 
0.471896 -0.124388 1.191 
0.519379 -0.124388 1.191 
0.56591 -0.124179 1.189 
0.615892 -0.124701 1.194 
0.664606 -0.12491 1.196 
0.712883 -0.125014 1.197 
0.765053 -0.125746 1.204 
0.814405 -0.125954 1.206 
0.859625 -0.125537 1.202 
0.910566 -0.125954 1.206 
0.962621 -0.126477 1.211 
1.0084 -0.126163 1.208 
1.05831 -0.126372 1.21 
1.10929 -0.126685 1.213 
1.1586 -0.12679 1.214 
1.20899 -0.126999 1.216 
-0.648432 -0.0969899 0.95 
-0.645906 -0.102605 1.005 
-0.648639 -0.109854 1.076 
-0.627697 -0.113835 1.115 
-0.585859 -0.114346 1.12 
-0.544107 -0.114959 1.126 
-0.499215 -0.114959 1.126 
-0.457149 -0.115673 1.133 
-0.413069 -0.115979 1.136 
-0.368427 -0.116184 1.138 
-0.324476 -0.116694 1.143 
-0.278907 -0.116694 1.143 
-0.235176 -0.117613 1.152 
-0.190069 -0.118123 1.157 
-0.143942 -0.118123 1.157 
-0.0981528 -0.118532 1.161 
-0.0519109 -0.118634 1.162 
-0.00560835 -0.119144 1.167 
0.0410227 -0.119451 1.17 
0.0877431 -0.119553 1.171 
0.134888 -0.119961 1.175 
0.182042 -0.120165 1.177 
0.229744 -0.120574 1.181 
0.277063 -0.120676 1.182 
0.32501 -0.120982 1.185 
0.372253 -0.120982 1.185 
0.419851 -0.121084 1.186 
0.468316 -0.12139 1.189 
0.516586 -0.121595 1.191 
0.563121 -0.12139 1.189 
0.613092 -0.121901 1.194 
0.661801 -0.122105 1.196 
0.710076 -0.122207 1.197 
0.76223 -0.122922 1.204 
0.810903 -0.123024 1.205 
0.856806 -0.122718 1.202 
0.907738 -0.123126 1.206 
0.959781 -0.123637 1.211 
1.00556 -0.12333 1.208 
1.05634 -0.123637 1.211 
1.10645 -0.123841 1.213 
1.15576 -0.123943 1.214 
1.20416 -0.123943 1.214 
-0.648432 -0.094762 0.95 
-0.646549 -0.100348 1.006 
-0.649242 -0.10743 1.077 
-0.627697 -0.111221 1.115 
-0.585859 -0.111719 1.12 
-0.544107 -0.112318 1.126 
-0.498772 -0.112218 1.125 
-0.457149 -0.113016 1.133 
-0.413069 -0.113315 1.136 
-0.368427 -0.113515 1.138 
-0.324476 -0.114014 1.143 
-0.278907 -0.114014 1.143 
-0.235584 -0.115111 1.154 
-0.190069 -0.11541 1.157 
-0.143942 -0.11541 1.157 
-0.0982374 -0.115909 1.162 
-0.0520449 -0.116208 1.165 
-0.00560835 -0.116408 1.167 
0.0410227 -0.116707 1.17 
0.087818 -0.116906 1.172 
0.134888 -0.117206 1.175 
0.182042 -0.117405 1.177 
0.229744 -0.117804 1.181 
0.277063 -0.117904 1.182 
0.32501 -0.118203 1.185 
0.371625 -0.118004 1.183 
0.419851 -0.118303 1.186 
0.468316 -0.118602 1.189 
0.516586 -0.118802 1.191 
0.563121 -0.118602 1.189 
0.613092 -0.119101 1.194 
0.661801 -0.1193 1.196 
0.710076 -0.1194 1.197 
0.76223 -0.120098 1.204 
0.811576 -0.120298 1.206 
0.856806 -0.119899 1.202 
0.907738 -0.120298 1.206 
0.959781 -0.120797 1.211 
1.00556 -0.120497 1.208 
1.05634 -0.120797 1.211 
1.10645 -0.120996 1.213 
1.15576 -0.121096 1.214 
1.20416 -0.121096 1.214 
-0.647153 -0.0933133 0.958 
-0.64837 -0.0993524 1.02 
-0.647623 -0.105878 1.087 
-0.620408 -0.108703 1.116 
-0.57798 -0.109093 1.12 
-0.535709 -0.10958 1.125 
-0.491293 -0.109677 1.126 
-0.448781 -0.110262 1.132 
-0.405077 -0.110651 1.136 
-0.36042 -0.110846 1.138 
-0.316988 -0.111528 1.145 
-0.270629 -0.111236 1.142 
-0.227662 -0.112502 1.155 
-0.181929 -0.112697 1.157 
-0.135802 -0.112697 1.157 
-0.0903721 -0.113573 1.166 
-0.0438485 -0.113476 1.165 
0.0026021 -0.113671 1.167 
0.0492543 -0.113963 1.17 
0.0960637 -0.114158 1.172 
0.143154 -0.11445 1.175 
0.190484 -0.114742 1.178 
0.238255 -0.115132 1.182 
0.28562 -0.115229 1.183 
0.333628 -0.115521 1.186 
0.379948 -0.115229 1.183 
0.428917 -0.115716 1.188 
0.477483 -0.116008 1.191 
0.524084 -0.115814 1.189 
0.57389 -0.116301 1.194 
0.621492 -0.116301 1.194 
0.670776 -0.116593 1.197 
0.719698 -0.116788 1.199 
0.7707 -0.117275 1.204 
0.820741 -0.117567 1.207 
0.867422 -0.117372 1.205 
0.916982 -0.117567 1.207 
0.968301 -0.117957 1.211 
1.01406 -0.117664 1.208 
1.06486 -0.117957 1.211 
1.11314 -0.117957 1.211 
1.1643 -0.118249 1.214 
-0.660243 -0.0883099 0.929 
-0.648026 -0.0918271 0.966 
-0.646741 -0.0974356 1.025 
-0.6508 -0.10466 1.101 
-0.615174 -0.106086 1.116 
-0.572726 -0.106466 1.12 
-0.530903 -0.107037 1.126 
-0.487307 -0.107322 1.129 
-0.443471 -0.107607 1.132 
-0.399397 -0.107892 1.135 
-0.355395 -0.108272 1.139 
-0.31189 -0.108938 1.146 
-0.265272 -0.108557 1.142 
-0.222245 -0.109793 1.155 
-0.176197 -0.109793 1.155 
-0.130375 -0.109983 1.157 
-0.0849032 -0.110839 1.166 
-0.0383842 -0.110744 1.165 
0.00807573 -0.110934 1.167 
0.0547887 -0.111314 1.171 
0.101647 -0.111504 1.173 
0.148666 -0.111694 1.175 
0.19601 -0.11198 1.178 
0.243799 -0.11236 1.182 
0.291169 -0.112455 1.183 
0.339191 -0.11274 1.186 
0.386148 -0.112645 1.185 
0.434855 -0.113025 1.189 
0.483069 -0.113215 1.191 
0.529661 -0.113025 1.189 
0.580461 -0.113691 1.196 
0.627093 -0.113501 1.194 
0.67639 -0.113786 1.197 
0.725322 -0.113976 1.199 
0.775058 -0.114261 1.202 
0.825718 -0.114641 1.206 
0.873074 -0.114546 1.205 
0.922644 -0.114736 1.207 
0.97559 -0.115307 1.213 
1.02057 -0.114926 1.209 
1.07054 -0.115117 1.211 
1.11882 -0.115117 1.211 
1.16999 -0.115402 1.214 
-0.663885 -0.0860385 0.928 
-0.645802 -0.0886345 0.956 
-0.649006 -0.0946609 1.021 
-0.64941 -0.101058 1.09 
-0.620964 -0.103561 1.117 
-0.57798 -0.10384 1.12 
-0.535709 -0.104303 1.125 
-0.491293 -0.104396 1.126 
-0.448781 -0.104952 1.132 
-0.405077 -0.105323 1.136 
-0.360737 -0.105601 1.139 
-0.316988 -0.106157 1.145 
-0.270629 -0.105879 1.142 
-0.227662 -0.107085 1.155 
-0.181614 -0.107085 1.155 
-0.135802 -0.10727 1.157 
-0.0902946 -0.108012 1.165 
-0.0438485 -0.108012 1.165 
0.0026021 -0.108197 1.167 
0.0492543 -0.108475 1.17 
0.0960637 -0.108661 1.172 
0.143154 -0.108939 1.175 
0.190484 -0.109217 1.178 
0.238255 -0.109588 1.182 
0.285379 -0.109588 1.182 
0.334191 -0.110144 1.188 
0.379948 -0.109681 1.183 
0.428917 -0.110144 1.188 
0.476681 -0.110237 1.189 
0.524084 -0.110237 1.189 
0.574851 -0.110886 1.196 
0.621492 -0.1107 1.194 
0.670776 -0.110979 1.197 
0.719698 -0.111164 1.199 
0.7707 -0.111628 1.204 
0.820741 -0.111906 1.207 
0.867422 -0.11172 1.205 
0.916982 -0.111906 1.207 
0.969901 -0.112462 1.213 
1.01574 -0.112184 1.21 
1.06486 -0.112277 1.211 
1.11314 -0.112277 1.211 
1.1643 -0.112555 1.214 
-0.666041 -0.0827778 0.916 
-0.648245 -0.0861214 0.953 
-0.649312 -0.0916339 1.014 
-0.649118 -0.0976886 1.081 
-0.626203 -0.100942 1.117 
-0.583233 -0.101213 1.12 
-0.540985 -0.101665 1.125 
-0.496575 -0.101755 1.126 
-0.45409 -0.102297 1.132 
-0.410405 -0.102659 1.136 
-0.365758 -0.10284 1.138 
-0.321796 -0.103291 1.143 
-0.275985 -0.103201 1.142 
-0.233079 -0.104376 1.155 
-0.187032 -0.104376 1.155 
-0.141228 -0.104557 1.157 
-0.0954301 -0.104918 1.161 
-0.0493551 -0.10537 1.166 
-0.00286907 -0.10537 1.166 
0.0437666 -0.105731 1.17 
0.0905666 -0.105912 1.172 
0.137643 -0.106183 1.175 
0.184959 -0.106454 1.178 
0.232711 -0.106816 1.182 
0.279835 -0.106816 1.182 
0.328618 -0.107358 1.188 
0.375032 -0.107087 1.185 
0.423345 -0.107358 1.188 
0.471104 -0.107448 1.189 
0.518507 -0.107448 1.189 
0.569242 -0.108081 1.196 
0.615892 -0.1079 1.194 
0.664606 -0.108081 1.196 
0.714074 -0.108352 1.199 
0.765053 -0.108804 1.204 
0.81508 -0.109075 1.207 
0.859625 -0.108623 1.202 
0.911321 -0.109075 1.207 
0.962621 -0.109437 1.211 
1.01007 -0.109346 1.21 
1.05918 -0.109437 1.211 
1.10746 -0.109437 1.211 
1.1586 -0.109708 1.214 
1.20899 -0.109888 1.216 
-0.651241 -0.0825661 0.938 
-0.651801 -0.0876715 0.996 
-0.648351 -0.0928649 1.055 
-0.640196 -0.0980583 1.114 
-0.598458 -0.0984984 1.119 
-0.555825 -0.0988505 1.123 
-0.512419 -0.0991145 1.126 
-0.470434 -0.0997307 1.133 
-0.425639 -0.0998187 1.134 
-0.381435 -0.100083 1.137 
-0.337288 -0.100435 1.141 
-0.292566 -0.100699 1.144 
-0.247604 -0.100963 1.147 
-0.203108 -0.101579 1.154 
-0.157236 -0.101667 1.155 
-0.111381 -0.101843 1.157 
-0.0657619 -0.102635 1.166 
-0.0192759 -0.102635 1.166 
0.0273034 -0.102988 1.17 
0.0740121 -0.103076 1.171 
0.12111 -0.103428 1.175 
0.16824 -0.103604 1.177 
0.215531 -0.10378 1.179 
0.26298 -0.103956 1.181 
0.310589 -0.104132 1.183 
0.358358 -0.104308 1.185 
0.405944 -0.104396 1.186 
0.454373 -0.10466 1.189 
0.502621 -0.104836 1.191 
0.550565 -0.104924 1.192 
0.598088 -0.104924 1.192 
0.648318 -0.105364 1.197 
0.697203 -0.10554 1.199 
0.746248 -0.105716 1.201 
0.796774 -0.106068 1.205 
0.844815 -0.106068 1.205 
0.893597 -0.106156 1.206 
0.9448 -0.106509 1.21 
0.993861 -0.106597 1.211 
1.04128 -0.106509 1.21 
1.09222 -0.106773 1.213 
1.1387 -0.106597 1.211 
1.18992 -0.106861 1.214 
-0.663885 -0.0795096 0.928 
-0.645802 -0.0819086 0.956 
-0.650277 -0.087649 1.023 
-0.64941 -0.0933895 1.09 
-0.620964 -0.0957028 1.117 
-0.579012 -0.0961312 1.122 
-0.535709 -0.0963882 1.125 
-0.49173 -0.0965596 1.127 
-0.448781 -0.096988 1.132 
-0.40472 -0.097245 1.135 
-0.360737 -0.0975877 1.139 
-0.316435 -0.0979304 1.143 
-0.270392 -0.0977591 1.141 
-0.227465 -0.0988729 1.154 
-0.181457 -0.0988729 1.154 
-0.135802 -0.0991299 1.157 
-0.0900621 -0.0995583 1.162 
-0.0438485 -0.0998153 1.165 
0.0026021 -0.0999867 1.167 
0.0492543 -0.100244 1.17 
0.0961456 -0.100501 1.173 
0.143154 -0.100672 1.175 
0.190484 -0.100929 1.178 
0.238053 -0.101186 1.181 
0.285379 -0.101272 1.182 
0.333628 -0.101615 1.186 
0.38059 -0.101529 1.185 
0.428917 -0.101786 1.188 
0.476681 -0.101872 1.189 
0.524084 -0.101872 1.189 
0.576293 -0.102728 1.199 
0.622533 -0.102471 1.196 
0.670215 -0.102471 1.196 
0.720298 -0.102814 1.2 
0.7707 -0.103157 1.204 
0.820741 -0.103414 1.207 
0.866702 -0.103157 1.204 
0.917742 -0.1035 1.208 
0.969901 -0.103928 1.213 
1.01658 -0.103757 1.211 
1.06662 -0.103928 1.213 
1.11314 -0.103757 1.211 
1.1643 -0.104014 1.214 
-0.742562 -0.0769166 0.923 
-0.654018 -0.0784999 0.942 
-0.652455 -0.0830832 0.997 
-0.648351 -0.0879166 1.055 
-0.640196 -0.0928332 1.114 
-0.598458 -0.0932499 1.119 
-0.556815 -0.0937499 1.125 
-0.512419 -0.0938332 1.126 
-0.470434 -0.0944165 1.133 
-0.425639 -0.0944999 1.134 
-0.381435 -0.0947499 1.137 
-0.336992 -0.0949999 1.14 
-0.292821 -0.0954166 1.145 
-0.247604 -0.0955832 1.147 
-0.202756 -0.0959999 1.152 
-0.157236 -0.0962499 1.155 
-0.111381 -0.0964165 1.157 
-0.0657055 -0.0970832 1.165 
-0.0192759 -0.0971665 1.166 
0.0272801 -0.0974165 1.169 
0.0740121 -0.0975832 1.171 
0.12111 -0.0979165 1.175 
0.16824 -0.0980832 1.177 
0.215531 -0.0982499 1.179 
0.263203 -0.0984999 1.182 
0.311114 -0.0987499 1.185 
0.358358 -0.0987499 1.185 
0.405944 -0.0988332 1.186 
0.453991 -0.0989999 1.188 
0.502621 -0.0992499 1.191 
0.551489 -0.0994999 1.194 
0.599091 -0.0994999 1.194 
0.648318 -0.0997499 1.197 
0.697203 -0.0999165 1.199 
0.746248 -0.100083 1.201 
0.797435 -0.1005 1.206 
0.844815 -0.100417 1.205 
0.893597 -0.1005 1.206 
0.9448 -0.100833 1.21 
0.993861 -0.100917 1.211 
1.04128 -0.100833 1.21 
1.09312 -0.101167 1.214 
1.1387 -0.100917 1.211 
1.18992 -0.101167 1.214 
-0.661708 -0.0751569 0.928 
-0.644233 -0.0775056 0.957 
-0.649145 -0.0830128 1.025 
-0.651601 -0.0889249 1.098 
-0.619452 -0.0906256 1.119 
-0.576381 -0.0908686 1.122 
-0.53307 -0.0911116 1.125 
-0.490389 -0.0915165 1.13 
-0.446126 -0.0916785 1.132 
-0.402413 -0.0920024 1.136 
-0.358066 -0.0922454 1.139 
-0.313754 -0.0925694 1.143 
-0.267951 -0.0924884 1.142 
-0.224369 -0.0932982 1.152 
-0.178441 -0.0932982 1.152 
-0.133088 -0.0937032 1.157 
-0.087337 -0.0941081 1.162 
-0.0411164 -0.0943511 1.165 
0.00533891 -0.0945131 1.167 
0.0519537 -0.094675 1.169 
0.0988965 -0.094999 1.173 
0.146034 -0.095242 1.176 
0.193247 -0.0954039 1.178 
0.240415 -0.0954849 1.179 
0.288395 -0.0958089 1.183 
0.336126 -0.0959709 1.185 
0.383369 -0.0959709 1.185 
0.430976 -0.0960518 1.186 
0.479469 -0.0962948 1.189 
0.527758 -0.0964568 1.191 
0.579105 -0.0971047 1.199 
0.625338 -0.0968617 1.196 
0.67302 -0.0968617 1.196 
0.723113 -0.0971857 1.2 
0.773524 -0.0975096 1.204 
0.823572 -0.0977526 1.207 
0.869526 -0.0975096 1.204 
0.920575 -0.0978336 1.208 
0.973547 -0.0983195 1.214 
1.01942 -0.0980765 1.211 
1.07035 -0.0983195 1.214 
1.11598 -0.0980765 1.211 
1.16715 -0.0983195 1.214 
-0.74578 -0.072902 0.927 
-0.654712 -0.0741602 0.943 
-0.651801 -0.0783283 0.996 
-0.64958 -0.0831255 1.057 
-0.640771 -0.0876868 1.115 
-0.598458 -0.0880014 1.119 
-0.556815 -0.0884732 1.125 
-0.512874 -0.0886305 1.127 
-0.470849 -0.089181 1.134 
-0.425639 -0.089181 1.134 
-0.381771 -0.0894956 1.138 
-0.336992 -0.0896529 1.14 
-0.293077 -0.0901247 1.146 
-0.24782 -0.090282 1.148 
-0.202756 -0.0905966 1.152 
-0.157236 -0.0908325 1.155 
-0.111381 -0.0909898 1.157 
-0.0657055 -0.091619 1.165 
-0.0192759 -0.0916976 1.166 
0.0272801 -0.0919335 1.169 
0.0740121 -0.0920908 1.171 
0.12111 -0.0924054 1.175 
0.16824 -0.0925627 1.177 
0.215531 -0.09272 1.179 
0.26298 -0.0928773 1.181 
0.311114 -0.0931918 1.185 
0.358358 -0.0931918 1.185 
0.405601 -0.0931918 1.185 
0.453227 -0.0932705 1.186 
0.502621 -0.0936637 1.191 
0.551489 -0.0938996 1.194 
0.598088 -0.0937423 1.192 
0.648318 -0.0941355 1.197 
0.697203 -0.0942928 1.199 
0.746248 -0.0944501 1.201 
0.797435 -0.0948433 1.206 
0.844815 -0.0947647 1.205 
0.893597 -0.0948433 1.206 
0.9448 -0.0951579 1.21 
0.993861 -0.0952365 1.211 
1.04214 -0.0952365 1.211 
1.09312 -0.0954725 1.214 
1.1387 -0.0952365 1.211 
1.18992 -0.0954725 1.214 
-0.661708 -0.0708043 0.928 
-0.646253 -0.0732458 0.96 
-0.650411 -0.0783577 1.027 
-0.653382 -0.0840038 1.101 
-0.620005 -0.0854534 1.12 
-0.576381 -0.085606 1.122 
-0.53307 -0.0858349 1.125 
-0.491257 -0.086369 1.132 
-0.44652 -0.0864453 1.133 
-0.402413 -0.0866742 1.136 
-0.358066 -0.0869031 1.139 
-0.313754 -0.0872083 1.143 
-0.268185 -0.0872083 1.143 
-0.224369 -0.087895 1.152 
-0.178441 -0.087895 1.152 
-0.133088 -0.0882765 1.157 
-0.087337 -0.0886579 1.162 
-0.0411517 -0.0889631 1.166 
0.00533891 -0.0890394 1.167 
0.0519537 -0.089192 1.169 
0.0988965 -0.0894972 1.173 
0.14591 -0.0896498 1.175 
0.193247 -0.0898787 1.178 
0.240415 -0.089955 1.179 
0.288395 -0.0902602 1.183 
0.335558 -0.0902602 1.183 
0.383369 -0.0904128 1.185 
0.430613 -0.0904128 1.185 
0.479469 -0.090718 1.189 
0.527758 -0.0908706 1.191 
0.577656 -0.0912521 1.196 
0.625338 -0.0912521 1.196 
0.67302 -0.0912521 1.196 
0.723715 -0.0916336 1.201 
0.772239 -0.0917098 1.202 
0.823572 -0.0920913 1.207 
0.869526 -0.0918624 1.204 
0.920575 -0.0921676 1.208 
0.972745 -0.0925491 1.213 
1.01942 -0.0923965 1.211 
1.07035 -0.0926254 1.214 
1.11598 -0.0923965 1.211 
1.16715 -0.0926254 1.214 
-0.746341 -0.0684061 0.925 
-0.657489 -0.0700331 0.947 
-0.651146 -0.0735828 0.995 
-0.652038 -0.0784637 1.061 
-0.640196 -0.0823831 1.114 
-0.598992 -0.0828268 1.12 
-0.556815 -0.0831966 1.125 
-0.512874 -0.0833445 1.127 
-0.470849 -0.0838622 1.134 
-0.425639 -0.0838622 1.134 
-0.381771 -0.084158 1.138 
-0.336992 -0.0843059 1.14 
-0.292821 -0.0846757 1.145 
-0.248468 -0.0851194 1.151 
-0.20258 -0.0851194 1.151 
-0.157236 -0.0854152 1.155 
-0.111381 -0.0855631 1.157 
-0.0657055 -0.0861547 1.165 
-0.0192759 -0.0862287 1.166 
0.0272801 -0.0864505 1.169 
0.0740121 -0.0865984 1.171 
0.12111 -0.0868942 1.175 
0.16824 -0.0870421 1.177 
0.215348 -0.0871161 1.178 
0.262535 -0.08719 1.179 
0.310589 -0.0874859 1.183 
0.357753 -0.0874859 1.183 
0.405601 -0.0876338 1.185 
0.453227 -0.0877077 1.186 
0.503043 -0.0881514 1.192 
0.550565 -0.0881514 1.192 
0.598088 -0.0881514 1.192 
0.648318 -0.0885212 1.197 
0.697203 -0.0886691 1.199 
0.746248 -0.088817 1.201 
0.796774 -0.0891128 1.205 
0.844815 -0.0891128 1.205 
0.893597 -0.0891868 1.206 
0.9448 -0.0894826 1.21 
0.993861 -0.0895565 1.211 
1.04214 -0.0895565 1.211 
1.09312 -0.0897784 1.214 
1.14058 -0.0897044 1.213 
1.18992 -0.0897784 1.214 
-0.660953 -0.0665949 0.93 
-0.648697 -0.0692443 0.967 
-0.651158 -0.0738988 1.032 
-0.654346 -0.0792694 1.107 
-0.617379 -0.0802002 1.12 
-0.573749 -0.0803435 1.122 
-0.530903 -0.0806299 1.126 
-0.489034 -0.0811311 1.133 
-0.443863 -0.0811311 1.133 
-0.399748 -0.081346 1.136 
-0.355707 -0.0816324 1.14 
-0.311074 -0.0818472 1.143 
-0.266434 -0.0821337 1.147 
-0.221475 -0.0824201 1.151 
-0.176045 -0.0826349 1.154 
-0.13015 -0.0827065 1.155 
-0.0846119 -0.0832078 1.162 
-0.0384172 -0.0834942 1.166 
0.00808265 -0.0836374 1.168 
0.0546952 -0.083709 1.169 
0.101647 -0.0839954 1.173 
0.148792 -0.0842103 1.176 
0.19601 -0.0843535 1.178 
0.24318 -0.0844251 1.179 
0.290923 -0.0846399 1.182 
0.338333 -0.0847115 1.183 
0.385496 -0.0847115 1.183 
0.433757 -0.0849263 1.186 
0.483069 -0.0852844 1.191 
0.530551 -0.0852844 1.191 
0.57852 -0.085356 1.192 
0.627093 -0.0854992 1.194 
0.67639 -0.085714 1.197 
0.726532 -0.0860004 1.201 
0.775058 -0.0860721 1.202 
0.826402 -0.0864301 1.207 
0.873074 -0.0862869 1.205 
0.923408 -0.0865017 1.208 
0.973981 -0.0867165 1.211 
1.02226 -0.0867165 1.211 
1.07408 -0.087003 1.215 
1.12067 -0.0868597 1.213 
1.16999 -0.0869313 1.214 
-0.743606 -0.0642061 0.927 
-0.658036 -0.0658683 0.951 
-0.650769 -0.0691237 0.998 
-0.656896 -0.0743183 1.073 
-0.638156 -0.0772273 1.115 
-0.595833 -0.0775044 1.119 
-0.554177 -0.07792 1.125 
-0.510231 -0.0780585 1.127 
-0.46819 -0.0785433 1.134 
-0.423353 -0.0786126 1.135 
-0.379102 -0.0788204 1.138 
-0.334319 -0.0789589 1.14 
-0.289883 -0.0792359 1.144 
-0.245769 -0.0797208 1.151 
-0.199881 -0.0797208 1.151 
-0.154795 -0.0801364 1.157 
-0.108668 -0.0801364 1.157 
-0.0628112 -0.0804827 1.162 
-0.0165414 -0.0807597 1.166 
0.0300216 -0.0809675 1.169 
0.0768239 -0.0811753 1.172 
0.123865 -0.0813831 1.175 
0.170855 -0.0814523 1.176 
0.21811 -0.0815909 1.178 
0.26575 -0.0817987 1.181 
0.313099 -0.0818679 1.182 
0.360527 -0.0819372 1.183 
0.40838 -0.0820757 1.185 
0.456777 -0.0822835 1.188 
0.506687 -0.0826991 1.194 
0.552896 -0.0824913 1.191 
0.601891 -0.0826991 1.194 
0.651125 -0.0829068 1.197 
0.700599 -0.0831146 1.2 
0.749688 -0.0832532 1.202 
0.800263 -0.0835302 1.206 
0.847641 -0.0834609 1.205 
0.896425 -0.0835302 1.206 
0.947638 -0.0838073 1.21 
0.995878 -0.0838073 1.21 
1.04671 -0.084015 1.213 
1.09597 -0.0840843 1.214 
1.14437 -0.0840843 1.214 
1.19277 -0.0840843 1.214 
-0.658003 -0.0623667 0.932 
-0.649491 -0.0652441 0.975 
-0.653833 -0.0698614 1.044 
-0.6515 -0.0743448 1.111 
-0.611579 -0.0748802 1.119 
-0.568487 -0.0750809 1.122 
-0.525622 -0.0753486 1.126 
-0.484146 -0.0758839 1.134 
-0.438549 -0.075817 1.133 
-0.394767 -0.0760847 1.137 
-0.350052 -0.0762185 1.139 
-0.30598 -0.0765531 1.144 
-0.261964 -0.0770215 1.151 
-0.216264 -0.0770884 1.152 
-0.17078 -0.0772892 1.155 
-0.124732 -0.0772892 1.155 
-0.0791617 -0.0777576 1.162 
-0.0329765 -0.0780922 1.167 
0.013561 -0.0781591 1.168 
0.0602297 -0.0782929 1.17 
0.107149 -0.0784937 1.173 
0.154308 -0.0786944 1.176 
0.201535 -0.0788283 1.178 
0.24871 -0.0788952 1.179 
0.296216 -0.079029 1.181 
