# .PCD v.7 - Point Cloud Data file format
VERSION .7
FIELDS x y z
SIZE 4 4 4
TYPE F F F
COUNT 1 1 1
WIDTH 1823
HEIGHT 1
VIEWPOINT 0 0 0 1 0 0 0
POINTS 1823
DATA ascii
-0.571026 -0.253915 0.793 
-0.550294 -0.259038 0.809 
-0.51548 -0.257757 0.805 
-0.492393 -0.26256 0.82 
-0.468671 -0.267684 0.836 
-0.440028 -0.270565 0.845 
-0.490669 -0.365984 1.143 
-0.459898 -0.378151 1.181 
-0.412814 -0.378151 1.181 
-0.36604 -0.378471 1.182 
-0.320804 -0.380713 1.189 
-0.272482 -0.379432 1.185 
-0.0225012 -0.381673 1.192 
0.0246436 -0.37591 1.174 
0.069501 -0.365663 1.142 
0.239117 -0.269925 0.843 
0.306326 -0.273447 0.854 
0.468711 -0.37655 1.176 
0.517788 -0.378151 1.181 
0.565829 -0.378791 1.183 
0.61092 -0.377511 1.179 
0.660156 -0.378791 1.183 
0.706722 -0.378471 1.182 
0.749381 -0.37623 1.175 
0.797581 -0.37687 1.177 
0.845224 -0.37719 1.178 
0.889916 -0.37623 1.175 
0.937558 -0.37655 1.176 
0.981931 -0.375589 1.173 
1.02694 -0.374949 1.171 
1.07363 -0.374949 1.171 
1.1184 -0.374309 1.169 
-0.731817 -0.267312 0.841 
-0.67836 -0.259684 0.817 
-0.599927 -0.250148 0.787 
-0.575776 -0.253327 0.797 
-0.552874 -0.257459 0.81 
-0.517368 -0.25587 0.805 
-0.493111 -0.260002 0.818 
-0.469506 -0.265087 0.834 
-0.445149 -0.270491 0.851 
-0.492055 -0.36235 1.14 
-0.463059 -0.375699 1.182 
-0.415584 -0.375381 1.181 
-0.367875 -0.374746 1.179 
-0.323593 -0.377924 1.189 
-0.275261 -0.376653 1.185 
-0.228017 -0.376653 1.185 
0.0110071 -0.377606 1.188 
0.0561101 -0.362985 1.142 
0.110108 -0.31785 1 
0.249367 -0.258095 0.812 
0.325972 -0.276212 0.869 
0.490091 -0.375381 1.181 
0.536266 -0.374746 1.179 
0.585249 -0.376017 1.183 
0.631878 -0.375699 1.182 
0.679002 -0.375699 1.182 
0.724283 -0.374746 1.179 
0.769325 -0.373792 1.176 
0.816903 -0.37411 1.177 
0.863094 -0.373792 1.176 
0.909979 -0.373792 1.176 
0.955236 -0.373156 1.174 
1.00033 -0.372521 1.172 
1.04706 -0.372521 1.172 
1.09285 -0.372203 1.171 
1.13662 -0.371249 1.168 
-0.706673 -0.261869 0.83 
-0.669525 -0.260292 0.825 
-0.592952 -0.252404 0.8 
-0.563863 -0.253666 0.804 
-0.533793 -0.254613 0.807 
-0.503485 -0.255559 0.81 
-0.481081 -0.260923 0.827 
-0.458405 -0.266917 0.846 
-0.460346 -0.303516 0.962 
-0.491623 -0.359361 1.139 
-0.462668 -0.372612 1.181 
-0.415584 -0.372612 1.181 
-0.367563 -0.371665 1.178 
-0.323321 -0.37482 1.188 
-0.275261 -0.373874 1.185 
-0.228017 -0.373874 1.185 
-0.0113194 -0.376082 1.192 
0.0355046 -0.368826 1.169 
0.0800733 -0.359676 1.14 
0.215426 -0.273543 0.867 
0.245378 -0.268495 0.851 
0.300318 -0.269442 0.854 
0.462801 -0.370719 1.175 
0.512249 -0.372612 1.181 
0.56028 -0.373243 1.183 
0.60539 -0.371981 1.179 
0.654607 -0.373243 1.183 
0.701178 -0.372927 1.182 
0.743237 -0.370403 1.174 
0.792061 -0.37135 1.177 
0.838985 -0.37135 1.177 
0.884405 -0.370719 1.175 
0.931249 -0.370719 1.175 
0.976429 -0.370088 1.173 
1.02145 -0.369457 1.171 
1.06814 -0.369457 1.171 
1.11387 -0.369141 1.17 
1.15754 -0.368195 1.167 
-0.684946 -0.256165 0.818 
-0.664296 -0.260862 0.833 
-0.587643 -0.251468 0.803 
-0.560472 -0.25366 0.81 
-0.526223 -0.25272 0.807 
-0.498947 -0.255225 0.815 
-0.475612 -0.260236 0.831 
-0.455794 -0.268065 0.856 
-0.45773 -0.302513 0.966 
-0.487135 -0.357316 1.141 
-0.457128 -0.369842 1.181 
-0.410044 -0.369842 1.181 
-0.36296 -0.369842 1.181 
-0.318016 -0.372347 1.189 
-0.269703 -0.371095 1.185 
-0.222084 -0.370468 1.183 
-0.0168961 -0.372974 1.191 
0.03015 -0.36765 1.174 
0.0747263 -0.357003 1.14 
0.213639 -0.271823 0.868 
0.24424 -0.267439 0.854 
0.291002 -0.269944 0.862 
0.445128 -0.367024 1.172 
0.495631 -0.369842 1.181 
0.542715 -0.369842 1.181 
0.590798 -0.370468 1.183 
0.637422 -0.370155 1.182 
0.683967 -0.369842 1.181 
0.728575 -0.368589 1.177 
0.77484 -0.368276 1.176 
0.822424 -0.368589 1.177 
0.867871 -0.367963 1.175 
0.915494 -0.368276 1.176 
0.959924 -0.367337 1.173 
1.00583 -0.367024 1.172 
1.05166 -0.36671 1.171 
1.09834 -0.36671 1.171 
1.14307 -0.366084 1.169 
-0.703877 -0.257666 0.829 
-0.66759 -0.256422 0.825 
-0.59814 -0.250828 0.807 
-0.565967 -0.250828 0.807 
-0.535116 -0.251449 0.809 
-0.504728 -0.252382 0.812 
-0.480499 -0.256733 0.826 
-0.461114 -0.264504 0.851 
-0.474655 -0.295274 0.95 
-0.491669 -0.337545 1.086 
-0.478099 -0.359924 1.158 
-0.44051 -0.367072 1.181 
-0.39276 -0.366451 1.179 
-0.347515 -0.368316 1.185 
-0.301032 -0.369248 1.188 
-0.253883 -0.369559 1.189 
-0.205264 -0.367383 1.182 
-0.0252117 -0.369248 1.188 
0.0220209 -0.367072 1.181 
0.0669984 -0.355883 1.145 
0.1248 -0.312369 1.005 
0.223301 -0.269166 0.866 
0.250086 -0.261085 0.84 
0.291002 -0.267922 0.862 
0.442002 -0.363964 1.171 
0.492861 -0.367072 1.181 
0.539945 -0.367072 1.181 
0.587526 -0.367383 1.182 
0.63465 -0.367383 1.182 
0.681774 -0.367383 1.182 
0.726431 -0.36614 1.178 
0.772082 -0.365518 1.176 
0.82036 -0.36614 1.178 
0.865116 -0.365208 1.175 
0.912736 -0.365518 1.176 
0.957173 -0.364586 1.173 
1.00223 -0.363964 1.171 
1.04891 -0.363964 1.171 
1.0956 -0.363964 1.171 
1.14033 -0.363343 1.169 
-0.711181 -0.256955 0.833 
-0.66739 -0.252945 0.82 
-0.628929 -0.252945 0.82 
-0.586612 -0.250477 0.812 
-0.552874 -0.249861 0.81 
-0.519938 -0.249552 0.809 
-0.493111 -0.252328 0.818 
-0.469506 -0.257264 0.834 
-0.46398 -0.273613 0.887 
-0.461959 -0.294897 0.956 
-0.486281 -0.351347 1.139 
-0.457128 -0.364303 1.181 
-0.410044 -0.364303 1.181 
-0.36296 -0.364303 1.181 
-0.317749 -0.366462 1.188 
-0.269703 -0.365537 1.185 
-0.221896 -0.364611 1.182 
-0.175363 -0.365845 1.186 
-0.0419281 -0.366462 1.188 
0.00542584 -0.365845 1.186 
0.0519092 -0.360293 1.168 
0.104927 -0.314022 1.018 
0.182746 -0.273304 0.886 
0.234399 -0.265901 0.862 
0.263153 -0.260348 0.844 
0.301021 -0.26405 0.856 
0.459263 -0.361835 1.173 
0.50991 -0.364611 1.182 
0.557505 -0.36492 1.183 
0.603647 -0.364303 1.181 
0.651833 -0.36492 1.183 
0.698406 -0.364611 1.182 
0.740484 -0.362143 1.174 
0.789301 -0.363069 1.177 
0.836936 -0.363377 1.178 
0.881649 -0.362452 1.175 
0.928494 -0.362452 1.175 
0.973679 -0.361835 1.173 
1.0187 -0.361218 1.171 
1.06539 -0.361218 1.171 
1.11207 -0.361218 1.171 
1.15678 -0.360601 1.169 
-0.692993 -0.251941 0.823 
-0.662588 -0.252859 0.826 
-0.6113 -0.250104 0.817 
-0.57377 -0.247961 0.81 
-0.540139 -0.247349 0.808 
-0.510441 -0.248573 0.812 
-0.483367 -0.251328 0.821 
-0.465455 -0.259594 0.848 
-0.478806 -0.289288 0.945 
-0.453267 -0.297247 0.971 
-0.474972 -0.354186 1.157 
-0.437741 -0.361533 1.181 
-0.389995 -0.360921 1.179 
-0.344736 -0.362758 1.185 
-0.297744 -0.363064 1.186 
-0.250883 -0.363676 1.188 
-0.202663 -0.362145 1.183 
-0.1555 -0.362145 1.183 
-0.108885 -0.363982 1.189 
-0.0279507 -0.363064 1.186 
0.0193164 -0.362758 1.185 
0.0649872 -0.354186 1.157 
0.114702 -0.312247 1.02 
0.158629 -0.300308 0.981 
0.214131 -0.266328 0.87 
0.24567 -0.262961 0.859 
0.278939 -0.262043 0.856 
0.316723 -0.265104 0.866 
0.480151 -0.360309 1.177 
0.528867 -0.361533 1.181 
0.576926 -0.362145 1.183 
0.623035 -0.361533 1.181 
0.671253 -0.362145 1.183 
0.71781 -0.361839 1.182 
0.760404 -0.359696 1.175 
0.80931 -0.360615 1.178 
0.855547 -0.360309 1.177 
0.900938 -0.359696 1.175 
0.946976 -0.35939 1.174 
0.992088 -0.358778 1.172 
1.03793 -0.358472 1.171 
1.08461 -0.358472 1.171 
1.13033 -0.358166 1.17 
-0.721345 -0.254567 0.838 
-0.671517 -0.248492 0.818 
-0.650621 -0.253048 0.833 
-0.596702 -0.248492 0.818 
-0.557194 -0.245454 0.808 
-0.52563 -0.245758 0.809 
-0.498256 -0.248188 0.817 
-0.474804 -0.253048 0.833 
-0.462799 -0.265199 0.873 
-0.466724 -0.289198 0.952 
-0.48867 -0.33841 1.114 
-0.468584 -0.356941 1.175 
-0.423893 -0.358763 1.181 
-0.375851 -0.357852 1.178 
-0.330283 -0.359371 1.183 
-0.283598 -0.359979 1.185 
-0.235955 -0.359371 1.183 
-0.18927 -0.360282 1.186 
-0.141867 -0.359979 1.185 
-0.0951029 -0.361801 1.191 
-0.0279507 -0.360282 1.186 
0.0193164 -0.359979 1.185 
0.0654365 -0.353903 1.165 
0.110349 -0.31107 1.024 
0.147926 -0.304387 1.002 
0.194332 -0.267933 0.882 
0.225592 -0.263377 0.867 
0.256257 -0.259428 0.854 
0.294383 -0.263073 0.866 
0.447877 -0.356029 1.172 
0.4984 -0.358763 1.181 
0.545484 -0.358763 1.181 
0.59307 -0.359067 1.182 
0.640736 -0.359371 1.183 
0.685573 -0.358156 1.179 
0.731335 -0.357548 1.177 
0.777598 -0.357245 1.176 
0.826586 -0.358156 1.179 
0.870627 -0.356941 1.175 
0.918252 -0.357245 1.176 
0.962675 -0.356333 1.173 
1.00772 -0.355726 1.171 
1.0544 -0.355726 1.171 
1.10109 -0.355726 1.171 
1.14679 -0.355422 1.17 
-0.707273 -0.251095 0.833 
-0.663544 -0.247176 0.82 
-0.634993 -0.251095 0.833 
-0.589028 -0.246573 0.818 
-0.548254 -0.242956 0.806 
-0.518681 -0.244162 0.81 
-0.491793 -0.246875 0.819 
-0.469232 -0.2523 0.837 
-0.467107 -0.270386 0.897 
-0.459717 -0.288171 0.956 
-0.483801 -0.339716 1.127 
-0.459119 -0.355391 1.179 
-0.412115 -0.355391 1.179 
-0.365111 -0.355391 1.179 
-0.319995 -0.357501 1.186 
-0.272482 -0.3572 1.185 
-0.224668 -0.356295 1.182 
-0.178145 -0.357501 1.186 
-0.130862 -0.357501 1.186 
-0.0837895 -0.358405 1.189 
-0.0335699 -0.358104 1.188 
0.0137583 -0.3572 1.185 
0.0603326 -0.353281 1.172 
0.105752 -0.309272 1.026 
0.143369 -0.302339 1.003 
0.184396 -0.269482 0.894 
0.214131 -0.262248 0.87 
0.246528 -0.259836 0.862 
0.279917 -0.258932 0.859 
0.317089 -0.261343 0.867 
0.480151 -0.354788 1.177 
0.528867 -0.355994 1.181 
0.576438 -0.356295 1.182 
0.623562 -0.356295 1.182 
0.670686 -0.356295 1.182 
0.717203 -0.355994 1.181 
0.760404 -0.354185 1.175 
0.80931 -0.35509 1.178 
0.85482 -0.354487 1.176 
0.900938 -0.354185 1.175 
0.946976 -0.353884 1.174 
0.992088 -0.353281 1.172 
1.03704 -0.352678 1.17 
1.08461 -0.352979 1.171 
1.13033 -0.352678 1.17 
-0.715702 -0.250038 0.836 
-0.667681 -0.244655 0.818 
-0.64749 -0.24944 0.834 
-0.603743 -0.246748 0.825 
-0.558397 -0.241365 0.807 
-0.526223 -0.241365 0.807 
-0.500172 -0.244356 0.817 
-0.477329 -0.24944 0.834 
-0.463249 -0.260207 0.87 
-0.469449 -0.285032 0.953 
-0.487354 -0.332288 1.111 
-0.467786 -0.350831 1.173 
-0.423893 -0.353224 1.181 
-0.37617 -0.352626 1.179 
-0.330283 -0.353822 1.183 
-0.283837 -0.35472 1.186 
-0.235756 -0.353523 1.182 
-0.18927 -0.35472 1.186 
-0.141867 -0.354421 1.185 
-0.0949432 -0.355617 1.189 
-0.0475402 -0.355617 1.189 
-0.000136797 -0.354421 1.185 
0.0468284 -0.352327 1.178 
0.0944244 -0.344551 1.152 
0.137128 -0.301781 1.009 
0.172192 -0.278153 0.93 
0.200538 -0.261105 0.873 
0.233456 -0.259011 0.866 
0.265196 -0.256319 0.857 
0.301808 -0.258413 0.864 
0.462407 -0.351131 1.174 
0.512682 -0.353523 1.182 
0.56028 -0.353822 1.183 
0.606417 -0.353224 1.181 
0.654607 -0.353822 1.183 
0.700585 -0.353224 1.181 
0.74387 -0.35143 1.175 
0.792061 -0.352028 1.177 
0.840411 -0.352626 1.179 
0.885157 -0.351729 1.176 
0.932042 -0.351729 1.176 
0.976429 -0.350831 1.173 
1.02145 -0.350233 1.171 
1.06722 -0.349934 1.17 
1.11387 -0.349934 1.17 
1.15853 -0.349336 1.168 
-0.682774 -0.24333 0.82 
-0.65801 -0.246297 0.83 
-0.626426 -0.246891 0.832 
-0.583273 -0.242736 0.818 
-0.541237 -0.238582 0.804 
-0.514249 -0.240956 0.812 
-0.487217 -0.243627 0.821 
-0.466665 -0.250155 0.843 
-0.474666 -0.274191 0.924 
-0.456308 -0.285764 0.963 
-0.477848 -0.337695 1.138 
-0.448819 -0.350455 1.181 
-0.401735 -0.350455 1.181 
-0.354952 -0.350751 1.182 
-0.30939 -0.352532 1.188 
-0.261586 -0.351938 1.186 
-0.213399 -0.350455 1.181 
-0.167019 -0.351938 1.186 
-0.119938 -0.352532 1.188 
-0.0725748 -0.352532 1.188 
-0.0251693 -0.351938 1.186 
0.0220954 -0.351642 1.185 
0.0685782 -0.347784 1.172 
0.118242 -0.305646 1.03 
0.154357 -0.29615 0.998 
0.186046 -0.267663 0.902 
0.214377 -0.258464 0.871 
0.2471 -0.256387 0.864 
0.280894 -0.255793 0.862 
0.317089 -0.257277 0.867 
0.486496 -0.349861 1.179 
0.534406 -0.350455 1.181 
0.58149 -0.350455 1.181 
0.629638 -0.351048 1.183 
0.675658 -0.350455 1.181 
0.722742 -0.350455 1.181 
0.766567 -0.348971 1.176 
0.814835 -0.349564 1.178 
0.860336 -0.348971 1.176 
0.907221 -0.348971 1.176 
0.952483 -0.348377 1.174 
0.996734 -0.347487 1.171 
1.04253 -0.34719 1.17 
1.0901 -0.347487 1.171 
1.13679 -0.347487 1.171 
-0.716558 -0.246412 0.837 
-0.667681 -0.240818 0.818 
-0.649043 -0.246117 0.836 
-0.612031 -0.244645 0.831 
-0.562182 -0.23758 0.807 
-0.528695 -0.236991 0.805 
-0.504004 -0.240524 0.817 
-0.481241 -0.245529 0.834 
-0.460346 -0.2523 0.857 
-0.473422 -0.280268 0.952 
-0.484227 -0.32325 1.098 
-0.469735 -0.344741 1.171 
-0.426662 -0.347685 1.181 
-0.379578 -0.347685 1.181 
-0.33362 -0.348862 1.185 
-0.286618 -0.349157 1.186 
-0.238528 -0.347979 1.182 
-0.192052 -0.349157 1.186 
-0.144646 -0.348862 1.185 
-0.097896 -0.350629 1.191 
-0.0504133 -0.350629 1.191 
-0.00291583 -0.348862 1.185 
0.044178 -0.347685 1.181 
0.0901802 -0.343563 1.167 
0.134363 -0.301464 1.024 
0.164929 -0.279973 0.951 
0.191113 -0.263781 0.896 
0.220252 -0.256127 0.87 
0.253179 -0.25436 0.864 
0.287625 -0.25436 0.864 
0.445888 -0.345624 1.174 
0.49605 -0.347979 1.182 
0.543174 -0.347979 1.182 
0.589799 -0.347685 1.181 
0.637961 -0.348274 1.183 
0.682808 -0.347096 1.179 
0.729194 -0.346802 1.178 
0.775499 -0.346507 1.177 
0.823123 -0.346802 1.178 
0.86861 -0.346213 1.176 
0.915494 -0.346213 1.176 
0.960742 -0.345624 1.174 
1.00497 -0.344741 1.171 
1.05076 -0.344447 1.17 
1.09834 -0.344741 1.171 
1.14503 -0.344741 1.171 
-0.708122 -0.243573 0.834 
-0.662735 -0.239192 0.819 
-0.645469 -0.245033 0.839 
-0.606914 -0.242989 0.832 
-0.554435 -0.234811 0.804 
-0.524331 -0.235687 0.807 
-0.498256 -0.238608 0.817 
-0.476514 -0.244157 0.836 
-0.461208 -0.254087 0.87 
-0.467705 -0.278619 0.954 
-0.481213 -0.320383 1.097 
-0.467786 -0.342579 1.173 
-0.423893 -0.344915 1.181 
-0.37617 -0.344331 1.179 
-0.33112 -0.346375 1.186 
-0.284316 -0.34696 1.188 
-0.235756 -0.345207 1.182 
-0.18927 -0.346375 1.186 
-0.141867 -0.346083 1.185 
-0.0951029 -0.347836 1.191 
-0.0476202 -0.347836 1.191 
-0.000136797 -0.346083 1.185 
0.0469874 -0.345207 1.182 
0.0932355 -0.341995 1.171 
0.136898 -0.299355 1.025 
0.164929 -0.277743 0.951 
0.192179 -0.26314 0.901 
0.220505 -0.254379 0.871 
0.253765 -0.252918 0.866 
0.287625 -0.252334 0.864 
0.446268 -0.343163 1.175 
0.495631 -0.344915 1.181 
0.543174 -0.345207 1.182 
0.589799 -0.344915 1.181 
0.637961 -0.345499 1.183 
0.683967 -0.344915 1.181 
0.729194 -0.344039 1.178 
0.775499 -0.343747 1.177 
0.823123 -0.344039 1.178 
0.86861 -0.343455 1.176 
0.915494 -0.343455 1.176 
0.960742 -0.342871 1.174 
1.00497 -0.341995 1.171 
1.05076 -0.341703 1.17 
1.09741 -0.341703 1.17 
1.14503 -0.341995 1.171 
-0.71093 -0.241906 0.835 
-0.663844 -0.236981 0.818 
-0.647437 -0.243065 0.839 
-0.609597 -0.241327 0.833 
-0.556321 -0.232926 0.804 
-0.525571 -0.233505 0.806 
-0.500172 -0.236692 0.817 
-0.476514 -0.242196 0.836 
-0.460148 -0.251467 0.868 
-0.467705 -0.276382 0.954 
-0.474478 -0.306801 1.059 
-0.470357 -0.335772 1.159 
-0.432567 -0.342435 1.182 
-0.385117 -0.342146 1.181 
-0.339178 -0.343304 1.185 
-0.292674 -0.344174 1.188 
-0.244072 -0.342435 1.182 
-0.197448 -0.343304 1.185 
-0.150331 -0.343594 1.186 
-0.103308 -0.344463 1.189 
-0.0559055 -0.344463 1.189 
-0.00845958 -0.342725 1.183 
0.0386387 -0.342146 1.181 
0.0852873 -0.340407 1.175 
0.130512 -0.304483 1.051 
0.161819 -0.27783 0.959 
0.189622 -0.263345 0.909 
0.216668 -0.252626 0.872 
0.249991 -0.251177 0.867 
0.283572 -0.250308 0.864 
0.44389 -0.340697 1.176 
0.493278 -0.342435 1.182 
0.539945 -0.342146 1.181 
0.587029 -0.342146 1.181 
0.635187 -0.342725 1.183 
0.680044 -0.341566 1.179 
0.727048 -0.341566 1.179 
0.772739 -0.340987 1.177 
0.819664 -0.340987 1.177 
0.865852 -0.340697 1.176 
0.912736 -0.340697 1.176 
0.957989 -0.340118 1.174 
1.00223 -0.339248 1.171 
1.04802 -0.338959 1.17 
1.0956 -0.339248 1.171 
1.14131 -0.338959 1.17 
-0.715449 -0.24081 0.838 
-0.665762 -0.235063 0.818 
-0.649405 -0.241098 0.839 
-0.612285 -0.239661 0.834 
-0.558901 -0.231327 0.805 
-0.526807 -0.231327 0.805 
-0.500859 -0.234201 0.815 
-0.480435 -0.240236 0.836 
-0.458871 -0.246558 0.858 
-0.467705 -0.274145 0.954 
-0.472238 -0.302881 1.054 
-0.469951 -0.332767 1.158 
-0.432567 -0.339663 1.182 
-0.384465 -0.338801 1.179 
-0.339178 -0.340525 1.185 
-0.292674 -0.341388 1.188 
-0.244072 -0.339663 1.182 
-0.197448 -0.340525 1.185 
-0.150331 -0.340813 1.186 
-0.103308 -0.341675 1.189 
-0.0559055 -0.341675 1.189 
-0.00845958 -0.339951 1.183 
0.0386715 -0.339663 1.182 
0.0855776 -0.338801 1.179 
0.125474 -0.314088 1.093 
0.154975 -0.287938 1.002 
0.184234 -0.26265 0.914 
0.212223 -0.252592 0.879 
0.244454 -0.249719 0.869 
0.278457 -0.249144 0.867 
0.313745 -0.249719 0.869 
0.481782 -0.339376 1.181 
0.528867 -0.339376 1.181 
0.574975 -0.338801 1.179 
0.623562 -0.339663 1.182 
0.670119 -0.339376 1.181 
0.715988 -0.338801 1.179 
0.760404 -0.337652 1.175 
0.808622 -0.338226 1.177 
0.855547 -0.338226 1.177 
0.901705 -0.337939 1.176 
0.947783 -0.337652 1.175 
0.992088 -0.33679 1.172 
1.03793 -0.336502 1.171 
1.08461 -0.336502 1.171 
1.13033 -0.336215 1.17 
-0.732199 -0.241125 0.846 
-0.677005 -0.233715 0.82 
-0.654528 -0.23742 0.833 
-0.624302 -0.23856 0.837 
-0.576812 -0.23286 0.817 
-0.53558 -0.229154 0.804 
-0.508536 -0.231435 0.812 
-0.487892 -0.237135 0.832 
-0.463466 -0.241695 0.848 
-0.472179 -0.271907 0.954 
-0.45963 -0.287868 1.01 
-0.470254 -0.324636 1.139 
-0.441256 -0.337176 1.183 
-0.393426 -0.336606 1.181 
-0.346929 -0.337176 1.183 
-0.300525 -0.338031 1.186 
-0.253028 -0.337746 1.185 
-0.205438 -0.337176 1.183 
-0.158943 -0.338601 1.188 
-0.111674 -0.338886 1.189 
-0.0642707 -0.338886 1.189 
-0.0167826 -0.337176 1.183 
0.0303555 -0.336891 1.182 
0.077676 -0.337746 1.185 
0.119859 -0.324066 1.137 
0.14955 -0.288723 1.013 
0.183884 -0.263072 0.923 
0.211836 -0.252526 0.886 
0.242416 -0.247681 0.869 
0.276743 -0.247396 0.868 
0.310989 -0.247111 0.867 
0.479013 -0.336606 1.181 
0.526097 -0.336606 1.181 
0.573181 -0.336606 1.181 
0.62079 -0.336891 1.182 
0.667914 -0.336891 1.182 
0.713223 -0.336036 1.179 
0.757648 -0.334896 1.175 
0.805862 -0.335466 1.177 
0.852787 -0.335466 1.177 
0.898947 -0.335181 1.176 
0.945027 -0.334896 1.175 
0.98934 -0.334041 1.172 
1.03518 -0.333756 1.171 
1.08187 -0.333756 1.171 
1.12662 -0.333186 1.169 
-0.736787 -0.239989 0.849 
-0.680584 -0.232357 0.822 
-0.653329 -0.234336 0.829 
-0.628509 -0.237445 0.84 
-0.579436 -0.231226 0.818 
-0.536797 -0.226986 0.803 
-0.509183 -0.228965 0.81 
-0.488077 -0.234336 0.829 
-0.46326 -0.238576 0.844 
-0.469942 -0.26967 0.954 
-0.463599 -0.289457 1.024 
-0.467361 -0.32366 1.145 
-0.435708 -0.334402 1.183 
-0.38723 -0.333271 1.179 
-0.34138 -0.334402 1.183 
-0.294963 -0.33525 1.186 
-0.247053 -0.334402 1.183 
-0.200227 -0.334967 1.185 
-0.153371 -0.335815 1.188 
-0.106097 -0.336098 1.189 
-0.0587926 -0.336663 1.191 
-0.0112339 -0.334402 1.183 
0.0358995 -0.334119 1.182 
0.0832341 -0.334967 1.185 
0.125192 -0.321399 1.137 
0.167074 -0.265147 0.938 
0.198367 -0.257232 0.91 
0.224848 -0.246491 0.872 
0.258124 -0.245077 0.867 
0.291002 -0.243664 0.862 
0.452933 -0.332989 1.178 
0.501594 -0.334119 1.182 
0.548718 -0.334119 1.182 
0.595842 -0.334119 1.182 
0.64351 -0.334402 1.183 
0.689506 -0.333837 1.181 
0.734719 -0.332989 1.178 
0.781683 -0.332989 1.178 
0.828648 -0.332989 1.178 
0.874126 -0.332423 1.176 
0.921794 -0.332706 1.177 
0.966249 -0.331858 1.174 
1.01047 -0.33101 1.171 
1.05715 -0.33101 1.171 
1.10289 -0.330727 1.17 
1.14954 -0.330727 1.17 
-0.709554 -0.234915 0.838 
-0.660007 -0.229308 0.818 
-0.648104 -0.236877 0.845 
-0.607144 -0.234074 0.835 
-0.55255 -0.225383 0.804 
-0.522438 -0.226224 0.807 
-0.49634 -0.229028 0.817 
-0.474553 -0.234354 0.836 
-0.456001 -0.242203 0.864 
-0.457421 -0.273319 0.975 
-0.473473 -0.310883 1.109 
-0.456354 -0.330506 1.179 
-0.410391 -0.331347 1.182 
-0.361731 -0.329946 1.177 
-0.316411 -0.331628 1.183 
-0.26993 -0.332469 1.186 
-0.221896 -0.331347 1.182 
-0.175659 -0.333029 1.188 
-0.128404 -0.33331 1.189 
-0.080933 -0.333029 1.188 
-0.0335699 -0.333029 1.188 
0.0137351 -0.331628 1.183 
0.0610533 -0.332469 1.186 
0.107149 -0.328824 1.173 
0.153914 -0.328824 1.173 
0.18746 -0.260705 0.93 
0.214638 -0.249211 0.889 
0.244736 -0.243885 0.87 
0.278457 -0.243044 0.867 
0.431929 -0.331067 1.181 
0.479418 -0.331347 1.182 
0.526097 -0.331067 1.181 
0.57221 -0.330506 1.179 
0.620265 -0.331067 1.181 
0.667349 -0.331067 1.181 
0.713223 -0.330506 1.179 
0.757648 -0.329385 1.175 
0.806547 -0.330226 1.178 
0.852787 -0.329946 1.177 
0.898947 -0.329665 1.176 
0.945027 -0.329385 1.175 
0.98934 -0.328544 1.172 
1.03518 -0.328264 1.171 
1.08187 -0.328264 1.171 
1.12662 -0.327703 1.169 
-0.738523 -0.236563 0.851 
-0.683068 -0.229336 0.825 
-0.647813 -0.228502 0.822 
-0.63674 -0.236563 0.851 
-0.577311 -0.226556 0.815 
-0.537466 -0.223498 0.804 
-0.509183 -0.225166 0.81 
-0.488077 -0.230448 0.829 
-0.46326 -0.234617 0.844 
-0.467705 -0.265195 0.954 
-0.469101 -0.291048 1.047 
-0.465622 -0.320792 1.154 
-0.430159 -0.328853 1.183 
-0.380729 -0.326907 1.176 
-0.335832 -0.328853 1.183 
-0.289888 -0.330243 1.188 
-0.2413 -0.328575 1.182 
-0.194669 -0.329409 1.185 
-0.147799 -0.330243 1.188 
-0.100435 -0.330243 1.188 
-0.0532064 -0.331077 1.191 
-0.00568524 -0.328853 1.183 
0.0415486 -0.329409 1.185 
0.0887921 -0.329409 1.185 
0.134129 -0.31829 1.145 
0.175498 -0.260192 0.936 
0.206676 -0.252686 0.909 
0.233028 -0.242401 0.872 
0.266258 -0.241011 0.867 
0.300476 -0.240733 0.866 
0.460014 -0.328575 1.182 
0.506709 -0.328297 1.181 
0.554262 -0.328575 1.182 
0.601386 -0.328575 1.182 
0.649059 -0.328853 1.183 
0.695634 -0.328575 1.182 
0.739616 -0.327185 1.177 
0.787877 -0.327741 1.179 
0.833465 -0.327185 1.177 
0.879641 -0.326907 1.176 
0.926526 -0.326907 1.176 
0.971755 -0.326351 1.174 
1.01596 -0.325518 1.171 
1.06264 -0.325518 1.171 
1.10838 -0.32524 1.17 
1.15404 -0.324962 1.169 
-0.705623 -0.230984 0.838 
-0.655368 -0.225196 0.817 
-0.642237 -0.235119 0.853 
-0.58256 -0.225196 0.817 
-0.541237 -0.221612 0.804 
-0.511716 -0.222715 0.808 
-0.488998 -0.227125 0.824 
-0.465004 -0.231535 0.84 
-0.469942 -0.262958 0.954 
-0.463599 -0.282253 1.024 
-0.46532 -0.314227 1.14 
-0.436444 -0.32663 1.185 
-0.386902 -0.324701 1.178 
-0.34138 -0.326079 1.183 
-0.294963 -0.326906 1.186 
-0.247053 -0.326079 1.183 
-0.199889 -0.326079 1.183 
-0.153371 -0.327457 1.188 
-0.106008 -0.327457 1.188 
-0.0587926 -0.328284 1.191 
-0.0112339 -0.326079 1.183 
0.0359298 -0.326079 1.183 
0.0834448 -0.327457 1.188 
0.128275 -0.321118 1.165 
0.177271 -0.325803 1.182 
0.204194 -0.252759 0.917 
0.229726 -0.241183 0.875 
0.261889 -0.238702 0.866 
0.29573 -0.238151 0.864 
0.454855 -0.326079 1.183 
0.501594 -0.325803 1.182 
0.548254 -0.325528 1.181 
0.596346 -0.326079 1.183 
0.64351 -0.326079 1.183 
0.689506 -0.325528 1.181 
0.734719 -0.324701 1.178 
0.781683 -0.324701 1.178 
0.827944 -0.324425 1.177 
0.874126 -0.324149 1.176 
0.921794 -0.324425 1.177 
0.966249 -0.323598 1.174 
1.01047 -0.322771 1.171 
1.05715 -0.322771 1.171 
1.10384 -0.322771 1.171 
1.14856 -0.32222 1.169 
-0.716327 -0.231205 0.846 
-0.6592 -0.22328 0.817 
-0.646996 -0.233392 0.854 
-0.587828 -0.223826 0.819 
-0.545008 -0.219727 0.804 
-0.514868 -0.220547 0.807 
-0.491068 -0.224373 0.821 
-0.467827 -0.229019 0.838 
-0.473656 -0.259081 0.948 
-0.459309 -0.273019 0.999 
-0.46777 -0.304447 1.114 
-0.449199 -0.323031 1.182 
-0.402075 -0.323031 1.182 
-0.35375 -0.321938 1.178 
-0.308088 -0.323305 1.183 
-0.260924 -0.323305 1.183 
-0.21358 -0.323031 1.182 
-0.167301 -0.324671 1.188 
-0.120039 -0.324944 1.189 
-0.0725748 -0.324671 1.188 
-0.0252117 -0.324671 1.188 
0.0220395 -0.323031 1.182 
0.069573 -0.324944 1.189 
0.115795 -0.321665 1.177 
0.163411 -0.323031 1.182 
0.187868 -0.257715 0.943 
0.216617 -0.247603 0.906 
0.242974 -0.238037 0.871 
0.276424 -0.236944 0.867 
0.426751 -0.323031 1.182 
0.475077 -0.323851 1.185 
0.520558 -0.322758 1.181 
0.567642 -0.322758 1.181 
0.614726 -0.322758 1.181 
0.66237 -0.323031 1.182 
0.708894 -0.322758 1.181 
0.752777 -0.321392 1.176 
0.801022 -0.321938 1.178 
0.847986 -0.321938 1.178 
0.893431 -0.321392 1.176 
0.940316 -0.321392 1.176 
0.984682 -0.320572 1.173 
1.02969 -0.320025 1.171 
1.07637 -0.320025 1.171 
1.12114 -0.319479 1.169 
-0.744259 -0.231118 0.853 
-0.695264 -0.226241 0.835 
-0.645326 -0.220551 0.814 
-0.63721 -0.232202 0.857 
-0.567859 -0.218654 0.807 
-0.533695 -0.217841 0.804 
-0.506008 -0.219738 0.811 
-0.485357 -0.225157 0.831 
-0.462022 -0.230034 0.849 
-0.466931 -0.259296 0.957 
-0.470894 -0.284765 1.051 
-0.462646 -0.30888 1.14 
-0.433665 -0.321072 1.185 
-0.383813 -0.318905 1.177 
-0.339178 -0.321072 1.185 
-0.292674 -0.321885 1.188 
-0.244278 -0.32053 1.183 
-0.197448 -0.321072 1.185 
-0.150585 -0.321885 1.188 
-0.103048 -0.321343 1.186 
-0.0559995 -0.322698 1.191 
-0.00847388 -0.321072 1.185 
0.0387696 -0.321072 1.185 
0.0862309 -0.321885 1.188 
0.132132 -0.318363 1.175 
0.180043 -0.320259 1.182 
0.198791 -0.252523 0.932 
0.225568 -0.241414 0.891 
0.254058 -0.234911 0.867 
0.287625 -0.234098 0.864 
0.443758 -0.32053 1.183 
0.490921 -0.32053 1.183 
0.536266 -0.319447 1.179 
0.584754 -0.320259 1.182 
0.631878 -0.320259 1.182 
0.678428 -0.319988 1.181 
0.724283 -0.319447 1.179 
0.769979 -0.318905 1.177 
0.817597 -0.319176 1.178 
0.863094 -0.318634 1.176 
0.910752 -0.318905 1.177 
0.955236 -0.318092 1.174 
1.00033 -0.31755 1.172 
1.04617 -0.317279 1.171 
1.09378 -0.31755 1.172 
1.13662 -0.316466 1.168 
-0.728256 -0.229117 0.853 
-0.668204 -0.220522 0.821 
-0.633924 -0.219985 0.819 
-0.593114 -0.220522 0.821 
-0.549461 -0.216224 0.805 
-0.517368 -0.216224 0.805 
-0.494919 -0.220522 0.821 
-0.471195 -0.22482 0.837 
-0.455087 -0.233684 0.87 
-0.459767 -0.26323 0.98 
-0.473473 -0.297879 1.109 
-0.454419 -0.315339 1.174 
-0.410739 -0.317756 1.183 
-0.361116 -0.315607 1.175 
-0.316946 -0.318293 1.185 
-0.269703 -0.318293 1.185 
-0.222084 -0.317756 1.183 
-0.175659 -0.319099 1.188 
-0.128404 -0.319368 1.189 
-0.0807968 -0.318562 1.186 
-0.0336547 -0.319905 1.191 
0.0137583 -0.318293 1.185 
0.0612077 -0.319368 1.189 
0.108063 -0.317756 1.183 
0.155095 -0.317487 1.182 
0.201706 -0.316682 1.179 
0.214712 -0.246039 0.916 
0.240535 -0.235564 0.877 
0.272357 -0.232878 0.867 
0.421207 -0.317487 1.182 
0.469915 -0.318562 1.186 
0.514146 -0.316682 1.179 
0.562102 -0.317219 1.181 
0.609186 -0.317219 1.181 
0.657382 -0.317756 1.183 
0.703354 -0.317219 1.181 
0.747897 -0.316144 1.177 
0.795497 -0.316413 1.178 
0.842461 -0.316413 1.178 
0.887915 -0.315876 1.176 
0.9348 -0.315876 1.176 
0.97918 -0.31507 1.173 
1.0242 -0.314533 1.171 
1.07088 -0.314533 1.171 
1.11661 -0.314264 1.17 
1.16226 -0.313996 1.169 
-0.700562 -0.223389 0.839 
-0.647235 -0.216733 0.814 
-0.64299 -0.227383 0.854 
-0.574958 -0.215402 0.809 
-0.540022 -0.214337 0.805 
-0.510452 -0.215402 0.809 
-0.490612 -0.220993 0.83 
-0.466341 -0.225253 0.846 
-0.473156 -0.252145 0.947 
-0.460689 -0.266789 1.002 
-0.46641 -0.297409 1.117 
-0.44605 -0.314449 1.181 
-0.399303 -0.314715 1.182 
-0.350988 -0.31365 1.178 
-0.306088 -0.31578 1.186 
-0.258586 -0.315514 1.185 
-0.210808 -0.314715 1.182 
-0.164653 -0.316579 1.189 
-0.117152 -0.316313 1.188 
-0.0698475 -0.316579 1.189 
-0.0224257 -0.316313 1.188 
0.0248325 -0.314982 1.183 
0.0723614 -0.316579 1.189 
0.11916 -0.314982 1.183 
0.166324 -0.314982 1.183 
0.191491 -0.252944 0.95 
0.220432 -0.243092 0.913 
0.246142 -0.232975 0.875 
0.278778 -0.231111 0.868 
0.430613 -0.315514 1.185 
0.477856 -0.315514 1.185 
0.523327 -0.314449 1.181 
0.569445 -0.313917 1.179 
0.617495 -0.314449 1.181 
0.665705 -0.314982 1.183 
0.710458 -0.313917 1.179 
0.756177 -0.313384 1.177 
0.803784 -0.31365 1.178 
0.850749 -0.31365 1.178 
0.896951 -0.313384 1.177 
0.942272 -0.312852 1.175 
0.987433 -0.312319 1.173 
1.03243 -0.311787 1.171 
1.07912 -0.311787 1.171 
1.12292 -0.310988 1.168 
-0.741126 -0.22538 0.854 
-0.692176 -0.22063 0.836 
-0.639932 -0.214296 0.812 
-0.637953 -0.226436 0.858 
-0.560788 -0.212449 0.805 
-0.528695 -0.212449 0.805 
-0.504004 -0.215616 0.817 
-0.481241 -0.220102 0.834 
-0.459809 -0.225908 0.856 
-0.468241 -0.25573 0.969 
-0.478378 -0.28476 1.079 
-0.460376 -0.301123 1.141 
-0.430886 -0.312735 1.185 
-0.380405 -0.310096 1.175 
-0.336683 -0.312999 1.186 
-0.290132 -0.313791 1.189 
-0.242116 -0.312999 1.186 
-0.194669 -0.312735 1.185 
-0.14755 -0.312999 1.186 
-0.100266 -0.312999 1.186 
-0.0532064 -0.314319 1.191 
-0.00569486 -0.312735 1.185 
0.0414785 -0.312207 1.183 
0.0890169 -0.313527 1.188 
0.135691 -0.311943 1.182 
0.182815 -0.311943 1.182 
0.200977 -0.245965 0.932 
0.231235 -0.23884 0.905 
0.256977 -0.229603 0.87 
0.290321 -0.228547 0.866 
0.450446 -0.312999 1.186 
0.49605 -0.311943 1.182 
0.542715 -0.311679 1.181 
0.590798 -0.312207 1.183 
0.637961 -0.312207 1.183 
0.683967 -0.311679 1.181 
0.729813 -0.311152 1.179 
0.776158 -0.310888 1.178 
0.823123 -0.310888 1.178 
0.869348 -0.310624 1.177 
0.916273 -0.310624 1.177 
0.959924 -0.309568 1.173 
1.00583 -0.309304 1.172 
1.05166 -0.30904 1.171 
1.09928 -0.309304 1.172 
1.1421 -0.308249 1.168 
-0.727107 -0.223378 0.854 
-0.668713 -0.215531 0.824 
-0.63046 -0.2137 0.817 
-0.608373 -0.218146 0.834 
-0.553924 -0.210822 0.806 
-0.521143 -0.210561 0.805 
-0.5012 -0.215792 0.825 
-0.475688 -0.219193 0.838 
-0.45864 -0.227301 0.869 
-0.464471 -0.260258 0.995 
-0.474754 -0.290862 1.112 
-0.453645 -0.306556 1.172 
-0.410739 -0.309433 1.183 
-0.360502 -0.306817 1.173 
-0.317214 -0.310218 1.186 
-0.26993 -0.310218 1.186 
-0.222084 -0.309433 1.183 
-0.175807 -0.311002 1.189 
-0.128404 -0.311002 1.189 
-0.080933 -0.310741 1.188 
-0.0335982 -0.311002 1.189 
0.0137583 -0.309956 1.185 
0.0611563 -0.310741 1.188 
0.108245 -0.309956 1.185 
0.155489 -0.309956 1.185 
0.202048 -0.30891 1.181 
0.215813 -0.243257 0.93 
0.242013 -0.232794 0.89 
0.270948 -0.227301 0.869 
0.423979 -0.309171 1.182 
0.472298 -0.309956 1.185 
0.517788 -0.30891 1.181 
0.563915 -0.308387 1.179 
0.611956 -0.30891 1.181 
0.660156 -0.309433 1.183 
0.706124 -0.30891 1.181 
0.751295 -0.308125 1.178 
0.798937 -0.308387 1.179 
0.845224 -0.308125 1.178 
0.890673 -0.307602 1.176 
0.937558 -0.307602 1.176 
0.981931 -0.306817 1.173 
1.02694 -0.306294 1.171 
1.07363 -0.306294 1.171 
1.1184 -0.305771 1.169 
-0.746877 -0.221893 0.856 
-0.702758 -0.218783 0.844 
-0.646119 -0.211265 0.815 
-0.633955 -0.218264 0.842 
-0.574958 -0.20971 0.809 
-0.542034 -0.209451 0.808 
-0.511714 -0.210228 0.811 
-0.492385 -0.215931 0.833 
-0.468546 -0.220338 0.85 
-0.470834 -0.250148 0.965 
-0.477614 -0.27633 1.066 
-0.463687 -0.294475 1.136 
-0.435708 -0.306659 1.183 
-0.386245 -0.304844 1.176 
-0.341957 -0.307177 1.185 
-0.295709 -0.308214 1.189 
-0.24747 -0.307177 1.185 
-0.199889 -0.306659 1.183 
-0.153371 -0.307955 1.188 
-0.105829 -0.307436 1.186 
-0.0587926 -0.308732 1.191 
-0.0112624 -0.307436 1.186 
0.0358995 -0.306399 1.182 
0.083515 -0.308214 1.189 
0.130478 -0.307177 1.185 
0.177421 -0.306659 1.183 
0.224205 -0.30614 1.181 
0.231644 -0.237187 0.915 
0.25816 -0.228374 0.881 
0.288956 -0.225004 0.868 
0.450066 -0.307177 1.185 
0.494791 -0.305622 1.179 
0.541796 -0.305622 1.179 
0.590798 -0.306659 1.183 
0.637961 -0.306659 1.183 
0.683967 -0.30614 1.181 
0.729813 -0.305622 1.179 
0.776158 -0.305363 1.178 
0.823123 -0.305363 1.178 
0.869348 -0.305103 1.177 
0.915494 -0.304844 1.176 
0.960742 -0.304326 1.174 
1.00583 -0.303807 1.172 
1.05076 -0.303289 1.17 
1.09834 -0.303548 1.171 
1.1421 -0.30277 1.168 
-0.729661 -0.220143 0.857 
-0.672771 -0.21295 0.829 
-0.63046 -0.209868 0.817 
-0.610329 -0.214235 0.834 
-0.558397 -0.207299 0.807 
-0.526875 -0.207556 0.808 
-0.506906 -0.212693 0.828 
-0.479619 -0.215262 0.838 
-0.461651 -0.222711 0.867 
-0.469619 -0.257133 1.001 
-0.476932 -0.285389 1.111 
-0.454836 -0.300031 1.168 
-0.413513 -0.303884 1.183 
-0.362943 -0.301059 1.172 
-0.319995 -0.304655 1.186 
-0.272712 -0.304655 1.186 
-0.225238 -0.304398 1.185 
-0.178595 -0.305426 1.189 
-0.131193 -0.305426 1.189 
-0.0837191 -0.305169 1.188 
-0.0363866 -0.305426 1.189 
0.0109886 -0.304655 1.186 
0.0582719 -0.304655 1.186 
0.105555 -0.304655 1.186 
0.152839 -0.304655 1.186 
0.198941 -0.302857 1.179 
0.218133 -0.241463 0.94 
0.243916 -0.230418 0.897 
0.272818 -0.224766 0.875 
0.422276 -0.304398 1.185 
0.468727 -0.303884 1.183 
0.515018 -0.303371 1.181 
0.56115 -0.302857 1.179 
0.609186 -0.303371 1.181 
0.657382 -0.303884 1.183 
0.703354 -0.303371 1.181 
0.748532 -0.3026 1.178 
0.796172 -0.302857 1.179 
0.843176 -0.302857 1.179 
0.88867 -0.302343 1.177 
0.935595 -0.302343 1.177 
0.97918 -0.301316 1.173 
1.0242 -0.300802 1.171 
1.07088 -0.300802 1.171 
1.11566 -0.300288 1.169 
1.16226 -0.300288 1.169 
-0.712578 -0.216606 0.851 
-0.653131 -0.208461 0.819 
-0.628813 -0.211261 0.83 
-0.58233 -0.207188 0.814 
-0.547175 -0.20617 0.81 
-0.515518 -0.206424 0.811 
-0.494932 -0.212279 0.834 
-0.471093 -0.216606 0.851 
-0.474375 -0.245113 0.963 
-0.477634 -0.26853 1.055 
-0.466125 -0.287365 1.129 
-0.440883 -0.300855 1.182 
-0.39276 -0.300092 1.179 
-0.346636 -0.300855 1.182 
-0.301032 -0.302383 1.188 
-0.253028 -0.301619 1.185 
-0.205785 -0.301619 1.185 
-0.159077 -0.302637 1.189 
-0.111674 -0.302637 1.189 
-0.0643788 -0.303146 1.191 
-0.0168252 -0.301874 1.186 
0.0303555 -0.300855 1.182 
0.0778727 -0.302383 1.188 
0.125025 -0.301874 1.186 
0.172308 -0.301874 1.186 
0.218851 -0.300855 1.182 
0.232508 -0.23595 0.927 
0.259001 -0.226787 0.891 
0.401394 -0.302637 1.189 
0.446532 -0.30111 1.183 
0.491609 -0.299837 1.178 
0.539945 -0.300601 1.181 
0.588023 -0.30111 1.183 
0.635187 -0.30111 1.183 
0.681774 -0.300855 1.182 
0.727048 -0.300092 1.179 
0.774052 -0.300092 1.179 
0.82036 -0.299837 1.178 
0.867324 -0.299837 1.178 
0.912736 -0.299328 1.176 
0.957989 -0.298819 1.174 
1.00394 -0.298565 1.173 
1.04802 -0.297801 1.17 
1.0956 -0.298056 1.171 
1.14033 -0.297547 1.169 
-0.735939 -0.217384 0.862 
-0.677971 -0.210071 0.833 
-0.632376 -0.206036 0.817 
-0.611551 -0.210071 0.833 
-0.560983 -0.203766 0.808 
-0.530733 -0.204523 0.811 
-0.511921 -0.210071 0.833 
-0.483308 -0.212088 0.841 
-0.464219 -0.218897 0.868 
-0.474788 -0.25269 1.002 
-0.479539 -0.278665 1.105 
-0.455191 -0.291274 1.155 
-0.419062 -0.298336 1.183 
-0.368125 -0.295309 1.171 
-0.325558 -0.299092 1.186 
-0.278744 -0.299597 1.188 
-0.230796 -0.29884 1.185 
-0.184172 -0.299849 1.189 
-0.136654 -0.299597 1.188 
-0.0892912 -0.299597 1.188 
-0.042034 -0.300353 1.191 
0.00542584 -0.299092 1.186 
0.0526648 -0.29884 1.185 
0.0999926 -0.299092 1.186 
0.147524 -0.299597 1.188 
0.193903 -0.298083 1.182 
0.225464 -0.237811 0.943 
0.251622 -0.227471 0.902 
0.403842 -0.299597 1.188 
0.448927 -0.298083 1.182 
0.494372 -0.297075 1.178 
0.541796 -0.297327 1.179 
0.590798 -0.298336 1.183 
0.637961 -0.298336 1.183 
0.683967 -0.297831 1.181 
0.729813 -0.297327 1.179 
0.776158 -0.297075 1.178 
0.823123 -0.297075 1.178 
0.870087 -0.297075 1.178 
0.915494 -0.29657 1.176 
0.961561 -0.296318 1.175 
1.00669 -0.295814 1.173 
1.05076 -0.295057 1.17 
1.09834 -0.295309 1.171 
1.14307 -0.294805 1.169 
-0.734769 -0.215612 0.863 
-0.676017 -0.208117 0.833 
-0.631232 -0.204369 0.818 
-0.603743 -0.206118 0.825 
-0.55978 -0.202121 0.809 
-0.529483 -0.20287 0.812 
-0.512416 -0.209116 0.837 
-0.483625 -0.211115 0.845 
-0.463249 -0.217361 0.87 
-0.481396 -0.255087 1.021 
-0.478243 -0.276823 1.108 
-0.454049 -0.289565 1.159 
-0.416287 -0.295561 1.183 
-0.365691 -0.292813 1.172 
-0.322776 -0.296311 1.186 
-0.275493 -0.296311 1.186 
-0.228017 -0.296061 1.185 
-0.181384 -0.29706 1.189 
-0.133981 -0.29706 1.189 
-0.086578 -0.29706 1.189 
-0.039175 -0.29706 1.189 
0.00820721 -0.296311 1.186 
0.0554438 -0.296061 1.185 
0.102774 -0.296311 1.186 
0.15031 -0.29681 1.188 
0.196675 -0.295311 1.182 
0.223501 -0.245593 0.983 
0.251166 -0.226855 0.908 
0.404182 -0.29706 1.189 
0.448547 -0.295062 1.181 
0.494372 -0.294312 1.178 
0.541796 -0.294562 1.179 
0.590798 -0.295561 1.183 
0.637961 -0.295561 1.183 
0.683967 -0.295062 1.181 
0.729813 -0.294562 1.179 
0.776158 -0.294312 1.178 
0.823821 -0.294562 1.179 
0.870087 -0.294312 1.178 
0.915494 -0.293812 1.176 
0.961561 -0.293563 1.175 
1.00669 -0.293063 1.173 
1.05076 -0.292313 1.17 
1.09741 -0.292313 1.17 
1.14307 -0.292063 1.169 
-0.737324 -0.214331 0.866 
-0.676829 -0.206411 0.834 
-0.632775 -0.202946 0.82 
-0.602279 -0.203689 0.823 
-0.560472 -0.200471 0.81 
-0.530136 -0.201214 0.813 
-0.514252 -0.207896 0.84 
-0.484197 -0.209381 0.846 
-0.463249 -0.215321 0.87 
-0.483224 -0.25492 1.03 
-0.476503 -0.27472 1.11 
-0.454057 -0.288579 1.166 
-0.413513 -0.292787 1.183 
-0.363252 -0.290312 1.173 
-0.320535 -0.294024 1.188 
-0.272712 -0.293529 1.186 
-0.225238 -0.293282 1.185 
-0.178595 -0.294272 1.189 
-0.131193 -0.294272 1.189 
-0.0837191 -0.294024 1.188 
-0.036356 -0.294024 1.188 
0.0109886 -0.293529 1.186 
0.0582228 -0.293282 1.185 
0.105555 -0.293529 1.186 
0.153096 -0.294024 1.188 
0.199447 -0.292539 1.182 
0.223121 -0.24799 1.002 
0.24986 -0.225468 0.911 
0.284609 -0.224231 0.906 
0.432295 -0.292539 1.182 
0.47739 -0.291302 1.177 
0.525206 -0.291797 1.179 
0.57221 -0.291797 1.179 
0.620265 -0.292292 1.181 
0.667914 -0.292539 1.182 
0.714433 -0.292292 1.181 
0.760227 -0.291797 1.179 
0.807232 -0.291797 1.179 
0.854236 -0.291797 1.179 
0.898947 -0.291054 1.176 
0.945832 -0.291054 1.176 
0.990184 -0.290312 1.173 
1.03518 -0.289817 1.171 
1.08187 -0.289817 1.171 
1.12566 -0.289074 1.168 
-0.749804 -0.21181 0.864 
-0.703767 -0.208378 0.85 
-0.650177 -0.202249 0.825 
-0.618782 -0.202739 0.827 
-0.577311 -0.199797 0.815 
-0.543482 -0.199307 0.813 
-0.524102 -0.205926 0.84 
-0.490029 -0.205681 0.839 
-0.46692 -0.210339 0.858 
-0.486111 -0.25275 1.031 
-0.478243 -0.271626 1.108 
-0.453657 -0.283884 1.158 
-0.416287 -0.290013 1.183 
-0.366003 -0.287561 1.173 
-0.322776 -0.290748 1.186 
-0.275493 -0.290748 1.186 
-0.228017 -0.290503 1.185 
-0.181384 -0.291483 1.189 
-0.133981 -0.291483 1.189 
-0.086578 -0.291483 1.189 
-0.039175 -0.291483 1.189 
0.00822105 -0.291238 1.188 
0.0554438 -0.290503 1.185 
0.102774 -0.290748 1.186 
0.15031 -0.291238 1.188 
0.196841 -0.290013 1.183 
0.223195 -0.248337 1.013 
0.241803 -0.225783 0.921 
0.277009 -0.224558 0.916 
0.422276 -0.290503 1.185 
0.466746 -0.288787 1.178 
0.515018 -0.289522 1.181 
0.56115 -0.289032 1.179 
0.608155 -0.289032 1.179 
0.655159 -0.289032 1.179 
0.703354 -0.289522 1.181 
0.749167 -0.289032 1.179 
0.796172 -0.289032 1.179 
0.842461 -0.288787 1.178 
0.887915 -0.288296 1.176 
0.935595 -0.288542 1.177 
0.980015 -0.287806 1.174 
1.0242 -0.287071 1.171 
1.07088 -0.287071 1.171 
1.11566 -0.28658 1.169 
1.16326 -0.286826 1.17 
-0.727169 -0.210269 0.866 
-0.666249 -0.202257 0.833 
-0.6262 -0.200071 0.824 
-0.589028 -0.198614 0.818 
-0.552335 -0.197158 0.812 
-0.525725 -0.199343 0.821 
-0.502601 -0.203228 0.837 
-0.47708 -0.206627 0.851 
-0.482078 -0.236492 0.974 
-0.484618 -0.261258 1.076 
-0.46512 -0.275098 1.133 
-0.438111 -0.286995 1.182 
-0.389664 -0.286024 1.178 
-0.343864 -0.286995 1.182 
-0.298246 -0.288452 1.188 
-0.250249 -0.287724 1.185 
-0.20352 -0.288452 1.188 
-0.156288 -0.288695 1.189 
-0.109068 -0.289181 1.191 
-0.0615857 -0.289181 1.191 
-0.0140319 -0.287724 1.185 
0.0331555 -0.287238 1.183 
0.0806587 -0.288452 1.188 
0.128022 -0.288452 1.188 
0.174942 -0.287724 1.185 
0.222373 -0.287967 1.186 
0.237043 -0.231636 0.954 
0.262678 -0.221195 0.911 
0.401056 -0.288452 1.188 
0.445777 -0.286753 1.181 
0.492026 -0.286267 1.179 
0.539945 -0.286753 1.181 
0.587526 -0.286995 1.182 
0.635187 -0.287238 1.183 
0.681774 -0.286995 1.182 
0.728281 -0.286753 1.181 
0.773396 -0.286024 1.178 
0.82036 -0.286024 1.178 
0.867324 -0.286024 1.178 
0.912736 -0.285539 1.176 
0.959621 -0.285539 1.176 
1.00394 -0.28481 1.173 
1.04891 -0.284325 1.171 
1.0956 -0.284325 1.171 
1.14033 -0.283839 1.169 
-0.744275 -0.208479 0.867 
-0.694156 -0.20391 0.848 
-0.64711 -0.199822 0.831 
-0.605853 -0.197177 0.82 
-0.569666 -0.195975 0.815 
-0.536515 -0.195734 0.814 
-0.521894 -0.203429 0.846 
-0.487588 -0.203188 0.845 
-0.465718 -0.208479 0.867 
-0.489678 -0.252242 1.049 
-0.474327 -0.267151 1.111 
-0.452483 -0.281097 1.169 
-0.410739 -0.284464 1.183 
-0.361424 -0.282781 1.176 
-0.317749 -0.285666 1.188 
-0.26993 -0.285185 1.186 
-0.222647 -0.285185 1.186 
-0.175807 -0.285907 1.189 
-0.128404 -0.285907 1.189 
-0.080933 -0.285666 1.188 
-0.0335699 -0.285666 1.188 
0.0137932 -0.285666 1.188 
0.0610018 -0.284945 1.185 
0.108245 -0.284945 1.185 
0.155882 -0.285666 1.188 
0.202732 -0.284945 1.185 
0.232596 -0.24599 1.023 
0.253379 -0.220261 0.916 
0.383369 -0.284945 1.185 
0.429523 -0.284223 1.182 
0.475033 -0.283262 1.178 
0.523327 -0.283983 1.181 
0.569445 -0.283502 1.179 
0.617495 -0.283983 1.181 
0.663454 -0.283502 1.179 
0.711663 -0.283983 1.181 
0.75682 -0.283262 1.178 
0.804467 -0.283502 1.179 
0.851471 -0.283502 1.179 
0.896189 -0.282781 1.176 
0.943074 -0.282781 1.176 
0.988275 -0.2823 1.174 
1.03243 -0.281578 1.171 
1.07912 -0.281578 1.171 
1.12292 -0.280857 1.168 
-0.756474 -0.206445 0.867 
-0.723574 -0.206922 0.869 
-0.658058 -0.198826 0.835 
-0.614293 -0.195492 0.821 
-0.579436 -0.194778 0.818 
-0.542813 -0.193349 0.812 
-0.529718 -0.202159 0.849 
-0.491197 -0.200254 0.841 
-0.465831 -0.203826 0.856 
-0.492408 -0.24502 1.029 
-0.48209 -0.261688 1.099 
-0.456221 -0.272403 1.144 
-0.42461 -0.28169 1.183 
-0.375213 -0.280023 1.176 
-0.33112 -0.282404 1.186 
-0.284316 -0.28288 1.188 
-0.236354 -0.282166 1.185 
-0.189749 -0.283118 1.189 
-0.142346 -0.283118 1.189 
-0.0951029 -0.283594 1.191 
-0.0475402 -0.283118 1.189 
-0.000137259 -0.283118 1.189 
0.0471067 -0.282166 1.185 
0.0944298 -0.282404 1.186 
0.141952 -0.28288 1.188 
0.188837 -0.282166 1.185 
0.23628 -0.282404 1.186 
0.247192 -0.220256 0.925 
0.285298 -0.221208 0.929 
0.421207 -0.281451 1.182 
0.467142 -0.280737 1.179 
0.515454 -0.281451 1.182 
0.562102 -0.281213 1.181 
0.608155 -0.280737 1.179 
0.655159 -0.280737 1.179 
0.703354 -0.281213 1.181 
0.748532 -0.280499 1.178 
0.795497 -0.280499 1.178 
0.842461 -0.280499 1.178 
0.889425 -0.280499 1.178 
0.935595 -0.280261 1.177 
0.98085 -0.279785 1.175 
1.0242 -0.278832 1.171 
1.07088 -0.278832 1.171 
1.11566 -0.278356 1.169 
1.16326 -0.278594 1.17 
-0.732207 -0.205591 0.872 
-0.667113 -0.197811 0.839 
-0.620824 -0.193802 0.822 
-0.585191 -0.192859 0.818 
-0.549202 -0.191681 0.813 
-0.531409 -0.197103 0.836 
-0.49808 -0.197103 0.836 
-0.472533 -0.200404 0.85 
-0.490907 -0.238363 1.011 
-0.484028 -0.256046 1.086 
-0.462241 -0.268541 1.139 
-0.432567 -0.278679 1.182 
-0.384139 -0.277736 1.178 
-0.339465 -0.279623 1.186 
-0.29292 -0.28033 1.189 
-0.244691 -0.279387 1.185 
-0.198114 -0.28033 1.189 
-0.150711 -0.28033 1.189 
-0.103482 -0.280801 1.191 
-0.0559055 -0.28033 1.189 
-0.00849534 -0.280094 1.188 
0.0388023 -0.279623 1.186 
0.0862309 -0.280094 1.188 
0.133594 -0.280094 1.188 
0.180652 -0.279623 1.186 
0.227936 -0.279623 1.186 
0.245635 -0.235298 0.998 
0.271155 -0.216436 0.918 
0.405601 -0.279387 1.185 
0.451698 -0.278679 1.182 
0.497556 -0.277972 1.179 
0.544561 -0.277972 1.179 
0.592568 -0.278444 1.181 
0.640194 -0.278679 1.182 
0.686737 -0.278444 1.181 
0.73382 -0.278444 1.181 
0.778921 -0.277736 1.178 
0.825885 -0.277736 1.178 
0.873591 -0.277972 1.179 
0.918252 -0.277265 1.176 
0.965137 -0.277265 1.176 
1.00944 -0.276558 1.173 
1.0544 -0.276086 1.171 
1.10109 -0.276086 1.171 
1.14679 -0.27585 1.17 
-0.74277 -0.203079 0.87 
-0.699132 -0.200511 0.859 
-0.645535 -0.194676 0.834 
-0.600538 -0.190941 0.818 
-0.567926 -0.190941 0.818 
-0.533351 -0.190241 0.815 
-0.518066 -0.196777 0.843 
-0.485607 -0.197243 0.845 
-0.495019 -0.228055 0.977 
-0.491545 -0.245796 1.053 
-0.475181 -0.259801 1.113 
-0.452871 -0.273106 1.17 
-0.410739 -0.276141 1.183 
-0.362038 -0.274974 1.178 
-0.317749 -0.277308 1.188 
-0.26993 -0.276841 1.186 
-0.222647 -0.276841 1.186 
-0.175807 -0.277541 1.189 
-0.128404 -0.277541 1.189 
-0.0810011 -0.277541 1.189 
-0.0335982 -0.277541 1.189 
0.0138048 -0.277541 1.189 
0.0610533 -0.276841 1.186 
0.108337 -0.276841 1.186 
0.156014 -0.277541 1.189 
0.202732 -0.276608 1.185 
0.250187 -0.276841 1.186 
0.253425 -0.215684 0.924 
0.383369 -0.276608 1.185 
0.429886 -0.276141 1.183 
0.476243 -0.275674 1.181 
0.522441 -0.275207 1.179 
0.569445 -0.275207 1.179 
0.616449 -0.275207 1.179 
0.664579 -0.275674 1.181 
0.712266 -0.275907 1.182 
0.756177 -0.27474 1.177 
0.803784 -0.274974 1.178 
0.851471 -0.275207 1.179 
0.896189 -0.274507 1.176 
0.943074 -0.274507 1.176 
0.988275 -0.27404 1.174 
1.03155 -0.273106 1.17 
1.07912 -0.27334 1.171 
1.12388 -0.272873 1.169 
-0.75124 -0.200577 0.868 
-0.726542 -0.20335 0.88 
-0.662386 -0.1948 0.843 
-0.610876 -0.189254 0.819 
-0.578224 -0.189254 0.819 
-0.542908 -0.188329 0.815 
-0.520043 -0.1948 0.843 
-0.485857 -0.194569 0.842 
-0.494745 -0.226689 0.981 
-0.490934 -0.244251 1.057 
-0.474269 -0.258115 1.117 
-0.450896 -0.270825 1.172 
-0.407964 -0.273367 1.183 
-0.359276 -0.272211 1.178 
-0.314432 -0.27406 1.186 
-0.267149 -0.27406 1.186 
-0.219865 -0.27406 1.186 
-0.173019 -0.274753 1.189 
-0.125616 -0.274753 1.189 
-0.078147 -0.274522 1.188 
-0.0308098 -0.274753 1.189 
0.0165932 -0.274753 1.189 
0.0639423 -0.274522 1.188 
0.111118 -0.27406 1.186 
0.158802 -0.274753 1.189 
0.205685 -0.27406 1.186 
0.252755 -0.273829 1.185 
0.253974 -0.213979 0.926 
0.383369 -0.273829 1.185 
0.429886 -0.273367 1.183 
0.476646 -0.273135 1.182 
0.522441 -0.272442 1.179 
0.569445 -0.272442 1.179 
0.617495 -0.272904 1.181 
0.664579 -0.272904 1.181 
0.712266 -0.273135 1.182 
0.756177 -0.27198 1.177 
0.803784 -0.272211 1.178 
0.851471 -0.272442 1.179 
0.896189 -0.271749 1.176 
0.943074 -0.271749 1.176 
0.988275 -0.271287 1.174 
1.03155 -0.270363 1.17 
1.07912 -0.270594 1.171 
1.12388 -0.270131 1.169 
-0.754143 -0.19877 0.869 
-0.733574 -0.202658 0.886 
-0.668303 -0.193966 0.848 
-0.613545 -0.187562 0.82 
-0.581561 -0.187791 0.821 
-0.546156 -0.186876 0.817 
-0.520782 -0.192365 0.841 
-0.486094 -0.191908 0.839 
-0.498059 -0.224845 0.983 
-0.493413 -0.241772 1.057 
-0.476888 -0.255496 1.117 
-0.452871 -0.267619 1.17 
-0.410739 -0.270592 1.183 
-0.362346 -0.269677 1.179 
-0.317214 -0.271278 1.186 
-0.26993 -0.271278 1.186 
-0.222459 -0.27105 1.185 
-0.175807 -0.271965 1.189 
-0.128404 -0.271965 1.189 
-0.0810011 -0.271965 1.189 
-0.0335982 -0.271965 1.189 
0.0138048 -0.271965 1.189 
0.0611563 -0.271736 1.188 
0.108337 -0.271278 1.186 
0.155882 -0.271736 1.188 
0.202903 -0.271278 1.186 
0.250187 -0.271278 1.186 
0.271246 -0.234223 1.024 
0.40838 -0.27105 1.185 
0.455624 -0.27105 1.185 
0.500321 -0.269677 1.179 
0.547326 -0.269677 1.179 
0.595338 -0.270135 1.181 
0.642966 -0.270363 1.182 
0.689506 -0.270135 1.181 
0.73659 -0.270135 1.181 
0.782347 -0.269677 1.179 
0.827944 -0.26922 1.177 
0.876356 -0.269677 1.179 
0.92101 -0.268991 1.176 
0.967072 -0.268762 1.175 
1.01133 -0.268076 1.172 
1.05715 -0.267847 1.171 
1.10384 -0.267847 1.171 
1.14954 -0.267619 1.17 
-0.741729 -0.198317 0.876 
-0.70277 -0.197185 0.871 
-0.639667 -0.188808 0.834 
-0.59551 -0.185412 0.819 
-0.566982 -0.186771 0.825 
-0.534091 -0.186771 0.825 
-0.507883 -0.189261 0.836 
-0.479094 -0.191072 0.844 
-0.4958 -0.22571 0.997 
-0.492646 -0.243821 1.077 
-0.473926 -0.256951 1.135 
-0.444161 -0.266233 1.176 
-0.399641 -0.267818 1.183 
-0.352478 -0.267818 1.183 
-0.306604 -0.26895 1.188 
-0.258805 -0.268497 1.186 
-0.211878 -0.26895 1.188 
-0.164653 -0.269176 1.189 
-0.11725 -0.269176 1.189 
-0.0698475 -0.269176 1.189 
-0.0224445 -0.269176 1.189 
0.0249374 -0.26895 1.188 
0.0723614 -0.269176 1.189 
0.119361 -0.268271 1.185 
0.167027 -0.26895 1.188 
0.214029 -0.268497 1.186 
0.240496 -0.232275 1.026 
0.369474 -0.268271 1.185 
0.416014 -0.267818 1.183 
0.463178 -0.267818 1.183 
0.509479 -0.267365 1.181 
0.55562 -0.266912 1.179 
0.603647 -0.267365 1.181 
0.651833 -0.267818 1.183 
0.698406 -0.267591 1.182 
0.743007 -0.266686 1.178 
0.790642 -0.266912 1.179 
0.837646 -0.266912 1.179 
0.8839 -0.266686 1.178 
0.930074 -0.26646 1.177 
0.975339 -0.266007 1.175 
1.0187 -0.265101 1.171 
1.06539 -0.265101 1.171 
1.11207 -0.265101 1.171 
1.15678 -0.264648 1.169 
-0.741885 -0.198503 0.886 
-0.687423 -0.193126 0.862 
-0.629571 -0.18618 0.831 
-0.590698 -0.184388 0.823 
-0.559243 -0.184836 0.825 
-0.532094 -0.186852 0.834 
-0.498844 -0.186852 0.834 
-0.472293 -0.189541 0.846 
-0.500849 -0.236814 1.057 
