# .PCD v.7 - Point Cloud Data file format
VERSION .7
FIELDS x y z
SIZE 4 4 4
TYPE F F F
COUNT 1 1 1
WIDTH 1893
HEIGHT 1
VIEWPOINT 0 0 0 1 0 0 0
POINTS 1893
DATA ascii
0.597354 0.156921 1.185 
0.64351 0.156656 1.183 
0.693593 0.157318 1.188 
0.742827 0.157715 1.191 
0.788319 0.157318 1.188 
0.822317 0.154802 1.169 
0.824324 0.146857 1.109 
0.814499 0.13772 1.04 
0.806579 0.129774 0.98 
0.807682 0.123948 0.936 
0.80347 0.117856 0.89 
0.797477 0.11203 0.846 
0.80566 0.108587 0.82 
-0.471616 0.0900249 0.668 
-0.463636 0.0937984 0.696 
-0.465323 0.100132 0.743 
-0.465608 0.107006 0.794 
-0.464559 0.114553 0.85 
-0.465125 0.123717 0.918 
-0.463537 0.133824 0.993 
-0.466215 0.147166 1.092 
-0.439323 0.152961 1.135 
-0.39442 0.153096 1.136 
-0.350052 0.1535 1.139 
-0.305713 0.15404 1.143 
-0.259916 0.153905 1.142 
-0.215701 0.154848 1.149 
-0.170632 0.155522 1.154 
-0.124948 0.155926 1.157 
-0.0790936 0.156465 1.161 
-0.03292 0.157004 1.165 
0.0135261 0.157004 1.165 
0.0600752 0.157274 1.167 
0.106784 0.157544 1.169 
0.153783 0.157948 1.172 
0.200679 0.158083 1.173 
0.248077 0.158487 1.176 
0.294711 0.158352 1.175 
0.341265 0.158217 1.174 
0.389392 0.158756 1.178 
0.437468 0.159161 1.181 
0.483732 0.158891 1.179 
0.531636 0.159161 1.181 
0.58068 0.1597 1.185 
0.626864 0.15943 1.183 
0.675737 0.159835 1.186 
0.724849 0.160239 1.189 
0.773551 0.160508 1.191 
0.811383 0.158622 1.177 
0.82695 0.152827 1.134 
0.819862 0.143662 1.066 
0.812205 0.135307 1.004 
0.808093 0.128299 0.952 
0.806944 0.122369 0.908 
0.80043 0.11617 0.862 
0.805743 0.112127 0.832 
-0.47586 0.0909059 0.663 
-0.468408 0.0947451 0.691 
-0.464466 0.0998182 0.728 
-0.466545 0.106948 0.78 
-0.465036 0.114215 0.833 
-0.468632 0.12395 0.904 
-0.46561 0.133411 0.973 
-0.464105 0.145066 1.058 
-0.451834 0.155349 1.133 
-0.407741 0.15576 1.136 
-0.363408 0.156172 1.139 
-0.318836 0.156583 1.142 
-0.273307 0.156583 1.142 
-0.229573 0.157817 1.151 
-0.184323 0.158365 1.155 
-0.138156 0.158228 1.154 
-0.0927073 0.159188 1.161 
-0.0464607 0.159325 1.162 
-0.000134604 0.159874 1.166 
0.0463514 0.159874 1.166 
0.0931559 0.160422 1.17 
0.14004 0.160696 1.172 
0.186925 0.160833 1.173 
0.234288 0.161245 1.176 
0.281411 0.161382 1.177 
0.32722 0.160833 1.173 
0.375898 0.161656 1.179 
0.422902 0.161656 1.179 
0.469907 0.161656 1.179 
0.518226 0.162068 1.182 
0.566785 0.162479 1.185 
0.612992 0.162205 1.183 
0.661272 0.162479 1.185 
0.710309 0.16289 1.188 
0.759586 0.163302 1.191 
0.803003 0.162479 1.185 
0.822263 0.157131 1.146 
0.823267 0.149042 1.087 
0.817174 0.140541 1.025 
0.806975 0.132177 0.964 
0.807698 0.126281 0.921 
0.800407 0.1197 0.873 
0.80077 0.114764 0.837 
-0.480717 0.0919029 0.659 
-0.468919 0.0958077 0.687 
-0.465309 0.100968 0.724 
-0.465381 0.107662 0.772 
-0.464439 0.115053 0.825 
-0.466595 0.124397 0.892 
-0.465825 0.134438 0.964 
-0.465964 0.14657 1.051 
-0.455938 0.157588 1.13 
-0.413069 0.158424 1.136 
-0.36875 0.158843 1.139 
-0.324192 0.159261 1.142 
-0.278907 0.159401 1.143 
-0.234971 0.160516 1.151 
-0.189741 0.161074 1.155 
-0.143693 0.161074 1.155 
-0.0979838 0.161632 1.159 
-0.0519109 0.16205 1.162 
-0.00560354 0.162608 1.166 
0.0408825 0.162608 1.166 
0.0876682 0.163166 1.17 
0.134543 0.163445 1.172 
0.181423 0.163584 1.173 
0.228577 0.163863 1.175 
0.275891 0.164142 1.177 
0.321444 0.163445 1.172 
0.370368 0.164421 1.179 
0.418081 0.1647 1.181 
0.464377 0.164421 1.179 
0.512682 0.16484 1.182 
0.561227 0.165258 1.185 
0.60847 0.165258 1.185 
0.655714 0.165258 1.185 
0.704737 0.165676 1.188 
0.754633 0.166234 1.192 
0.799463 0.165676 1.188 
0.821165 0.160656 1.152 
0.827201 0.153264 1.099 
0.8195 0.1442 1.034 
0.80828 0.135414 0.971 
0.809484 0.129417 0.928 
0.802698 0.122723 0.88 
0.802557 0.117563 0.843 
0.81236 0.114216 0.819 
-0.468705 0.0967098 0.682 
-0.465468 0.101957 0.719 
-0.466572 0.108905 0.768 
-0.464335 0.115995 0.818 
-0.467612 0.125638 0.886 
-0.465955 0.135422 0.955 
-0.464621 0.14705 1.037 
-0.457973 0.159103 1.122 
-0.418397 0.161089 1.136 
-0.373764 0.161372 1.138 
-0.32926 0.161798 1.141 
-0.284517 0.162223 1.144 
-0.239952 0.162932 1.149 
-0.194989 0.163641 1.154 
-0.149369 0.164066 1.157 
-0.103331 0.164208 1.158 
-0.057361 0.164775 1.162 
-0.0110725 0.165343 1.166 
0.0354439 0.165484 1.167 
0.0821805 0.16591 1.17 
0.128936 0.166052 1.171 
0.175921 0.166335 1.173 
0.223066 0.166619 1.175 
0.27037 0.166902 1.177 
0.316217 0.166335 1.173 
0.364838 0.167186 1.179 
0.412541 0.16747 1.181 
0.459625 0.16747 1.181 
0.506709 0.16747 1.181 
0.554731 0.167753 1.183 
0.602912 0.168037 1.185 
0.649059 0.167753 1.183 
0.699165 0.168462 1.188 
0.748413 0.168888 1.191 
0.794559 0.168604 1.189 
0.820719 0.16435 1.159 
0.828778 0.157118 1.108 
0.824104 0.148326 1.046 
0.808493 0.138116 0.974 
0.809047 0.131877 0.93 
0.805183 0.125496 0.885 
0.805328 0.120249 0.848 
0.810439 0.116137 0.819 
-0.469615 0.0981651 0.681 
-0.465855 0.103354 0.717 
-0.465933 0.110129 0.764 
-0.465114 0.117625 0.816 
-0.465979 0.126706 0.879 
-0.467705 0.137518 0.954 
-0.462549 0.14804 1.027 
-0.458141 0.16087 1.116 
-0.421061 0.163753 1.136 
-0.376433 0.164041 1.138 
-0.331936 0.164473 1.141 
-0.287451 0.16505 1.145 
-0.242436 0.165482 1.148 
-0.197695 0.166347 1.154 
-0.152082 0.16678 1.157 
-0.106046 0.166924 1.158 
-0.0600861 0.167501 1.162 
-0.013807 0.168077 1.166 
0.0327351 0.168365 1.168 
0.0793687 0.16851 1.169 
0.12619 0.168798 1.171 
0.17317 0.169086 1.173 
0.220311 0.169374 1.175 
0.26761 0.169663 1.177 
0.314 0.169374 1.175 
0.362073 0.169951 1.179 
0.410119 0.170383 1.182 
0.456856 0.170239 1.181 
0.50394 0.170239 1.181 
0.551957 0.170528 1.183 
0.600133 0.170816 1.185 
0.646284 0.170528 1.183 
0.696379 0.171248 1.188 
0.74562 0.171681 1.191 
0.793103 0.171681 1.191 
0.820118 0.167501 1.162 
0.828416 0.160149 1.111 
0.824793 0.151356 1.05 
0.808877 0.141265 0.98 
0.811607 0.135211 0.938 
0.806463 0.128436 0.891 
0.804186 0.12267 0.851 
0.808567 0.118346 0.821 
-0.469338 0.0990297 0.676 
-0.465946 0.104303 0.712 
-0.465829 0.111042 0.758 
-0.464918 0.118513 0.809 
-0.465824 0.127596 0.871 
-0.469704 0.139022 0.949 
-0.46236 0.148838 1.016 
-0.460469 0.162461 1.109 
-0.426014 0.16627 1.135 
-0.381435 0.166563 1.137 
-0.337288 0.167149 1.141 
-0.292566 0.167589 1.144 
-0.247604 0.168028 1.147 
-0.202756 0.168761 1.152 
-0.157509 0.169493 1.157 
-0.111478 0.16964 1.158 
-0.0655363 0.170226 1.162 
-0.0192759 0.170812 1.166 
0.0272568 0.171105 1.168 
0.0738857 0.171251 1.169 
0.120697 0.171544 1.171 
0.167669 0.171837 1.173 
0.214982 0.172277 1.176 
0.26209 0.172423 1.177 
0.308752 0.172277 1.176 
0.356241 0.17257 1.178 
0.404232 0.173009 1.181 
0.451698 0.173155 1.182 
0.4984 0.173009 1.181 
0.546408 0.173302 1.183 
0.594575 0.173595 1.185 
0.640736 0.173302 1.183 
0.691388 0.174181 1.189 
0.740034 0.174474 1.191 
0.7895 0.174913 1.194 
0.818874 0.171105 1.168 
0.82691 0.163487 1.116 
0.823772 0.154551 1.055 
0.816591 0.145761 0.995 
0.814953 0.138729 0.947 
0.810388 0.131844 0.9 
0.803015 0.125106 0.854 
0.807657 0.120711 0.824 
-0.469013 0.0998708 0.671 
-0.464013 0.104783 0.704 
-0.466288 0.112076 0.753 
-0.464657 0.119369 0.802 
-0.465053 0.128299 0.862 
-0.46866 0.139611 0.938 
-0.459309 0.14869 0.999 
-0.461471 0.163574 1.099 
-0.431718 0.169081 1.136 
-0.386768 0.16923 1.137 
-0.342639 0.169825 1.141 
-0.298192 0.17042 1.145 
-0.252764 0.170569 1.146 
-0.208159 0.171462 1.152 
-0.162513 0.17176 1.154 
-0.116909 0.172355 1.158 
-0.0709865 0.172951 1.162 
-0.0247448 0.173546 1.166 
0.0217785 0.173844 1.168 
0.0683442 0.173844 1.168 
0.115205 0.17429 1.171 
0.162167 0.174588 1.173 
0.209466 0.175034 1.176 
0.256569 0.175183 1.177 
0.303751 0.175332 1.178 
0.35012 0.175034 1.176 
0.398693 0.175779 1.181 
0.446155 0.175927 1.182 
0.492026 0.175481 1.179 
0.541774 0.176374 1.185 
0.589017 0.176374 1.185 
0.636261 0.176374 1.185 
0.685812 0.176969 1.189 
0.735064 0.177416 1.192 
0.7839 0.177714 1.194 
0.815485 0.17429 1.171 
0.829038 0.167592 1.126 
0.827362 0.158662 1.066 
0.817636 0.149136 1.002 
0.81479 0.141695 0.952 
0.812436 0.134997 0.907 
0.802752 0.127704 0.858 
0.80867 0.123387 0.829 
-0.470753 0.101142 0.669 
-0.464659 0.105829 0.7 
-0.464829 0.112632 0.745 
-0.466667 0.120796 0.799 
-0.463654 0.128809 0.852 
-0.469025 0.140601 0.93 
-0.45935 0.149521 0.989 
-0.461106 0.164186 1.086 
-0.436661 0.171594 1.135 
-0.392101 0.171896 1.137 
-0.347686 0.17235 1.14 
-0.303562 0.173106 1.145 
-0.258139 0.173257 1.146 
-0.213562 0.174164 1.152 
-0.167926 0.174466 1.154 
-0.122341 0.175071 1.158 
-0.076634 0.176129 1.165 
-0.0301879 0.176129 1.165 
0.0163001 0.176583 1.168 
0.0628659 0.176583 1.168 
0.109619 0.176885 1.17 
0.156665 0.177339 1.173 
0.20395 0.177792 1.176 
0.250835 0.177792 1.176 
0.298986 0.178548 1.181 
0.344605 0.177792 1.176 
0.393487 0.178699 1.182 
0.44061 0.178699 1.182 
0.486496 0.178246 1.179 
0.536216 0.179153 1.185 
0.583459 0.179153 1.185 
0.630703 0.179153 1.185 
0.680235 0.179758 1.189 
0.728862 0.18006 1.191 
0.7783 0.180514 1.194 
0.810685 0.177188 1.172 
0.828878 0.171291 1.133 
0.828533 0.162372 1.074 
0.825918 0.153905 1.018 
0.812879 0.144381 0.955 
0.809964 0.137426 0.909 
0.804313 0.130623 0.864 
0.808665 0.125936 0.833 
-0.471616 0.102557 0.668 
-0.464303 0.10701 0.697 
-0.465323 0.114072 0.743 
-0.465608 0.121902 0.794 
-0.464013 0.130346 0.849 
-0.467152 0.141554 0.922 
-0.460269 0.15138 0.986 
-0.461946 0.166119 1.082 
-0.439323 0.174256 1.135 
-0.395115 0.174716 1.138 
-0.350974 0.17533 1.142 
-0.306515 0.175944 1.146 
-0.260826 0.175944 1.146 
-0.216264 0.176866 1.152 
-0.17078 0.177326 1.155 
-0.125056 0.177787 1.158 
-0.0793661 0.178861 1.165 
-0.03292 0.178861 1.165 
0.0135494 0.179169 1.167 
0.0601782 0.179476 1.169 
0.106966 0.179783 1.171 
0.153914 0.18009 1.173 
0.201193 0.18055 1.176 
0.248077 0.18055 1.176 
0.296467 0.181471 1.182 
0.341847 0.18055 1.176 
0.391045 0.181625 1.183 
0.437838 0.181471 1.182 
0.484552 0.181318 1.181 
0.533437 0.181932 1.185 
0.58068 0.181932 1.185 
0.627924 0.181932 1.185 
0.677446 0.182546 1.189 
0.726678 0.183007 1.192 
0.774201 0.183007 1.192 
0.808625 0.18009 1.173 
0.82695 0.174102 1.134 
0.827553 0.165197 1.076 
0.826766 0.156907 1.022 
0.814883 0.147388 0.96 
0.80961 0.139865 0.911 
0.806001 0.133263 0.868 
0.807679 0.128043 0.834 
-0.470753 0.10428 0.669 
-0.465323 0.109268 0.701 
-0.464205 0.11597 0.744 
-0.466083 0.124388 0.798 
-0.464199 0.132961 0.853 
-0.468016 0.144651 0.928 
-0.460744 0.154627 0.992 
-0.460682 0.169124 1.085 
-0.437046 0.177073 1.136 
-0.392446 0.177385 1.138 
-0.347991 0.177853 1.141 
-0.303827 0.178632 1.146 
-0.258589 0.178944 1.148 
-0.213562 0.179567 1.152 
-0.168071 0.180035 1.155 
-0.122446 0.180658 1.159 
-0.076634 0.181594 1.165 
-0.0301879 0.181594 1.165 
0.0162862 0.181905 1.167 
0.0629735 0.182373 1.17 
0.109713 0.182529 1.171 
0.156665 0.182841 1.173 
0.20395 0.183308 1.176 
0.250835 0.183308 1.176 
0.299239 0.184243 1.182 
0.344605 0.183308 1.176 
0.39382 0.184399 1.183 
0.44061 0.184243 1.182 
0.487734 0.184243 1.182 
0.536216 0.184711 1.185 
0.583459 0.184711 1.185 
0.631235 0.184867 1.186 
0.681379 0.185646 1.191 
0.729474 0.185802 1.192 
0.776996 0.185802 1.192 
0.809993 0.182529 1.171 
0.825952 0.175982 1.129 
0.828533 0.167409 1.074 
0.826729 0.158836 1.019 
0.815432 0.149328 0.958 
0.811747 0.142002 0.911 
0.807106 0.135143 0.867 
0.808665 0.129843 0.833 
-0.470923 0.106956 0.676 
-0.463675 0.111703 0.706 
-0.466373 0.119614 0.756 
-0.463353 0.12705 0.803 
-0.467329 0.137651 0.87 
-0.468946 0.149201 0.943 
-0.459711 0.159011 1.005 
-0.461399 0.174833 1.105 
-0.429431 0.179896 1.137 
-0.384777 0.180212 1.139 
-0.340262 0.180687 1.142 
-0.295765 0.18132 1.146 
-0.250731 0.181794 1.149 
-0.205457 0.182269 1.152 
-0.160222 0.18306 1.157 
-0.114292 0.183376 1.159 
-0.0682614 0.183851 1.162 
-0.0220104 0.184484 1.166 
0.0245176 0.1848 1.168 
0.0711442 0.184959 1.169 
0.117951 0.185275 1.171 
0.165058 0.18575 1.174 
0.212585 0.186383 1.178 
0.259329 0.186224 1.177 
0.306774 0.186541 1.179 
0.353178 0.186224 1.177 
0.402143 0.187174 1.183 
0.449306 0.187174 1.183 
0.49647 0.187174 1.183 
0.544553 0.18749 1.185 
0.591796 0.18749 1.185 
0.639579 0.187648 1.186 
0.690337 0.188598 1.192 
0.73786 0.188598 1.192 
0.783406 0.188123 1.189 
0.811943 0.183851 1.162 
0.822816 0.176257 1.114 
0.825969 0.167871 1.061 
0.822441 0.159011 1.005 
0.817023 0.150625 0.952 
0.815462 0.143663 0.908 
0.808516 0.136385 0.862 
0.810614 0.131164 0.829 
-0.47142 0.109023 0.679 
-0.463983 0.11384 0.709 
-0.465829 0.121708 0.758 
-0.463593 0.130057 0.81 
-0.466976 0.140815 0.877 
-0.468464 0.152697 0.951 
-0.461336 0.163615 1.019 
-0.459107 0.178548 1.112 
-0.424099 0.182562 1.137 
-0.379435 0.182883 1.139 
-0.335198 0.183525 1.143 
-0.29039 0.184007 1.146 
-0.245769 0.18481 1.151 
-0.200402 0.185292 1.154 
-0.154795 0.185773 1.157 
-0.108856 0.186094 1.159 
-0.0628112 0.186576 1.162 
-0.0165414 0.187218 1.166 
0.0299959 0.18754 1.168 
0.0766928 0.187861 1.17 
0.123549 0.188182 1.172 
0.17071 0.188663 1.175 
0.21811 0.189145 1.178 
0.265075 0.189145 1.178 
0.312304 0.189306 1.179 
0.359004 0.189145 1.178 
0.407691 0.189948 1.183 
0.454855 0.189948 1.183 
0.502867 0.190269 1.185 
0.550111 0.190269 1.185 
0.597354 0.190269 1.185 
0.645142 0.19043 1.186 
0.695928 0.191393 1.192 
0.744698 0.191714 1.194 
0.786328 0.190269 1.185 
0.810358 0.18497 1.152 
0.825068 0.178227 1.11 
0.825463 0.169235 1.054 
0.822217 0.160404 0.999 
0.817174 0.152055 0.947 
0.817915 0.145472 0.906 
0.807846 0.137604 0.857 
0.811555 0.132626 0.826 
-0.470304 0.111105 0.682 
-0.464556 0.116481 0.715 
-0.467153 0.124789 0.766 
-0.463974 0.132609 0.814 
-0.46757 0.143686 0.882 
-0.466724 0.15509 0.952 
-0.460747 0.166657 1.023 
-0.45732 0.181482 1.114 
-0.421432 0.185228 1.137 
-0.377095 0.185717 1.14 
-0.332518 0.186206 1.143 
-0.287702 0.186695 1.146 
-0.24328 0.187672 1.152 
-0.197695 0.187998 1.154 
-0.152213 0.18865 1.158 
-0.106321 0.189138 1.161 
-0.0600861 0.189301 1.162 
-0.013807 0.189953 1.166 
0.0327351 0.190279 1.168 
0.0794366 0.190605 1.17 
0.126298 0.19093 1.172 
0.173466 0.191419 1.175 
0.220873 0.191908 1.178 
0.268065 0.192071 1.179 
0.314535 0.191745 1.177 
0.362073 0.192071 1.179 
0.410466 0.192722 1.183 
0.457629 0.192722 1.183 
0.506073 0.193211 1.186 
0.553357 0.193211 1.186 
0.600133 0.193048 1.185 
0.647923 0.193211 1.186 
0.699896 0.194514 1.194 
0.747498 0.194514 1.194 
0.786444 0.192397 1.181 
0.809531 0.186858 1.147 
0.826179 0.180504 1.108 
0.825579 0.171218 1.051 
0.823734 0.162584 0.998 
0.815934 0.153624 0.943 
0.818229 0.147271 0.904 
0.80891 0.139451 0.856 
0.812507 0.134401 0.825 
-0.469392 0.112869 0.683 
-0.463526 0.118323 0.716 
-0.467179 0.127081 0.769 
-0.463768 0.135013 0.817 
-0.467085 0.146251 0.885 
-0.464979 0.157488 0.953 
-0.459244 0.169386 1.025 
-0.455932 0.18459 1.117 
-0.418766 0.187895 1.137 
-0.374749 0.188556 1.141 
-0.330126 0.189052 1.144 
-0.285263 0.189548 1.147 
-0.240579 0.190374 1.152 
-0.195158 0.19087 1.155 
-0.149498 0.191365 1.158 
-0.103598 0.191861 1.161 
-0.057361 0.192026 1.162 
-0.0110725 0.192687 1.166 
0.0355046 0.193183 1.169 
0.0821805 0.193348 1.17 
0.129156 0.193844 1.173 
0.176221 0.194175 1.175 
0.223825 0.194836 1.179 
0.27083 0.194836 1.179 
0.317564 0.19467 1.178 
0.364838 0.194836 1.179 
0.41324 0.195497 1.183 
0.461182 0.195827 1.185 
0.509713 0.196323 1.188 
0.556138 0.195992 1.186 
0.603421 0.195992 1.186 
0.650705 0.195992 1.186 
0.702696 0.197314 1.194 
0.749042 0.196984 1.192 
0.785872 0.19434 1.176 
0.809389 0.188886 1.143 
0.825786 0.182442 1.104 
0.826468 0.173353 1.049 
0.826075 0.164925 0.998 
0.815542 0.15534 0.94 
0.817627 0.148895 0.901 
0.809971 0.141293 0.855 
0.815429 0.136501 0.826 
-0.469392 0.114471 0.683 
-0.463526 0.120002 0.716 
-0.467787 0.129052 0.77 
-0.463768 0.136929 0.817 
-0.466029 0.147991 0.883 
-0.464491 0.159555 0.952 
-0.459244 0.17179 1.025 
-0.455932 0.187209 1.117 
-0.419134 0.190729 1.138 
-0.374749 0.191232 1.141 
-0.330126 0.191735 1.144 
-0.285263 0.192237 1.147 
-0.240579 0.193075 1.152 
-0.195158 0.193578 1.155 
-0.149498 0.194081 1.158 
-0.103688 0.194751 1.162 
-0.0575091 0.195254 1.165 
-0.0110725 0.195422 1.166 
0.0355046 0.195925 1.169 
0.0821805 0.196092 1.17 
0.129156 0.196595 1.173 
0.176371 0.197098 1.176 
0.223825 0.197601 1.179 
0.271289 0.197936 1.181 
0.317564 0.197433 1.178 
0.364838 0.197601 1.179 
0.41324 0.198271 1.183 
0.461182 0.198606 1.185 
0.509713 0.199109 1.188 
0.557076 0.199109 1.188 
0.603421 0.198774 1.186 
0.651802 0.199109 1.188 
0.702696 0.200115 1.194 
0.749042 0.199779 1.192 
0.783867 0.196595 1.173 
0.807972 0.191232 1.141 
0.82429 0.184695 1.102 
0.82568 0.175645 1.048 
0.826075 0.167265 0.998 
0.815542 0.157544 0.94 
0.818534 0.151175 0.902 
0.809971 0.143298 0.855 
0.81839 0.138941 0.829 
-0.47142 0.115393 0.679 
-0.463983 0.120491 0.709 
-0.465829 0.128819 0.758 
-0.46147 0.136466 0.803 
-0.465289 0.147852 0.87 
-0.46327 0.159069 0.936 
-0.45963 0.171645 1.01 
-0.460469 0.188469 1.109 
-0.426765 0.193228 1.137 
-0.382442 0.193738 1.14 
-0.338175 0.194417 1.144 
-0.293077 0.194757 1.146 
-0.248468 0.195607 1.151 
-0.202756 0.195777 1.152 
-0.157645 0.196797 1.158 
-0.111863 0.197477 1.162 
-0.0657055 0.197986 1.165 
-0.0192759 0.198156 1.166 
0.0272801 0.198666 1.169 
0.0739489 0.198836 1.17 
0.120801 0.199176 1.172 
0.168097 0.199856 1.176 
0.215896 0.200705 1.181 
0.262535 0.200366 1.179 
0.310064 0.200705 1.181 
0.357148 0.200705 1.181 
0.405601 0.201385 1.185 
0.452845 0.201385 1.185 
0.501354 0.201895 1.188 
0.548718 0.201895 1.188 
0.595077 0.201555 1.186 
0.643444 0.201895 1.188 
0.693133 0.202575 1.192 
0.740655 0.202575 1.192 
0.776937 0.199686 1.175 
0.801347 0.194248 1.143 
0.820242 0.188129 1.107 
0.820649 0.178613 1.051 
0.824798 0.170795 1.005 
0.816674 0.161278 0.949 
0.818491 0.15448 0.909 
0.812418 0.146833 0.864 
0.816479 0.141564 0.833 
-0.469184 0.115262 0.669 
-0.465664 0.121293 0.704 
-0.465568 0.129046 0.749 
-0.463629 0.137316 0.797 
-0.46274 0.147136 0.854 
-0.463832 0.159196 0.924 
-0.460728 0.171774 0.997 
-0.461515 0.188314 1.093 
-0.434764 0.195894 1.137 
-0.39012 0.196239 1.139 
-0.345921 0.196928 1.143 
-0.301403 0.197617 1.147 
-0.256566 0.198306 1.151 
-0.210861 0.198479 1.152 
-0.165935 0.199685 1.159 
-0.120038 0.200202 1.162 
-0.0739019 0.200718 1.165 
-0.0274793 0.200891 1.166 
0.0190556 0.201408 1.169 
0.0657174 0.20158 1.17 
0.112555 0.201925 1.172 
0.159824 0.202614 1.176 
0.207236 0.203131 1.179 
0.25424 0.203131 1.179 
0.301755 0.203475 1.181 
0.348839 0.203475 1.181 
0.397264 0.204164 1.185 
0.444883 0.204337 1.186 
0.492166 0.204337 1.186 
0.540814 0.204853 1.189 
0.586733 0.204337 1.186 
0.635086 0.204681 1.188 
0.684746 0.20537 1.192 
0.732269 0.20537 1.192 
0.76867 0.202441 1.175 
0.793999 0.1971 1.144 
0.813187 0.190898 1.108 
0.817124 0.181939 1.056 
0.828305 0.175392 1.018 
0.814265 0.164365 0.954 
0.81567 0.157301 0.913 
0.812872 0.150065 0.871 
0.812564 0.143863 0.835 
-0.468353 0.115085 0.659 
-0.470255 0.12242 0.701 
-0.465023 0.128707 0.737 
-0.464604 0.137264 0.786 
-0.463585 0.146869 0.841 
-0.463806 0.158395 0.907 
-0.459236 0.170095 0.974 
-0.457956 0.185288 1.061 
-0.444255 0.198037 1.134 
-0.400804 0.19891 1.139 
-0.356643 0.199609 1.143 
-0.311618 0.199958 1.145 
-0.266898 0.200656 1.149 
-0.222052 0.20153 1.154 
-0.176655 0.202228 1.158 
-0.130826 0.202752 1.161 
-0.0848304 0.203451 1.165 
-0.0384501 0.2038 1.167 
0.00808957 0.204149 1.169 
0.054742 0.204324 1.17 
0.101561 0.204673 1.172 
0.148666 0.205197 1.175 
0.19601 0.205721 1.178 
0.242974 0.205721 1.178 
0.290677 0.206245 1.181 
0.337761 0.206245 1.181 
0.385496 0.206594 1.183 
0.433392 0.206943 1.185 
0.480635 0.206943 1.185 
0.529661 0.207642 1.189 
0.577064 0.207642 1.189 
0.624466 0.207642 1.189 
0.673 0.207991 1.191 
0.721087 0.208166 1.192 
0.758938 0.205546 1.177 
0.784637 0.200133 1.146 
0.804967 0.19402 1.111 
0.817919 0.18686 1.07 
0.82519 0.179176 1.026 
0.822199 0.170095 0.974 
0.819481 0.161887 0.927 
0.81856 0.154727 0.886 
0.814369 0.147567 0.845 
-0.47608 0.11663 0.659 
-0.469948 0.124418 0.703 
-0.46518 0.130966 0.74 
-0.463349 0.139284 0.787 
-0.463808 0.149549 0.845 
-0.462697 0.160876 0.909 
-0.458359 0.17291 0.977 
-0.461049 0.190077 1.074 
-0.441985 0.200873 1.135 
-0.398133 0.201581 1.139 
-0.353962 0.202289 1.143 
-0.308933 0.202643 1.145 
-0.264664 0.203705 1.151 
-0.219346 0.204236 1.154 
-0.174089 0.205121 1.159 
-0.128213 0.205652 1.162 
-0.0820983 0.206183 1.165 
-0.0357133 0.206537 1.167 
0.0108311 0.206891 1.169 
0.0575349 0.207245 1.171 
0.104309 0.207422 1.172 
0.15155 0.208129 1.176 
0.198941 0.20866 1.179 
0.245945 0.20866 1.179 
0.293446 0.209014 1.181 
0.340819 0.209191 1.182 
0.388271 0.209368 1.183 
0.436539 0.209899 1.186 
0.483822 0.209899 1.186 
0.532449 0.21043 1.189 
0.579852 0.21043 1.189 
0.627255 0.21043 1.189 
0.675793 0.210784 1.191 
0.722061 0.21043 1.189 
0.759109 0.207599 1.173 
0.784577 0.202112 1.142 
0.805392 0.196095 1.108 
0.815062 0.188131 1.063 
0.825983 0.181228 1.024 
0.816581 0.170256 0.962 
0.819386 0.163176 0.922 
0.817144 0.155743 0.88 
0.81349 0.148664 0.84 
-0.469346 0.11961 0.667 
-0.46599 0.126784 0.707 
-0.464431 0.134495 0.75 
-0.462919 0.143282 0.799 
-0.461277 0.153324 0.855 
-0.463164 0.166235 0.927 
-0.459769 0.179326 1 
-0.464831 0.198514 1.107 
-0.432098 0.203894 1.137 
-0.387789 0.204432 1.14 
-0.34354 0.205149 1.144 
-0.298713 0.205687 1.147 
-0.254749 0.207122 1.155 
-0.208701 0.207122 1.155 
-0.163499 0.208198 1.161 
-0.117313 0.208377 1.162 
-0.0712308 0.209094 1.166 
-0.0247661 0.209274 1.167 
0.0218157 0.209811 1.17 
0.0685197 0.209991 1.171 
0.115303 0.21017 1.172 
0.16272 0.211067 1.177 
0.210001 0.211425 1.179 
0.257441 0.211784 1.181 
0.304525 0.211784 1.181 
0.351609 0.211784 1.181 
0.400043 0.212501 1.185 
0.448419 0.213039 1.188 
0.495782 0.213039 1.188 
0.543603 0.213219 1.189 
0.590509 0.213039 1.188 
0.639482 0.213577 1.191 
0.686965 0.213577 1.191 
0.728898 0.211963 1.182 
0.762891 0.208377 1.162 
0.791111 0.203714 1.136 
0.804742 0.196003 1.093 
0.815719 0.188472 1.051 
0.824164 0.181119 1.01 
0.816165 0.170539 0.951 
0.818156 0.163366 0.911 
0.816019 0.156014 0.87 
0.815503 0.149558 0.834 
-0.46953 0.122446 0.674 
-0.465645 0.128805 0.709 
-0.463906 0.136617 0.752 
-0.461622 0.145337 0.8 
-0.460883 0.155874 0.858 
-0.462481 0.168954 0.93 
-0.459254 0.182398 1.004 
-0.463905 0.201837 1.111 
-0.429809 0.206742 1.138 
-0.385453 0.207287 1.141 
-0.340857 0.207832 1.144 
-0.296281 0.208559 1.148 
-0.252476 0.210194 1.157 
-0.205993 0.20983 1.155 
-0.160776 0.21092 1.161 
-0.114884 0.211647 1.165 
-0.0684964 0.211829 1.166 
-0.0220292 0.21201 1.167 
0.0245596 0.212555 1.17 
0.0712659 0.212737 1.171 
0.118052 0.212919 1.172 
0.16548 0.213827 1.177 
0.213127 0.214554 1.181 
0.260211 0.214554 1.181 
0.307555 0.214735 1.182 
0.354379 0.214554 1.181 
0.402822 0.21528 1.185 
0.451205 0.215825 1.188 
0.498988 0.216007 1.189 
0.546391 0.216007 1.189 
0.593295 0.215825 1.188 
0.642276 0.21637 1.191 
0.689758 0.21637 1.191 
0.728575 0.213827 1.177 
0.760345 0.209649 1.154 
0.787487 0.204743 1.127 
0.801396 0.197113 1.085 
0.816627 0.190573 1.049 
0.821623 0.182398 1.004 
0.817023 0.172951 0.952 
0.818156 0.165502 0.911 
0.816957 0.158236 0.871 
0.816481 0.151695 0.835 
-0.472617 0.122371 0.665 
-0.471597 0.129364 0.703 
-0.462499 0.134884 0.733 
-0.463421 0.144269 0.784 
-0.462483 0.15439 0.839 
-0.460738 0.165799 0.901 
-0.459236 0.179232 0.974 
-0.461841 0.196898 1.07 
-0.444647 0.208859 1.135 
-0.401156 0.209779 1.14 
-0.356955 0.210515 1.144 
-0.31189 0.210883 1.146 
-0.267595 0.211987 1.152 
-0.222245 0.212539 1.155 
-0.176807 0.213275 1.159 
-0.130938 0.213827 1.162 
-0.0849032 0.214563 1.166 
-0.0384831 0.214931 1.168 
0.00808957 0.215115 1.169 
0.0547887 0.215483 1.171 
0.101561 0.215667 1.172 
0.148792 0.216403 1.176 
0.196509 0.217323 1.181 
0.242974 0.216771 1.178 
0.290677 0.217323 1.181 
0.337761 0.217323 1.181 
0.386148 0.218059 1.185 
0.434489 0.218611 1.188 
0.481041 0.218243 1.186 
0.530551 0.219164 1.191 
0.577064 0.218795 1.189 
0.625517 0.219164 1.191 
0.673 0.219164 1.191 
0.715038 0.217507 1.182 
0.748621 0.213643 1.161 
0.777106 0.208859 1.135 
0.791201 0.200946 1.092 
0.808747 0.194689 1.058 
0.821168 0.187881 1.021 
0.82051 0.178864 0.972 
0.822133 0.171135 0.93 
0.820408 0.163407 0.888 
0.81726 0.156046 0.848 
-0.479449 0.12449 0.668 
-0.469764 0.129149 0.693 
-0.463828 0.135485 0.727 
-0.462358 0.144057 0.773 
-0.463919 0.154866 0.831 
-0.460856 0.165675 0.889 
-0.456518 0.177789 0.954 
-0.45928 0.195121 1.047 
-0.451436 0.210961 1.132 
-0.409177 0.212452 1.14 
-0.364684 0.213011 1.143 
-0.319953 0.21357 1.146 
-0.275461 0.214502 1.151 
-0.23077 0.21562 1.157 
-0.184642 0.21562 1.157 
-0.138994 0.216366 1.161 
-0.0930267 0.217111 1.165 
-0.0467406 0.217857 1.169 
-0.000134835 0.21767 1.168 
0.0465502 0.218229 1.171 
0.0933151 0.218416 1.172 
0.140518 0.219161 1.176 
0.187881 0.21972 1.179 
0.234885 0.21972 1.179 
0.282607 0.220279 1.182 
0.329731 0.220279 1.182 
0.377174 0.220466 1.183 
0.425413 0.221025 1.186 
0.473494 0.221398 1.188 
0.522172 0.221957 1.191 
0.568698 0.221584 1.189 
0.617138 0.221957 1.191 
0.665178 0.222143 1.192 
0.706722 0.220279 1.182 
0.740453 0.216366 1.161 
0.768443 0.211334 1.134 
0.784235 0.203693 1.093 
0.803575 0.19773 1.061 
0.817174 0.191021 1.025 
0.819532 0.182448 0.979 
0.818221 0.173875 0.933 
0.817827 0.166235 0.892 
0.817034 0.159153 0.854 
-0.488741 0.126434 0.67 
-0.469615 0.128509 0.681 
-0.463906 0.134737 0.714 
-0.462274 0.14304 0.758 
-0.461694 0.152852 0.81 
-0.461208 0.164175 0.87 
-0.459861 0.177007 0.938 
-0.460747 0.193047 1.023 
-0.459372 0.211163 1.119 
-0.422173 0.214937 1.139 
-0.377756 0.215503 1.142 
-0.333391 0.216258 1.146 
-0.288957 0.217201 1.151 
-0.244759 0.218711 1.159 
-0.198209 0.218334 1.157 
-0.152608 0.219089 1.161 
-0.106687 0.219843 1.165 
-0.0603964 0.220409 1.168 
-0.0138306 0.220409 1.168 
0.0328192 0.220976 1.171 
0.0796403 0.221353 1.173 
0.126405 0.221353 1.173 
0.174056 0.222485 1.179 
0.221061 0.222485 1.179 
0.268974 0.22324 1.183 
0.316138 0.22324 1.183 
0.362688 0.222863 1.181 
0.411506 0.223806 1.186 
0.459563 0.224184 1.188 
0.507353 0.224372 1.189 
0.554756 0.224372 1.189 
0.602159 0.224372 1.189 
0.651201 0.224938 1.192 
0.695207 0.223806 1.186 
0.729343 0.219843 1.165 
0.756478 0.214371 1.136 
0.780594 0.20871 1.106 
0.797099 0.201727 1.069 
0.810654 0.194745 1.032 
0.818782 0.187197 0.992 
0.821125 0.179083 0.949 
0.82185 0.171346 0.908 
0.821195 0.163986 0.869 
0.822355 0.15757 0.835 
-0.469886 0.128005 0.67 
-0.467648 0.135074 0.707 
-0.461217 0.141761 0.742 
-0.459557 0.150931 0.79 
-0.461114 0.162585 0.851 
-0.459314 0.174812 0.915 
-0.460266 0.190288 0.996 
-0.467005 0.211303 1.106 
-0.435147 0.217417 1.138 
-0.390805 0.21799 1.141 
-0.346526 0.218754 1.145 
-0.302454 0.219901 1.151 
-0.258126 0.221238 1.158 
-0.211959 0.221238 1.158 
-0.165935 0.221429 1.159 
-0.120038 0.222002 1.162 
-0.0739653 0.222767 1.166 
-0.0275029 0.222958 1.167 
0.0190719 0.223531 1.17 
0.0658859 0.224104 1.173 
0.112651 0.224104 1.173 
0.160096 0.225059 1.178 
0.207587 0.225632 1.181 
0.254671 0.225632 1.181 
0.302011 0.225823 1.182 
0.348249 0.22525 1.179 
0.39827 0.22697 1.188 
0.445633 0.22697 1.188 
0.493411 0.227161 1.189 
0.541724 0.227543 1.191 
0.588217 0.227161 1.189 
0.636689 0.227543 1.191 
0.682449 0.22697 1.188 
0.717525 0.223149 1.168 
0.74512 0.217608 1.139 
0.771096 0.212259 1.111 
0.7875 0.204999 1.073 
0.807838 0.199458 1.044 
0.812846 0.190861 0.999 
0.815972 0.182646 0.956 
0.827284 0.176914 0.926 
0.822205 0.168317 0.881 
0.81743 0.160484 0.84 
-0.477029 0.129383 0.669 
-0.472572 0.135765 0.702 
-0.461684 0.140986 0.729 
-0.460512 0.150076 0.776 
-0.461682 0.161293 0.834 
-0.457714 0.172317 0.891 
-0.456308 0.186241 0.963 
-0.461747 0.205774 1.064 
-0.447308 0.219506 1.135 
-0.40383 0.220473 1.14 
-0.359952 0.22144 1.145 
-0.315127 0.22202 1.148 
-0.270297 0.222793 1.152 
-0.225538 0.223954 1.158 
-0.179525 0.224147 1.159 
-0.133549 0.224534 1.161 
-0.0876377 0.225501 1.166 
-0.0412223 0.225888 1.168 
0.00535264 0.226275 1.17 
0.052087 0.226661 1.172 
0.0988965 0.226855 1.173 
0.146034 0.227435 1.176 
0.193739 0.228402 1.181 
0.240415 0.228015 1.179 
0.288151 0.228595 1.182 
0.335275 0.228595 1.182 
0.383369 0.229176 1.185 
0.432066 0.229949 1.189 
0.479066 0.229756 1.188 
0.527758 0.230336 1.191 
0.573792 0.229756 1.188 
0.623247 0.230529 1.192 
0.668518 0.229756 1.188 
0.705637 0.226468 1.171 
0.733691 0.220859 1.142 
0.759433 0.215251 1.113 
0.777085 0.208095 1.076 
0.799407 0.202874 1.049 
0.810755 0.195524 1.011 
0.817389 0.187789 0.971 
0.821716 0.180246 0.932 
0.819247 0.17193 0.889 
0.819117 0.164774 0.852 
-0.483038 0.131735 0.673 
-0.469764 0.135649 0.693 
-0.462552 0.141913 0.725 
-0.461162 0.150917 0.771 
-0.462245 0.162075 0.828 
-0.459301 0.173428 0.886 
-0.456518 0.186738 0.954 
-0.460596 0.205529 1.05 
-0.451834 0.221776 1.133 
-0.409177 0.223146 1.14 
-0.365322 0.224125 1.145 
-0.320511 0.224712 1.148 
-0.2757 0.225495 1.152 
-0.230969 0.22667 1.158 
-0.184802 0.22667 1.158 
-0.138994 0.227257 1.161 
-0.0931066 0.228235 1.166 
-0.0467006 0.228627 1.168 
-0.000135066 0.229018 1.17 
0.0465899 0.22941 1.172 
0.0933947 0.229606 1.173 
0.140518 0.230193 1.176 
0.187881 0.23078 1.179 
0.234885 0.23078 1.179 
0.282846 0.231563 1.183 
0.329731 0.231367 1.182 
0.377174 0.231563 1.183 
0.426489 0.232738 1.189 
0.473892 0.232738 1.189 
0.522172 0.233129 1.191 
0.568698 0.232738 1.189 
0.617656 0.233325 1.192 
0.66183 0.23215 1.186 
0.699547 0.229018 1.17 
0.727059 0.223146 1.14 
0.753535 0.217665 1.112 
0.772038 0.210619 1.076 
0.794487 0.205334 1.049 
0.809999 0.198874 1.016 
0.813672 0.190261 0.972 
0.820852 0.183215 0.936 
0.816911 0.174406 0.891 
0.818948 0.167555 0.856 
-0.485191 0.133907 0.676 
-0.469764 0.137275 0.693 
-0.461914 0.143415 0.724 
-0.461162 0.152725 0.771 
-0.461686 0.163818 0.827 
-0.459301 0.175505 0.886 
-0.456518 0.188975 0.954 
-0.460157 0.207794 1.049 
-0.452233 0.224631 1.134 
-0.409177 0.22582 1.14 
-0.365322 0.22681 1.145 
-0.320232 0.227206 1.147 
-0.2757 0.228197 1.152 
-0.230969 0.229385 1.158 
-0.184961 0.229583 1.159 
-0.139114 0.230178 1.162 
-0.0931066 0.23097 1.166 
-0.0467006 0.231366 1.168 
-0.000135066 0.231762 1.17 
0.0465899 0.232158 1.172 
0.0934744 0.232555 1.174 
0.140518 0.232951 1.176 
0.1882 0.233941 1.181 
0.234885 0.233545 1.179 
0.282846 0.234337 1.183 
0.33001 0.234337 1.183 
0.377174 0.234337 1.183 
0.426489 0.235526 1.189 
0.473892 0.235526 1.189 
0.522172 0.235922 1.191 
0.568698 0.235526 1.189 
0.617656 0.23612 1.192 
0.660156 0.234337 1.183 
0.694764 0.230178 1.162 
0.725146 0.225225 1.137 
0.750824 0.219481 1.108 
0.767733 0.211954 1.07 
0.791457 0.207001 1.045 
0.807607 0.200663 1.013 
0.811161 0.191947 0.969 
0.820852 0.18541 0.936 
0.818081 0.176298 0.89 
0.819996 0.169365 0.855 
-0.479881 0.134891 0.673 
-0.471226 0.140303 0.7 
-0.461684 0.146115 0.729 
-0.459919 0.155335 0.775 
-0.461129 0.16696 0.833 
-0.456687 0.178185 0.889 
-0.45536 0.192616 0.961 
-0.459577 0.212258 1.059 
-0.447703 0.227691 1.136 
-0.40383 0.228493 1.14 
-0.360266 0.229696 1.146 
-0.315127 0.230097 1.148 
-0.270766 0.231299 1.154 
-0.225538 0.232101 1.158 
-0.179525 0.232301 1.159 
-0.133664 0.232903 1.162 
-0.0877128 0.233905 1.167 
-0.0412223 0.234105 1.168 
0.00535264 0.234506 1.17 
0.0521314 0.235107 1.173 
0.0989808 0.235308 1.174 
0.146158 0.235909 1.177 
0.193739 0.236711 1.181 
0.240823 0.236711 1.181 
0.288395 0.237112 1.183 
0.335275 0.236911 1.182 
0.383693 0.237713 1.186 
0.432066 0.238314 1.189 
0.479469 0.238314 1.189 
0.528202 0.238916 1.192 
0.574275 0.238314 1.189 
0.623247 0.238916 1.192 
0.662328 0.235909 1.177 
0.693585 0.230698 1.151 
0.722769 0.225487 1.125 
0.751245 0.220676 1.101 
0.764807 0.212258 1.059 
0.7895 0.207648 1.036 
0.802735 0.200633 1.001 
0.808971 0.192616 0.961 
0.821716 0.186803 0.932 
0.819247 0.178185 0.889 
0.82104 0.171169 0.854 
-0.483606 0.137078 0.676 
-0.470926 0.14235 0.702 
-0.460606 0.148028 0.73 
-0.459284 0.157558 0.777 
-0.460278 0.169319 0.835 
-0.455624 0.180675 0.891 
-0.455464 0.195883 0.966 
-0.460115 0.216161 1.066 
-0.44543 0.230558 1.137 
-0.401508 0.231369 1.141 
-0.357579 0.232383 1.146 
-0.312434 0.232789 1.148 
-0.26806 0.234006 1.154 
-0.222822 0.234817 1.158 
-0.177112 0.235425 1.161 
-0.130938 0.235628 1.162 
-0.0850488 0.236844 1.168 
-0.0384501 0.236642 1.167 
0.00809649 0.23725 1.17 
0.0548823 0.237858 1.173 
0.101734 0.238061 1.174 
0.148919 0.238669 1.177 
0.196509 0.239481 1.181 
0.243593 0.239481 1.181 
0.291169 0.239886 1.183 
0.338047 0.239683 1.182 
0.386474 0.240494 1.186 
0.434855 0.241103 1.189 
0.482258 0.241103 1.189 
0.530997 0.241711 1.192 
0.577064 0.241103 1.189 
0.625517 0.241508 1.191 
0.663958 0.238264 1.175 
0.69205 0.231978 1.144 
0.71896 0.226097 1.115 
0.747665 0.221433 1.092 
0.763668 0.213728 1.054 
0.786579 0.208658 1.029 
0.80267 0.202372 0.998 
0.80616 0.193653 0.955 
0.822133 0.188583 0.93 
0.82249 0.180067 0.888 
0.823113 0.172767 0.852 
-0.477592 0.137843 0.672 
-0.466987 0.144817 0.706 
-0.461838 0.152406 0.743 
-0.457812 0.161432 0.787 
-0.460573 0.174354 0.85 
-0.453792 0.185431 0.904 
-0.455645 0.202251 0.986 
-0.459826 0.223379 1.089 
-0.435147 0.23343 1.138 
-0.391147 0.23425 1.142 
-0.347131 0.235276 1.147 
-0.302454 0.236097 1.151 
-0.257457 0.236917 1.155 
-0.212142 0.237737 1.159 
-0.166221 0.238148 1.161 
-0.120348 0.238968 1.165 
-0.0740922 0.239584 1.168 
-0.0275264 0.239584 1.168 
0.0190882 0.240199 1.171 
0.065942 0.240814 1.174 
0.112843 0.241019 1.175 
0.160503 0.24225 1.181 
0.207763 0.242455 1.182 
0.254887 0.242455 1.182 
0.302777 0.243071 1.185 
0.348839 0.24225 1.181 
0.398605 0.243891 1.189 
0.446008 0.243891 1.189 
0.493411 0.243891 1.189 
0.543088 0.244917 1.194 
0.589207 0.244301 1.191 
0.633482 0.243071 1.185 
0.67096 0.239584 1.168 
0.69971 0.233635 1.139 
0.724186 0.227071 1.107 
0.74958 0.221533 1.08 
0.768418 0.214764 1.047 
0.791588 0.209841 1.023 
0.796572 0.200815 0.979 
0.809997 0.194662 0.949 
0.821923 0.188713 0.92 
0.823138 0.180918 0.882 
0.828134 0.17456 0.851 
-0.468136 0.139419 0.672 
-0.462606 0.147717 0.712 
-0.461664 0.157053 0.757 
-0.459414 0.167219 0.806 
-0.459618 0.179875 0.867 
-0.458637 0.19502 0.94 
-0.458348 0.21224 1.023 
-0.455932 0.231742 1.117 
-0.419871 0.236514 1.14 
-0.375735 0.237344 1.144 
-0.330992 0.237966 1.147 
-0.287004 0.239418 1.154 
-0.241832 0.240248 1.158 
-0.195834 0.240456 1.159 
-0.15053 0.241908 1.166 
-0.104044 0.241908 1.166 
-0.0576079 0.242115 1.167 
-0.0111105 0.242738 1.17 
0.0355957 0.243153 1.172 
0.0825317 0.243775 1.175 
0.129487 0.243982 1.176 
0.176821 0.244605 1.179 
0.224395 0.245227 1.182 
0.271519 0.245227 1.182 
0.319452 0.24585 1.185 
0.365767 0.245227 1.182 
0.416034 0.247095 1.191 
0.463517 0.247095 1.191 
0.511 0.247095 1.191 
0.558951 0.247302 1.192 
0.607491 0.247717 1.194 
0.645218 0.243982 1.176 
0.672682 0.237136 1.143 
0.705054 0.232779 1.122 
0.727734 0.225933 1.089 
0.751322 0.220124 1.061 
0.771182 0.2139 1.031 
0.795741 0.209543 1.01 
0.799587 0.200414 0.966 
0.810337 0.193775 0.934 
0.819442 0.187344 0.903 
0.824181 0.180497 0.87 
0.834186 0.175311 0.845 
-0.467053 0.144561 0.689 
-0.46 0.151275 0.721 
-0.459965 0.161346 0.769 
-0.461686 0.173516 0.827 
-0.458783 0.185685 0.885 
-0.455834 0.20184 0.962 
-0.456539 0.220724 1.052 
-0.447703 0.238348 1.136 
-0.404538 0.239607 1.142 
-0.359952 0.240236 1.145 
-0.315127 0.240866 1.148 
-0.270297 0.241705 1.152 
-0.225732 0.243174 1.159 
-0.179835 0.243593 1.161 
-0.134009 0.244432 1.165 
-0.087788 0.245062 1.168 
-0.0412223 0.245062 1.168 
0.00535264 0.245482 1.17 
0.0521314 0.246111 1.173 
0.0991494 0.24674 1.176 
0.146282 0.24716 1.178 
0.193903 0.247999 1.182 
0.241231 0.248209 1.183 
0.288882 0.248629 1.185 
0.336126 0.248629 1.185 
0.38434 0.249258 1.188 
0.432066 0.249468 1.189 
0.480276 0.249888 1.191 
0.529088 0.250517 1.194 
0.575724 0.250097 1.192 
0.621678 0.249468 1.189 
0.656138 0.244642 1.166 
0.683341 0.237928 1.134 
0.709278 0.231634 1.104 
0.735551 0.226179 1.078 
0.757585 0.220094 1.049 
0.778069 0.214219 1.021 
0.79632 0.208345 0.993 
0.801395 0.199742 0.952 
0.812899 0.193448 0.922 
0.819247 0.186524 0.889 
0.825847 0.18023 0.859 
-0.47444 0.14257 0.672 
-0.466967 0.148723 0.701 
-0.461566 0.156361 0.737 
-0.459158 0.16612 0.783 
-0.460734 0.17885 0.843 
-0.451952 0.189245 0.892 
-0.45517 0.207915 0.98 
-0.45771 0.228707 1.078 
-0.4382 0.241648 1.139 
-0.393825 0.242285 1.142 
-0.349516 0.243134 1.146 
-0.305153 0.244194 1.151 
-0.260166 0.245043 1.155 
-0.21486 0.245892 1.159 
-0.169526 0.247165 1.165 
-0.12308 0.247165 1.165 
-0.0768971 0.248013 1.169 
-0.0302915 0.248013 1.169 
0.016342 0.248438 1.171 
0.0631888 0.249074 1.174 
0.110181 0.249498 1.176 
0.157466 0.250135 1.179 
0.204991 0.250771 1.182 
0.252328 0.250983 1.183 
0.300251 0.25162 1.186 
0.347242 0.251408 1.185 
0.395817 0.252256 1.189 
0.443965 0.252681 1.191 
0.491861 0.252893 1.192 
0.541193 0.253742 1.196 
0.586906 0.252893 1.192 
0.628574 0.250559 1.181 
0.656778 0.243558 1.148 
0.689695 0.239103 1.127 
0.707901 0.230404 1.086 
0.738055 0.226373 1.067 
0.758647 0.220008 1.037 
0.781475 0.214916 1.013 
0.792654 0.207279 0.977 
0.801813 0.199853 0.942 
0.811747 0.193276 0.911 
0.823862 0.18776 0.885 
0.82808 0.180971 0.853 
-0.468136 0.144146 0.672 
-0.463675 0.15144 0.706 
-0.462055 0.160663 0.749 
-0.45816 0.170316 0.794 
-0.458734 0.183186 0.854 
-0.450546 0.19434 0.906 
-0.455989 0.214933 1.002 
-0.457978 0.236597 1.103 
-0.427891 0.244534 1.14 
-0.383448 0.245178 1.143 
-0.339061 0.246036 1.147 
-0.294612 0.247108 1.152 
-0.249763 0.248181 1.157 
-0.203988 0.24861 1.159 
-0.158598 0.249897 1.165 
-0.112344 0.250326 1.167 
-0.0659311 0.250755 1.169 
-0.0193255 0.250755 1.169 
0.0273501 0.251398 1.172 
0.0742649 0.252042 1.175 
0.121213 0.252256 1.176 
0.168812 0.253329 1.181 
0.216079 0.253543 1.182 
0.263426 0.253758 1.183 
0.311902 0.25483 1.188 
0.359265 0.25483 1.188 
0.407655 0.255474 1.191 
0.455138 0.255474 1.191 
0.503043 0.255688 1.192 
0.552413 0.256546 1.196 
0.598088 0.255688 1.192 
0.635861 0.251827 1.174 
0.661732 0.244105 1.138 
0.690947 0.238528 1.112 
0.712798 0.231235 1.078 
0.73895 0.226087 1.054 
0.760965 0.220295 1.027 
0.782389 0.214933 1.002 
0.792791 0.20721 0.966 
0.802044 0.199917 0.932 
0.813089 0.193697 0.903 
0.821821 0.187476 0.874 
0.833142 0.182328 0.85 
-0.466643 0.14724 0.679 
-0.462879 0.155047 0.715 
-0.460496 0.164371 0.758 
-0.461497 0.176298 0.813 
-0.45864 0.188442 0.869 
-0.459543 0.206223 0.951 
-0.455323 0.222704 1.027 
-0.45271 0.243304 1.122 
-0.415251 0.247641 1.142 
-0.370693 0.248292 1.145 
-0.325612 0.248726 1.147 
-0.281591 0.250244 1.154 
-0.2364 0.251111 1.158 
-0.190398 0.251328 1.159 
-0.145062 0.252846 1.166 
-0.0987446 0.253279 1.168 
-0.0521789 0.253279 1.168 
-0.00561796 0.253496 1.169 
0.0411279 0.254364 1.173 
0.0881178 0.255014 1.176 
0.135232 0.255448 1.178 
0.18266 0.256098 1.181 
0.230134 0.256532 1.183 
0.277766 0.256966 1.185 
0.325284 0.257183 1.186 
0.373195 0.257616 1.188 
0.421621 0.258267 1.191 
0.470285 0.258917 1.194 
0.51702 0.258484 1.192 
0.56549 0.258917 1.194 
0.608984 0.257183 1.186 
0.642434 0.251761 1.161 
0.665585 0.243304 1.122 
0.693224 0.237449 1.095 
0.719382 0.231811 1.069 
0.746319 0.227041 1.047 
0.764728 0.220318 1.016 
0.787797 0.215548 0.994 
0.793297 0.206657 0.953 
0.803378 0.199718 0.921 
0.813644 0.193429 0.892 
0.827309 0.188442 0.869 
0.838149 0.183237 0.845 
-0.464888 0.151901 0.693 
-0.460606 0.160012 0.73 
-0.458693 0.170095 0.776 
-0.46138 0.183465 0.837 
-0.454602 0.194863 0.889 
-0.456952 0.213495 0.974 
-0.45418 0.231907 1.058 
-0.443153 0.249443 1.138 
-0.399531 0.250539 1.143 
-0.354891 0.251196 1.146 
-0.310552 0.252292 1.151 
-0.265583 0.253169 1.155 
-0.220106 0.253827 1.158 
-0.174991 0.255361 1.165 
-0.128765 0.255799 1.167 
-0.0824506 0.256457 1.17 
-0.0357745 0.256238 1.169 
0.0108496 0.256676 1.171 
0.0576823 0.257334 1.174 
0.104843 0.258211 1.178 
0.151937 0.25843 1.179 
0.199278 0.258868 1.181 
0.247197 0.259745 1.185 
0.295186 0.260402 1.188 
0.342549 0.260402 1.188 
0.39024 0.260622 1.189 
0.438379 0.26106 1.191 
0.487086 0.261718 1.194 
0.535584 0.262156 1.196 
0.580827 0.26106 1.191 
0.620924 0.257991 1.177 
0.647422 0.2501 1.141 
0.676515 0.244182 1.114 
0.69763 0.236291 1.078 
0.724119 0.23103 1.054 
0.749421 0.225989 1.031 
0.768289 0.219632 1.002 
0.786458 0.213714 0.975 
0.795702 0.206042 0.94 
0.805701 0.199247 0.909 
0.820638 0.194206 0.886 
0.826978 0.18763 0.856 
-0.467615 0.14821 0.669 
-0.464013 0.155964 0.704 
-0.461954 0.165268 0.746 
-0.457125 0.174794 0.789 
-0.458579 0.188308 0.85 
-0.448674 0.198942 0.898 
-0.455989 0.221982 1.002 
-0.456317 0.243472 1.099 
-0.427891 0.252555 1.14 
-0.383448 0.253219 1.143 
-0.339357 0.254327 1.148 
-0.294356 0.254992 1.151 
-0.249331 0.255878 1.155 
-0.203988 0.256764 1.159 
-0.158734 0.258315 1.166 
-0.11244 0.258758 1.168 
-0.0659875 0.259201 1.17 
-0.019342 0.259201 1.17 
0.0273735 0.259865 1.173 
0.0743281 0.26053 1.176 
0.121316 0.260752 1.177 
0.168812 0.261638 1.181 
0.216079 0.261859 1.182 
0.263871 0.262524 1.185 
0.311902 0.263189 1.188 
0.360172 0.263853 1.191 
0.407997 0.264075 1.192 
0.45552 0.264075 1.192 
0.503887 0.264518 1.194 
0.552413 0.264961 1.196 
0.594575 0.262524 1.185 
0.633695 0.259201 1.17 
0.65301 0.248788 1.123 
0.684733 0.244136 1.102 
0.703541 0.235718 1.064 
0.733341 0.23173 1.046 
0.756519 0.226191 1.021 
0.776142 0.22021 0.994 
0.786226 0.212234 0.958 
0.798602 0.205588 0.928 
0.804985 0.198056 0.894 
0.820881 0.193404 0.873 
0.833142 0.188308 0.85 
-0.464824 0.152465 0.681 
-0.460811 0.160525 0.717 
-0.461161 0.171272 0.765 
-0.462187 0.183809 0.821 
-0.45561 0.195003 0.871 
-0.457475 0.214033 0.956 
-0.45577 0.232616 1.039 
-0.450239 0.252765 1.129 
-0.410612 0.256124 1.144 
-0.365641 0.256571 1.146 
-0.32079 0.257243 1.149 
-0.276179 0.258363 1.154 
-0.230371 0.258586 1.155 
-0.18544 0.260154 1.162 
-0.139712 0.261273 1.167 
-0.093426 0.261945 1.17 
-0.0467406 0.261721 1.169 
-0.000135181 0.262169 1.171 
0.0466297 0.262616 1.173 
0.0937132 0.263512 1.177 
0.140877 0.26396 1.179 
0.1882 0.264407 1.181 
0.236081 0.265303 1.185 
0.283324 0.265303 1.185 
0.331405 0.265975 1.188 
0.380043 0.26687 1.192 
0.427565 0.26687 1.192 
0.476682 0.267766 1.196 
0.523487 0.267318 1.194 
0.568698 0.266198 1.189 
0.608847 0.263064 1.175 
0.637277 0.255676 1.142 
0.664271 0.248735 1.111 
0.68688 0.241123 1.077 
0.712199 0.235302 1.051 
0.739032 0.230601 1.03 
0.758133 0.224108 1.001 
0.777312 0.218287 0.975 
0.792744 0.212018 0.947 
0.798928 0.203959 0.911 
0.81416 0.198809 0.888 
0.828515 0.193884 0.866 
-0.470349 0.150216 0.664 
-0.463932 0.157003 0.694 
-0.460151 0.1656 0.732 
-0.460405 0.176911 0.782 
-0.459417 0.189354 0.837 
-0.452517 0.201118 0.889 
-0.456569 0.223515 0.988 
-0.455604 0.244102 1.079 
-0.435912 0.257902 1.14 
-0.392175 0.259033 1.145 
-0.347131 0.259485 1.147 
-0.302716 0.260616 1.152 
-0.257457 0.261295 1.155 
-0.211959 0.261974 1.158 
-0.166937 0.263784 1.166 
-0.120451 0.263784 1.166 
-0.0742191 0.264688 1.17 
-0.0275971 0.264915 1.171 
0.0191208 0.265367 1.173 
0.0660544 0.266046 1.176 
0.113131 0.266498 1.178 
0.160503 0.267177 1.181 
0.207587 0.267177 1.181 
0.255534 0.268082 1.185 
0.303544 0.268761 1.188 
0.351202 0.268987 1.189 
0.399611 0.269666 1.192 
0.447134 0.269666 1.192 
0.495486 0.270118 1.194 
0.543998 0.27057 1.196 
0.58327 0.266725 1.179 
0.624394 0.264236 1.168 
0.640514 0.252246 1.115 
0.676366 0.249079 1.101 
0.692785 0.239577 1.059 
0.721124 0.235052 1.039 
0.748602 0.230754 1.02 
0.76528 0.223741 0.989 
0.780299 0.216954 0.959 
0.79378 0.210393 0.93 
0.799589 0.202475 0.895 
0.816605 0.197951 0.875 
0.829108 0.192748 0.852 
-0.466167 0.154516 0.676 
-0.463906 0.163202 0.714 
-0.461664 0.173031 0.757 
-0.457704 0.183545 0.803 
-0.455377 0.196346 0.859 
-0.45449 0.213946 0.936 
-0.456395 0.23406 1.024 
-0.452095 0.254632 1.114 
-0.418295 0.261261 1.143 
-0.373378 0.261718 1.145 
-0.328874 0.262632 1.149 
-0.284298 0.263775 1.154 
-0.237877 0.263318 1.152 
-0.193449 0.265375 1.161 
-0.147923 0.266747 1.167 
-0.101571 0.267204 1.169 
-0.0550121 0.267432 1.17 
-0.00837377 0.267661 1.171 
0.0384424 0.268575 1.175 
0.085505 0.269261 1.178 
0.132582 0.26949 1.179 
0.179891 0.269947 1.181 
0.227359 0.270404 1.183 
0.274987 0.270861 1.185 
0.323046 0.271547 1.188 
0.37228 0.272918 1.194 
0.419882 0.272918 1.194 
0.468268 0.273375 1.196 
0.515087 0.272918 1.194 
0.559862 0.271547 1.188 
0.598536 0.267661 1.171 
0.629242 0.261032 1.142 
0.654682 0.253261 1.108 
0.679933 0.246403 1.078 
0.703463 0.239775 1.049 
0.730365 0.234975 1.028 
0.749589 0.228346 0.999 
0.769662 0.222632 0.974 
0.786081 0.21646 0.947 
0.794258 0.208689 0.913 
0.806093 0.202517 0.886 
0.824322 0.198403 0.868 
0.836167 0.193146 0.845 
-0.465736 0.157025 0.68 
-0.461847 0.165339 0.716 
-0.461745 0.176192 0.763 
-0.459025 0.187507 0.812 
-0.455026 0.199977 0.866 
-0.455461 0.216603 0.938 
-0.455949 0.236231 1.023 
-0.452095 0.257245 1.114 
-0.418295 0.263941 1.143 
-0.373378 0.264403 1.145 
-0.328874 0.265327 1.149 
-0.284544 0.266712 1.155 
-0.237877 0.26602 1.152 
-0.193616 0.268329 1.162 
-0.147923 0.269483 1.167 
-0.101571 0.269945 1.169 
-0.0550591 0.270407 1.171 
-0.00837377 0.270407 1.171 
0.0384424 0.271331 1.175 
0.085505 0.272024 1.178 
0.132582 0.272254 1.179 
0.179891 0.272716 1.181 
0.227359 0.273178 1.183 
0.274987 0.27364 1.185 
0.323046 0.274333 1.188 
0.37228 0.275718 1.194 
0.419179 0.275256 1.192 
0.468268 0.27618 1.196 
0.515087 0.275718 1.194 
0.557505 0.273178 1.183 
0.59598 0.269253 1.166 
0.627038 0.262787 1.138 
0.652909 0.255166 1.105 
0.678041 0.248239 1.075 
0.700781 0.241311 1.045 
0.728234 0.236693 1.025 
0.748089 0.230227 0.997 
0.768082 0.224454 0.972 
0.782761 0.217757 0.943 
0.792518 0.210368 0.911 
0.805183 0.204364 0.885 
0.823372 0.200208 0.867 
0.835178 0.194896 0.844 
-0.465269 0.15792 0.677 
-0.462879 0.166784 0.715 
-0.461104 0.177048 0.759 
-0.456388 0.187545 0.804 
-0.453975 0.201541 0.864 
-0.456432 0.219269 0.94 
-0.455949 0.23863 1.023 
-0.452095 0.259857 1.114 
-0.418295 0.266622 1.143 
-0.373704 0.267322 1.146 
-0.328874 0.268021 1.149 
-0.284544 0.269421 1.155 
-0.237877 0.268721 1.152 
-0.194115 0.271754 1.165 
-0.147923 0.27222 1.167 
-0.101571 0.272687 1.169 
-0.0550591 0.273153 1.171 
-0.00838092 0.273387 1.172 
0.0384424 0.274086 1.175 
0.085505 0.274786 1.178 
0.132469 0.274786 1.178 
0.180043 0.275719 1.182 
0.227359 0.275953 1.183 
0.275219 0.276652 1.186 
0.323046 0.277119 1.188 
0.37228 0.278518 1.194 
0.419179 0.278052 1.192 
0.467485 0.278518 1.194 
0.515087 0.278518 1.194 
0.55562 0.275019 1.179 
0.591891 0.270121 1.158 
0.623732 0.264056 1.132 
0.650546 0.256825 1.101 
0.676149 0.25006 1.072 
0.696757 0.242362 1.039 
0.726813 0.23863 1.023 
0.745087 0.231632 0.993 
0.764921 0.225801 0.968 
0.778611 0.218803 0.938 
0.792518 0.212504 0.911 
0.803363 0.205973 0.883 
0.820523 0.201541 0.864 
0.834188 0.196642 0.843 
-0.464582 0.159272 0.676 
-0.462879 0.168461 0.715 
-0.460496 0.178593 0.758 
-0.455821 0.189195 0.803 
-0.452924 0.203096 0.862 
-0.457889 0.22218 0.943 
-0.455949 0.241029 1.023 
-0.452501 0.262705 1.115 
-0.418295 0.269302 1.143 
-0.373704 0.270009 1.146 
-0.328874 0.270716 1.149 
-0.285037 0.272601 1.157 
-0.237877 0.271423 1.152 
-0.194115 0.274486 1.165 
-0.14805 0.275193 1.168 
-0.101658 0.275664 1.17 
-0.0550591 0.275899 1.171 
-0.00838092 0.276135 1.172 
0.0384424 0.276842 1.175 
0.0854324 0.277313 1.177 
0.132582 0.277784 1.179 
0.179891 0.278256 1.181 
0.227359 0.278727 1.183 
0.275219 0.279434 1.186 
0.323046 0.279905 1.188 
0.371657 0.280847 1.192 
0.419179 0.280847 1.192 
0.467485 0.281319 1.194 
0.515087 0.281319 1.194 
0.554678 0.277313 1.177 
0.587291 0.270716 1.149 
0.618773 0.26459 1.123 
