# .PCD v.7 - Point Cloud Data file format
VERSION .7
FIELDS x y z
SIZE 4 4 4
TYPE F F F
COUNT 1 1 1
WIDTH 1831
HEIGHT 1
VIEWPOINT 0 0 0 1 0 0 0
POINTS 1831
DATA ascii
0.0617225 0.00974605 1.199 
0.109524 0.00974605 1.199 
0.157719 0.00977044 1.202 
0.20547 0.00976231 1.201 
0.253562 0.00977044 1.202 
0.301483 0.00977044 1.202 
0.344754 0.00964038 1.186 
0.406971 0.00966476 1.189 
0.432394 0.00555175 0.683 
0.44879 0.0053648 0.66 
0.488504 0.00525913 0.647 
0.519068 0.0053079 0.653 
0.988895 0.00946968 1.165 
1.04067 0.00951845 1.171 
0.999806 0.00872999 1.074 
1.01933 0.00853491 1.05 
-1.01387 0.0121704 1.162 
-0.97337 0.0122437 1.169 
-0.92835 0.0122646 1.171 
-0.881664 0.0122646 1.171 
-0.830701 0.0122018 1.165 
-0.786947 0.0122437 1.169 
-0.741608 0.0122646 1.171 
-0.695516 0.0122751 1.172 
-0.648791 0.0122751 1.172 
-0.60258 0.0122856 1.173 
-0.556762 0.0123065 1.175 
-0.509917 0.0123065 1.175 
-0.464649 0.0123484 1.179 
-0.417645 0.0123484 1.179 
-0.371584 0.0123799 1.182 
-0.325283 0.0124113 1.185 
-0.278744 0.0124427 1.188 
-0.230796 0.0124113 1.185 
-0.184017 0.0124427 1.188 
-0.136769 0.0124532 1.189 
-0.0895167 0.0124741 1.191 
-0.0422105 0.0125265 1.196 
0.00547616 0.012537 1.197 
0.053287 0.0125579 1.199 
0.101089 0.0125579 1.199 
0.149263 0.0125893 1.202 
0.19702 0.0125789 1.201 
0.245105 0.0125893 1.202 
0.292783 0.0125789 1.201 
0.338679 0.0125055 1.194 
0.345573 0.00787619 0.752 
0.420393 0.00700687 0.669 
0.45015 0.00693356 0.662 
0.487607 0.00687072 0.656 
0.515327 0.00689166 0.658 
0.980054 0.0121599 1.161 
1.03783 0.0122961 1.174 
0.998875 0.0112382 1.073 
1.01835 0.0109869 1.049 
-1.01649 0.0149339 1.165 
-0.97337 0.0149852 1.169 
-0.92835 0.0150108 1.171 
-0.881664 0.0150108 1.171 
-0.830701 0.0149339 1.165 
-0.786947 0.0149852 1.169 
-0.741608 0.0150108 1.171 
-0.695516 0.0150237 1.172 
-0.648791 0.0150237 1.172 
-0.60258 0.0150365 1.173 
-0.557236 0.0150749 1.176 
-0.509917 0.0150621 1.175 
-0.464649 0.0151134 1.179 
-0.417645 0.0151134 1.179 
-0.371584 0.0151519 1.182 
-0.325558 0.0152031 1.186 
-0.278744 0.0152288 1.188 
-0.230796 0.0151903 1.185 
-0.184017 0.0152288 1.188 
-0.136769 0.0152416 1.189 
-0.0895167 0.0152672 1.191 
-0.0422105 0.0153313 1.196 
0.00547158 0.0153313 1.196 
0.0533314 0.0153826 1.2 
0.10092 0.0153441 1.197 
0.149263 0.0154082 1.202 
0.19702 0.0153954 1.201 
0.245105 0.0154082 1.202 
0.292783 0.0153954 1.201 
0.338111 0.01528 1.192 
0.337204 0.011819 0.922 
0.346475 0.0105243 0.821 
0.356739 0.00933211 0.728 
0.420701 0.00855016 0.667 
0.450155 0.00837069 0.653 
0.489619 0.00852452 0.665 
0.509922 0.00842197 0.657 
0.528771 0.0083066 0.648 
0.981878 0.01387 1.082 
1.00133 0.0135495 1.057 
1.02077 0.0132547 1.034 
-1.00438 0.0177419 1.17 
-0.956921 0.0177267 1.169 
-0.911872 0.017757 1.171 
-0.864448 0.0177419 1.17 
-0.816405 0.0177115 1.168 
-0.771157 0.0177419 1.17 
-0.725131 0.017757 1.171 
-0.679025 0.0177722 1.172 
-0.6323 0.0177722 1.172 
-0.586574 0.0178025 1.174 
-0.540229 0.0178177 1.175 
-0.493384 0.0178177 1.175 
-0.449199 0.0179238 1.182 
-0.401055 0.0178784 1.179 
-0.354952 0.0179238 1.182 
-0.308609 0.0179693 1.185 
-0.262027 0.0180148 1.188 
-0.214122 0.0179693 1.185 
-0.167301 0.0180148 1.188 
-0.120241 0.0180603 1.191 
-0.0729414 0.0181058 1.194 
-0.0253815 0.0181361 1.196 
0.0223751 0.0181968 1.2 
0.0702166 0.0181968 1.2 
0.118058 0.0181968 1.2 
0.166038 0.018212 1.201 
0.213919 0.018212 1.201 
0.261801 0.018212 1.201 
0.30994 0.0182271 1.202 
0.35012 0.0178329 1.176 
0.339591 0.0138144 0.911 
0.347907 0.012571 0.829 
0.353324 0.0110394 0.728 
0.403259 0.00984143 0.649 
0.449998 0.00993242 0.655 
0.49044 0.0100689 0.664 
0.520811 0.0101144 0.667 
0.532631 0.00984143 0.649 
0.985833 0.0163468 1.078 
1.00495 0.0159677 1.053 
1.02108 0.0155734 1.027 
-0.997005 0.0205032 1.171 
-0.949508 0.0204857 1.17 
-0.903634 0.0205032 1.171 
-0.855485 0.0204682 1.169 
-0.808879 0.0204682 1.169 
-0.763578 0.0205032 1.171 
-0.716892 0.0205032 1.171 
-0.670779 0.0205207 1.172 
-0.624054 0.0205207 1.172 
-0.578807 0.0205733 1.175 
-0.531962 0.0205733 1.175 
-0.48553 0.0205908 1.176 
-0.44051 0.0206783 1.181 
-0.393426 0.0206783 1.181 
-0.346636 0.0206958 1.182 
-0.300272 0.0207484 1.185 
-0.253669 0.0208009 1.188 
-0.205959 0.0207659 1.186 
-0.158943 0.0208009 1.188 
-0.111861 0.0208534 1.191 
-0.064541 0.0209059 1.194 
-0.0169812 0.0209585 1.197 
0.0308177 0.021011 1.2 
0.0785937 0.0209935 1.199 
0.126712 0.021046 1.202 
0.174488 0.0210285 1.201 
0.222369 0.0210285 1.201 
0.2698 0.0209935 1.199 
0.318397 0.021046 1.202 
0.358394 0.0205908 1.176 
0.343109 0.0159158 0.909 
0.344724 0.0132019 0.754 
0.358695 0.012344 0.705 
0.415934 0.0115035 0.657 
0.453341 0.0117136 0.669 
0.488206 0.0118362 0.676 
0.503759 0.0115035 0.657 
0.53181 0.0113459 0.648 
0.983305 0.0188749 1.078 
1.00343 0.0184547 1.054 
1.01768 0.0179644 1.026 
-0.997005 0.0232494 1.171 
-0.949508 0.0232296 1.17 
-0.903634 0.0232494 1.171 
-0.855485 0.0232097 1.169 
-0.808879 0.0232097 1.169 
-0.763578 0.0232494 1.171 
-0.716892 0.0232494 1.171 
-0.670779 0.0232693 1.172 
-0.624054 0.0232693 1.172 
-0.578807 0.0233289 1.175 
-0.531962 0.0233289 1.175 
-0.48553 0.0233487 1.176 
-0.439764 0.0234083 1.179 
-0.393426 0.023448 1.181 
-0.346636 0.0234678 1.182 
-0.300525 0.0235473 1.186 
-0.253669 0.023587 1.188 
-0.205959 0.0235473 1.186 
-0.158943 0.023587 1.188 
-0.111861 0.0236465 1.191 
-0.064541 0.0237061 1.194 
-0.0169812 0.0237656 1.197 
0.0308177 0.0238252 1.2 
0.0785937 0.0238054 1.199 
0.126712 0.0238649 1.202 
0.174488 0.0238451 1.201 
0.222369 0.0238451 1.201 
0.2698 0.0238054 1.199 
0.318926 0.0239046 1.204 
0.358394 0.0233487 1.176 
0.342731 0.0180277 0.908 
0.344565 0.0148113 0.746 
0.355642 0.0138782 0.699 
0.414035 0.0129847 0.654 
0.454473 0.013362 0.673 
0.484165 0.0134414 0.677 
0.52234 0.013362 0.673 
0.53181 0.0128656 0.648 
0.557645 0.0128656 0.648 
0.998853 0.020986 1.057 
1.01145 0.0203904 1.027 
-1.0025 0.0259956 1.171 
-0.954995 0.0259734 1.17 
-0.909903 0.0260178 1.172 
-0.861704 0.0259734 1.17 
-0.814362 0.0259512 1.169 
-0.768413 0.0259734 1.17 
-0.722385 0.0259956 1.171 
-0.676277 0.0260178 1.172 
-0.629551 0.0260178 1.172 
-0.583821 0.0260622 1.174 
-0.537473 0.0260844 1.175 
-0.491046 0.0261066 1.176 
-0.44605 0.0262176 1.181 
-0.398966 0.0262176 1.181 
-0.35218 0.0262398 1.182 
-0.30583 0.0263064 1.185 
-0.259241 0.026373 1.188 
-0.211521 0.0263286 1.186 
-0.164515 0.026373 1.188 
-0.117546 0.0264618 1.192 
-0.0701412 0.0265062 1.194 
-0.0225956 0.0265728 1.197 
0.0251893 0.0266394 1.2 
0.0730308 0.0266394 1.2 
0.120973 0.0266616 1.201 
0.168854 0.0266616 1.201 
0.216736 0.0266616 1.201 
0.264617 0.0266616 1.201 
0.313279 0.0267282 1.204 
0.353178 0.0261288 1.177 
0.337212 0.0207343 0.934 
0.346508 0.0185366 0.835 
0.346062 0.0163832 0.738 
0.352081 0.0153621 0.692 
0.405312 0.0143187 0.645 
0.456259 0.0150513 0.678 
0.480439 0.0149625 0.674 
0.499896 0.0146073 0.658 
0.530291 0.0143853 0.648 
0.562204 0.0143853 0.648 
0.997317 0.0234871 1.058 
1.00904 0.0227989 1.027 
-1.00713 0.0287173 1.17 
-0.959662 0.0286927 1.169 
-0.9154 0.0287664 1.172 
-0.867192 0.0287173 1.17 
-0.819845 0.0286927 1.169 
-0.773901 0.0287173 1.17 
-0.728499 0.0287664 1.172 
-0.681774 0.0287664 1.172 
-0.635048 0.0287664 1.172 
-0.589327 0.0288155 1.174 
-0.542984 0.02884 1.175 
-0.49614 0.02884 1.175 
-0.451589 0.0289873 1.181 
-0.404505 0.0289873 1.181 
-0.358026 0.0290364 1.183 
-0.311388 0.0290855 1.185 
-0.264367 0.02911 1.186 
-0.217084 0.02911 1.186 
-0.17023 0.0291836 1.189 
-0.123137 0.0292573 1.192 
-0.0757415 0.0293064 1.194 
-0.0282099 0.02938 1.197 
0.0195609 0.0294536 1.2 
0.0674024 0.0294536 1.2 
0.115244 0.0294536 1.2 
0.163357 0.0295027 1.202 
0.211103 0.0294782 1.201 
0.258984 0.0294782 1.201 
0.307121 0.0295027 1.202 
0.348249 0.0289382 1.179 
0.339685 0.0232438 0.947 
0.343169 0.0208875 0.851 
0.344194 0.018384 0.749 
0.351083 0.0172549 0.703 
0.388361 0.0158804 0.647 
0.424349 0.0159786 0.651 
0.459076 0.0161259 0.657 
0.501629 0.0166168 0.677 
0.522781 0.015954 0.65 
0.556125 0.015905 0.648 
0.98561 0.0263855 1.075 
1.00455 0.0257719 1.05 
-1.02661 0.0312191 1.161 
-0.987922 0.0314611 1.17 
-0.942081 0.031488 1.171 
-0.895395 0.031488 1.171 
-0.846536 0.0314074 1.168 
-0.800655 0.0314342 1.169 
-0.755984 0.0315149 1.172 
-0.709259 0.0315149 1.172 
-0.662534 0.0315149 1.172 
-0.615809 0.0315149 1.172 
-0.57054 0.0315956 1.175 
-0.523695 0.0315956 1.175 
-0.478068 0.0316763 1.178 
-0.43147 0.0317031 1.179 
-0.385117 0.0317569 1.181 
-0.338606 0.0318107 1.183 
-0.292674 0.0319452 1.188 
-0.245311 0.0319452 1.188 
-0.197948 0.0319452 1.188 
-0.150711 0.031972 1.189 
-0.103569 0.0320527 1.192 
-0.0561405 0.0321065 1.194 
-0.0085597 0.0321872 1.197 
0.0392604 0.0322678 1.2 
0.0870293 0.0322409 1.199 
0.135393 0.0323754 1.204 
0.182937 0.0322947 1.201 
0.231395 0.0323754 1.204 
0.278468 0.0322678 1.2 
0.327397 0.0323754 1.204 
0.365733 0.0315418 1.173 
0.339591 0.0244967 0.911 
0.343041 0.0221035 0.822 
0.345265 0.0198985 0.74 
0.350458 0.0186078 0.692 
0.348607 0.0169406 0.63 
0.456932 0.0182582 0.679 
0.485595 0.0182582 0.679 
0.516793 0.0181238 0.674 
0.528065 0.0174515 0.649 
0.561549 0.0174515 0.649 
0.987212 0.0288797 1.074 
1.00605 0.0282075 1.049 
-1.02749 0.0339711 1.162 
-0.987922 0.034205 1.17 
-0.942081 0.0342342 1.171 
-0.895395 0.0342342 1.171 
-0.846536 0.0341465 1.168 
-0.800655 0.0341757 1.169 
-0.755984 0.0342635 1.172 
-0.709259 0.0342635 1.172 
-0.661969 0.0342342 1.171 
-0.615809 0.0342635 1.172 
-0.570055 0.0343219 1.174 
-0.523695 0.0343512 1.175 
-0.478068 0.0344389 1.178 
-0.43147 0.0344681 1.179 
-0.385117 0.0345266 1.181 
-0.338606 0.034585 1.183 
-0.292181 0.0346727 1.186 
-0.245311 0.0347312 1.188 
-0.197948 0.0347312 1.188 
-0.150711 0.0347604 1.189 
-0.103743 0.0349066 1.194 
-0.0562346 0.0349651 1.196 
-0.0085597 0.0349943 1.197 
0.0392604 0.035082 1.2 
0.0870293 0.0350528 1.199 
0.135393 0.035199 1.204 
0.182937 0.0351113 1.201 
0.231395 0.035199 1.204 
0.278468 0.035082 1.2 
0.327397 0.035199 1.204 
0.363006 0.0335326 1.147 
0.341976 0.0264869 0.906 
0.336058 0.0227741 0.779 
0.34308 0.0212831 0.728 
0.348592 0.0199383 0.682 
0.350446 0.0183596 0.628 
0.452379 0.0191197 0.654 
0.498936 0.0199383 0.682 
0.538865 0.0200552 0.686 
0.55138 0.0191489 0.655 
0.571322 0.0189443 0.648 
0.992059 0.0310768 1.063 
1.00135 0.0300828 1.029 
-1.01723 0.0369173 1.169 
-0.971458 0.0369488 1.17 
-0.926394 0.037012 1.172 
-0.878168 0.0369488 1.17 
-0.82939 0.0368541 1.167 
-0.784206 0.0369173 1.169 
-0.739493 0.037012 1.172 
-0.692768 0.037012 1.172 
-0.645491 0.0369804 1.171 
-0.599829 0.0370436 1.173 
-0.554007 0.0371067 1.175 
-0.507162 0.0371067 1.175 
-0.463451 0.0373594 1.183 
-0.415584 0.0372962 1.181 
-0.368812 0.0373278 1.182 
-0.323321 0.0375173 1.188 
-0.275493 0.0374541 1.186 
-0.22821 0.0374541 1.186 
-0.181689 0.037612 1.191 
-0.134206 0.037612 1.191 
-0.086942 0.0377068 1.194 
-0.0394386 0.0378015 1.197 
0.00829717 0.0378647 1.199 
0.0560988 0.0378647 1.199 
0.103727 0.0378015 1.197 
0.152082 0.0379594 1.202 
0.200003 0.0379594 1.202 
0.247924 0.0379594 1.202 
0.295353 0.0378962 1.2 
0.341479 0.0377068 1.194 
0.339246 0.0300644 0.952 
0.340748 0.027159 0.86 
0.337194 0.0241589 0.765 
0.3427 0.0225167 0.713 
0.348744 0.0211587 0.67 
0.355155 0.0187586 0.594 
0.456729 0.0212851 0.674 
0.491817 0.0215061 0.681 
0.534038 0.021664 0.686 
0.553063 0.0207482 0.657 
0.571322 0.020464 0.648 
0.99268 0.0335066 1.061 
1.00181 0.0324329 1.027 
-1.01536 0.0396927 1.17 
-0.967887 0.0396588 1.169 
-0.923645 0.0397605 1.172 
-0.875424 0.0396927 1.17 
-0.826653 0.0395909 1.167 
-0.782133 0.0396927 1.17 
-0.736744 0.0397605 1.172 
-0.690019 0.0397605 1.172 
-0.642745 0.0397266 1.171 
-0.597078 0.0397945 1.173 
-0.550782 0.0398284 1.174 
-0.504836 0.0398962 1.176 
-0.460677 0.0401337 1.183 
-0.413163 0.0400998 1.182 
-0.36573 0.0400659 1.181 
-0.319995 0.0402355 1.186 
-0.272482 0.0402016 1.185 
-0.225808 0.0403033 1.188 
-0.179046 0.040439 1.192 
-0.131413 0.0404051 1.191 
-0.0842828 0.0405747 1.196 
-0.0366926 0.0406765 1.199 
0.0111183 0.0407104 1.2 
0.0589107 0.0406765 1.199 
0.106534 0.0406087 1.197 
0.154901 0.0407783 1.202 
0.202822 0.0407783 1.202 
0.250743 0.0407783 1.202 
0.298167 0.0407104 1.2 
0.342549 0.0403033 1.188 
0.340226 0.0337218 0.994 
0.342738 0.0300579 0.886 
0.334332 0.0262922 0.775 
0.340724 0.024528 0.723 
0.346548 0.0230014 0.678 
0.347862 0.0212373 0.626 
0.358148 0.0197785 0.583 
0.48631 0.0230693 0.68 
0.53243 0.0232728 0.686 
0.539914 0.022255 0.656 
0.568732 0.0221193 0.652 
0.588341 0.0218819 0.645 
1.00275 0.0353842 1.043 
-1.03103 0.0422915 1.166 
-0.988766 0.0424728 1.171 
-0.942081 0.0424728 1.171 
-0.895395 0.0424728 1.171 
-0.846536 0.042364 1.168 
-0.80134 0.0424365 1.17 
-0.755984 0.0425091 1.172 
-0.709259 0.0425091 1.172 
-0.661969 0.0424728 1.171 
-0.616334 0.0425454 1.173 
-0.569569 0.0425454 1.173 
-0.523695 0.0426179 1.175 
-0.478474 0.042763 1.179 
-0.43147 0.042763 1.179 
-0.385444 0.0428718 1.182 
-0.338606 0.0429081 1.183 
-0.291442 0.0429081 1.183 
-0.245311 0.0430894 1.188 
-0.198114 0.0431257 1.189 
-0.150965 0.0431982 1.191 
-0.103917 0.0433796 1.196 
-0.0562346 0.0433796 1.196 
-0.008574 0.0434884 1.199 
0.0392604 0.0435247 1.2 
0.0871019 0.0435247 1.2 
0.135168 0.0435972 1.202 
0.182785 0.0435247 1.2 
0.231011 0.0435972 1.202 
0.2787 0.0435609 1.201 
0.327397 0.0436697 1.204 
0.341312 0.0382654 1.055 
0.339677 0.0332601 0.917 
0.338773 0.0297781 0.821 
0.340226 0.0271304 0.748 
0.343469 0.0250629 0.691 
0.342561 0.0231406 0.638 
0.342914 0.0212183 0.585 
0.358258 0.0206017 0.568 
0.526065 0.0248091 0.684 
0.554041 0.0239386 0.66 
0.574199 0.0236847 0.653 
0.59104 0.023322 0.643 
0.998939 0.0373224 1.029 
-1.02272 0.0451418 1.169 
-0.976946 0.0451804 1.17 
-0.931891 0.0452576 1.172 
-0.8829 0.0451418 1.169 
-0.834864 0.0450645 1.167 
-0.79104 0.045219 1.171 
-0.745626 0.0452962 1.173 
-0.698265 0.0452576 1.172 
-0.650984 0.045219 1.171 
-0.605331 0.0452962 1.173 
-0.558565 0.0452962 1.173 
-0.512673 0.0453735 1.175 
-0.468603 0.0456438 1.182 
-0.421123 0.0456052 1.181 
-0.374039 0.0456052 1.181 
-0.328062 0.0457596 1.185 
-0.280108 0.0456438 1.182 
-0.233772 0.0457982 1.186 
-0.187275 0.0459913 1.191 
-0.139792 0.0459913 1.191 
-0.0926973 0.0461844 1.196 
-0.0451282 0.0463002 1.199 
0.00267345 0.0463002 1.199 
0.0505172 0.0463389 1.2 
0.0982767 0.0463002 1.199 
0.146444 0.0464161 1.202 
0.194365 0.0464161 1.202 
0.242286 0.0464161 1.202 
0.289725 0.0463389 1.2 
0.337285 0.0463002 1.199 
0.340889 0.0395425 1.024 
0.340336 0.0352562 0.913 
0.337948 0.0316263 0.819 
0.339377 0.0289618 0.75 
0.341213 0.0267607 0.693 
0.341599 0.0246754 0.639 
0.342126 0.0226288 0.586 
0.35738 0.0221268 0.573 
0.494138 0.0263359 0.682 
0.542106 0.0264132 0.684 
0.555448 0.0254091 0.658 
0.57903 0.0252933 0.655 
1.00168 0.0404307 1.047 
-1.00799 0.0479652 1.171 
-0.960483 0.0479242 1.17 
-0.9154 0.0480062 1.172 
-0.867192 0.0479242 1.17 
-0.818443 0.0478014 1.167 
-0.774563 0.0479652 1.171 
-0.72912 0.0480471 1.173 
-0.681192 0.0479652 1.171 
-0.635048 0.0480062 1.172 
-0.588825 0.0480471 1.173 
-0.54206 0.0480471 1.173 
-0.496562 0.04817 1.176 
-0.451971 0.0484158 1.182 
-0.404847 0.0484158 1.182 
-0.357421 0.0483748 1.181 
-0.311388 0.0485387 1.185 
-0.263476 0.0484158 1.182 
-0.21745 0.0486615 1.188 
-0.17066 0.0488254 1.192 
-0.123137 0.0488254 1.192 
-0.0758684 0.0489892 1.196 
-0.028257 0.0491121 1.199 
0.0195609 0.0491531 1.2 
0.0674586 0.049194 1.201 
0.115244 0.0491531 1.2 
0.163221 0.049194 1.201 
0.21163 0.0493169 1.204 
0.259631 0.0493169 1.204 
0.307121 0.049235 1.202 
0.346181 0.0480062 1.172 
0.340965 0.0413705 1.01 
0.342582 0.0369467 0.902 
0.336156 0.0328097 0.801 
0.338887 0.0299015 0.73 
0.340835 0.0275667 0.673 
0.342361 0.0255596 0.624 
0.347544 0.0237164 0.579 
0.349387 0.021955 0.536 
0.542873 0.0281401 0.687 
0.554747 0.0269932 0.659 
0.579257 0.0269113 0.657 
1.00018 0.042927 1.048 
-1.0282 0.0506248 1.169 
-0.983273 0.0507114 1.171 
-0.936588 0.0507114 1.171 
-0.889143 0.0506681 1.17 
-0.840337 0.0505382 1.167 
-0.796532 0.0507114 1.171 
-0.751128 0.050798 1.173 
-0.703762 0.0507547 1.172 
-0.656476 0.0507114 1.171 
-0.610832 0.050798 1.173 
-0.564067 0.050798 1.173 
-0.518184 0.0508846 1.175 
-0.473746 0.0511445 1.181 
-0.42594 0.0510578 1.179 
-0.3799 0.0511878 1.182 
-0.33362 0.0513177 1.185 
-0.285652 0.0511878 1.182 
-0.239739 0.0514476 1.188 
-0.192861 0.0515775 1.191 
-0.145379 0.0515775 1.191 
-0.098307 0.0517941 1.196 
-0.0506673 0.0518374 1.197 
-0.00295027 0.051924 1.199 
0.0448888 0.0519673 1.2 
0.0927303 0.0519673 1.2 
0.140806 0.0520539 1.202 
0.188727 0.0520539 1.202 
0.236452 0.0520106 1.201 
0.28457 0.0520539 1.202 
0.332214 0.0520106 1.201 
0.342606 0.0458611 1.059 
0.34227 0.0400148 0.924 
0.336438 0.035511 0.82 
0.338925 0.0324362 0.749 
0.338386 0.0296213 0.684 
0.338664 0.0271962 0.628 
0.34017 0.025334 0.585 
0.354474 0.024338 0.562 
0.528441 0.0296647 0.685 
0.54156 0.0284954 0.658 
0.576583 0.0286253 0.661 
0.590165 0.028019 0.647 
-1.01074 0.0534576 1.171 
-0.96405 0.0534576 1.171 
-0.918148 0.0535032 1.172 
-0.869936 0.0534119 1.17 
-0.820476 0.0532293 1.166 
-0.777973 0.0535032 1.172 
-0.731871 0.0535489 1.173 
-0.684522 0.0535032 1.172 
-0.637797 0.0535032 1.172 
-0.591576 0.0535489 1.173 
-0.544811 0.0535489 1.173 
-0.499744 0.0537315 1.177 
-0.454743 0.0539598 1.182 
-0.407964 0.0540054 1.183 
-0.360496 0.0539598 1.182 
-0.314432 0.0541424 1.186 
-0.266023 0.0539141 1.181 
-0.220236 0.0542337 1.188 
-0.173746 0.0545076 1.194 
-0.125933 0.0544163 1.192 
-0.0786732 0.0545989 1.196 
-0.0310689 0.0547358 1.199 
0.0167328 0.0547358 1.199 
0.064642 0.0548271 1.201 
0.11243 0.0547815 1.2 
0.160271 0.0547815 1.2 
0.20898 0.0550097 1.205 
0.256381 0.0548728 1.202 
0.304302 0.0548728 1.202 
0.344018 0.0535946 1.174 
0.340274 0.0456969 1.001 
0.344481 0.0414057 0.907 
0.336768 0.0364297 0.798 
0.338764 0.0318646 0.698 
0.340166 0.0283038 0.62 
0.342877 0.0263864 0.578 
0.351391 0.0252451 0.553 
0.35034 0.0236017 0.517 
0.53799 0.0314537 0.689 
0.555225 0.0304494 0.667 
0.580354 0.0301298 0.66 
0.592879 0.029445 0.645 
-1.0025 0.0562038 1.171 
-0.955812 0.0562038 1.171 
-0.909903 0.0562518 1.172 
-0.861704 0.0561558 1.17 
-0.813666 0.0560598 1.168 
-0.769727 0.0562518 1.172 
-0.723002 0.0562518 1.172 
-0.676277 0.0562518 1.172 
-0.630089 0.0562998 1.173 
-0.583323 0.0562998 1.173 
-0.536558 0.0562998 1.173 
-0.491881 0.0565398 1.178 
-0.44605 0.0566838 1.181 
-0.399641 0.0567798 1.183 
-0.352478 0.0567798 1.183 
-0.30583 0.0568757 1.185 
-0.257932 0.0567318 1.182 
-0.212056 0.0570677 1.189 
-0.165069 0.0572117 1.192 
-0.117744 0.0573077 1.194 
-0.0702587 0.0574037 1.196 
-0.0225956 0.0574517 1.197 
0.0251893 0.0575957 1.2 
0.0731526 0.0576917 1.202 
0.120973 0.0576437 1.201 
0.168714 0.0575957 1.2 
0.216916 0.0576917 1.202 
0.265278 0.0577877 1.204 
0.313279 0.0577877 1.204 
0.347177 0.0555318 1.157 
0.340834 0.0474684 0.989 
0.342583 0.0427648 0.891 
0.335669 0.0379652 0.791 
0.3394 0.0314376 0.655 
0.33979 0.0279339 0.582 
0.347401 0.026734 0.557 
0.348714 0.0249581 0.52 
0.350842 0.0227983 0.475 
0.531219 0.0312457 0.651 
0.573995 0.0320136 0.667 
0.587081 0.0312937 0.652 
-1.02172 0.05895 1.171 
-0.975035 0.05895 1.171 
-0.929142 0.0590003 1.172 
-0.880911 0.0588996 1.17 
-0.831414 0.0586983 1.166 
-0.788967 0.0590003 1.172 
-0.742875 0.0590507 1.173 
-0.695516 0.0590003 1.172 
-0.649345 0.0590507 1.173 
-0.603093 0.059101 1.174 
-0.555815 0.0590507 1.173 
-0.510351 0.0592017 1.176 
-0.465437 0.0594534 1.181 
-0.418353 0.0594534 1.181 
-0.371584 0.0595037 1.182 
-0.325558 0.0597051 1.186 
-0.277336 0.0595037 1.182 
-0.231575 0.0598561 1.189 
-0.184637 0.0600072 1.192 
-0.137114 0.0600072 1.192 
-0.0899677 0.0602589 1.197 
-0.0423163 0.0603595 1.199 
0.00547616 0.0602589 1.197 
0.0533758 0.0604602 1.201 
0.101173 0.0604099 1.2 
0.149139 0.0604602 1.201 
0.19784 0.0607119 1.206 
0.244901 0.0604602 1.201 
0.293027 0.0605106 1.202 
0.33726 0.0598561 1.189 
0.341221 0.0516001 1.025 
0.343318 0.0463646 0.921 
0.336781 0.0406257 0.807 
0.335799 0.0332254 0.66 
0.338415 0.030658 0.609 
0.341403 0.028745 0.571 
0.34631 0.0273355 0.543 
0.350872 0.0259763 0.516 
0.35084 0.0237612 0.472 
0.554747 0.0331751 0.659 
0.586961 0.0330744 0.657 
-1.0328 0.0615381 1.168 
-0.988766 0.0616962 1.171 
-0.942885 0.0617489 1.172 
-0.89616 0.0617489 1.172 
-0.84726 0.0615908 1.169 
-0.802025 0.0616962 1.171 
-0.756629 0.0618016 1.173 
-0.709864 0.0618016 1.173 
-0.663099 0.0618016 1.173 
-0.616859 0.0618542 1.174 
-0.569569 0.0618016 1.173 
-0.523695 0.0619069 1.175 
-0.478474 0.0621177 1.179 
-0.43147 0.0621177 1.179 
-0.38577 0.0623284 1.183 
-0.338606 0.0623284 1.183 
-0.291442 0.0623284 1.183 
-0.245311 0.0625919 1.188 
-0.198448 0.0627499 1.191 
-0.150965 0.0627499 1.191 
-0.103917 0.0630134 1.196 
-0.0562816 0.063066 1.197 
-0.0085597 0.063066 1.197 
0.0392604 0.0632241 1.2 
0.0871745 0.0632768 1.201 
0.135168 0.0633295 1.202 
0.183394 0.0634349 1.204 
0.230819 0.0632768 1.201 
0.279628 0.0634875 1.205 
0.326581 0.0632768 1.201 
0.345928 0.0571651 1.085 
0.340862 0.0491041 0.932 
0.336576 0.0422548 0.802 
0.337962 0.0365119 0.693 
0.336048 0.0335615 0.637 
0.337045 0.0312959 0.594 
0.341482 0.0293992 0.558 
0.345252 0.0276079 0.524 
0.345289 0.0256058 0.486 
0.350665 0.024394 0.463 
0.581992 0.0352474 0.669 
-1.04744 0.0641672 1.166 
-1.00524 0.0644424 1.171 
-0.958558 0.0644424 1.171 
-0.91343 0.0645524 1.173 
-0.865187 0.0644424 1.171 
-0.815706 0.0642223 1.167 
-0.772475 0.0644974 1.172 
-0.72637 0.0645524 1.173 
-0.679605 0.0645524 1.173 
-0.632839 0.0645524 1.173 
-0.586574 0.0646075 1.174 
-0.539769 0.0646075 1.174 
-0.494644 0.0648276 1.178 
-0.448059 0.0648826 1.179 
-0.402416 0.0651028 1.183 
-0.355252 0.0651028 1.183 
-0.308609 0.0652128 1.185 
-0.260704 0.0650477 1.182 
-0.215206 0.065543 1.191 
-0.167864 0.0655981 1.192 
-0.120746 0.0658182 1.196 
-0.0730635 0.0658182 1.196 
-0.0254452 0.0659833 1.199 
0.0223192 0.0658732 1.197 
0.0704507 0.0662584 1.204 
0.118255 0.0661484 1.202 
0.166038 0.0660933 1.201 
0.214454 0.0662584 1.204 
0.262455 0.0662584 1.204 
0.30994 0.0661484 1.202 
0.345655 0.0638921 1.161 
0.339111 0.0541514 0.984 
0.339064 0.0476576 0.866 
0.335282 0.0425397 0.773 
0.334596 0.0386874 0.703 
0.336291 0.0357157 0.649 
0.335379 0.0330742 0.601 
0.339863 0.031038 0.564 
0.340505 0.0291669 0.53 
0.338938 0.0269656 0.49 
0.34788 0.0260851 0.474 
0.55488 0.0363761 0.661 
-1.04654 0.0668443 1.165 
-1.0061 0.067246 1.172 
-0.958558 0.0671886 1.171 
-0.91343 0.0673033 1.173 
-0.865187 0.0671886 1.171 
-0.816405 0.0670165 1.168 
-0.772475 0.067246 1.172 
-0.72637 0.0673033 1.173 
-0.679605 0.0673033 1.173 
-0.632839 0.0673033 1.173 
-0.586574 0.0673607 1.174 
-0.539769 0.0673607 1.174 
-0.494644 0.0675902 1.178 
-0.448059 0.0676476 1.179 
-0.402416 0.0678771 1.183 
-0.355252 0.0678771 1.183 
-0.308609 0.0679919 1.185 
-0.260924 0.0678771 1.183 
-0.215206 0.0683361 1.191 
-0.168146 0.0685083 1.194 
-0.120746 0.068623 1.196 
-0.0730635 0.068623 1.196 
-0.0254452 0.0687951 1.199 
0.0223192 0.0686804 1.197 
0.0704507 0.069082 1.204 
0.118255 0.0689673 1.202 
0.166038 0.0689099 1.201 
0.214454 0.069082 1.204 
0.262455 0.069082 1.204 
0.30994 0.0689673 1.202 
0.345059 0.0665001 1.159 
0.338422 0.0563443 0.982 
0.342199 0.0510656 0.89 
0.335391 0.0450984 0.786 
0.331995 0.040623 0.708 
0.335285 0.0372951 0.65 
0.335379 0.0344836 0.601 
0.33926 0.0323033 0.563 
0.339813 0.0302377 0.527 
0.339393 0.0280574 0.489 
0.347146 0.0271394 0.473 
0.350814 0.0259344 0.452 
-1.03368 0.0698153 1.169 
-0.988766 0.0699348 1.171 
-0.942885 0.0699945 1.172 
-0.89616 0.0699945 1.172 
-0.84871 0.0699348 1.171 
-0.802025 0.0699348 1.171 
-0.755984 0.0699945 1.172 
-0.709864 0.0700542 1.173 
-0.66423 0.0701737 1.175 
-0.617385 0.0701737 1.175 
-0.569569 0.0700542 1.173 
-0.524141 0.0702334 1.176 
-0.478068 0.0703528 1.178 
-0.43147 0.0704125 1.179 
-0.38577 0.0706514 1.183 
-0.339178 0.0707709 1.185 
-0.292674 0.0709501 1.188 
-0.245517 0.0710098 1.189 
-0.198448 0.0711292 1.191 
-0.151092 0.0711889 1.192 
-0.103917 0.0714278 1.196 
-0.0562816 0.0714876 1.197 
-0.008574 0.071607 1.199 
0.0392604 0.0716667 1.2 
0.0871745 0.0717264 1.201 
0.135168 0.0717862 1.202 
0.183546 0.0719653 1.205 
0.231011 0.0717862 1.202 
0.279396 0.0719056 1.204 
0.326581 0.0717264 1.201 
0.347436 0.0660528 1.106 
0.33889 0.0567959 0.951 
0.335962 0.0500473 0.838 
0.338969 0.0449709 0.753 
0.333712 0.0395361 0.662 
0.335637 0.0360723 0.604 
0.338413 0.0338028 0.566 
0.337982 0.0315334 0.528 
0.337789 0.0292639 0.49 
0.345305 0.0281889 0.472 
0.348694 0.0269945 0.452 
0.430956 0.0265764 0.445 
-1.01984 0.072743 1.172 
-0.972289 0.072681 1.171 
-0.927184 0.0728051 1.173 
-0.878918 0.072681 1.171 
-0.830101 0.0724948 1.168 
-0.785547 0.072681 1.171 
-0.740124 0.0728051 1.173 
-0.694541 0.0729292 1.175 
-0.646594 0.0728051 1.173 
-0.600851 0.0729292 1.175 
-0.553064 0.0728051 1.173 
-0.508025 0.0730534 1.177 
-0.461492 0.0731154 1.178 
-0.415935 0.0733637 1.182 
-0.369124 0.0734258 1.183 
-0.323321 0.0737361 1.188 
-0.275261 0.0735499 1.185 
-0.229172 0.0739223 1.191 
-0.182147 0.0741085 1.194 
-0.13477 0.0742327 1.196 
-0.0871605 0.0742947 1.197 
-0.0395045 0.0744189 1.199 
0.00829717 0.0744189 1.199 
0.0561924 0.074543 1.201 
0.104074 0.074543 1.201 
0.152082 0.0746051 1.202 
0.200502 0.0747913 1.205 
0.247924 0.0746051 1.202 
0.296338 0.0747292 1.204 
0.338047 0.0733637 1.182 
0.347696 0.066226 1.067 
0.341207 0.0575365 0.927 
0.335617 0.0507712 0.818 
0.332201 0.044192 0.712 
0.335081 0.0374267 0.603 
0.338413 0.0351302 0.566 
0.336743 0.0327716 0.528 
0.337327 0.0304751 0.491 
0.343818 0.0293579 0.473 
0.348107 0.0281786 0.454 
0.350437 0.0265028 0.427 
-1.03368 0.0752983 1.169 
-0.988766 0.0754272 1.171 
-0.94369 0.075556 1.173 
-0.89616 0.0754916 1.172 
-0.84871 0.0754272 1.171 
-0.802025 0.0754272 1.171 
-0.755984 0.0754916 1.172 
-0.710469 0.0756204 1.174 
-0.66423 0.0756848 1.175 
-0.617385 0.0756848 1.175 
-0.569569 0.075556 1.173 
-0.524141 0.0757492 1.176 
-0.477662 0.0758136 1.177 
-0.432201 0.0760713 1.181 
-0.38577 0.0762001 1.183 
-0.339178 0.0763289 1.185 
-0.292674 0.0765222 1.188 
-0.24593 0.0767154 1.191 
-0.198614 0.0767798 1.192 
-0.151092 0.0767798 1.192 
-0.103917 0.0770375 1.196 
-0.0562816 0.0771019 1.197 
-0.00858115 0.0772951 1.2 
0.0392604 0.0772951 1.2 
0.087247 0.077424 1.202 
0.135168 0.077424 1.202 
0.183546 0.0776172 1.205 
0.231395 0.0775528 1.204 
0.279396 0.0775528 1.204 
0.326581 0.0773595 1.201 
0.345466 0.0713692 1.108 
0.338968 0.0608699 0.945 
0.336786 0.0544287 0.845 
0.337154 0.0495333 0.769 
0.33845 0.0447024 0.694 
0.335087 0.0381967 0.593 
0.337556 0.0359422 0.558 
0.336589 0.0336234 0.522 
0.336175 0.0316266 0.491 
0.342709 0.0304672 0.473 
0.347042 0.0292433 0.454 
0.348434 0.0275042 0.427 
0.432197 0.0284704 0.442 
-1.0171 0.0782401 1.172 
-0.969543 0.0781734 1.171 
-0.925221 0.0783736 1.174 
-0.87692 0.0782401 1.172 
-0.828778 0.0781066 1.17 
-0.78347 0.0782401 1.172 
-0.737373 0.0783069 1.173 
-0.691786 0.0784404 1.175 
-0.643843 0.0783069 1.173 
-0.598096 0.0784404 1.175 
-0.550782 0.0783736 1.174 
-0.505694 0.0786407 1.178 
-0.45873 0.0786407 1.178 
-0.413163 0.0789077 1.182 
-0.366969 0.079108 1.185 
-0.319995 0.0791747 1.186 
-0.272482 0.079108 1.185 
-0.226379 0.0795085 1.191 
-0.179347 0.0797088 1.194 
-0.131965 0.0798423 1.196 
-0.0843533 0.0799091 1.197 
-0.0366926 0.0800426 1.199 
0.0111183 0.0801093 1.2 
0.0590089 0.0801761 1.201 
0.106979 0.0802429 1.202 
0.155158 0.0803764 1.204 
0.203328 0.0804431 1.205 
0.25116 0.0803764 1.204 
0.29941 0.0804431 1.205 
0.339089 0.0785072 1.176 
0.348404 0.0703627 1.054 
0.340844 0.0602823 0.903 
0.335947 0.05374 0.805 
0.332667 0.0475983 0.713 
0.331725 0.0433258 0.649 
0.33388 0.0391201 0.586 
0.337125 0.0369171 0.553 
0.337003 0.0345138 0.517 
0.338005 0.032511 0.487 
0.34054 0.0309756 0.464 
0.345885 0.0298407 0.447 
0.348474 0.028105 0.421 
0.43034 0.0292399 0.438 
-1.00971 0.0810578 1.173 
-0.962125 0.0809887 1.172 
-0.917743 0.081196 1.175 
-0.868674 0.0809887 1.172 
-0.821248 0.0809196 1.171 
-0.774563 0.0809196 1.171 
-0.72912 0.0810578 1.173 
-0.6841 0.0812651 1.176 
-0.636132 0.0811269 1.174 
-0.589829 0.081196 1.175 
-0.542984 0.081196 1.175 
-0.497406 0.0814033 1.178 
-0.451589 0.0816106 1.181 
-0.40519 0.0817488 1.183 
-0.358632 0.081887 1.185 
-0.311651 0.0819561 1.186 
-0.264145 0.081887 1.185 
-0.217999 0.0823016 1.191 
-0.170946 0.0825089 1.194 
-0.12355 0.0826471 1.196 
-0.0759318 0.0827162 1.197 
-0.0282806 0.0829235 1.2 
0.0195609 0.0829235 1.2 
0.0675148 0.0830617 1.202 
0.115436 0.0830617 1.202 
0.163629 0.0832 1.204 
0.211806 0.0832691 1.205 
0.259631 0.0832 1.204 
0.307632 0.0832 1.204 
0.342932 0.0802285 1.161 
0.338515 0.0683428 0.989 
0.339729 0.0614325 0.889 
0.336518 0.0547986 0.793 
0.332932 0.0490631 0.71 
0.333128 0.0442259 0.64 
0.333538 0.040287 0.583 
0.334141 0.0360717 0.522 
0.335912 0.0341369 0.494 
0.33977 0.0326166 0.472 
0.344913 0.0313727 0.454 
0.34543 0.029507 0.427 
0.347752 0.0278485 0.403 
-1.04094 0.0836658 1.171 
-0.995107 0.0837372 1.172 
-0.949191 0.0838087 1.173 
-0.902426 0.0838087 1.173 
-0.854932 0.0837372 1.172 
-0.808207 0.0837372 1.172 
-0.761481 0.0837372 1.172 
-0.715976 0.0838801 1.174 
-0.670311 0.084023 1.176 
-0.622896 0.0839516 1.175 
-0.576051 0.0839516 1.175 
-0.529657 0.084023 1.176 
-0.483183 0.0840944 1.177 
-0.437741 0.0843802 1.181 
-0.391318 0.0845231 1.183 
-0.345027 0.0847375 1.186 
-0.297744 0.0847375 1.186 
-0.251516 0.0850947 1.191 
-0.204205 0.0851662 1.192 
-0.156683 0.0851662 1.192 
-0.109526 0.085452 1.196 
-0.0618959 0.0855234 1.197 
-0.0142214 0.0858092 1.201 
0.033632 0.0857377 1.2 
0.081745 0.0860236 1.204 
0.12953 0.0858806 1.202 
0.177747 0.0860236 1.204 
0.225935 0.086095 1.205 
0.273749 0.0860236 1.204 
0.321215 0.0858806 1.202 
0.346104 0.080522 1.127 
0.337573 0.066804 0.935 
0.335507 0.0594448 0.832 
0.330408 0.0513712 0.719 
0.330711 0.0464413 0.65 
0.332804 0.0431547 0.604 
0.336082 0.0389392 0.545 
0.335901 0.0362956 0.508 
0.337225 0.0343666 0.481 
0.339359 0.0327232 0.458 
0.34137 0.0308656 0.432 
0.343338 0.0292223 0.409 
0.425902 0.0316515 0.443 
-1.03359 0.0864858 1.172 
-0.986862 0.0864858 1.172 
-0.941741 0.0866333 1.174 
-0.894174 0.0865595 1.173 
-0.846686 0.0864858 1.172 
-0.799961 0.0864858 1.172 
-0.753878 0.0865595 1.173 
-0.708319 0.0867071 1.175 
-0.661474 0.0867071 1.175 
-0.614629 0.0867071 1.175 
-0.567785 0.0867071 1.175 
-0.521826 0.0868547 1.177 
-0.474902 0.0868547 1.177 
-0.429432 0.0871499 1.181 
-0.383643 0.0874451 1.185 
-0.336683 0.0875189 1.186 
-0.289156 0.0874451 1.185 
-0.243341 0.0879616 1.192 
-0.196147 0.0881092 1.194 
-0.148545 0.0881092 1.194 
-0.101112 0.0882568 1.196 
-0.0535638 0.0884782 1.199 
-0.00577175 0.0886258 1.201 
0.0420746 0.088552 1.2 
0.0902158 0.0888471 1.204 
0.138217 0.0888471 1.204 
0.186218 0.0888471 1.204 
0.234413 0.0889209 1.205 
0.282454 0.0889209 1.205 
0.329124 0.088552 1.2 
0.351685 0.0808037 1.095 
0.339729 0.0656023 0.889 
0.337367 0.0586657 0.795 
0.333655 0.0522457 0.708 
0.332705 0.0475967 0.645 
0.332859 0.0442022 0.599 
0.334531 0.0408077 0.553 
0.335699 0.0380036 0.515 
0.335479 0.0357898 0.485 
0.337947 0.0338711 0.459 
0.340441 0.0321739 0.436 
0.343871 0.0309194 0.419 
0.345368 0.0292959 0.397 
0.429151 0.0325428 0.441 
-1.02071 0.0893104 1.173 
-0.973119 0.0892343 1.172 
-0.928765 0.0894627 1.175 
-0.879669 0.0892343 1.172 
-0.832233 0.0891581 1.171 
-0.786889 0.0893104 1.173 
-0.740124 0.0893104 1.173 
-0.695132 0.0895388 1.176 
-0.647696 0.0894627 1.175 
-0.60034 0.0893866 1.174 
-0.554007 0.0894627 1.175 
-0.508457 0.0896911 1.178 
-0.461884 0.0897673 1.179 
-0.415935 0.0899957 1.182 
-0.369124 0.0900718 1.183 
-0.323321 0.0904525 1.188 
-0.274796 0.0900718 1.183 
-0.229749 0.0909093 1.194 
-0.182147 0.0909093 1.194 
-0.13477 0.0910616 1.196 
-0.0871605 0.0911377 1.197 
-0.0395045 0.09129 1.199 
0.00831793 0.0915184 1.202 
0.0561924 0.0914423 1.201 
0.10416 0.0915184 1.202 
0.152461 0.0917469 1.205 
0.200336 0.0916707 1.204 
0.248543 0.0917469 1.205 
0.29683 0.091823 1.206 
0.336903 0.0896911 1.178 
0.355843 0.0831432 1.092 
0.332031 0.063804 0.838 
0.336659 0.0587789 0.772 
0.335766 0.0534492 0.702 
0.332608 0.0486525 0.639 
0.333134 0.045074 0.592 
0.333321 0.0419523 0.551 
0.335047 0.0391352 0.514 
0.335479 0.0369272 0.485 
0.337258 0.0350998 0.461 
0.338781 0.0327395 0.43 
0.34268 0.0315213 0.414 
0.344436 0.030227 0.397 
0.353819 0.0290849 0.382 
-1.02347 0.0920613 1.173 
-0.975868 0.0919828 1.172 
-0.931521 0.0922183 1.175 
-0.88317 0.0920613 1.173 
-0.835692 0.0919828 1.172 
-0.78964 0.0920613 1.173 
-0.742875 0.0920613 1.173 
-0.69789 0.0922968 1.176 
-0.651005 0.0922968 1.176 
-0.603093 0.0921398 1.174 
-0.556762 0.0922183 1.175 
-0.510785 0.0923752 1.177 
-0.464649 0.0925322 1.179 
-0.418707 0.0927677 1.182 
-0.371898 0.0928462 1.183 
-0.326107 0.0932386 1.188 
-0.277336 0.0927677 1.182 
-0.232549 0.0937095 1.194 
-0.184947 0.0937095 1.194 
-0.137575 0.0938664 1.196 
-0.0899677 0.0939449 1.197 
-0.0423163 0.0941019 1.199 
0.00549903 0.0943373 1.202 
0.0533758 0.0942589 1.201 
0.10151 0.0944943 1.204 
0.149635 0.0945728 1.205 
0.197512 0.0944943 1.204 
0.245717 0.0945728 1.205 
0.294002 0.0946513 1.206 
0.336126 0.0930031 1.185 
0.356194 0.0864105 1.101 
0.333556 0.0652984 0.832 
0.335431 0.0597261 0.761 
0.33845 0.0544676 0.694 
0.333303 0.0493662 0.629 
0.332741 0.0458345 0.584 
0.333027 0.0422242 0.538 
0.333783 0.0389279 0.496 
0.335737 0.0369658 0.471 
0.337955 0.0352392 0.449 
0.341906 0.0328846 0.419 
0.344061 0.0315504 0.402 
0.346652 0.0299808 0.382 
-1.03172 0.0948122 1.173 
-0.984953 0.0948122 1.173 
-0.939788 0.0949739 1.175 
-0.891423 0.0948122 1.173 
-0.843938 0.0947314 1.172 
-0.798573 0.094893 1.174 
-0.751128 0.0948122 1.173 
-0.705563 0.0949739 1.175 
-0.659279 0.0950547 1.176 
-0.611874 0.0949739 1.175 
-0.565029 0.0949739 1.175 
-0.519066 0.0951355 1.177 
-0.472543 0.0952163 1.178 
-0.426662 0.0954588 1.181 
-0.380864 0.0957822 1.185 
-0.333902 0.095863 1.186 
-0.285652 0.0955397 1.182 
-0.240546 0.096348 1.192 
-0.193347 0.0965096 1.194 
-0.145745 0.0965096 1.194 
-0.0983892 0.0967521 1.197 
-0.0507519 0.0969137 1.199 
-0.00295766 0.0971562 1.202 
0.0449262 0.0970754 1.201 
0.0930394 0.0973179 1.204 
0.141158 0.0973987 1.205 
0.189041 0.0973179 1.204 
0.237436 0.0974796 1.206 
0.285517 0.0974796 1.206 
0.331661 0.0969137 1.199 
0.350979 0.0896392 1.109 
0.341727 0.0736351 0.911 
0.337612 0.0646631 0.8 
0.333184 0.057146 0.707 
0.330702 0.0522962 0.647 
0.332303 0.0483356 0.598 
0.332321 0.0451025 0.558 
0.334491 0.0416268 0.515 
0.334342 0.039202 0.485 
0.336176 0.0372621 0.461 
0.337547 0.0348372 0.431 
0.339628 0.0329782 0.408 
0.344653 0.0317657 0.393 
0.351075 0.030715 0.38 
-1.01608 0.0976463 1.174 
-0.967622 0.0974799 1.172 
-0.92404 0.0978126 1.176 
-0.874917 0.0975631 1.173 
-0.827446 0.0974799 1.172 
-0.782053 0.0976463 1.174 
-0.735249 0.0976463 1.174 
-0.689616 0.0978126 1.176 
-0.642732 0.0978126 1.176 
-0.59534 0.0977294 1.175 
-0.548962 0.0978126 1.176 
-0.502505 0.0978958 1.177 
-0.457128 0.0982285 1.181 
-0.410391 0.0983116 1.182 
-0.36419 0.0985612 1.185 
-0.317214 0.0986444 1.186 
-0.269247 0.0983948 1.183 
-0.224524 0.0994761 1.196 
-0.176546 0.0993097 1.194 
-0.12916 0.0994761 1.196 
-0.0815461 0.0995593 1.197 
-0.0338807 0.0997256 1.199 
0.0139441 0.099892 1.201 
0.0618255 0.099892 1.201 
0.109981 0.100141 1.204 
0.158113 0.100225 1.205 
0.206325 0.100308 1.206 
0.254195 0.100225 1.205 
0.302236 0.100225 1.205 
0.340684 0.0974799 1.172 
0.360965 0.090826 1.092 
0.330011 0.0688681 0.828 
0.33499 0.0632122 0.76 
0.339098 0.0575564 0.692 
0.334115 0.0519837 0.625 
0.332812 0.0479914 0.577 
0.332425 0.0444981 0.535 
0.333111 0.0417533 0.502 
0.333835 0.0393413 0.473 
0.336598 0.0374283 0.45 
0.338416 0.0350994 0.422 
0.340088 0.0336023 0.404 
0.344733 0.032521 0.391 
0.352818 0.0315229 0.379 
-1.02245 0.100485 1.175 
-0.973949 0.100314 1.173 
-0.929556 0.100571 1.176 
-0.880419 0.100314 1.173 
-0.832943 0.100228 1.172 
-0.788231 0.100485 1.175 
-0.740755 0.100399 1.174 
-0.695132 0.100571 1.176 
-0.648247 0.100571 1.176 
-0.600851 0.100485 1.175 
-0.554478 0.100571 1.176 
-0.508025 0.100656 1.177 
-0.462668 0.100998 1.181 
-0.415935 0.101084 1.182 
-0.369124 0.101169 1.183 
-0.323321 0.101597 1.188 
-0.274564 0.101084 1.182 
-0.230134 0.102281 1.196 
-0.182452 0.102281 1.196 
-0.13477 0.102281 1.196 
-0.0871605 0.102366 1.197 
-0.0395045 0.102537 1.199 
0.00831793 0.102794 1.202 
0.0561924 0.102709 1.201 
0.104334 0.102965 1.204 
0.152461 0.103051 1.205 
0.200668 0.103136 1.206 
0.248543 0.103051 1.205 
0.29683 0.103136 1.206 
0.337761 0.100998 1.181 
0.354865 0.0931304 1.089 
0.328069 0.0708099 0.828 
0.335 0.0646525 0.756 
0.337962 0.0592648 0.693 
0.332359 0.0529364 0.619 
0.332428 0.049088 0.574 
0.331185 0.0454107 0.531 
0.332291 0.0426741 0.499 
0.333835 0.0404506 0.473 
0.335402 0.0382271 0.447 
0.337426 0.0360891 0.422 
0.340191 0.0344642 0.403 
0.342998 0.0331814 0.388 
0.351789 0.0321552 0.376 
-1.03535 0.103153 1.174 
-0.987704 0.103065 1.173 
-0.942543 0.103241 1.175 
-0.894174 0.103065 1.173 
-0.847409 0.103065 1.173 
-0.802009 0.103241 1.175 
-0.754521 0.103153 1.174 
-0.708319 0.103241 1.175 
-0.6626 0.103416 1.177 
-0.614629 0.103241 1.175 
-0.568268 0.103328 1.176 
-0.521826 0.103416 1.177 
-0.475709 0.103592 1.179 
-0.429432 0.103768 1.181 
-0.383643 0.104119 1.185 
-0.336683 0.104207 1.186 
-0.288424 0.103856 1.182 
-0.243341 0.104734 1.192 
-0.196476 0.105086 1.196 
-0.148296 0.104734 1.192 
-0.101196 0.105174 1.197 
-0.0536085 0.105437 1.2 
-0.00577175 0.105525 1.201 
0.0421447 0.105613 1.202 
0.0902158 0.105789 1.204 
0.138332 0.105877 1.205 
0.186372 0.105877 1.205 
0.234608 0.105964 1.206 
0.282689 0.105964 1.206 
0.329124 0.105437 1.2 
0.349949 0.0978809 1.114 
0.341727 0.0800444 0.911 
0.336576 0.0704672 0.802 
0.331459 0.0627351 0.714 
0.334029 0.0558817 0.636 
0.33331 0.0514006 0.585 
0.332382 0.0473589 0.539 
0.333519 0.0446351 0.508 
0.333576 0.042087 0.479 
0.334266 0.0398904 0.454 
0.335291 0.0379574 0.432 
0.337826 0.0363758 0.414 
0.339781 0.0348821 0.397 
0.341277 0.0334763 0.381 
0.345319 0.031104 0.354 
-1.01694 0.105996 1.175 
-0.968448 0.105816 1.173 
-0.92404 0.106086 1.176 
-0.874917 0.105816 1.173 
-0.828152 0.105816 1.173 
-0.78272 0.105996 1.175 
-0.735875 0.105996 1.175 
-0.690203 0.106177 1.177 
-0.642732 0.106086 1.176 
-0.59534 0.105996 1.175 
-0.548962 0.106086 1.176 
-0.502505 0.106177 1.177 
-0.457128 0.106537 1.181 
-0.410739 0.106718 1.183 
-0.363575 0.106718 1.183 
-0.317214 0.106988 1.186 
-0.269703 0.106898 1.185 
-0.224524 0.107891 1.196 
-0.176842 0.107891 1.196 
-0.12916 0.107891 1.196 
-0.0815461 0.107981 1.197 
-0.0338807 0.108161 1.199 
0.0139557 0.108432 1.202 
0.061877 0.108432 1.202 
0.109981 0.108612 1.204 
0.158113 0.108702 1.205 
0.206325 0.108793 1.206 
0.254195 0.108702 1.205 
0.302236 0.108702 1.205 
0.341265 0.105906 1.174 
0.340103 0.0833536 0.924 
0.336518 0.0715361 0.793 
0.33481 0.0631467 0.7 
0.333181 0.0564712 0.626 
0.333756 0.0524117 0.581 
0.331789 0.0483523 0.536 
0.332074 0.0454656 0.504 
0.333302 0.0430299 0.477 
0.334913 0.0407747 0.452 
0.334975 0.0386999 0.429 
0.337306 0.0370761 0.411 
0.338201 0.0354523 0.393 
0.342938 0.0338286 0.375 
0.344862 0.0316635 0.351 
-1.01419 0.108752 1.175 
-0.96652 0.108659 1.174 
-0.921282 0.108844 1.176 
-0.872167 0.108567 1.173 
-0.826105 0.108659 1.174 
-0.779964 0.108752 1.175 
-0.733119 0.108752 1.175 
-0.687443 0.108937 1.177 
-0.63943 0.108752 1.175 
-0.592585 0.108752 1.175 
-0.546669 0.108937 1.177 
-0.500169 0.109029 1.178 
-0.453589 0.109122 1.179 
-0.407964 0.109492 1.183 
-0.361411 0.109677 1.185 
-0.314167 0.109677 1.185 
-0.266924 0.109677 1.185 
-0.221719 0.110695 1.196 
-0.173746 0.11051 1.194 
-0.126355 0.110695 1.196 
-0.078739 0.110788 1.197 
-0.0310689 0.110973 1.199 
0.0167746 0.111251 1.202 
0.0648035 0.111436 1.204 
0.112898 0.111528 1.205 
0.160939 0.111528 1.205 
0.209327 0.111713 1.207 
0.257021 0.111528 1.205 
0.305062 0.111528 1.205 
0.343725 0.108567 1.173 
0.338313 0.0861684 0.931 
0.335529 0.074414 0.804 
0.336987 0.0639553 0.691 
0.331151 0.0556254 0.601 
0.332199 0.0518306 0.56 
0.333501 0.048221 0.521 
0.332752 0.0449816 0.486 
0.333201 0.0420198 0.454 
0.335052 0.0400762 0.433 
0.336041 0.0382251 0.413 
0.33807 0.0365591 0.395 
0.339486 0.0350782 0.379 
0.34393 0.0329495 0.356 
-1.03623 0.111507 1.175 
-0.988546 0.111412 1.174 
-0.943345 0.111602 1.176 
-0.894174 0.111318 1.173 
-0.848131 0.111412 1.174 
-0.802009 0.111507 1.175 
-0.755164 0.111507 1.175 
-0.708319 0.111507 1.175 
-0.6626 0.111697 1.177 
-0.614629 0.111507 1.175 
-0.568268 0.111602 1.176 
-0.521826 0.111697 1.177 
-0.476516 0.112077 1.181 
-0.429432 0.112077 1.181 
-0.383643 0.112456 1.185 
-0.337251 0.112741 1.188 
-0.288424 0.112172 1.182 
-0.243341 0.113121 1.192 
-0.19664 0.113595 1.197 
-0.148296 0.113121 1.192 
-0.101365 0.113785 1.199 
-0.0535638 0.113785 1.199 
-0.00577175 0.113975 1.201 
0.0422148 0.114259 1.204 
0.0902158 0.114259 1.204 
0.138332 0.114354 1.205 
0.186527 0.114449 1.206 
0.234608 0.114449 1.206 
0.282689 0.114449 1.206 
0.329398 0.113975 1.201 
0.347509 0.102682 1.082 
0.328097 0.0790516 0.833 
0.33615 0.0735474 0.775 
0.333853 0.0662401 0.698 
0.331627 0.0607359 0.64 
0.332866 0.0563705 0.594 
0.331937 0.0524796 0.553 
0.332074 0.0478295 0.504 
0.332111 0.044508 0.469 
0.333723 0.0419457 0.442 
0.334842 0.0398579 0.42 
0.336622 0.0380548 0.401 
0.338578 0.0363466 0.383 
0.341777 0.034069 0.359 
-1.04361 0.114166 1.174 
-0.997655 0.114263 1.175 
-0.951619 0.11436 1.176 
-0.903965 0.114263 1.175 
-0.85712 0.114263 1.175 
-0.810275 0.114263 1.175 
-0.763431 0.114263 1.175 
-0.716586 0.114263 1.175 
-0.670881 0.114457 1.177 
-0.622366 0.114166 1.174 
-0.576542 0.11436 1.176 
-0.530107 0.114457 1.177 
-0.484004 0.114652 1.179 
-0.436999 0.114652 1.179 
-0.39198 0.115235 1.185 
-0.3459 0.115624 1.189 
-0.29674 0.114944 1.182 
-0.251094 0.115624 1.189 
-0.20489 0.116305 1.196 
-0.156683 0.115916 1.192 
-0.109801 0.116597 1.199 
-0.0619994 0.116597 1.199 
-0.0142214 0.116791 1.201 
0.0337441 0.117083 1.204 
0.081745 0.117083 1.204 
0.129962 0.117277 1.206 
0.178042 0.117277 1.206 
0.226123 0.117277 1.206 
0.274204 0.117277 1.206 
0.32175 0.117083 1.204 
0.344015 0.104927 1.079 
0.330265 0.0796437 0.819 
0.335443 0.0736145 0.757 
0.334687 0.0664183 0.683 
0.332117 0.0606809 0.624 
0.332966 0.0565966 0.582 
0.331101 0.0508591 0.523 
0.331569 0.0477473 0.491 
0.333201 0.0441492 0.454 
0.335198 0.0416209 0.428 
0.335231 0.0393842 0.405 
0.337576 0.0376338 0.387 
0.338263 0.0357862 0.368 
0.341745 0.033744 0.347 
-1.01781 0.117118 1.176 
-0.970099 0.117018 1.175 
-0.924825 0.117218 1.177 
-0.876409 0.117018 1.175 
-0.83027 0.117118 1.176 
-0.783386 0.117118 1.176 
-0.735875 0.117018 1.175 
-0.690203 0.117218 1.177 
-0.642185 0.117018 1.175 
-0.59534 0.117018 1.175 
-0.549896 0.117317 1.178 
-0.502932 0.117317 1.178 
-0.457515 0.117716 1.182 
-0.411433 0.118014 1.185 
-0.364497 0.118114 1.186 
-0.317749 0.118313 1.188 
-0.269703 0.118014 1.185 
-0.224149 0.118911 1.194 
-0.176842 0.11911 1.196 
-0.12916 0.11911 1.196 
-0.0815461 0.119209 1.197 
-0.0338807 0.119409 1.199 
0.0139789 0.119907 1.204 
0.0619799 0.119907 1.204 
0.110072 0.120006 1.205 
0.158244 0.120106 1.206 
0.206496 0.120205 1.207 
0.254406 0.120106 1.206 
0.302737 0.120205 1.207 
0.344463 0.118014 1.185 
0.33178 0.0814648 0.818 
0.335437 0.0749914 0.753 
0.334428 0.067323 0.676 
0.331151 0.0598537 0.601 
0.332068 0.0559697 0.562 
0.333365 0.0514881 0.517 
0.331904 0.0473053 0.475 
0.332687 0.0440189 0.442 
0.334023 0.0405332 0.407 
0.335718 0.038641 0.388 
0.337343 0.0365496 0.367 
0.341032 0.0351553 0.353 
-1.04174 0.119774 1.175 
-0.994899 0.119774 1.175 
-0.949668 0.119978 1.177 
-0.901209 0.119774 1.175 
-0.854365 0.119774 1.175 
-0.808207 0.119876 1.176 
-0.761322 0.119876 1.176 
-0.71383 0.119774 1.175 
-0.668121 0.119978 1.177 
-0.620141 0.119774 1.175 
-0.573784 0.119876 1.176 
-0.527795 0.12008 1.178 
-0.482055 0.120386 1.181 
-0.434971 0.120386 1.181 
-0.389201 0.120793 1.185 
-0.343112 0.121201 1.189 
-0.293968 0.120488 1.182 
-0.248723 0.121405 1.191 
-0.202086 0.121915 1.196 
-0.153758 0.121405 1.191 
-0.106989 0.122221 1.199 
-0.0591875 0.122221 1.199 
-0.0114049 0.122424 1.201 
0.036598 0.122832 1.205 
0.0845686 0.12273 1.204 
0.13279 0.122934 1.206 
0.180871 0.122934 1.206 
0.228951 0.122934 1.206 
0.277262 0.123036 1.207 
0.324574 0.12273 1.204 
0.336851 0.091538 0.898 
0.335518 0.0797135 0.782 
0.333087 0.0706412 0.693 
0.333061 0.0649328 0.637 
0.333134 0.0603457 0.592 
0.332029 0.0561664 0.551 
0.33272 0.0525987 0.516 
0.331487 0.0485212 0.476 
0.3324 0.0451574 0.443 
0.334154 0.0413858 0.406 
0.334808 0.0395509 0.388 
0.335622 0.0374103 0.367 
0.339099 0.0357793 0.351 
-1.04174 0.12253 1.175 
-0.994899 0.12253 1.175 
-0.949668 0.122738 1.177 
-0.901209 0.12253 1.175 
-0.854365 0.12253 1.175 
-0.808207 0.122634 1.176 
-0.761322 0.122634 1.176 
-0.71383 0.12253 1.175 
-0.668121 0.122738 1.177 
-0.620141 0.12253 1.175 
-0.573784 0.122634 1.176 
-0.527795 0.122842 1.178 
-0.482463 0.12326 1.182 
-0.435339 0.12326 1.182 
-0.389201 0.123572 1.185 
-0.343112 0.12399 1.189 
-0.293968 0.12326 1.182 
-0.248723 0.124198 1.191 
-0.202086 0.12472 1.196 
-0.153758 0.124198 1.191 
-0.106811 0.124824 1.197 
-0.0591875 0.125032 1.199 
-0.0114049 0.125241 1.201 
0.036598 0.125658 1.205 
0.0845686 0.125554 1.204 
0.13279 0.125762 1.206 
0.180871 0.125762 1.206 
0.228951 0.125762 1.206 
0.277262 0.125867 1.207 
0.324574 0.125554 1.204 
0.336047 0.0911412 0.874 
0.334415 0.0804003 0.771 
0.333746 0.0720579 0.691 
0.333061 0.0664267 0.637 
0.332571 0.0616298 0.591 
0.332029 0.0574586 0.551 
0.332795 0.0540173 0.518 
0.332067 0.0505761 0.485 
0.332188 0.0476562 0.457 
0.333631 0.0444235 0.426 
0.334195 0.0413994 0.397 
0.335042 0.0393138 0.377 
0.337072 0.0378538 0.363 
0.338954 0.0364982 0.35 
-1.03987 0.125392 1.176 
-0.992143 0.125285 1.175 
-0.946908 0.125498 1.177 
-0.898454 0.125285 1.175 
-0.851609 0.125285 1.175 
-0.805449 0.125392 1.176 
-0.758564 0.125392 1.176 
-0.711075 0.125285 1.175 
-0.66536 0.125498 1.177 
-0.617385 0.125285 1.175 
-0.571026 0.125392 1.176 
-0.525032 0.125605 1.178 
-0.479691 0.126032 1.182 
-0.432933 0.126138 1.183 
-0.386422 0.126351 1.185 
-0.340323 0.126778 1.189 
-0.290457 0.125712 1.179 
-0.24593 0.126991 1.191 
-0.199447 0.127631 1.197 
-0.151092 0.127098 1.192 
-0.104177 0.127844 1.199 
-0.0562816 0.127631 1.197 
-0.00859545 0.128164 1.202 
0.0393912 0.128377 1.204 
0.0873922 0.128377 1.204 
0.135618 0.128591 1.206 
0.183699 0.128591 1.206 
0.23178 0.128591 1.206 
0.280324 0.128804 1.208 
0.327397 0.128377 1.204 
0.331552 0.0881795 0.827 
0.332764 0.0796494 0.747 
0.333335 0.0721856 0.677 
0.331585 0.0664278 0.623 
0.331658 0.0613098 0.575 
0.330532 0.0571514 0.536 
0.331416 0.0536327 0.503 
0.331206 0.0505406 0.474 
0.333115 0.0480882 0.451 
0.332639 0.0437165 0.41 
0.333729 0.0416907 0.391 
0.334895 0.0394515 0.37 
0.337361 0.0380654 0.357 
0.339597 0.0366792 0.344 
-1.01591 0.128259 1.177 
-0.968166 0.12815 1.176 
-0.921282 0.12815 1.176 
-0.873654 0.128041 1.175 
-0.826809 0.128041 1.175 
-0.780628 0.12815 1.176 
-0.733743 0.12815 1.176 
-0.687443 0.128259 1.177 
-0.63943 0.128041 1.175 
-0.593089 0.12815 1.176 
-0.547133 0.128368 1.178 
-0.500593 0.128477 1.179 
-0.454743 0.128804 1.182 
-0.408999 0.129239 1.186 
-0.361716 0.129239 1.186 
-0.315228 0.129566 1.189 
-0.267149 0.129239 1.186 
-0.220978 0.129893 1.192 
-0.174037 0.130329 1.196 
-0.126672 0.130656 1.199 
-0.0788705 0.130656 1.199 
-0.0311207 0.130874 1.201 
0.0167746 0.130983 1.202 
0.0648573 0.13131 1.205 
0.112898 0.13131 1.205 
0.161073 0.131419 1.206 
0.209153 0.131419 1.206 
