# .PCD v.7 - Point Cloud Data file format
VERSION .7
FIELDS x y z
SIZE 4 4 4
TYPE F F F
COUNT 1 1 1
WIDTH 1835
HEIGHT 1
VIEWPOINT 0 0 0 1 0 0 0
POINTS 1835
DATA ascii
-0.140251 -0.180159 0.695 
-0.112543 -0.180159 0.695 
-0.0849568 -0.180418 0.696 
-0.0576197 -0.181714 0.701 
-0.0281483 -0.182492 0.704 
-8.15012e-05 -0.18301 0.706 
0.028105 -0.183269 0.707 
0.0566897 -0.184565 0.712 
0.0853147 -0.185084 0.714 
0.113462 -0.184565 0.712 
0.142844 -0.185862 0.717 
0.171907 -0.18638 0.719 
0.20113 -0.186898 0.721 
0.230513 -0.187417 0.723 
0.260054 -0.187935 0.725 
0.287365 -0.186898 0.721 
0.309094 -0.182751 0.705 
0.314243 -0.170308 0.657 
0.3166 -0.158384 0.611 
0.3239 -0.14983 0.578 
0.328336 -0.141794 0.547 
0.350144 -0.141794 0.547 
0.373991 -0.142572 0.55 
0.396639 -0.142831 0.551 
0.419366 -0.14309 0.552 
0.443771 -0.143868 0.555 
0.467577 -0.144386 0.557 
0.490663 -0.144645 0.558 
0.514748 -0.145164 0.56 
0.538992 -0.145682 0.562 
-2.18368 -0.606998 2.363 
-2.11246 -0.613677 2.389 
-2.00286 -0.60931 2.372 
-1.93645 -0.6183 2.407 
-1.8512 -0.621897 2.421 
-1.73511 -0.614961 2.394 
-1.66706 -0.625236 2.434 
-1.56744 -0.624209 2.43 
-1.48146 -0.628832 2.448 
-1.39177 -0.632429 2.462 
-1.29835 -0.634741 2.471 
-1.21877 -0.644759 2.51 
-1.1294 -0.650924 2.534 
-1.02229 -0.647071 2.519 
-0.177994 -0.178786 0.696 
-0.148401 -0.178529 0.695 
-0.120692 -0.178529 0.695 
-0.0929842 -0.178529 0.695 
-0.0657456 -0.179813 0.7 
-0.0380002 -0.180584 0.703 
-0.0100015 -0.181098 0.705 
0.0181311 -0.181354 0.706 
0.0465401 -0.182382 0.71 
0.0751625 -0.183153 0.713 
0.103588 -0.183153 0.713 
0.13257 -0.183923 0.716 
0.16179 -0.184694 0.719 
0.190985 -0.185208 0.721 
0.21973 -0.185208 0.721 
0.249853 -0.186235 0.725 
0.279911 -0.187006 0.728 
0.303842 -0.183923 0.716 
0.311497 -0.172364 0.671 
0.315564 -0.160804 0.626 
0.317675 -0.150016 0.584 
0.326946 -0.143851 0.56 
0.342447 -0.140511 0.547 
0.364921 -0.140768 0.548 
0.388886 -0.141539 0.551 
0.410853 -0.141539 0.551 
0.434391 -0.142052 0.553 
0.458914 -0.142823 0.556 
0.482811 -0.143337 0.558 
0.505963 -0.143594 0.559 
0.530139 -0.144107 0.561 
0.555459 -0.144878 0.564 
-2.13081 -0.603747 2.372 
-2.03967 -0.604765 2.376 
-1.95968 -0.609347 2.394 
-1.87436 -0.612656 2.407 
-1.7651 -0.608074 2.389 
-1.7048 -0.620801 2.439 
-1.60163 -0.61851 2.43 
-1.50723 -0.619528 2.434 
-1.42642 -0.626655 2.462 
-1.33096 -0.627927 2.467 
-1.2396 -0.631491 2.481 
-1.14712 -0.635054 2.495 
-1.06823 -0.647526 2.544 
-0.944763 -0.632764 2.486 
-0.15935 -0.17639 0.693 
-0.132482 -0.177408 0.697 
-0.104544 -0.177153 0.696 
-0.0770163 -0.177662 0.698 
-0.0493999 -0.178426 0.701 
-0.0215443 -0.17919 0.704 
0.00654126 -0.179699 0.706 
0.0347863 -0.180208 0.708 
0.0633688 -0.181226 0.712 
0.0920125 -0.181735 0.714 
0.120309 -0.18148 0.713 
0.149778 -0.182753 0.718 
0.178652 -0.183008 0.719 
0.207894 -0.183517 0.721 
0.237295 -0.184026 0.723 
0.267224 -0.184789 0.726 
0.292496 -0.182499 0.717 
0.310334 -0.17639 0.693 
0.315042 -0.164427 0.646 
0.316529 -0.152718 0.6 
0.325697 -0.146101 0.574 
0.333467 -0.139228 0.547 
0.355275 -0.139228 0.547 
0.37984 -0.140246 0.551 
0.401807 -0.140246 0.551 
0.424544 -0.140501 0.552 
0.449787 -0.141519 0.556 
0.473651 -0.142028 0.558 
0.495897 -0.142028 0.558 
0.520001 -0.142537 0.56 
0.544264 -0.143046 0.562 
-2.16151 -0.595915 2.363 
-2.08655 -0.601463 2.385 
-1.98061 -0.598184 2.372 
-1.91387 -0.607011 2.407 
-1.82471 -0.60928 2.416 
-1.72839 -0.60928 2.416 
-1.63815 -0.61155 2.425 
-1.54465 -0.612811 2.43 
-1.45849 -0.61735 2.448 
-1.37146 -0.622142 2.467 
-1.27517 -0.623151 2.471 
-1.19523 -0.632986 2.51 
-1.10999 -0.64156 2.544 
-0.995088 -0.632986 2.51 
-0.170973 -0.175017 0.694 
-0.143924 -0.175773 0.697 
-0.116136 -0.175773 0.697 
-0.0882213 -0.175521 0.696 
-0.0607339 -0.176278 0.699 
-0.0330543 -0.177286 0.703 
-0.00504143 -0.177791 0.705 
0.0231309 -0.178295 0.707 
0.0516804 -0.179556 0.712 
0.0800664 -0.179556 0.712 
0.108452 -0.179556 0.712 
0.137799 -0.180817 0.717 
0.166849 -0.181321 0.719 
0.19633 -0.182078 0.722 
0.224802 -0.181826 0.721 
0.254602 -0.182582 0.724 
0.283858 -0.182835 0.725 
0.307154 -0.179556 0.712 
0.312448 -0.167199 0.663 
0.31588 -0.155851 0.618 
0.322856 -0.14652 0.581 
0.328336 -0.137946 0.547 
0.350144 -0.137946 0.547 
0.373991 -0.138702 0.55 
0.395919 -0.138702 0.55 
0.419366 -0.139206 0.552 
0.443771 -0.139963 0.555 
0.468417 -0.14072 0.558 
0.490663 -0.14072 0.558 
0.514748 -0.141224 0.56 
0.538033 -0.141476 0.561 
-2.2003 -0.590373 2.363 
-2.11768 -0.593621 2.376 
-2.00848 -0.589374 2.359 
-1.95339 -0.601366 2.407 
-1.86823 -0.604864 2.421 
-1.74829 -0.596869 2.389 
-1.68142 -0.607112 2.43 
-1.58454 -0.607112 2.43 
-1.49317 -0.609361 2.439 
-1.40909 -0.615107 2.462 
-1.3136 -0.616356 2.467 
-1.22461 -0.621103 2.486 
-1.1341 -0.62585 2.505 
-1.0462 -0.633096 2.534 
-0.925408 -0.619854 2.481 
-0.156325 -0.173389 0.694 
-0.129769 -0.174888 0.7 
-0.101425 -0.174139 0.697 
-0.0738481 -0.174638 0.699 
-0.0461777 -0.175388 0.702 
-0.0182423 -0.175888 0.704 
0.00985265 -0.176387 0.706 
0.0381609 -0.177137 0.709 
0.0667083 -0.177886 0.712 
0.0953614 -0.178386 0.714 
0.124001 -0.178636 0.715 
0.153146 -0.179385 0.718 
0.182277 -0.179885 0.72 
0.211568 -0.180385 0.722 
0.240686 -0.180635 0.723 
0.271002 -0.181634 0.727 
0.295447 -0.178886 0.716 
0.311774 -0.17214 0.689 
0.314625 -0.159648 0.639 
0.316682 -0.148655 0.595 
0.326101 -0.142409 0.57 
0.334138 -0.136413 0.546 
0.356558 -0.136663 0.547 
0.381132 -0.137662 0.551 
0.402368 -0.137412 0.55 
0.425838 -0.137912 0.552 
0.451091 -0.138911 0.556 
0.47496 -0.139411 0.558 
0.497206 -0.139411 0.558 
0.521314 -0.139911 0.56 
0.545582 -0.14041 0.562 
-2.16705 -0.584831 2.363 
-2.07285 -0.584831 2.363 
-1.98618 -0.587059 2.372 
-1.9267 -0.597949 2.416 
-1.82356 -0.595721 2.407 
-1.72472 -0.594731 2.403 
-1.64384 -0.600176 2.425 
-1.5529 -0.602403 2.434 
-1.46124 -0.604631 2.443 
-1.37948 -0.611561 2.471 
-1.27889 -0.610571 2.467 
-1.20111 -0.621213 2.51 
-1.11157 -0.627153 2.534 
-1.00656 -0.624678 2.524 
-0.888703 -0.612798 2.476 
-0.148614 -0.172257 0.696 
-0.121213 -0.172752 0.698 
-0.093118 -0.172257 0.696 
-0.0655578 -0.172752 0.698 
-0.0380002 -0.173989 0.703 
-0.0100015 -0.174484 0.705 
0.0181311 -0.174732 0.706 
0.0466712 -0.176217 0.712 
0.0750571 -0.176217 0.712 
0.103734 -0.176712 0.714 
0.13257 -0.177207 0.716 
0.16179 -0.177949 0.719 
0.19125 -0.178692 0.722 
0.219425 -0.178197 0.72 
0.249164 -0.178939 0.723 
0.279526 -0.179929 0.727 
0.302994 -0.176712 0.714 
0.312426 -0.166564 0.673 
0.313994 -0.153447 0.62 
0.318499 -0.14429 0.583 
0.325329 -0.13736 0.555 
0.341821 -0.135132 0.546 
0.364921 -0.135627 0.548 
0.388886 -0.13637 0.551 
0.410853 -0.13637 0.551 
0.435177 -0.137112 0.554 
0.45974 -0.137855 0.557 
0.482811 -0.138102 0.558 
0.505963 -0.13835 0.559 
0.529194 -0.138597 0.56 
0.554474 -0.13934 0.563 
-2.15367 -0.584683 2.385 
-2.02838 -0.576103 2.35 
-1.97091 -0.586889 2.394 
-1.89975 -0.594489 2.425 
-1.77631 -0.585664 2.389 
-1.70358 -0.593508 2.421 
-1.61303 -0.595715 2.43 
-1.51865 -0.596695 2.434 
-1.43271 -0.601353 2.453 
-1.34253 -0.604785 2.467 
-1.24418 -0.604785 2.467 
-1.16997 -0.617533 2.519 
-1.07592 -0.62121 2.534 
-0.971043 -0.618759 2.524 
-0.166808 -0.17087 0.697 
-0.139619 -0.171605 0.7 
-0.111232 -0.17087 0.697 
-0.083564 -0.171115 0.698 
-0.0557362 -0.171115 0.698 
-0.0281083 -0.172341 0.703 
-8.13857e-05 -0.172831 0.705 
0.028105 -0.173321 0.707 
0.0566897 -0.174547 0.712 
0.0850757 -0.174547 0.712 
0.11378 -0.175037 0.714 
0.142844 -0.175773 0.717 
0.171907 -0.176263 0.719 
0.201967 -0.177489 0.724 
0.229875 -0.176753 0.721 
0.259696 -0.177489 0.724 
0.287365 -0.176753 0.721 
0.308217 -0.172341 0.703 
0.314243 -0.161064 0.657 
0.3166 -0.149787 0.611 
0.321986 -0.141452 0.577 
0.327053 -0.134097 0.547 
0.348223 -0.133852 0.546 
0.372702 -0.134833 0.55 
0.395346 -0.135078 0.551 
0.418071 -0.135323 0.552 
0.443267 -0.136303 0.556 
0.466271 -0.136549 0.557 
0.489354 -0.136794 0.558 
0.513434 -0.137284 0.56 
0.53576 -0.137284 0.56 
-2.19658 -0.572777 2.359 
-2.11412 -0.575933 2.372 
-2.00848 -0.572777 2.359 
-1.96069 -0.586617 2.416 
-1.87132 -0.588802 2.425 
-1.75195 -0.581275 2.394 
-1.67796 -0.588802 2.425 
-1.58715 -0.590987 2.434 
-1.49011 -0.590987 2.434 
-1.40909 -0.597786 2.462 
-1.3136 -0.599 2.467 
-1.22214 -0.602399 2.481 
-1.13636 -0.60944 2.51 
-1.0462 -0.615268 2.534 
-0.934359 -0.608226 2.505 
-0.16004 -0.168992 0.696 
-0.133432 -0.170449 0.702 
-0.104694 -0.169235 0.697 
-0.077237 -0.169963 0.7 
-0.0493294 -0.169963 0.7 
-0.0215443 -0.170935 0.704 
0.00654126 -0.17142 0.706 
0.0348354 -0.172149 0.709 
0.0633688 -0.172877 0.712 
0.0920125 -0.173363 0.714 
0.120816 -0.173848 0.716 
0.149778 -0.174334 0.718 
0.1789 -0.17482 0.72 
0.208759 -0.175791 0.724 
0.236638 -0.175062 0.721 
0.266856 -0.176034 0.725 
0.292496 -0.174091 0.717 
0.310334 -0.168264 0.693 
0.314066 -0.156366 0.644 
0.317406 -0.14544 0.599 
0.324764 -0.138399 0.57 
0.332858 -0.132571 0.546 
0.355275 -0.132814 0.547 
0.379151 -0.133543 0.55 
0.401807 -0.133786 0.551 
0.424544 -0.134028 0.552 
0.450596 -0.135242 0.557 
0.473651 -0.135485 0.558 
0.495897 -0.135485 0.558 
0.520001 -0.135971 0.56 
0.543295 -0.136214 0.561 
-2.16892 -0.567245 2.359 
-2.06695 -0.56508 2.35 
-1.99174 -0.570371 2.372 
-1.93956 -0.583115 2.425 
-1.82616 -0.577825 2.403 
-1.73036 -0.577825 2.403 
-1.65292 -0.584317 2.43 
-1.56437 -0.587443 2.443 
-1.46697 -0.587443 2.443 
-1.38303 -0.593214 2.467 
-1.28207 -0.592012 2.462 
-1.207 -0.603554 2.51 
-1.1131 -0.60692 2.524 
-1.02652 -0.615337 2.559 
-0.899567 -0.598745 2.49 
-0.150246 -0.16736 0.696 
-0.123026 -0.168081 0.699 
-0.0948864 -0.1676 0.697 
-0.0673872 -0.168322 0.7 
-0.0396489 -0.169043 0.703 
-0.0116548 -0.169524 0.705 
0.0164754 -0.169765 0.706 
0.0450014 -0.171207 0.712 
0.0733874 -0.171207 0.712 
0.102202 -0.171929 0.715 
0.131073 -0.17241 0.717 
0.160104 -0.172891 0.719 
0.189557 -0.173612 0.722 
0.218341 -0.173612 0.722 
0.246784 -0.173371 0.721 
0.277821 -0.174814 0.727 
0.301319 -0.171688 0.714 
0.313619 -0.163272 0.679 
0.31254 -0.149085 0.62 
0.319045 -0.140429 0.584 
0.325329 -0.133455 0.555 
0.341821 -0.131291 0.546 
0.365586 -0.132012 0.549 
0.388886 -0.132493 0.551 
0.410853 -0.132493 0.551 
0.435962 -0.133455 0.555 
0.45974 -0.133936 0.557 
0.482811 -0.134177 0.558 
0.505963 -0.134417 0.559 
0.529194 -0.134657 0.56 
0.55349 -0.135138 0.562 
-2.15926 -0.567903 2.385 
-2.03389 -0.559569 2.35 
-1.9724 -0.568856 2.389 
-1.90544 -0.577428 2.425 
-1.78191 -0.568856 2.389 
-1.70573 -0.575285 2.416 
-1.62473 -0.580761 2.439 
-1.52999 -0.581714 2.443 
-1.43846 -0.584095 2.453 
-1.34832 -0.587429 2.467 
-1.25199 -0.588381 2.471 
-1.17822 -0.601001 2.524 
-1.07759 -0.601001 2.524 
-0.996702 -0.613145 2.575 
-0.173595 -0.166204 0.698 
-0.145767 -0.166204 0.698 
-0.117771 -0.165966 0.697 
-0.0901117 -0.166204 0.698 
-0.0624624 -0.16668 0.7 
-0.0347029 -0.167395 0.703 
-0.00669477 -0.167871 0.705 
0.0214425 -0.168109 0.706 
0.0500809 -0.169776 0.713 
0.0783966 -0.169538 0.712 
0.107233 -0.170252 0.715 
0.136118 -0.170728 0.717 
0.165163 -0.171204 0.719 
0.194906 -0.172157 0.723 
0.223111 -0.171681 0.721 
0.252555 -0.172157 0.723 
0.282158 -0.172633 0.725 
0.304626 -0.169061 0.71 
0.313707 -0.159299 0.669 
0.315167 -0.145488 0.611 
0.3223 -0.138106 0.58 
0.326366 -0.130487 0.548 
0.346943 -0.130011 0.546 
0.370736 -0.130725 0.549 
0.393339 -0.130963 0.55 
0.416777 -0.131439 0.552 
0.441963 -0.132392 0.556 
0.464965 -0.13263 0.557 
0.488046 -0.132868 0.558 
0.512121 -0.133344 0.56 
0.534447 -0.133344 0.56 
0.558761 -0.13382 0.562 
-2.11164 -0.557123 2.363 
-2.01743 -0.557123 2.363 
-1.94845 -0.564432 2.394 
-1.86307 -0.567497 2.407 
-1.75757 -0.564432 2.394 
-1.68364 -0.571741 2.425 
-1.59613 -0.575042 2.439 
-1.49889 -0.575042 2.439 
-1.41487 -0.580464 2.462 
-1.31671 -0.580464 2.462 
-1.23242 -0.587066 2.49 
-1.14634 -0.593903 2.519 
-1.05214 -0.59744 2.534 
-0.958626 -0.602155 2.554 
-0.165648 -0.164803 0.699 
-0.137977 -0.165039 0.7 
-0.109598 -0.164331 0.697 
-0.0821618 -0.165039 0.7 
-0.0542543 -0.165039 0.7 
-0.0264596 -0.165746 0.703 
0.00157419 -0.166453 0.706 
0.029763 -0.166689 0.707 
0.0583595 -0.167868 0.712 
0.0869891 -0.168339 0.714 
0.115778 -0.168811 0.716 
0.144727 -0.169282 0.718 
0.173593 -0.169518 0.719 
0.203946 -0.170933 0.725 
0.231245 -0.169754 0.72 
0.261755 -0.170933 0.725 
0.288254 -0.169518 0.719 
0.308985 -0.165274 0.701 
0.315303 -0.154665 0.656 
0.316529 -0.141462 0.6 
0.325697 -0.135332 0.574 
0.332248 -0.128494 0.545 
0.355275 -0.128966 0.547 
0.379151 -0.129673 0.55 
0.401807 -0.129909 0.551 
0.425313 -0.13038 0.553 
0.449787 -0.131088 0.556 
0.472802 -0.131324 0.557 
0.495897 -0.131559 0.558 
0.520929 -0.132267 0.561 
0.542327 -0.132031 0.56 
-2.16339 -0.550648 2.359 
-2.05443 -0.54668 2.342 
-1.98952 -0.554616 2.376 
-1.93068 -0.56512 2.421 
-1.80689 -0.556717 2.385 
-1.73406 -0.563953 2.416 
-1.64994 -0.568155 2.434 
-1.55864 -0.570255 2.443 
-1.46423 -0.571423 2.448 
-1.37724 -0.575858 2.467 
-1.2763 -0.57469 2.462 
-1.19872 -0.584728 2.505 
-1.10499 -0.587996 2.519 
-1.03288 -0.604569 2.59 
-0.180999 -0.16223 0.695 
-0.153731 -0.162697 0.697 
-0.126124 -0.16293 0.698 
-0.0981556 -0.162697 0.697 
-0.0706705 -0.163397 0.7 
-0.0429462 -0.164097 0.703 
-0.0149403 -0.164331 0.704 
0.013164 -0.164798 0.706 
0.0415448 -0.165731 0.71 
0.0700478 -0.166198 0.712 
0.0988485 -0.166898 0.715 
0.12771 -0.167365 0.717 
0.156732 -0.167832 0.719 
0.185912 -0.168299 0.721 
0.215253 -0.168766 0.723 
0.243402 -0.168299 0.721 
0.274034 -0.169466 0.726 
0.298387 -0.166898 0.715 
0.31272 -0.159662 0.684 
0.311532 -0.144256 0.618 
0.318763 -0.136787 0.586 
0.326362 -0.130484 0.559 
0.339917 -0.127216 0.545 
0.364299 -0.12815 0.549 
0.38689 -0.128383 0.55 
0.409561 -0.128617 0.551 
0.43466 -0.12955 0.555 
0.45761 -0.129784 0.556 
0.481503 -0.130251 0.558 
0.504652 -0.130484 0.559 
0.52788 -0.130718 0.56 
0.551189 -0.130951 0.561 
-2.12466 -0.545116 2.359 
-2.03061 -0.545116 2.359 
-1.95791 -0.551124 2.385 
-1.86985 -0.553203 2.394 
-1.7707 -0.552048 2.389 
-1.70071 -0.560367 2.425 
-1.61593 -0.564526 2.443 
-1.51853 -0.564526 2.443 
-1.43219 -0.568917 2.462 
-1.33404 -0.568917 2.462 
-1.24994 -0.575387 2.49 
-1.16407 -0.582088 2.519 
-1.05773 -0.578853 2.505 
-0.99036 -0.598495 2.59 
-0.170321 -0.161293 0.698 
-0.142493 -0.161293 0.698 
-0.114173 -0.1606 0.695 
-0.0868379 -0.161293 0.698 
-0.0592637 -0.161986 0.701 
-0.0314056 -0.162449 0.703 
-0.00338808 -0.162911 0.705 
0.0247539 -0.163142 0.706 
0.0533502 -0.164528 0.712 
0.081851 -0.164759 0.713 
0.110741 -0.165453 0.716 
0.139481 -0.165684 0.717 
0.168535 -0.166146 0.719 
0.198297 -0.16707 0.723 
0.226493 -0.166608 0.721 
0.2563 -0.167301 0.724 
0.284377 -0.166839 0.722 
0.305788 -0.162911 0.705 
0.314003 -0.153205 0.663 
0.314652 -0.140958 0.61 
0.322856 -0.134257 0.581 
0.32577 -0.1264 0.547 
0.346943 -0.126169 0.546 
0.370736 -0.126862 0.549 
0.393339 -0.127093 0.55 
0.416021 -0.127325 0.551 
0.441963 -0.12848 0.556 
0.463295 -0.128249 0.555 
0.488046 -0.128942 0.558 
0.512121 -0.129404 0.56 
0.534447 -0.129404 0.56 
0.557767 -0.129635 0.561 
-2.09094 -0.53661 2.346 
-2.01955 -0.542557 2.372 
-1.95014 -0.549648 2.403 
-1.83042 -0.542557 2.372 
-1.75854 -0.549648 2.403 
-1.68142 -0.555823 2.43 
-1.59302 -0.558797 2.443 
-1.49562 -0.558797 2.443 
-1.40623 -0.561999 2.457 
-1.31094 -0.563143 2.462 
-1.23397 -0.572978 2.505 
-1.13636 -0.574122 2.51 
-1.04827 -0.580755 2.539 
-0.948906 -0.581899 2.544 
-0.161904 -0.159428 0.697 
-0.134309 -0.159656 0.698 
-0.106023 -0.15897 0.695 
-0.0787659 -0.159885 0.699 
-0.0510439 -0.160342 0.701 
-0.0231623 -0.1608 0.703 
0.00488557 -0.161486 0.706 
0.0331259 -0.161944 0.708 
0.0615257 -0.162401 0.71 
0.090338 -0.163316 0.714 
0.119137 -0.163773 0.716 
0.148094 -0.164231 0.718 
0.176966 -0.16446 0.719 
0.206489 -0.165146 0.722 
0.234622 -0.164688 0.72 
0.265155 -0.165832 0.725 
0.290815 -0.164002 0.717 
0.3096 -0.15897 0.695 
0.313041 -0.147533 0.645 
0.315122 -0.13724 0.6 
0.324351 -0.131293 0.574 
0.33097 -0.12466 0.545 
0.353992 -0.125117 0.547 
0.376487 -0.125346 0.548 
0.399788 -0.125804 0.55 
0.423249 -0.126261 0.552 
0.448483 -0.127176 0.556 
0.471496 -0.127405 0.557 
0.494589 -0.127634 0.558 
0.518687 -0.128091 0.56 
0.541013 -0.128091 0.56 
-2.15513 -0.532014 2.35 
-2.05443 -0.530202 2.342 
-1.99706 -0.539937 2.385 
-1.91952 -0.544918 2.407 
-1.79704 -0.536994 2.372 
-1.74051 -0.548993 2.425 
-1.64994 -0.55103 2.434 
-1.55864 -0.553068 2.443 
-1.46722 -0.555332 2.453 
-1.37166 -0.556237 2.457 
-1.27889 -0.558501 2.467 
-1.19154 -0.563708 2.49 
-1.10104 -0.568236 2.51 
-1.03288 -0.586347 2.59 
-0.176362 -0.157567 0.696 
-0.148828 -0.157793 0.697 
-0.120519 -0.157114 0.694 
-0.0929842 -0.15734 0.695 
-0.0658395 -0.158698 0.701 
-0.0380002 -0.159151 0.703 
-0.00998728 -0.159378 0.704 
0.0181568 -0.160057 0.707 
0.0465401 -0.160736 0.71 
0.0749517 -0.160962 0.711 
0.103879 -0.161868 0.715 
0.13257 -0.162094 0.716 
0.161565 -0.162547 0.718 
0.190985 -0.163226 0.721 
0.21973 -0.163226 0.721 
0.249164 -0.163679 0.723 
0.279142 -0.164358 0.726 
0.302145 -0.161189 0.712 
0.313819 -0.153039 0.676 
0.312036 -0.140135 0.619 
0.319045 -0.132211 0.584 
0.326159 -0.124967 0.552 
0.344382 -0.123608 0.546 
0.367491 -0.124061 0.548 
0.390049 -0.124287 0.549 
0.413437 -0.12474 0.551 
0.439355 -0.125872 0.556 
0.460692 -0.125646 0.555 
0.485428 -0.126325 0.558 
0.508585 -0.126551 0.559 
0.53182 -0.126778 0.56 
0.555136 -0.127004 0.561 
-2.0893 -0.523814 2.338 
-2.02853 -0.532328 2.376 
-1.95903 -0.539273 2.407 
-1.82592 -0.528519 2.359 
-1.76417 -0.538377 2.403 
-1.68087 -0.542409 2.421 
-1.59613 -0.546442 2.439 
-1.50135 -0.547338 2.443 
-1.4097 -0.549579 2.453 
-1.31671 -0.551595 2.462 
-1.23242 -0.557868 2.49 
-1.13997 -0.561229 2.505 
-1.04218 -0.562349 2.51 
-0.958626 -0.572207 2.554 
-0.163304 -0.155934 0.696 
-0.135751 -0.156158 0.697 
-0.107498 -0.155486 0.694 
-0.0804052 -0.156606 0.699 
-0.0526878 -0.157055 0.701 
-0.024811 -0.157503 0.703 
0.00322988 -0.158175 0.706 
0.0313766 -0.158175 0.706 
0.059692 -0.158623 0.708 
0.0884152 -0.159519 0.712 
0.117293 -0.160191 0.715 
0.146207 -0.160639 0.717 
0.17528 -0.161087 0.719 
0.204512 -0.161535 0.721 
0.232933 -0.161311 0.72 
0.263818 -0.162656 0.726 
0.289133 -0.160639 0.717 
0.308856 -0.156158 0.697 
0.312978 -0.14518 0.648 
0.315122 -0.134426 0.6 
0.324351 -0.128601 0.574 
0.332248 -0.122104 0.545 
0.354625 -0.122328 0.546 
0.377083 -0.122552 0.547 
0.401078 -0.123224 0.55 
0.424544 -0.123672 0.552 
0.449787 -0.124568 0.556 
0.472802 -0.124792 0.557 
0.495897 -0.125016 0.558 
0.520001 -0.125464 0.56 
0.542327 -0.125464 0.56 
-2.14962 -0.520991 2.35 
-2.04893 -0.519218 2.342 
-1.99481 -0.529637 2.389 
-1.91069 -0.532741 2.403 
-1.79148 -0.525869 2.372 
-1.73197 -0.536732 2.421 
-1.64423 -0.539614 2.434 
-1.55291 -0.541609 2.443 
-1.46147 -0.543826 2.453 
-1.3609 -0.542718 2.448 
-1.2731 -0.54693 2.467 
-1.18142 -0.550034 2.481 
-1.08861 -0.553137 2.495 
-1.02086 -0.570873 2.575 
-0.179111 -0.153859 0.694 
-0.151879 -0.154302 0.696 
-0.123952 -0.15408 0.695 
-0.0961055 -0.153859 0.694 
-0.0690289 -0.155189 0.7 
-0.0412388 -0.155632 0.702 
-0.0132893 -0.156076 0.704 
0.0148407 -0.156741 0.707 
0.0430273 -0.156741 0.707 
0.0715161 -0.157406 0.71 
0.100385 -0.158293 0.714 
0.129031 -0.158514 0.715 
0.158197 -0.159179 0.718 
0.187083 -0.159401 0.719 
0.215748 -0.159401 0.719 
0.245773 -0.160288 0.723 
0.275737 -0.160953 0.726 
0.299645 -0.158293 0.714 
0.312486 -0.150755 0.68 
0.312129 -0.138561 0.625 
0.316554 -0.130137 0.587 
0.327794 -0.125481 0.566 
0.33736 -0.120826 0.545 
0.360406 -0.121269 0.547 
0.382913 -0.121491 0.548 
0.406976 -0.122156 0.551 
0.432057 -0.123043 0.555 
0.454184 -0.123043 0.555 
0.478027 -0.123486 0.557 
0.50203 -0.123929 0.559 
0.525254 -0.124151 0.56 
0.54758 -0.124151 0.56 
-2.12033 -0.513725 2.342 
-2.04168 -0.517454 2.359 
-1.97652 -0.525132 2.394 
-1.85672 -0.518332 2.363 
-1.78191 -0.524035 2.389 
-1.69655 -0.527106 2.403 
-1.6214 -0.533906 2.434 
-1.52749 -0.535002 2.439 
-1.44081 -0.538951 2.457 
-1.33793 -0.536977 2.448 
-1.25199 -0.542022 2.471 
-1.16234 -0.546189 2.49 
-1.06307 -0.546189 2.49 
-0.998638 -0.565931 2.58 
-0.167718 -0.152231 0.694 
-0.140453 -0.15267 0.696 
-0.112381 -0.152231 0.694 
-0.0849568 -0.15267 0.696 
-0.0575375 -0.153547 0.7 
-0.0297146 -0.153986 0.702 
-0.00173473 -0.154644 0.705 
0.0264096 -0.154863 0.706 
0.0546336 -0.155083 0.707 
0.0831717 -0.155741 0.71 
0.112106 -0.156618 0.714 
0.140965 -0.157057 0.716 
0.169984 -0.157496 0.718 
0.199439 -0.158154 0.721 
0.227868 -0.157934 0.72 
0.258711 -0.15925 0.726 
0.285674 -0.158154 0.721 
0.306569 -0.154205 0.703 
0.313178 -0.144334 0.658 
0.314136 -0.133586 0.609 
0.321189 -0.126786 0.578 
0.326961 -0.120425 0.549 
0.346307 -0.119547 0.545 
0.369386 -0.119986 0.547 
0.392624 -0.120425 0.549 
0.416021 -0.120864 0.551 
0.441963 -0.12196 0.556 
0.463295 -0.121741 0.555 
0.488046 -0.122399 0.558 
0.511206 -0.122618 0.559 
0.534447 -0.122838 0.56 
0.558761 -0.123277 0.562 
-2.08738 -0.508233 2.342 
-2.03062 -0.517564 2.385 
-1.968 -0.526245 2.425 
-1.81344 -0.509969 2.35 
-1.75854 -0.52147 2.403 
-1.65305 -0.518432 2.389 
-1.57867 -0.525376 2.421 
-1.49562 -0.530151 2.443 
-1.40108 -0.531236 2.448 
-1.30828 -0.533189 2.457 
-1.21722 -0.536227 2.471 
-1.12957 -0.541435 2.495 
-1.03423 -0.543605 2.505 
-0.941446 -0.547728 2.524 
-0.157952 -0.150604 0.694 
-0.13066 -0.151038 0.696 
-0.102468 -0.150387 0.693 
-0.0754874 -0.151689 0.699 
-0.0477559 -0.152123 0.701 
-0.019865 -0.152557 0.703 
0.00819696 -0.153208 0.706 
0.0363437 -0.153208 0.706 
0.0646732 -0.153642 0.708 
0.0934245 -0.15451 0.712 
0.121982 -0.154727 0.713 
0.151251 -0.155595 0.717 
0.180338 -0.156029 0.719 
0.208712 -0.155812 0.718 
0.23866 -0.15668 0.722 
0.269297 -0.157765 0.727 
0.293767 -0.155378 0.716 
0.310609 -0.149736 0.69 
0.312146 -0.138234 0.637 
0.314757 -0.128903 0.594 
0.325334 -0.123912 0.571 
0.332248 -0.118269 0.545 
0.353976 -0.118269 0.545 
0.376393 -0.118486 0.546 
0.401078 -0.119354 0.55 
0.424544 -0.119788 0.552 
0.449787 -0.120656 0.556 
0.472802 -0.120873 0.557 
0.495897 -0.12109 0.558 
0.520001 -0.121524 0.56 
0.543295 -0.121742 0.561 
-2.1726 -0.507248 2.363 
-2.06344 -0.503599 2.346 
-2.00601 -0.51283 2.389 
-1.93236 -0.518625 2.416 
-1.81248 -0.511971 2.385 
-1.73324 -0.516693 2.407 
-1.6434 -0.518625 2.416 
-1.55028 -0.519699 2.421 
-1.46697 -0.524421 2.443 
-1.36733 -0.523563 2.439 
-1.28207 -0.5285 2.462 
-1.19065 -0.531505 2.476 
-1.09811 -0.53451 2.49 
-1.01248 -0.541809 2.524 
-0.175602 -0.148761 0.693 
-0.148401 -0.149191 0.695 
-0.120692 -0.149191 0.695 
-0.0928504 -0.148976 0.694 
-0.0657456 -0.150264 0.7 
-0.0378921 -0.150479 0.701 
-0.00998728 -0.151123 0.704 
0.0181311 -0.151552 0.706 
0.0462779 -0.151552 0.706 
0.0748463 -0.152411 0.71 
0.103734 -0.153269 0.714 
0.132199 -0.153269 0.714 
0.16134 -0.153913 0.717 
0.190985 -0.154772 0.721 
0.218815 -0.154128 0.718 
0.249853 -0.155631 0.725 
0.279142 -0.155845 0.726 
0.30172 -0.152625 0.711 
0.311497 -0.144039 0.671 
0.312036 -0.132876 0.619 
0.317675 -0.125363 0.584 
0.324865 -0.118494 0.552 
0.342473 -0.116991 0.545 
0.365537 -0.117421 0.547 
0.388761 -0.11785 0.549 
0.412145 -0.118279 0.551 
0.437264 -0.119138 0.555 
0.45939 -0.119138 0.555 
0.48412 -0.119782 0.558 
0.507274 -0.119997 0.559 
0.530507 -0.120211 0.56 
0.554808 -0.120641 0.562 
-2.11655 -0.498947 2.35 
-2.03406 -0.501707 2.363 
-1.97268 -0.510199 2.403 
-1.84564 -0.501707 2.363 
-1.78108 -0.510199 2.403 
-1.65722 -0.501707 2.363 
-1.60138 -0.514021 2.421 
-1.50735 -0.51487 2.425 
-1.42405 -0.519754 2.448 
-1.32645 -0.519754 2.448 
-1.23337 -0.521665 2.457 
-1.14882 -0.527822 2.486 
-1.05139 -0.528671 2.49 
-0.970859 -0.539075 2.539 
-0.165851 -0.147136 0.693 
-0.138621 -0.147561 0.695 
-0.110594 -0.147136 0.693 
-0.0834443 -0.147985 0.697 
-0.0558161 -0.14841 0.699 
-0.0280683 -0.149047 0.702 
0.00157196 -0.149684 0.705 
0.0296788 -0.149684 0.705 
0.0579497 -0.150109 0.707 
0.0865018 -0.150746 0.71 
0.115131 -0.15117 0.712 
0.144324 -0.152019 0.716 
0.173593 -0.152656 0.719 
0.202258 -0.152656 0.719 
0.231566 -0.153081 0.721 
0.262477 -0.154355 0.727 
0.287853 -0.152444 0.718 
0.308544 -0.148622 0.7 
0.312419 -0.138007 0.65 
0.315122 -0.127391 0.6 
0.32286 -0.120809 0.569 
0.332248 -0.115713 0.545 
0.353976 -0.115713 0.545 
0.376393 -0.115925 0.546 
0.401078 -0.116775 0.55 
0.424544 -0.117199 0.552 
0.449787 -0.118049 0.556 
0.472802 -0.118261 0.557 
0.495897 -0.118473 0.558 
0.519072 -0.118686 0.559 
0.542327 -0.118898 0.56 
-2.16339 -0.495325 2.359 
-2.06144 -0.493435 2.35 
-1.98952 -0.498895 2.376 
-1.91952 -0.505404 2.407 
-1.81371 -0.502674 2.394 
-1.71468 -0.501624 2.389 
-1.63773 -0.507294 2.416 
-1.53567 -0.505404 2.407 
-1.46124 -0.512963 2.443 
-1.35659 -0.510233 2.43 
-1.27371 -0.515902 2.457 
-1.18484 -0.519892 2.476 
-1.08832 -0.520942 2.481 
-1.00097 -0.527031 2.51 
-0.175602 -0.145511 0.693 
-0.148187 -0.145721 0.694 
-0.120692 -0.145931 0.695 
-0.0928504 -0.145721 0.694 
-0.0657456 -0.146981 0.7 
-0.0379462 -0.147401 0.702 
-0.00997309 -0.147611 0.703 
0.0181311 -0.148241 0.706 
0.0462779 -0.148241 0.706 
0.0748463 -0.149081 0.71 
0.103734 -0.14992 0.714 
0.132199 -0.14992 0.714 
0.16134 -0.15055 0.717 
0.190985 -0.15139 0.721 
0.218815 -0.15076 0.718 
0.249508 -0.15202 0.724 
0.279142 -0.15244 0.726 
0.301296 -0.149081 0.71 
0.311033 -0.140682 0.67 
0.312981 -0.129763 0.618 
0.318499 -0.122414 0.583 
0.326267 -0.115485 0.55 
0.345029 -0.114435 0.545 
0.368103 -0.114855 0.547 
0.392049 -0.115485 0.55 
0.414729 -0.115695 0.551 
0.439867 -0.116535 0.555 
0.461993 -0.116535 0.555 
0.486737 -0.117165 0.558 
0.509896 -0.117375 0.559 
0.533134 -0.117585 0.56 
0.556452 -0.117795 0.561 
-2.11412 -0.492492 2.372 
-2.01955 -0.492492 2.372 
-1.96069 -0.501628 2.416 
-1.83042 -0.492492 2.372 
-1.76146 -0.499759 2.407 
-1.63229 -0.489793 2.359 
-1.56954 -0.499759 2.407 
-1.4846 -0.503496 2.425 
-1.39307 -0.505365 2.434 
-1.30615 -0.50931 2.453 
-1.20835 -0.50931 2.453 
-1.12097 -0.514085 2.476 
-1.02638 -0.516162 2.486 
-0.928765 -0.516992 2.49 
-0.152849 -0.143886 0.693 
-0.125763 -0.144509 0.696 
-0.0975923 -0.143886 0.693 
-0.0706705 -0.145339 0.7 
-0.042824 -0.145547 0.701 
-0.0149191 -0.145962 0.703 
0.0131454 -0.146377 0.705 
0.0413108 -0.146585 0.706 
0.0697527 -0.147208 0.709 
0.0987103 -0.148246 0.714 
0.12682 -0.147831 0.712 
0.156296 -0.148869 0.717 
0.185912 -0.149699 0.721 
0.213466 -0.148869 0.717 
0.244077 -0.150115 0.723 
0.274411 -0.150945 0.727 
0.297553 -0.148038 0.713 
0.310434 -0.140979 0.679 
0.312591 -0.129352 0.623 
0.317931 -0.121877 0.587 
0.325195 -0.115648 0.557 
0.339917 -0.113157 0.545 
0.362972 -0.113572 0.547 
0.385483 -0.11378 0.548 
0.409561 -0.114403 0.551 
0.433094 -0.114818 0.553 
0.45761 -0.115441 0.556 
0.48064 -0.115648 0.557 
0.504652 -0.116064 0.559 
0.526938 -0.116064 0.559 
0.550207 -0.116271 0.56 
-2.13997 -0.48775 2.376 
-2.03061 -0.484261 2.359 
-1.95791 -0.489598 2.385 
-1.85579 -0.48775 2.376 
-1.79071 -0.495962 2.416 
-1.64811 -0.482413 2.35 
-1.60138 -0.496988 2.421 
-1.50486 -0.496988 2.421 
-1.41881 -0.500683 2.439 
-1.32374 -0.501504 2.443 
-1.22634 -0.501504 2.443 
-1.14651 -0.509305 2.481 
-1.04759 -0.509305 2.481 
-0.95977 -0.515258 2.51 
-0.160743 -0.142055 0.692 
-0.133732 -0.142671 0.695 
-0.105718 -0.142261 0.693 
-0.0786532 -0.143287 0.698 
-0.050971 -0.143698 0.7 
-0.0231294 -0.144108 0.702 
0.00487865 -0.144724 0.705 
0.0330323 -0.144929 0.706 
0.0612657 -0.145134 0.707 
0.0899585 -0.145956 0.711 
0.118637 -0.146366 0.713 
0.147682 -0.146982 0.716 
0.176966 -0.147598 0.719 
0.205345 -0.147393 0.718 
0.235599 -0.148419 0.723 
0.266252 -0.149445 0.728 
0.290815 -0.147187 0.717 
0.308709 -0.142261 0.693 
0.31114 -0.13097 0.638 
0.315816 -0.122348 0.596 
0.323812 -0.11619 0.566 
0.335466 -0.111674 0.544 
0.358467 -0.112084 0.546 
0.381628 -0.112495 0.548 
0.405684 -0.11311 0.551 
0.429203 -0.113521 0.553 
0.452882 -0.113932 0.555 
0.476721 -0.114342 0.557 
0.499823 -0.114547 0.558 
0.523005 -0.114753 0.559 
0.546267 -0.114958 0.56 
-2.15669 -0.482178 2.376 
-2.04721 -0.478728 2.359 
-1.95647 -0.47954 2.363 
-1.8867 -0.485831 2.394 
-1.81145 -0.49131 2.421 
-1.67102 -0.478728 2.359 
-1.61841 -0.49131 2.421 
-1.51875 -0.490296 2.416 
-1.43067 -0.493137 2.43 
-1.33379 -0.493137 2.43 
-1.24353 -0.495775 2.443 
-1.16396 -0.503487 2.481 
-1.0629 -0.502472 2.476 
-0.971588 -0.506328 2.495 
-0.172103 -0.140432 0.692 
-0.144932 -0.140838 0.694 
-0.117264 -0.140838 0.694 
-0.0897244 -0.141041 0.695 
-0.0624624 -0.142056 0.7 
-0.0346042 -0.142259 0.701 
-0.00668528 -0.142868 0.704 
0.0214425 -0.143274 0.706 
0.0495892 -0.143274 0.706 
0.0779562 -0.143679 0.708 
0.107233 -0.1451 0.715 
0.135738 -0.1451 0.715 
0.164933 -0.145709 0.718 
0.194097 -0.146115 0.72 
0.222493 -0.145912 0.719 
0.253603 -0.147332 0.726 
0.282547 -0.147332 0.726 
0.304197 -0.143882 0.709 
0.311506 -0.134141 0.661 
0.314346 -0.124806 0.615 
0.31958 -0.117703 0.58 
0.324386 -0.111412 0.549 
0.343751 -0.110601 0.545 
0.36615 -0.110804 0.546 
0.390049 -0.111412 0.549 
0.413437 -0.111818 0.551 
0.436985 -0.112224 0.553 
0.461522 -0.112833 0.556 
0.484558 -0.113036 0.557 
0.508585 -0.113442 0.559 
0.530871 -0.113442 0.559 
0.554146 -0.113645 0.56 
-2.1257 -0.478412 2.385 
-2.00848 -0.473196 2.359 
-1.93553 -0.478412 2.385 
-1.84045 -0.478412 2.385 
-1.77171 -0.485633 2.421 
-1.63229 -0.473196 2.359 
-1.56954 -0.482825 2.407 
-1.48215 -0.485633 2.421 
-1.38792 -0.486435 2.425 
-1.30349 -0.491049 2.448 
-1.20589 -0.491049 2.448 
-1.1187 -0.495662 2.471 
-1.02019 -0.495662 2.471 
-0.925408 -0.497668 2.481 
-0.160743 -0.13881 0.692 
-0.133539 -0.139211 0.694 
-0.105718 -0.13901 0.693 
-0.0786532 -0.140013 0.698 
-0.0510439 -0.140615 0.701 
-0.0231294 -0.140815 0.702 
0.00487865 -0.141417 0.705 
0.0330791 -0.141818 0.707 
0.0612657 -0.141818 0.707 
0.0899585 -0.142621 0.711 
0.11897 -0.143423 0.715 
0.147682 -0.143624 0.716 
0.176966 -0.144226 0.719 
0.205345 -0.144025 0.718 
0.235599 -0.145028 0.723 
0.266252 -0.146031 0.728 
0.290815 -0.143824 0.717 
0.308709 -0.13901 0.693 
0.312115 -0.128379 0.64 
0.315474 -0.119954 0.598 
0.321725 -0.113736 0.567 
0.330363 -0.109122 0.544 
0.353345 -0.109523 0.546 
0.3758 -0.109724 0.547 
0.399788 -0.110326 0.55 
0.423249 -0.110727 0.552 
0.44687 -0.111128 0.554 
0.470649 -0.111529 0.556 
0.494589 -0.11193 0.558 
0.517761 -0.112131 0.559 
0.540047 -0.112131 0.559 
-2.16418 -0.470241 2.372 
-2.06176 -0.468457 2.363 
-1.9534 -0.465087 2.346 
-1.89396 -0.473611 2.389 
-1.82281 -0.479955 2.421 
-1.6942 -0.471034 2.376 
-1.61765 -0.476387 2.403 
-1.52438 -0.47718 2.407 
-1.42842 -0.47718 2.407 
-1.34242 -0.480748 2.425 
-1.25293 -0.483524 2.439 
-1.1756 -0.49185 2.481 
-1.07452 -0.490859 2.476 
-0.975802 -0.490859 2.476 
-0.176716 -0.136988 0.691 
-0.149599 -0.137385 0.693 
-0.122146 -0.137583 0.694 
-0.0946141 -0.137781 0.695 
-0.0673872 -0.138773 0.7 
-0.0395925 -0.139169 0.702 
-0.0116217 -0.139367 0.703 
0.0164754 -0.139962 0.706 
0.0446222 -0.139962 0.706 
0.072872 -0.14016 0.707 
0.102202 -0.141746 0.715 
0.130708 -0.141746 0.715 
0.159659 -0.142143 0.717 
0.189032 -0.142738 0.72 
0.217132 -0.142341 0.718 
0.248495 -0.143927 0.726 
0.277439 -0.143927 0.726 
0.300897 -0.14135 0.713 
0.310105 -0.132429 0.668 
0.313044 -0.123111 0.621 
0.318219 -0.115974 0.585 
0.322859 -0.10963 0.553 
0.339917 -0.108044 0.545 
0.362308 -0.108243 0.546 
0.386186 -0.108837 0.549 
0.409561 -0.109234 0.551 
0.432311 -0.109432 0.552 
0.456787 -0.110027 0.555 
0.479777 -0.110225 0.556 
0.503749 -0.110622 0.558 
0.526938 -0.11082 0.559 
0.549224 -0.11082 0.559 
-2.13689 -0.467225 2.385 
-2.01955 -0.462132 2.359 
-1.92876 -0.462915 2.363 
-1.85164 -0.467225 2.385 
-1.77938 -0.473298 2.416 
-1.63708 -0.460369 2.35 
-1.59002 -0.474277 2.421 
-1.49042 -0.473298 2.416 
-1.39698 -0.474277 2.421 
-1.31013 -0.477804 2.439 
-1.21488 -0.478587 2.443 
-1.13258 -0.485052 2.476 
-1.03011 -0.483289 2.467 
-0.937044 -0.486032 2.481 
-0.163989 -0.135564 0.692 
-0.136597 -0.13576 0.693 
-0.108969 -0.13576 0.693 
-0.0816923 -0.136347 0.696 
-0.0543318 -0.137327 0.701 
-0.026422 -0.137523 0.702 
0.00156973 -0.137915 0.704 
0.029763 -0.138502 0.707 
0.0578677 -0.138306 0.706 
0.0865018 -0.13909 0.71 
0.115617 -0.14007 0.715 
0.144324 -0.140265 0.716 
0.173593 -0.140853 0.719 
0.201977 -0.140657 0.718 
0.232208 -0.141637 0.723 
0.262477 -0.14242 0.727 
0.288254 -0.140853 0.719 
0.309425 -0.137523 0.702 
0.312556 -0.126161 0.644 
0.315474 -0.117149 0.598 
0.322292 -0.111272 0.568 
0.331638 -0.10657 0.544 
0.355275 -0.107158 0.547 
0.377772 -0.107354 0.548 
0.401078 -0.107746 0.55 
0.424544 -0.108138 0.552 
0.448169 -0.108529 0.554 
0.471953 -0.108921 0.556 
0.495897 -0.109313 0.558 
0.518144 -0.109313 0.558 
0.541358 -0.109509 0.559 
-2.16418 -0.459116 2.372 
-2.06176 -0.457374 2.363 
-1.95007 -0.453309 2.342 
-1.89079 -0.461632 2.385 
-1.81904 -0.467632 2.416 
-1.70062 -0.461632 2.385 
-1.61159 -0.463374 2.394 
-1.53325 -0.4686 2.421 
-1.42605 -0.465116 2.403 
-1.34519 -0.470342 2.43 
-1.25037 -0.471116 2.434 
-1.17086 -0.478278 2.471 
-1.07235 -0.478278 2.471 
-0.973832 -0.478278 2.471 
-0.170234 -0.133747 0.691 
-0.143098 -0.134135 0.693 
-0.115636 -0.134328 0.694 
-0.0880945 -0.134522 0.695 
-0.0608208 -0.135489 0.7 
-0.0329602 -0.135683 0.701 
-0.00503427 -0.136264 0.704 
0.0230982 -0.136651 0.706 
0.0512449 -0.136651 0.706 
0.0796166 -0.137038 0.708 
0.108909 -0.138393 0.715 
0.137607 -0.138586 0.716 
0.166617 -0.138973 0.718 
0.195514 -0.139167 0.719 
0.224179 -0.139167 0.719 
0.255305 -0.140522 0.726 
0.283075 -0.139941 0.723 
0.30586 -0.137231 0.709 
0.312109 -0.127554 0.659 
0.313735 -0.118263 0.611 
0.32087 -0.111295 0.575 
0.325857 -0.105488 0.545 
0.347585 -0.105488 0.545 
0.369991 -0.105682 0.546 
0.393911 -0.106262 0.549 
0.417314 -0.10665 0.551 
0.440078 -0.106843 0.552 
0.465434 -0.107617 0.556 
0.488477 -0.107811 0.557 
0.511601 -0.108004 0.558 
0.534804 -0.108198 0.559 
-2.1726 -0.451832 2.363 
-2.07839 -0.451832 2.363 
-1.97326 -0.449346 2.35 
-1.90037 -0.454318 2.376 
-1.82616 -0.45948 2.403 
-1.73036 -0.45948 2.403 
-1.61619 -0.454318 2.376 
-1.55284 -0.463687 2.425 
-1.43755 -0.457759 2.394 
-1.35948 -0.463687 2.425 
-1.26541 -0.464643 2.43 
-1.18392 -0.470762 2.462 
-1.08797 -0.471718 2.467 
-0.987606 -0.470762 2.462 
-0.179696 -0.131936 0.69 
-0.152849 -0.132509 0.693 
-0.125401 -0.132701 0.694 
-0.0977331 -0.132701 0.694 
-0.0704686 -0.133465 0.698 
-0.0428851 -0.13423 0.702 
-0.0149191 -0.134421 0.703 
0.0131454 -0.134804 0.705 
0.0413108 -0.134995 0.706 
0.0695559 -0.135186 0.707 
0.0987103 -0.136525 0.714 
0.127532 -0.136907 0.716 
0.156296 -0.137098 0.717 
0.185397 -0.137481 0.719 
0.214062 -0.137481 0.719 
0.245765 -0.139202 0.728 
0.274034 -0.138819 0.726 
0.298387 -0.136716 0.715 
0.309729 -0.128876 0.674 
0.313128 -0.119889 0.627 
0.316554 -0.112241 0.587 
0.323161 -0.106696 0.558 
0.336741 -0.104019 0.544 
0.359747 -0.104401 0.546 
0.382913 -0.104784 0.548 
0.406238 -0.105166 0.55 
0.429722 -0.105549 0.552 
0.453366 -0.105931 0.554 
0.476311 -0.106122 0.555 
0.501132 -0.106696 0.558 
0.523378 -0.106696 0.558 
0.546602 -0.106887 0.559 
-2.11913 -0.445535 2.359 
-2.03624 -0.44799 2.372 
-1.93431 -0.44629 2.363 
-1.86034 -0.451201 2.389 
-1.77544 -0.453845 2.403 
-1.65797 -0.44799 2.372 
-1.59241 -0.4563 2.416 
-1.49609 -0.4563 2.416 
-1.39223 -0.453845 2.403 
-1.31585 -0.460644 2.439 
-1.22061 -0.4614 2.443 
-1.13839 -0.467632 2.476 
-1.0338 -0.464988 2.462 
-0.946283 -0.470276 2.49 
-0.165372 -0.130506 0.691 
-0.138222 -0.130884 0.693 
-0.110594 -0.130884 0.693 
-0.0830851 -0.131073 0.694 
-0.0559758 -0.132395 0.701 
-0.0280683 -0.132584 0.702 
-8.12703e-05 -0.132962 0.704 
0.0280653 -0.133339 0.706 
0.056212 -0.133339 0.706 
0.0849562 -0.134284 0.711 
0.11394 -0.135039 0.715 
0.142645 -0.135228 0.716 
0.171668 -0.135606 0.718 
0.200572 -0.135795 0.719 
0.230513 -0.13655 0.723 
0.260054 -0.136928 0.725 
0.286567 -0.135795 0.719 
0.308656 -0.132962 0.704 
0.312808 -0.123518 0.654 
0.315046 -0.114831 0.608 
0.32087 -0.108598 0.575 
0.325857 -0.102932 0.545 
0.347585 -0.102932 0.545 
0.369991 -0.103121 0.546 
0.393911 -0.103687 0.549 
0.417314 -0.104065 0.551 
0.440078 -0.104254 0.552 
0.464597 -0.104821 0.555 
0.488477 -0.105198 0.557 
0.511601 -0.105387 0.558 
0.534804 -0.105576 0.559 
-2.1726 -0.440749 2.363 
-2.07487 -0.440003 2.359 
-1.98082 -0.440003 2.359 
-1.90757 -0.444852 2.385 
-1.82616 -0.448209 2.403 
-1.73324 -0.448956 2.407 
-1.61347 -0.442427 2.372 
-1.55604 -0.453246 2.43 
-1.43755 -0.446531 2.394 
-1.36453 -0.453992 2.434 
-1.26541 -0.453246 2.43 
-1.18392 -0.459214 2.462 
-1.08797 -0.460147 2.467 
-0.987606 -0.459214 2.462 
-0.179176 -0.128326 0.688 
-0.152629 -0.129072 0.692 
-0.125401 -0.129445 0.694 
-0.0975923 -0.129259 0.693 
-0.0703676 -0.130005 0.697 
-0.0428851 -0.130938 0.702 
-0.0149191 -0.131124 0.703 
0.0131454 -0.131497 0.705 
0.0413693 -0.13187 0.707 
0.0696543 -0.132057 0.708 
0.0987103 -0.133176 0.714 
0.127354 -0.133362 0.715 
0.156296 -0.133735 0.717 
0.185397 -0.134108 0.719 
0.214062 -0.134108 0.719 
0.245765 -0.135787 0.728 
0.274034 -0.135414 0.726 
0.298387 -0.133362 0.715 
0.310891 -0.126834 0.68 
0.312154 -0.117135 0.628 
0.315714 -0.109674 0.588 
0.323006 -0.104452 0.56 
0.335466 -0.101467 0.544 
0.358467 -0.10184 0.546 
0.381628 -0.102213 0.548 
0.404948 -0.102586 0.55 
0.427651 -0.102773 0.551 
0.452066 -0.103333 0.554 
0.475009 -0.103519 0.555 
0.499823 -0.104079 0.558 
0.522069 -0.104079 0.558 
0.545291 -0.104265 0.559 
-2.12758 -0.432813 2.35 
-2.05639 -0.437601 2.376 
-1.95093 -0.435207 2.363 
-1.87401 -0.439259 2.385 
-1.78564 -0.440916 2.394 
-1.69019 -0.440916 2.394 
-1.59475 -0.440916 2.394 
-1.51622 -0.445889 2.421 
-1.40093 -0.439996 2.389 
-1.3352 -0.449941 2.443 
-1.2378 -0.449941 2.443 
-1.15347 -0.455098 2.471 
-1.05325 -0.454361 2.467 
-0.962253 -0.457861 2.486 
-0.170234 -0.127265 0.691 
-0.142891 -0.12745 0.692 
-0.115636 -0.127818 0.694 
-0.0879678 -0.127818 0.694 
-0.0608208 -0.128923 0.7 
-0.0330073 -0.129291 0.702 
-0.00502712 -0.129475 0.703 
0.0230655 -0.129844 0.705 
0.0513175 -0.130212 0.707 
0.0798415 -0.130765 0.71 
0.108757 -0.131501 0.714 
0.137607 -0.13187 0.716 
0.166385 -0.132054 0.717 
0.195514 -0.132422 0.719 
0.224179 -0.132422 0.719 
0.254954 -0.133527 0.725 
0.282683 -0.132975 0.722 
0.306291 -0.130765 0.71 
0.312919 -0.122293 0.664 
0.313324 -0.1129 0.613 
0.319029 -0.106638 0.579 
0.323796 -0.100928 0.548 
0.34312 -0.100192 0.544 
0.36615 -0.10056 0.546 
0.390049 -0.101112 0.549 
0.412687 -0.101297 0.55 
0.436195 -0.101665 0.552 
0.460692 -0.102217 0.555 
0.482819 -0.102217 0.555 
0.507675 -0.10277 0.558 
0.530871 -0.102954 0.559 
0.555136 -0.103323 0.561 
-2.08381 -0.42512 2.338 
-2.01955 -0.431302 2.372 
-1.94284 -0.435302 2.394 
-1.85743 -0.437666 2.407 
-1.75195 -0.435302 2.394 
-1.64128 -0.431302 2.372 
-1.58454 -0.441848 2.43 
-1.47113 -0.436939 2.403 
-1.38277 -0.439302 2.416 
-1.30082 -0.444212 2.443 
-1.20835 -0.44603 2.453 
-1.1187 -0.449303 2.471 
-1.01441 -0.446757 2.457 
-0.939581 -0.458031 2.519 
-0.15727 -0.125645 0.691 
-0.130096 -0.126009 0.693 
-0.102616 -0.12619 0.694 
-0.0751634 -0.126554 0.696 
-0.0478241 -0.127645 0.702 
-0.019865 -0.127827 0.703 
0.00816213 -0.127827 0.703 
0.0363437 -0.128372 0.706 
0.0646732 -0.128736 0.708 
0.0935557 -0.129645 0.713 
0.122324 -0.130009 0.715 
0.15104 -0.130191 0.716 
0.180087 -0.130554 0.718 
0.209003 -0.130736 0.719 
0.240643 -0.132373 0.728 
0.268556 -0.131827 0.725 
0.293767 -0.130191 0.716 
0.311059 -0.125645 0.691 
0.312146 -0.115826 0.637 
0.314227 -0.107825 0.593 
0.322485 -0.102916 0.566 
0.331638 -0.0989158 0.544 
0.353976 -0.0990976 0.545 
0.377083 -0.0994613 0.547 
0.401078 -0.100007 0.55 
0.423775 -0.100189 0.551 
0.44736 -0.100552 0.553 
0.471104 -0.100916 0.555 
0.495897 -0.101461 0.558 
0.518144 -0.101461 0.558 
0.541358 -0.101643 0.559 
-2.15232 -0.423406 2.359 
-2.06176 -0.424124 2.363 
-1.96423 -0.423406 2.359 
-1.89792 -0.429688 2.394 
-1.80926 -0.431303 2.403 
-1.71345 -0.431303 2.403 
-1.60823 -0.42879 2.389 
-1.53325 -0.434534 2.421 
-1.4207 -0.429688 2.394 
-1.35515 -0.43938 2.448 
-1.25293 -0.437765 2.439 
-1.16659 -0.441893 2.462 
-1.07235 -0.443508 2.471 
-0.973832 -0.443508 2.471 
-0.173224 -0.123845 0.69 
-0.145926 -0.124024 0.691 
-0.118891 -0.124563 0.694 
-0.0912229 -0.124563 0.694 
-0.0639209 -0.125281 0.698 
-0.0362482 -0.125819 0.701 
-0.00831259 -0.125999 0.702 
0.0197588 -0.126537 0.705 
0.0480014 -0.126896 0.707 
0.0765114 -0.127435 0.71 
0.105113 -0.127794 0.712 
0.134061 -0.128332 0.715 
0.162794 -0.128511 0.716 
0.191874 -0.12887 0.718 
0.220806 -0.12905 0.719 
0.2519 -0.130306 0.726 
0.279684 -0.129768 0.723 
0.304241 -0.127973 0.713 
0.312604 -0.120255 0.67 
0.312981 -0.110922 0.618 
0.317952 -0.10446 0.582 
0.322984 -0.0988964 0.551 
0.340569 -0.09764 0.544 
0.362923 -0.0978195 0.545 
0.386768 -0.0983579 0.548 
0.410107 -0.0987169 0.55 
0.433605 -0.0990759 0.552 
0.457263 -0.0994348 0.554 
0.480215 -0.0996143 0.555 
0.505058 -0.100153 0.558 
0.527304 -0.100153 0.558 
0.552505 -0.100691 0.561 
-2.10386 -0.414862 2.342 
-2.03624 -0.420176 2.372 
-1.95231 -0.422479 2.385 
-1.88137 -0.42797 2.416 
-1.7651 -0.423188 2.389 
-1.67335 -0.424073 2.394 
-1.5957 -0.428856 2.421 
-1.49051 -0.426376 2.407 
-1.38702 -0.424073 2.394 
-1.32071 -0.433639 2.448 
-1.22561 -0.434525 2.453 
-1.13425 -0.437005 2.467 
-1.03968 -0.438599 2.476 
-0.953884 -0.444622 2.51 
-0.163515 -0.122227 0.69 
-0.1364 -0.122581 0.692 
-0.109126 -0.122935 0.694 
-0.081575 -0.123112 0.695 
-0.0542543 -0.123998 0.7 
-0.026422 -0.124352 0.702 
0.00156527 -0.124352 0.702 
0.0296788 -0.124884 0.705 
0.0579497 -0.125238 0.707 
0.0867455 -0.126124 0.712 
0.115455 -0.126478 0.714 
0.144122 -0.126655 0.715 
0.173111 -0.127009 0.717 
0.201977 -0.127187 0.718 
0.231887 -0.127895 0.722 
0.261033 -0.128072 0.723 
0.287853 -0.127187 0.718 
0.309425 -0.124352 0.702 
0.311939 -0.114964 0.649 
0.313349 -0.106638 0.602 
0.321316 -0.101147 0.571 
0.327811 -0.0963642 0.544 
0.349499 -0.0963642 0.544 
0.372552 -0.0967185 0.546 
0.396486 -0.0972499 0.549 
0.419136 -0.0974271 0.55 
0.443469 -0.0979585 0.553 
0.4672 -0.0983128 0.555 
0.49109 -0.098667 0.557 
0.514218 -0.0988442 0.558 
0.537425 -0.0990213 0.559 
-2.19012 -0.415313 2.376 
-2.06541 -0.40937 2.342 
-1.98635 -0.412341 2.359 
-1.9276 -0.420032 2.403 
-1.84857 -0.423878 2.425 
-1.72949 -0.418459 2.394 
-1.63064 -0.417585 2.389 
-1.55275 -0.422305 2.416 
-1.45642 -0.422305 2.416 
-1.37305 -0.426325 2.439 
-1.27791 -0.427024 2.443 
-1.19211 -0.431219 2.467 
-1.09996 -0.433666 2.481 
-0.997012 -0.431918 2.471 
-0.174588 -0.120434 0.689 
-0.147547 -0.120783 0.691 
-0.120519 -0.121308 0.694 
-0.093118 -0.121657 0.696 
-0.0654639 -0.121832 0.697 
-0.0378921 -0.122531 0.701 
-0.0099589 -0.122706 0.702 
0.0180797 -0.123056 0.704 
0.0463434 -0.12358 0.707 
0.0748463 -0.124104 0.71 
0.103443 -0.124454 0.712 
0.132199 -0.124804 0.714 
0.161115 -0.125153 0.716 
0.189925 -0.125328 0.717 
0.21912 -0.125678 0.719 
0.249853 -0.126726 0.725 
0.278373 -0.126552 0.724 
0.302994 -0.124804 0.714 
0.31289 -0.117812 0.674 
0.312036 -0.108198 0.619 
0.318478 -0.101031 0.578 
0.323894 -0.095438 0.546 
0.344396 -0.0950884 0.544 
0.366757 -0.0952632 0.545 
0.390624 -0.0957876 0.548 
0.413977 -0.0961372 0.55 
0.437489 -0.0964868 0.552 
0.461993 -0.0970112 0.555 
0.484992 -0.097186 0.556 
0.508983 -0.0975356 0.558 
0.532182 -0.0977104 0.559 
0.556452 -0.09806 0.561 
-2.0893 -0.403188 2.338 
-2.01402 -0.406809 2.359 
-1.94438 -0.411983 2.389 
-1.877 -0.418191 2.425 
-1.75757 -0.412845 2.394 
-1.66212 -0.412845 2.394 
-1.58435 -0.417501 2.421 
-1.48475 -0.416639 2.416 
-1.38326 -0.415087 2.407 
-1.3119 -0.423019 2.453 
-1.21856 -0.424571 2.462 
-1.12268 -0.425434 2.467 
-1.03595 -0.430262 2.495 
-0.942111 -0.432849 2.51 
-0.161427 -0.118645 0.688 
-0.134777 -0.119335 0.692 
-0.107498 -0.11968 0.694 
-0.0800601 -0.120025 0.696 
-0.0525375 -0.120542 0.699 
-0.0247757 -0.12106 0.702 
0.00321158 -0.12106 0.702 
0.0313322 -0.121577 0.705 
0.059692 -0.122094 0.708 
0.0881669 -0.122439 0.71 
0.116965 -0.122957 0.713 
0.145799 -0.123302 0.715 
0.174792 -0.123646 0.717 
0.203945 -0.123991 0.719 
0.23358 -0.124509 0.722 
0.263092 -0.124854 0.724 
0.289133 -0.123646 0.717 
0.309299 -0.12037 0.698 
0.311656 -0.109678 0.636 
0.312637 -0.101745 0.59 
0.323812 -0.0976066 0.566 
0.33419 -0.0938127 0.544 
0.355878 -0.0938127 0.544 
0.378954 -0.0941576 0.546 
0.403658 -0.0948474 0.55 
0.426359 -0.0950198 0.551 
0.449954 -0.0953647 0.553 
0.473708 -0.0957096 0.555 
0.497621 -0.0960545 0.557 
0.520761 -0.096227 0.558 
0.544953 -0.0965719 0.56 
-2.15043 -0.401957 2.363 
-2.05274 -0.401277 2.359 
-1.95122 -0.399746 2.35 
-1.9097 -0.410973 2.416 
-1.81338 -0.410973 2.416 
-1.70142 -0.40723 2.394 
-1.62409 -0.411823 2.421 
-1.50738 -0.40638 2.389 
-1.42277 -0.409442 2.407 
-1.35217 -0.417267 2.453 
-1.25182 -0.416416 2.448 
-1.16318 -0.419648 2.467 
-1.08943 -0.429344 2.524 
-0.977439 -0.424411 2.495 
-0.171108 -0.117032 0.688 
-0.144097 -0.117372 0.69 
-0.117264 -0.118053 0.694 
-0.0899826 -0.118563 0.697 
-0.0621947 -0.118563 0.697 
-0.0345548 -0.119073 0.7 
-0.00666628 -0.119413 0.702 
0.0214121 -0.119924 0.705 
0.0496595 -0.120264 0.707 
0.0780663 -0.120604 0.709 
0.106783 -0.121114 0.712 
0.135169 -0.121114 0.712 
0.164244 -0.121625 0.715 
0.193288 -0.121965 0.717 
0.222493 -0.122305 0.719 
0.252904 -0.123156 0.724 
0.28099 -0.122816 0.722 
0.304626 -0.120774 0.71 
0.311635 -0.111929 0.658 
0.313735 -0.103934 0.611 
0.318727 -0.0979803 0.576 
0.324579 -0.092707 0.545 
0.345672 -0.0925369 0.544 
0.368035 -0.092707 0.545 
0.391909 -0.0932173 0.548 
0.415266 -0.0935575 0.55 
0.438784 -0.0938977 0.552 
0.463295 -0.0944081 0.555 
0.486296 -0.0945782 0.556 
0.509377 -0.0947483 0.557 
0.533493 -0.0950885 0.559 
0.557767 -0.0954287 0.561 
-2.08544 -0.393564 2.346 
-1.99191 -0.393564 2.346 
-1.92994 -0.400106 2.385 
-1.87255 -0.408326 2.434 
-1.74634 -0.401616 2.394 
-1.6571 -0.403126 2.403 
-1.5613 -0.403126 2.403 
-1.47891 -0.406817 2.425 
-1.38223 -0.406817 2.425 
-1.29774 -0.410675 2.448 
-1.21142 -0.414534 2.471 
-1.11516 -0.415372 2.476 
-1.03041 -0.421076 2.51 
-0.922925 -0.417721 2.49 
-0.156587 -0.115418 0.688 
-0.130096 -0.116257 0.693 
-0.102764 -0.116593 0.695 
-0.0751634 -0.116761 0.696 
-0.0475515 -0.117096 0.698 
-0.0198085 -0.117599 0.701 
0.00816213 -0.117935 0.703 
0.0363437 -0.118438 0.706 
0.0645818 -0.118606 0.707 
0.0930309 -0.118941 0.709 
0.12181 -0.119445 0.712 
0.150829 -0.119948 0.715 
0.179586 -0.120116 0.716 
0.209003 -0.120619 0.719 
0.23899 -0.12129 0.723 
0.268556 -0.121626 0.725 
0.293767 -0.120116 0.716 
0.311059 -0.115922 0.691 
0.311629 -0.104682 0.624 
0.313858 -0.097636 0.582 
0.324899 -0.094113 0.561 
0.339293 -0.0912611 0.544 
0.361645 -0.0914289 0.545 
0.384076 -0.0915966 0.546 
0.408074 -0.0920999 0.549 
0.432311 -0.0926032 0.552 
0.455964 -0.0929387 0.554 
0.478914 -0.0931065 0.555 
0.502846 -0.093442 0.557 
0.525995 -0.0936098 0.558 
0.550207 -0.0939453 0.56 
-2.13573 -0.390212 2.359 
-2.03389 -0.388723 2.35 
-1.9402 -0.388723 2.35 
-1.89837 -0.399641 2.416 
-1.80205 -0.399641 2.416 
-1.69019 -0.396002 2.394 
-1.61873 -0.401957 2.43 
-1.49617 -0.395175 2.389 
-1.41676 -0.399641 2.416 
-1.33793 -0.404934 2.448 
-1.24489 -0.406423 2.457 
-1.15581 -0.409566 2.476 
-1.08399 -0.419987 2.539 
-0.965737 -0.412709 2.495 
-0.165784 -0.113474 0.686 
-0.139242 -0.114136 0.69 
-0.112381 -0.114797 0.694 
-0.0850789 -0.115294 0.697 
-0.0572087 -0.115128 0.696 
-0.02963 -0.11579 0.7 
-0.00172735 -0.116121 0.702 
0.0263722 -0.116617 0.705 
0.0546336 -0.116948 0.707 
0.0829374 -0.117113 0.708 
0.112106 -0.118106 0.714 
0.140178 -0.117775 0.712 
0.169274 -0.118271 0.715 
0.198609 -0.118767 0.718 
0.228184 -0.119264 0.721 
