# .PCD v.7 - Point Cloud Data file format
VERSION .7
FIELDS x y z
SIZE 4 4 4
TYPE F F F
COUNT 1 1 1
WIDTH 1860
HEIGHT 1
VIEWPOINT 0 0 0 1 0 0 0
POINTS 1860
DATA ascii
-0.629699 0.124202 0.785 
-0.611362 0.126892 0.802 
-0.590946 0.129424 0.818 
-0.569938 0.132113 0.835 
-0.548859 0.135119 0.854 
-0.52506 0.137809 0.871 
-0.501594 0.140974 0.891 
-0.475488 0.143822 0.909 
-0.452295 0.148093 0.936 
-0.425175 0.151732 0.959 
-0.394608 0.154739 0.978 
-0.358526 0.156004 0.986 
-0.323425 0.158061 0.999 
-0.184474 0.119614 0.756 
-0.1576 0.122145 0.772 
-0.131586 0.126734 0.801 
-0.102638 0.130531 0.825 
-0.0703386 0.131639 0.832 
-0.0324237 0.121196 0.766 
-7.96541e-05 0.109171 0.69 
0.0253621 0.100944 0.638 
0.0475334 0.094457 0.597 
0.0658381 0.0871789 0.551 
0.0867386 0.0802173 0.507 
0.103325 0.074996 0.474 
0.126532 0.0672433 0.425 
0.137061 0.0642371 0.406 
0.149672 0.0601234 0.38 
0.159967 0.0571172 0.361 
0.170797 0.0541111 0.342 
0.180657 0.0530035 0.335 
0.19754 0.0526871 0.333 
0.227461 0.0544275 0.344 
0.31925 0.0615474 0.389 
1.01846 0.18132 1.146 
1.05393 0.179579 1.135 
1.10596 0.180687 1.142 
-0.648365 0.123635 0.77 
-0.628095 0.125722 0.783 
-0.610599 0.128612 0.801 
-0.590224 0.131181 0.817 
-0.569255 0.133911 0.834 
-0.547574 0.136801 0.852 
-0.524457 0.139691 0.87 
-0.501594 0.143063 0.891 
-0.474442 0.145632 0.907 
-0.450362 0.149646 0.932 
-0.423845 0.1535 0.956 
-0.394205 0.156872 0.977 
-0.356708 0.157514 0.981 
-0.323102 0.160244 0.998 
-0.180928 0.121387 0.756 
-0.15378 0.123795 0.771 
-0.125951 0.128612 0.801 
-0.0971857 0.132948 0.828 
-0.0634 0.131342 0.818 
-0.0224318 0.117694 0.733 
0.00626331 0.108542 0.676 
0.0308065 0.100674 0.627 
0.0552211 0.0923247 0.575 
0.0747931 0.0868655 0.541 
0.0947319 0.0801218 0.499 
0.119647 0.0706485 0.44 
0.13134 0.0666343 0.415 
0.141471 0.0637442 0.397 
0.153859 0.0602118 0.375 
0.163507 0.0568399 0.354 
0.175933 0.0542709 0.338 
0.186046 0.0533075 0.332 
0.210977 0.0541103 0.337 
0.237582 0.0557159 0.347 
0.317426 0.0624597 0.389 
1.01936 0.183204 1.141 
1.05645 0.181759 1.132 
1.11229 0.183525 1.143 
-0.640309 0.125278 0.769 
-0.623128 0.128047 0.786 
-0.603838 0.130654 0.802 
-0.583986 0.133423 0.819 
-0.561432 0.135867 0.834 
-0.539582 0.138799 0.852 
-0.516296 0.141732 0.87 
-0.494343 0.145478 0.893 
-0.466961 0.148085 0.909 
-0.441619 0.151832 0.932 
-0.415311 0.155905 0.957 
-0.385434 0.159326 0.978 
-0.34786 0.159977 0.982 
-0.312797 0.162095 0.995 
-0.178681 0.122834 0.754 
-0.151578 0.125278 0.769 
-0.125479 0.130002 0.798 
-0.0964815 0.133912 0.822 
-0.0633225 0.133097 0.817 
-0.0205715 0.118598 0.728 
0.00933629 0.108987 0.669 
0.0371849 0.0995379 0.611 
0.0583388 0.092207 0.566 
0.0788871 0.0856906 0.526 
0.0978191 0.0799887 0.491 
0.12013 0.0713545 0.438 
0.130681 0.0677705 0.416 
0.140894 0.0648381 0.398 
0.152505 0.0612541 0.376 
0.163507 0.0576701 0.354 
0.174069 0.0552264 0.339 
0.184264 0.054249 0.333 
0.199883 0.054249 0.333 
0.220524 0.0557152 0.342 
0.237582 0.0565297 0.347 
0.31843 0.063209 0.388 
1.0327 0.185391 1.138 
1.07522 0.184903 1.135 
1.13035 0.186532 1.145 
-0.632113 0.127246 0.77 
-0.616255 0.130386 0.789 
-0.595175 0.1327 0.803 
-0.575785 0.135674 0.821 
-0.552976 0.138153 0.836 
-0.530213 0.140963 0.853 
-0.50784 0.144268 0.873 
-0.484414 0.147738 0.894 
-0.45831 0.150878 0.913 
-0.432539 0.154679 0.936 
-0.404934 0.15848 0.959 
-0.373584 0.161454 0.977 
-0.337715 0.162941 0.986 
-0.194716 0.122454 0.741 
-0.16874 0.125098 0.757 
-0.141306 0.127577 0.772 
-0.114966 0.1327 0.803 
-0.085225 0.136335 0.825 
-0.047589 0.128734 0.779 
-0.0101008 0.117662 0.712 
0.0196809 0.107085 0.648 
0.0423546 0.0996488 0.603 
0.0634833 0.091386 0.553 
0.0865676 0.083619 0.506 
0.102214 0.0783309 0.474 
0.116832 0.0735385 0.445 
0.127618 0.0697376 0.422 
0.138539 0.0664325 0.402 
0.147645 0.0634579 0.384 
0.15912 0.0596571 0.361 
0.167762 0.0568477 0.344 
0.177256 0.0555257 0.336 
0.187815 0.0546994 0.331 
0.205797 0.0553604 0.335 
0.229881 0.0568477 0.344 
0.309546 0.0637884 0.386 
1.01577 0.189382 1.146 
1.05034 0.187399 1.134 
1.10328 0.188721 1.142 
-0.642471 0.127879 0.763 
-0.621677 0.12989 0.775 
-0.606788 0.13341 0.796 
-0.58589 0.135924 0.811 
-0.565843 0.138941 0.829 
-0.54179 0.141287 0.843 
-0.519635 0.144471 0.862 
-0.49878 0.148494 0.886 
-0.466595 0.149499 0.892 
-0.44553 0.154527 0.922 
-0.421185 0.15922 0.95 
-0.39138 0.162572 0.97 
-0.354527 0.16341 0.975 
-0.317598 0.164416 0.981 
-0.177817 0.124527 0.743 
-0.151586 0.127376 0.76 
-0.125595 0.131901 0.787 
-0.0974514 0.136427 0.814 
-0.0653184 0.137097 0.818 
-0.02234 0.122348 0.73 
0.0196506 0.108437 0.647 
0.0422141 0.100728 0.601 
0.0625238 0.0931857 0.556 
0.0855496 0.0849733 0.507 
0.0999217 0.0802805 0.479 
0.114177 0.0755877 0.451 
0.125417 0.0717329 0.428 
0.136109 0.0680457 0.406 
0.146745 0.0643585 0.384 
0.158299 0.0608389 0.363 
0.165632 0.0583249 0.348 
0.174348 0.0566489 0.338 
0.184489 0.0556433 0.332 
0.198504 0.0556433 0.332 
0.222128 0.0573193 0.342 
0.23921 0.0581573 0.347 
0.316788 0.0646937 0.386 
1.03446 0.190561 1.137 
1.07979 0.190561 1.137 
1.13402 0.19207 1.146 
-0.629802 0.130008 0.765 
-0.615755 0.133577 0.786 
-0.594828 0.135956 0.8 
-0.5756 0.139015 0.818 
-0.552281 0.141395 0.832 
-0.529718 0.144284 0.849 
-0.507551 0.147683 0.869 
-0.48379 0.151081 0.889 
-0.455912 0.153631 0.904 
-0.431947 0.158049 0.93 
-0.40506 0.162128 0.954 
-0.374721 0.165527 0.974 
-0.337959 0.166546 0.98 
-0.190634 0.1244 0.732 
-0.165421 0.127459 0.75 
-0.138953 0.130688 0.769 
-0.112661 0.135956 0.8 
-0.0826845 0.139185 0.819 
-0.0435405 0.131198 0.772 
-0.0118036 0.121341 0.714 
0.0253223 0.108255 0.637 
0.0470557 0.100438 0.591 
0.0658381 0.0936399 0.551 
0.0874074 0.0856525 0.504 
0.104658 0.0798743 0.47 
0.119154 0.0751158 0.442 
0.129658 0.0712071 0.419 
0.141889 0.0667885 0.393 
0.151694 0.0635596 0.374 
0.162304 0.0603306 0.355 
0.171684 0.0576115 0.339 
0.181921 0.0565918 0.333 
0.194025 0.0562519 0.331 
0.215409 0.0576115 0.339 
0.233786 0.0586311 0.345 
0.283121 0.0623699 0.367 
1.01668 0.193398 1.138 
1.05832 0.192718 1.134 
1.11229 0.194248 1.143 
-0.635543 0.130769 0.759 
-0.618042 0.133525 0.775 
-0.601539 0.136799 0.794 
-0.58065 0.139383 0.809 
-0.557887 0.141795 0.823 
-0.534646 0.144379 0.838 
-0.512601 0.147653 0.857 
-0.491833 0.151788 0.881 
-0.460856 0.153166 0.889 
-0.437855 0.157646 0.915 
-0.415413 0.163159 0.947 
-0.385236 0.166433 0.966 
-0.349595 0.167811 0.974 
-0.310125 0.167466 0.972 
-0.175663 0.126461 0.734 
-0.150788 0.130252 0.756 
-0.124478 0.134387 0.78 
-0.0962543 0.138522 0.804 
-0.0651587 0.140589 0.816 
-0.0279652 0.128012 0.743 
0.0107911 0.114056 0.662 
0.0346561 0.106303 0.617 
0.055029 0.0987225 0.573 
0.0781373 0.0897634 0.521 
0.0953256 0.0854561 0.496 
0.112807 0.0782199 0.454 
0.124414 0.0737403 0.428 
0.137596 0.0692608 0.402 
0.147261 0.0659873 0.383 
0.155316 0.0630583 0.366 
0.16597 0.0597848 0.347 
0.174104 0.0578896 0.336 
0.18471 0.0570282 0.331 
0.198504 0.0572005 0.332 
0.218437 0.0585788 0.34 
0.236897 0.0596125 0.346 
0.314246 0.0661596 0.384 
1.01753 0.195205 1.133 
1.06458 0.19555 1.135 
1.11765 0.196928 1.143 
-0.63115 0.132374 0.758 
-0.616786 0.135867 0.778 
-0.597062 0.138486 0.793 
-0.57543 0.140931 0.807 
-0.553354 0.143551 0.822 
-0.530715 0.146345 0.838 
-0.507988 0.149488 0.856 
-0.487701 0.153854 0.881 
-0.456687 0.155251 0.889 
-0.433564 0.159792 0.915 
-0.410972 0.16538 0.947 
-0.379917 0.168349 0.964 
-0.345026 0.170095 0.974 
-0.300536 0.166952 0.956 
-0.171751 0.127833 0.732 
-0.147242 0.132025 0.756 
-0.120665 0.136041 0.779 
-0.0923682 0.140232 0.803 
-0.0606549 0.140931 0.807 
-0.0241178 0.127833 0.732 
0.00775576 0.116657 0.668 
0.0319681 0.108449 0.621 
0.0527981 0.100939 0.578 
0.0770631 0.0911598 0.522 
0.0943522 0.0867939 0.497 
0.116569 0.0775383 0.444 
0.127315 0.0735216 0.421 
0.139377 0.0696796 0.399 
0.148781 0.0663616 0.38 
0.157028 0.0635674 0.364 
0.167115 0.060424 0.346 
0.17568 0.0586776 0.336 
0.1857 0.0576298 0.33 
0.200061 0.0579791 0.332 
0.234595 0.0602493 0.345 
0.311632 0.0668855 0.383 
1.01045 0.199085 1.14 
1.053 0.198037 1.134 
1.10693 0.199609 1.143 
-0.634803 0.133798 0.756 
-0.615861 0.136275 0.77 
-0.598842 0.139461 0.788 
-0.576787 0.141762 0.801 
-0.556416 0.14477 0.818 
-0.53405 0.147602 0.834 
-0.511609 0.150788 0.852 
-0.488293 0.15415 0.871 
-0.461379 0.156805 0.886 
-0.436635 0.160699 0.908 
-0.412783 0.165654 0.936 
-0.383089 0.169017 0.955 
-0.34935 0.171141 0.967 
-0.308226 0.169725 0.959 
-0.175693 0.128665 0.727 
-0.15135 0.132736 0.75 
-0.12485 0.136452 0.771 
-0.0974074 0.141231 0.798 
-0.0667435 0.143708 0.812 
-0.0241178 0.12955 0.732 
0.00463645 0.118577 0.67 
0.0292893 0.11079 0.626 
0.0504337 0.103003 0.582 
0.0694616 0.0971625 0.549 
0.0885893 0.0891984 0.504 
0.103335 0.083004 0.469 
0.126628 0.0746859 0.422 
0.136994 0.0713233 0.403 
0.145844 0.0679607 0.384 
0.154439 0.065129 0.368 
0.164471 0.0617663 0.349 
0.172252 0.0596426 0.337 
0.182381 0.0585807 0.331 
0.195577 0.0585807 0.331 
0.229213 0.0607044 0.343 
0.310733 0.0677837 0.383 
0.342504 0.0704384 0.398 
1.04768 0.200696 1.134 
1.1006 0.202112 1.142 
-0.637505 0.135391 0.755 
-0.614645 0.137005 0.764 
-0.601008 0.14095 0.786 
-0.578369 0.143102 0.798 
-0.559568 0.146509 0.817 
-0.534736 0.148661 0.829 
-0.513184 0.152068 0.848 
-0.490682 0.155655 0.868 
-0.463958 0.158345 0.883 
-0.437495 0.161573 0.901 
-0.414499 0.166773 0.93 
-0.385945 0.170539 0.951 
-0.351324 0.172153 0.96 
-0.313051 0.172153 0.96 
-0.177624 0.129294 0.721 
-0.153629 0.133419 0.744 
-0.127633 0.137364 0.766 
-0.100263 0.141847 0.791 
-0.0704652 0.145433 0.811 
-0.0241178 0.131267 0.732 
0.00773254 0.119431 0.666 
0.0319166 0.111182 0.62 
0.0537789 0.102933 0.574 
0.0740935 0.0945048 0.527 
0.0915868 0.0898424 0.501 
0.10721 0.0828486 0.462 
0.128369 0.0749583 0.418 
0.139027 0.0713718 0.398 
0.14789 0.0681439 0.38 
0.156604 0.065454 0.365 
0.16597 0.0622261 0.347 
0.174892 0.0602536 0.336 
0.184926 0.0591776 0.33 
0.199459 0.0593569 0.331 
0.242465 0.0622261 0.347 
0.315224 0.0686819 0.383 
0.353423 0.0722684 0.403 
1.07006 0.204073 1.138 
1.12229 0.205328 1.145 
-0.624166 0.137343 0.756 
-0.610526 0.141159 0.777 
-0.587008 0.142975 0.787 
-0.566928 0.145882 0.803 
-0.544906 0.148607 0.818 
-0.523567 0.151877 0.836 
-0.499034 0.154602 0.851 
-0.47713 0.158599 0.873 
-0.450432 0.161506 0.889 
-0.424792 0.165321 0.91 
-0.401321 0.170771 0.94 
-0.369264 0.173314 0.954 
-0.336091 0.175858 0.968 
-0.288278 0.170408 0.938 
-0.165918 0.132438 0.729 
-0.141172 0.136617 0.752 
-0.114297 0.140432 0.773 
-0.0865027 0.145519 0.801 
-0.0452922 0.140069 0.771 
-0.0134025 0.128987 0.71 
0.0137702 0.119176 0.656 
0.0381121 0.109548 0.603 
0.0588229 0.101373 0.558 
0.079653 0.0935607 0.515 
0.0954863 0.0881105 0.485 
0.108193 0.0830237 0.457 
0.128421 0.0753936 0.415 
0.139027 0.0723051 0.398 
0.148389 0.0688534 0.379 
0.157028 0.0661283 0.364 
0.164 0.0632216 0.348 
0.172252 0.0612232 0.337 
0.182381 0.0601332 0.331 
0.20613 0.0604965 0.333 
0.244796 0.0632216 0.348 
0.32487 0.0703068 0.387 
1.02991 0.205652 1.132 
1.08168 0.206924 1.139 
1.13402 0.208195 1.146 
-0.613528 0.139116 0.756 
-0.60268 0.143717 0.781 
-0.576666 0.145005 0.788 
-0.558397 0.148501 0.807 
-0.534048 0.150709 0.819 
-0.513028 0.154206 0.838 
-0.489348 0.157334 0.855 
-0.465911 0.161014 0.875 
-0.438908 0.163959 0.891 
-0.414251 0.168375 0.915 
-0.388094 0.172975 0.94 
-0.355094 0.175184 0.952 
-0.318805 0.176104 0.957 
-0.181177 0.131572 0.715 
-0.156728 0.135068 0.734 
-0.131286 0.139116 0.756 
-0.104624 0.143901 0.782 
-0.0754196 0.147765 0.803 
-0.0412976 0.140589 0.764 
-0.00997309 0.129364 0.703 
0.0166929 0.119611 0.65 
0.040533 0.109858 0.597 
0.0632537 0.101393 0.551 
0.0836638 0.0938484 0.51 
0.0988787 0.0872238 0.474 
0.112366 0.0824393 0.448 
0.130391 0.0758148 0.412 
0.140046 0.0723184 0.393 
0.148978 0.0691902 0.376 
0.157427 0.0664299 0.361 
0.166632 0.0634857 0.345 
0.175157 0.0616455 0.335 
0.185137 0.0605414 0.329 
0.209882 0.0614615 0.334 
0.249486 0.0644057 0.35 
0.337143 0.0726865 0.395 
1.04318 0.208307 1.132 
1.09696 0.209963 1.141 
-0.624657 0.139026 0.746 
-0.60608 0.141635 0.76 
-0.59169 0.145548 0.781 
-0.568449 0.147598 0.792 
-0.551108 0.151512 0.813 
-0.524438 0.153189 0.822 
-0.501835 0.156357 0.839 
-0.478993 0.159898 0.858 
-0.454635 0.163439 0.877 
-0.428285 0.166794 0.895 
-0.406202 0.172571 0.926 
-0.376861 0.176112 0.945 
-0.342416 0.177789 0.954 
-0.299277 0.174807 0.938 
-0.168232 0.133621 0.717 
-0.14471 0.138467 0.743 
-0.117876 0.141821 0.761 
-0.0906428 0.146853 0.788 
-0.0599784 0.148717 0.798 
-0.0259404 0.136976 0.735 
0.00306976 0.125049 0.671 
0.0277768 0.116476 0.625 
0.0545488 0.105853 0.568 
0.0763249 0.0963489 0.517 
0.0935617 0.0929944 0.499 
0.107122 0.0851672 0.457 
0.119856 0.08144 0.437 
0.133581 0.0758492 0.407 
0.144261 0.0721219 0.387 
0.15488 0.0683947 0.367 
0.163653 0.0650402 0.349 
0.171461 0.0628038 0.337 
0.181605 0.0616857 0.331 
0.198682 0.0616857 0.331 
0.244796 0.0648538 0.348 
0.32055 0.0715628 0.384 
0.354368 0.0751037 0.403 
1.08436 0.212266 1.139 
1.13671 0.21357 1.146 
-0.609327 0.142096 0.753 
-0.595463 0.146059 0.774 
-0.572629 0.148135 0.785 
-0.553746 0.151532 0.803 
-0.530828 0.154173 0.817 
-0.508623 0.157381 0.834 
-0.485633 0.160778 0.852 
-0.461738 0.164364 0.871 
-0.436328 0.167949 0.89 
-0.410304 0.171912 0.911 
-0.383426 0.176252 0.934 
-0.351379 0.178894 0.948 
-0.314245 0.179271 0.95 
-0.175161 0.13417 0.711 
-0.151151 0.138133 0.732 
-0.1258 0.142474 0.755 
-0.0987419 0.147003 0.779 
-0.0695963 0.151154 0.801 
-0.0314501 0.140209 0.743 
-7.82688e-05 0.127943 0.678 
0.0277323 0.117753 0.624 
0.0533104 0.107374 0.569 
0.0773874 0.0973727 0.516 
0.0970633 0.0898244 0.476 
0.11019 0.0852954 0.452 
0.121402 0.0807665 0.428 
0.136049 0.0760488 0.403 
0.144944 0.0724634 0.384 
0.155746 0.0685005 0.363 
0.165492 0.0652925 0.346 
0.173586 0.0632168 0.335 
0.183594 0.0620845 0.329 
0.210035 0.0628393 0.333 
0.254314 0.0662361 0.351 
0.346172 0.075294 0.399 
1.07273 0.214748 1.138 
1.12301 0.215692 1.143 
-0.612298 0.142907 0.748 
-0.599609 0.14711 0.77 
-0.574082 0.148447 0.777 
-0.556386 0.152077 0.796 
-0.535196 0.155134 0.812 
-0.513351 0.158382 0.829 
-0.48957 0.161439 0.845 
-0.467211 0.165451 0.866 
-0.442678 0.169272 0.886 
-0.415631 0.172711 0.904 
-0.390508 0.177678 0.93 
-0.357991 0.179971 0.942 
-0.323837 0.181881 0.952 
-0.18004 0.134501 0.704 
-0.156723 0.138704 0.726 
-0.131122 0.142334 0.745 
-0.104824 0.14711 0.77 
-0.0766289 0.152077 0.796 
-0.0431457 0.146155 0.765 
-0.00990216 0.133354 0.698 
0.0195594 0.123037 0.644 
0.0543567 0.108135 0.566 
0.0761773 0.0985828 0.516 
0.0979734 0.0907497 0.475 
0.113957 0.0852091 0.446 
0.126028 0.0802418 0.42 
0.136654 0.0768029 0.402 
0.14598 0.0729818 0.382 
0.155321 0.0695429 0.364 
0.164342 0.066295 0.347 
0.172528 0.0641934 0.336 
0.182604 0.0630471 0.33 
0.205511 0.0634292 0.332 
0.331046 0.0745102 0.39 
1.04042 0.215698 1.129 
1.096 0.217799 1.14 
-0.623946 0.143307 0.741 
-0.602425 0.145241 0.751 
-0.586968 0.148916 0.77 
-0.566384 0.151623 0.784 
-0.546731 0.154911 0.801 
-0.524437 0.157812 0.816 
-0.50155 0.160906 0.832 
-0.479076 0.164581 0.851 
-0.455087 0.168255 0.87 
-0.429583 0.17193 0.889 
-0.403008 0.175798 0.909 
-0.375645 0.180053 0.931 
-0.343618 0.18276 0.945 
-0.302382 0.180633 0.934 
-0.170618 0.136538 0.706 
-0.147314 0.14118 0.73 
-0.121611 0.145241 0.751 
-0.0945999 0.149883 0.775 
-0.065264 0.153557 0.794 
-0.0314078 0.143501 0.742 
0.00150061 0.130156 0.673 
0.0289618 0.119713 0.619 
0.0543567 0.109463 0.566 
0.0761773 0.0997929 0.516 
0.0979734 0.0918636 0.475 
0.115528 0.0858683 0.444 
0.130074 0.0794862 0.411 
0.141357 0.0752315 0.389 
0.150414 0.0721371 0.373 
0.158195 0.0690428 0.357 
0.166149 0.0665286 0.344 
0.174635 0.0645946 0.334 
0.184574 0.0634342 0.328 
0.207692 0.0644012 0.333 
0.356258 0.077939 0.403 
1.09504 0.220279 1.139 
-0.622306 0.144262 0.737 
-0.600969 0.146219 0.747 
-0.587245 0.15033 0.768 
-0.566048 0.152875 0.781 
-0.546555 0.156202 0.798 
-0.524416 0.159138 0.813 
-0.501686 0.16227 0.829 
-0.479376 0.165989 0.848 
-0.455551 0.169709 0.867 
-0.431183 0.173819 0.888 
-0.403802 0.177342 0.906 
-0.377016 0.181845 0.929 
-0.343273 0.183606 0.938 
-0.304572 0.182823 0.934 
-0.168723 0.137998 0.705 
-0.145403 0.142696 0.729 
-0.119531 0.146611 0.749 
-0.092543 0.151309 0.773 
-0.0630027 0.154441 0.789 
-0.0295477 0.144654 0.739 
0.00616139 0.130169 0.665 
0.0342067 0.119207 0.609 
0.0575143 0.109224 0.558 
0.079189 0.10022 0.512 
0.10605 0.0894542 0.457 
0.122833 0.0833862 0.426 
0.133253 0.0794713 0.406 
0.146612 0.0741863 0.379 
0.154894 0.0710544 0.363 
0.162834 0.068314 0.349 
0.171177 0.0661609 0.338 
0.180282 0.0645949 0.33 
0.197482 0.0643992 0.329 
0.213159 0.0651822 0.333 
1.09237 0.22295 1.139 
-0.620617 0.145594 0.735 
-0.600164 0.147773 0.746 
-0.583421 0.151141 0.763 
-0.563149 0.153914 0.777 
-0.54313 0.157083 0.793 
-0.522481 0.160451 0.81 
-0.499265 0.163422 0.825 
-0.477115 0.167186 0.844 
-0.45345 0.170949 0.863 
-0.430212 0.175505 0.886 
-0.40202 0.178675 0.902 
-0.375799 0.183429 0.926 
-0.342541 0.18541 0.936 
-0.30392 0.184617 0.932 
-0.168483 0.139454 0.704 
-0.145004 0.14401 0.727 
-0.119052 0.147773 0.746 
-0.0923035 0.152725 0.771 
-0.0627631 0.155697 0.786 
-0.0295077 0.146189 0.738 
0.00615212 0.13153 0.664 
0.0328323 0.120833 0.61 
0.0566086 0.111325 0.562 
0.0761773 0.102213 0.516 
0.0979734 0.0940915 0.475 
0.115268 0.0877527 0.443 
0.131039 0.0808197 0.408 
0.144566 0.0758675 0.383 
0.153158 0.0726981 0.367 
0.162368 0.0689344 0.348 
0.170671 0.0667555 0.337 
0.180282 0.0653688 0.33 
0.198253 0.0651708 0.329 
0.21394 0.0659631 0.333 
1.08874 0.225423 1.138 
-0.622367 0.146917 0.733 
-0.601235 0.148921 0.743 
-0.583923 0.152128 0.759 
-0.562417 0.154534 0.771 
-0.542022 0.15754 0.786 
-0.523031 0.161348 0.805 
-0.500085 0.164355 0.82 
-0.477654 0.167963 0.838 
-0.453786 0.17157 0.856 
-0.432896 0.176982 0.883 
-0.402647 0.179187 0.894 
-0.377268 0.184198 0.919 
-0.345448 0.186803 0.932 
-0.308291 0.186803 0.932 
-0.172205 0.140102 0.699 
-0.148054 0.14371 0.717 
-0.123634 0.148721 0.742 
-0.0970941 0.153531 0.766 
-0.0681193 0.157139 0.784 
-0.034935 0.148921 0.743 
0.00306061 0.134089 0.669 
0.028915 0.123867 0.618 
0.0517933 0.113645 0.567 
0.07092 0.10643 0.531 
0.0885893 0.101018 0.504 
0.102454 0.0932012 0.465 
0.116044 0.0885912 0.442 
0.133253 0.0813756 0.406 
0.144566 0.0767657 0.383 
0.152741 0.0733583 0.366 
0.161659 0.0701514 0.35 
0.170094 0.0679467 0.339 
0.179276 0.0663432 0.331 
0.194574 0.0657419 0.328 
0.214721 0.0667441 0.333 
1.08874 0.228092 1.138 
-0.618084 0.148433 0.732 
-0.597751 0.150664 0.743 
-0.578834 0.153503 0.757 
-0.5588 0.156342 0.771 
-0.538336 0.159383 0.786 
-0.5199 0.163439 0.806 
-0.496239 0.166278 0.82 
-0.473723 0.169928 0.838 
-0.449246 0.173375 0.855 
-0.427784 0.178647 0.881 
-0.398008 0.181081 0.893 
-0.372146 0.185947 0.917 
-0.341077 0.188989 0.932 
-0.303268 0.188583 0.93 
-0.167526 0.141944 0.7 
-0.143009 0.145392 0.717 
-0.118414 0.150461 0.742 
-0.0917049 0.155328 0.766 
-0.0624437 0.158572 0.782 
-0.0275512 0.148433 0.732 
0.00765127 0.133631 0.659 
0.0314533 0.123897 0.611 
0.0598082 0.112542 0.555 
0.0855496 0.102808 0.507 
0.102017 0.0949 0.468 
0.114229 0.0898305 0.443 
0.130082 0.0827333 0.408 
0.140084 0.0786778 0.388 
0.149204 0.0750278 0.37 
0.158195 0.0723917 0.357 
0.165666 0.0695528 0.343 
0.174635 0.0677278 0.334 
0.189189 0.0665111 0.328 
0.209254 0.067525 0.333 
0.361973 0.0815167 0.402 
1.11178 0.230558 1.137 
-0.601657 0.150765 0.735 
-0.585592 0.154252 0.752 
-0.562261 0.156099 0.761 
-0.543804 0.159586 0.778 
-0.527287 0.164098 0.8 
-0.50592 0.167585 0.817 
-0.482038 0.170662 0.832 
-0.45804 0.174149 0.849 
-0.434684 0.178457 0.87 
-0.406896 0.181534 0.885 
-0.38127 0.186252 0.908 
-0.352671 0.190354 0.928 
-0.316354 0.190764 0.93 
-0.175349 0.141945 0.692 
-0.150749 0.144817 0.706 
-0.127118 0.15015 0.732 
-0.101279 0.155278 0.757 
-0.072602 0.15856 0.773 
-0.0387302 0.153637 0.749 
-0.0048698 0.139689 0.681 
0.0207098 0.129843 0.633 
0.0494805 0.117125 0.571 
0.0740429 0.106254 0.518 
0.0905399 0.100305 0.489 
0.104185 0.0949719 0.463 
0.116551 0.0902541 0.44 
0.136816 0.0814338 0.397 
0.14779 0.0765109 0.373 
0.156555 0.0736391 0.359 
0.164204 0.0707674 0.345 
0.172801 0.0687162 0.335 
0.186113 0.0672803 0.328 
0.199796 0.0674855 0.329 
0.221383 0.0689213 0.336 
1.09141 0.23343 1.138 
-0.616395 0.151452 0.73 
-0.589038 0.154149 0.743 
-0.569204 0.156846 0.756 
-0.550473 0.160165 0.772 
-0.530466 0.163485 0.788 
-0.512349 0.167842 0.809 
-0.486624 0.170124 0.82 
-0.46445 0.174066 0.839 
-0.439734 0.177593 0.856 
-0.414136 0.181327 0.874 
-0.387103 0.185062 0.892 
-0.361788 0.190456 0.918 
-0.32944 0.192945 0.93 
-0.20553 0.150207 0.724 
-0.161904 0.144605 0.697 
-0.137965 0.148755 0.717 
-0.112888 0.153526 0.74 
-0.0859777 0.158298 0.763 
-0.0562138 0.160165 0.772 
-0.0238872 0.150414 0.725 
0.00611506 0.136929 0.66 
0.0300695 0.12697 0.612 
0.0670576 0.109958 0.53 
0.0855496 0.105186 0.507 
0.101799 0.0968876 0.467 
0.113971 0.0917009 0.442 
0.135885 0.0823648 0.397 
0.149204 0.0767632 0.37 
0.158586 0.0738586 0.356 
0.165985 0.0709541 0.342 
0.174893 0.0690869 0.333 
0.18842 0.0680495 0.328 
0.208626 0.0688794 0.332 
0.332257 0.0796678 0.384 
1.10209 0.236099 1.138 
-0.6027 0.153164 0.73 
-0.583811 0.155891 0.743 
-0.563885 0.158619 0.756 
-0.545041 0.161976 0.772 
-0.52692 0.165962 0.791 
-0.507284 0.169949 0.81 
-0.480855 0.172047 0.82 
-0.459641 0.176453 0.841 
-0.435738 0.180439 0.86 
-0.40752 0.183167 0.873 
-0.380828 0.187153 0.892 
-0.355716 0.192818 0.919 
-0.321855 0.194497 0.927 
-0.197091 0.150646 0.718 
-0.15981 0.14582 0.695 
-0.136283 0.150436 0.717 
-0.110702 0.154632 0.737 
-0.0838573 0.159458 0.76 
-0.0542624 0.161556 0.77 
-0.0219421 0.150436 0.717 
0.00763966 0.138057 0.658 
0.0313503 0.127776 0.609 
0.0690187 0.110362 0.526 
0.0870605 0.105326 0.502 
0.103322 0.0973534 0.464 
0.116021 0.0918982 0.438 
0.142918 0.0799389 0.381 
0.153619 0.0759524 0.362 
0.161552 0.073015 0.348 
0.170385 0.0709169 0.338 
0.179508 0.0692384 0.33 
0.191497 0.0688188 0.328 
0.207847 0.069658 0.332 
0.327799 0.0803585 0.383 
1.10209 0.238768 1.138 
-0.601874 0.154664 0.729 
-0.583025 0.157422 0.742 
-0.56314 0.16018 0.755 
-0.543629 0.163362 0.77 
-0.524922 0.167181 0.788 
-0.505405 0.171212 0.807 
-0.479682 0.173546 0.818 
-0.458548 0.178001 0.839 
-0.433712 0.181608 0.856 
-0.406587 0.18479 0.871 
-0.379547 0.188609 0.889 
-0.354555 0.194337 0.916 
-0.320814 0.196034 0.924 
-0.198775 0.15233 0.718 
-0.157952 0.147238 0.694 
-0.134414 0.151905 0.716 
-0.108382 0.155512 0.733 
-0.081751 0.160604 0.757 
-0.0521841 0.162513 0.766 
-0.0201759 0.151481 0.714 
0.00762805 0.139388 0.657 
0.0312988 0.128992 0.608 
0.0552906 0.119233 0.562 
0.0749672 0.109474 0.516 
0.0907492 0.102685 0.484 
0.104816 0.097805 0.461 
0.118287 0.0922889 0.435 
0.134098 0.0848634 0.4 
0.150576 0.0778622 0.367 
0.161901 0.073619 0.347 
0.170952 0.0712852 0.336 
0.181056 0.0700123 0.33 
0.193035 0.069588 0.328 
0.208626 0.0704366 0.332 
0.238755 0.0729825 0.344 
0.337609 0.0818932 0.386 
1.09408 0.241436 1.138 
-0.601928 0.155944 0.727 
-0.581613 0.158304 0.738 
-0.562665 0.161307 0.752 
-0.544727 0.164953 0.769 
-0.525433 0.1686 0.786 
-0.504783 0.172246 0.803 
-0.481012 0.175249 0.817 
-0.459417 0.17954 0.837 
-0.434192 0.182972 0.853 
-0.407691 0.186404 0.869 
-0.380344 0.19005 0.886 
-0.355535 0.195842 0.913 
-0.321582 0.197343 0.92 
-0.200459 0.154014 0.718 
-0.160511 0.148222 0.691 
-0.136233 0.151869 0.708 
-0.11121 0.156373 0.729 
-0.0851889 0.162165 0.756 
-0.0557769 0.16431 0.766 
-0.0236566 0.154014 0.718 
0.00456725 0.141572 0.66 
0.0286343 0.131276 0.612 
0.0509086 0.122696 0.572 
0.0690187 0.112829 0.526 
0.0860543 0.107895 0.503 
0.100035 0.100602 0.469 
0.116021 0.0939526 0.438 
0.129763 0.087303 0.407 
0.14407 0.0808679 0.377 
0.153194 0.0774358 0.361 
0.164535 0.0737892 0.344 
0.173851 0.0716442 0.334 
0.184365 0.0705717 0.329 
0.196882 0.0703572 0.328 
0.213799 0.0716442 0.334 
0.241876 0.0740038 0.345 
0.335831 0.0825839 0.385 
0.374111 0.087303 0.407 
-0.601174 0.156565 0.722 
-0.582696 0.159384 0.735 
-0.561675 0.161769 0.746 
-0.544055 0.165456 0.763 
-0.525753 0.169359 0.781 
-0.506649 0.173479 0.8 
-0.481283 0.175864 0.811 
-0.461682 0.180852 0.834 
-0.435625 0.183888 0.848 
-0.409398 0.187357 0.864 
-0.381896 0.190827 0.88 
-0.358241 0.197116 0.909 
-0.324481 0.198634 0.916 
-0.202143 0.155697 0.718 
-0.161662 0.149409 0.689 
-0.137114 0.152662 0.704 
-0.1123 0.157215 0.725 
-0.0866167 0.163287 0.753 
-0.0573478 0.165456 0.763 
-0.0218809 0.155047 0.715 
0.00609653 0.142687 0.658 
0.0312474 0.131627 0.607 
0.051976 0.123387 0.569 
0.0726876 0.112111 0.517 
0.0897993 0.105172 0.485 
0.10396 0.100184 0.462 
0.122256 0.0919439 0.424 
0.135294 0.0863058 0.398 
0.145451 0.0815351 0.376 
0.154458 0.0780656 0.36 
0.165985 0.0741623 0.342 
0.174893 0.0722106 0.333 
0.185908 0.0713433 0.329 
0.199025 0.0713433 0.329 
0.21601 0.0726443 0.335 
0.238755 0.074596 0.344 
0.331392 0.0830531 0.383 
0.368511 0.0876069 0.404 
1.09876 0.241353 1.113 
-0.58558 0.160012 0.73 
-0.565624 0.162642 0.742 
-0.548323 0.166368 0.759 
-0.526254 0.168999 0.771 
-0.510298 0.17404 0.794 
-0.484068 0.176013 0.803 
-0.465565 0.181273 0.827 
-0.439395 0.184123 0.84 
-0.414604 0.188068 0.858 
-0.387047 0.191356 0.873 
-0.36354 0.197494 0.901 
-0.33271 0.200562 0.915 
-0.209169 0.1576 0.719 
-0.164818 0.14949 0.682 
-0.140655 0.152778 0.697 
-0.116429 0.1576 0.719 
-0.09106 0.163519 0.746 
-0.0623871 0.166368 0.759 
-0.0235907 0.156943 0.716 
0.00456033 0.144449 0.659 
0.0311444 0.132612 0.605 
0.0520674 0.124941 0.57 
0.0708063 0.1142 0.521 
0.0884268 0.107405 0.49 
0.106887 0.0999525 0.456 
0.123763 0.0918423 0.419 
0.133762 0.0874584 0.399 
0.143688 0.0824169 0.376 
0.153194 0.079129 0.361 
0.162246 0.0758411 0.346 
0.170952 0.0736492 0.336 
0.181056 0.072334 0.33 
0.193035 0.0718956 0.328 
0.208626 0.0727724 0.332 
0.236335 0.0754027 0.344 
0.268868 0.0778139 0.355 
0.349292 0.085924 0.392 
1.10645 0.249224 1.137 
-0.594289 0.160837 0.726 
-0.571575 0.16261 0.734 
-0.554134 0.166154 0.75 
-0.534018 0.169256 0.764 
-0.5174 0.173908 0.785 
-0.494154 0.176788 0.798 
-0.47103 0.180111 0.813 
-0.449947 0.184764 0.834 
-0.424692 0.188308 0.85 
-0.397241 0.19141 0.864 
-0.369093 0.194733 0.879 
-0.34621 0.201822 0.911 
-0.309891 0.201822 0.911 
-0.188563 0.156185 0.705 
-0.153583 0.15264 0.689 
-0.129592 0.15685 0.708 
-0.103656 0.160394 0.724 
-0.0775806 0.166376 0.751 
-0.0479569 0.167484 0.756 
-0.0114399 0.153305 0.692 
0.0148652 0.14112 0.637 
0.0388708 0.131373 0.593 
0.0610619 0.120296 0.543 
0.0778359 0.113206 0.511 
0.0980443 0.104123 0.47 
0.111363 0.0983634 0.444 
0.124828 0.0921603 0.416 
0.135294 0.0881726 0.398 
0.146432 0.0828556 0.374 
0.154846 0.0790895 0.357 
0.163395 0.076431 0.345 
0.172528 0.0744371 0.336 
0.182604 0.0731079 0.33 
0.195167 0.0728864 0.329 
0.215225 0.0742156 0.335 
0.236335 0.0762095 0.344 
0.257607 0.0777602 0.351 
0.30029 0.0815264 0.368 
0.363894 0.0888372 0.401 
-0.595304 0.160973 0.719 
-0.575308 0.163436 0.73 
-0.555183 0.166122 0.742 
-0.536935 0.169704 0.758 
-0.518079 0.17351 0.775 
-0.497868 0.177316 0.792 
-0.473358 0.180003 0.804 
-0.455026 0.1856 0.829 
-0.426557 0.187615 0.838 
-0.401123 0.191421 0.855 
-0.374334 0.195227 0.872 
-0.353198 0.203063 0.907 
-0.317737 0.203511 0.909 
-0.196268 0.160077 0.715 
-0.155449 0.152913 0.683 
-0.131974 0.157391 0.703 
-0.106017 0.160525 0.717 
-0.080563 0.167018 0.746 
-0.0515028 0.169257 0.756 
-0.0199498 0.158062 0.706 
0.0119893 0.143958 0.643 
0.0363937 0.133883 0.598 
0.0622205 0.121345 0.542 
0.0811123 0.113957 0.509 
0.100273 0.104106 0.465 
0.112935 0.0989569 0.442 
0.12415 0.0933598 0.417 
0.135294 0.089106 0.398 
0.148336 0.0828372 0.37 
0.15725 0.0790312 0.353 
0.165985 0.0765684 0.342 
0.174893 0.0745535 0.333 
0.185908 0.0736579 0.329 
0.19963 0.0738818 0.33 
0.221908 0.0756729 0.338 
0.240258 0.0772401 0.345 
0.259167 0.0788073 0.352 
0.293508 0.0819417 0.366 
0.32434 0.085076 0.38 
0.369459 0.0904493 0.404 
-0.58667 0.164016 0.725 
-0.563151 0.1656 0.732 
-0.546368 0.169446 0.749 
-0.526162 0.172613 0.763 
-0.509387 0.177364 0.784 
-0.483619 0.1794 0.793 
-0.464544 0.184377 0.815 
-0.441063 0.188223 0.832 
-0.416228 0.192069 0.849 
-0.387334 0.194557 0.86 
-0.360848 0.198856 0.879 
-0.336553 0.205416 0.908 
-0.297706 0.203607 0.9 
-0.16688 0.1518 0.671 
-0.144097 0.156098 0.69 
-0.11946 0.159944 0.707 
-0.0939847 0.164695 0.728 
-0.066924 0.169672 0.75 
-0.0363813 0.166731 0.737 
-0.00646686 0.154062 0.681 
0.0363937 0.135285 0.598 
0.0653028 0.121259 0.536 
0.0886619 0.109721 0.485 
0.103285 0.103839 0.459 
0.115712 0.0979574 0.433 
0.126526 0.0932065 0.412 
0.136706 0.0891344 0.394 
0.149308 0.0828 0.366 
0.15763 0.0796328 0.352 
0.167406 0.076918 0.34 
0.177235 0.0753344 0.333 
0.188223 0.0744295 0.329 
0.201952 0.0746557 0.33 
0.228005 0.076918 0.34 
0.249693 0.0787279 0.348 
0.269626 0.0805377 0.356 
0.308788 0.0841574 0.372 
0.342088 0.087777 0.388 
0.385499 0.0929803 0.411 
-0.579965 0.165259 0.723 
-0.557239 0.167088 0.731 
-0.540376 0.170974 0.748 
-0.520794 0.174402 0.763 
-0.503228 0.178974 0.783 
-0.47804 0.18126 0.793 
-0.459936 0.186745 0.817 
-0.434687 0.189946 0.831 
-0.409771 0.193831 0.848 
-0.38217 0.197031 0.862 
-0.357084 0.202289 0.885 
-0.329437 0.207089 0.906 
-0.206617 0.163659 0.716 
-0.161918 0.153145 0.67 
-0.139242 0.157717 0.69 
-0.112828 0.161602 0.707 
-0.087395 0.166859 0.73 
-0.0598885 0.171431 0.75 
-0.028868 0.165031 0.722 
0.0147952 0.144916 0.634 
0.0434594 0.132573 0.58 
0.0703985 0.118402 0.518 
0.090935 0.109487 0.479 
0.104748 0.10423 0.456 
0.116656 0.0980585 0.429 
0.127835 0.0937156 0.41 
0.138457 0.0882298 0.386 
0.152348 0.0825155 0.361 
0.161901 0.0793154 0.347 
0.170671 0.0770297 0.337 
0.181605 0.0756582 0.331 
0.194986 0.0754296 0.33 
0.219671 0.0770297 0.337 
0.240258 0.0788583 0.345 
0.261559 0.0806869 0.353 
0.291791 0.0836583 0.366 
0.319127 0.0861726 0.377 
0.352049 0.0896013 0.392 
-0.597862 0.164877 0.714 
-0.575776 0.166724 0.722 
-0.55381 0.168802 0.731 
-0.535433 0.172266 0.746 
-0.517215 0.176192 0.763 
-0.49828 0.180348 0.781 
-0.474321 0.183119 0.793 
-0.454987 0.1882 0.815 
-0.429234 0.191202 0.828 
-0.404837 0.195358 0.846 
-0.378127 0.199053 0.862 
-0.35413 0.205057 0.888 
-0.323393 0.208059 0.901 
-0.201017 0.164877 0.714 
-0.154751 0.155409 0.673 
-0.131531 0.159797 0.692 
-0.106647 0.163953 0.71 
-0.0807678 0.169033 0.732 
-0.0527825 0.172959 0.749 
-0.0216667 0.163491 0.708 
0.0190431 0.144787 0.627 
0.0504636 0.130932 0.567 
0.0713369 0.119155 0.516 
0.0899992 0.110842 0.48 
0.103906 0.10553 0.457 
0.120268 0.09791 0.424 
0.130701 0.0932916 0.404 
0.141131 0.0879805 0.381 
0.154412 0.0822075 0.356 
0.164535 0.0794364 0.344 
0.173586 0.0773581 0.335 
0.187247 0.0762035 0.33 
0.200404 0.0762035 0.33 
0.227076 0.0787437 0.341 
0.25041 0.080591 0.349 
0.269626 0.0822075 0.356 
0.297701 0.0849785 0.368 
0.325232 0.0877495 0.38 
0.378884 0.0939844 0.407 
-0.591178 0.166085 0.712 
-0.570697 0.168417 0.722 
-0.549418 0.17075 0.732 
-0.531606 0.174482 0.748 
-0.511847 0.177981 0.763 
-0.492785 0.18218 0.781 
-0.469924 0.185446 0.795 
-0.449253 0.190111 0.815 
-0.423409 0.193143 0.828 
-0.397942 0.196876 0.844 
-0.372494 0.201308 0.863 
-0.348274 0.207373 0.889 
-0.314943 0.208772 0.895 
-0.1724 0.155821 0.668 
-0.148387 0.15862 0.68 
-0.123774 0.161886 0.694 
-0.0985982 0.166085 0.712 
-0.0724803 0.17145 0.735 
-0.0436473 0.173316 0.743 
-0.0048412 0.15792 0.677 
0.0364546 0.139726 0.599 
0.0641652 0.125263 0.537 
0.0825154 0.117332 0.503 
0.0983027 0.108701 0.466 
0.114697 0.101004 0.433 
0.126169 0.0965717 0.414 
0.135093 0.0914399 0.392 
0.14604 0.0870079 0.373 
0.156035 0.0825758 0.354 
0.165499 0.0795434 0.341 
0.175418 0.0779105 0.334 
0.188795 0.0769775 0.33 
0.202564 0.0772107 0.331 
0.230149 0.0797766 0.342 
0.251948 0.0816428 0.35 
0.27122 0.0832756 0.357 
0.302789 0.086308 0.37 
0.326981 0.088874 0.381 
0.351151 0.0912066 0.391 
0.402829 0.097738 0.419 
-0.582745 0.168697 0.716 
-0.56194 0.171053 0.726 
-0.539603 0.173173 0.735 
-0.524186 0.177886 0.755 
-0.503902 0.18142 0.77 
-0.482422 0.184954 0.785 
-0.460321 0.188724 0.801 
-0.437478 0.192729 0.818 
-0.412786 0.196499 0.834 
-0.385907 0.199797 0.848 
-0.360403 0.20451 0.868 
-0.335557 0.210635 0.894 
-0.297902 0.209222 0.888 
-0.161293 0.155738 0.661 
-0.139431 0.160922 0.683 
-0.114337 0.163985 0.696 
-0.0889528 0.168461 0.715 
-0.0624763 0.174116 0.739 
-0.0323884 0.170817 0.725 
0.0175727 0.147728 0.627 
0.0478885 0.133827 0.568 
0.068625 0.123224 0.523 
0.0881134 0.113564 0.482 
0.101986 0.107909 0.458 
0.118115 0.100606 0.427 
0.134858 0.0928304 0.394 
0.143688 0.0885894 0.376 
0.155594 0.0831704 0.353 
0.166299 0.0803431 0.341 
0.175674 0.0784582 0.333 
0.187247 0.0777514 0.33 
0.201011 0.077987 0.331 
0.225477 0.0803431 0.341 
0.243279 0.0817567 0.347 
0.262299 0.083406 0.354 
0.283508 0.0852909 0.362 
0.305348 0.0874114 0.371 
0.333188 0.0902387 0.383 
0.376048 0.0956577 0.406 
0.568114 0.13689 0.581 
-0.576029 0.170376 0.716 
-0.555894 0.172994 0.727 
-0.533433 0.175135 0.736 
-0.517789 0.179894 0.756 
-0.497324 0.183464 0.771 
-0.475058 0.186795 0.785 
-0.452807 0.190602 0.801 
-0.42928 0.19441 0.817 
-0.404962 0.198455 0.834 
-0.378398 0.202024 0.849 
-0.353072 0.207021 0.87 
-0.326072 0.212018 0.891 
-0.287615 0.209877 0.882 
-0.149125 0.159192 0.669 
-0.126297 0.164189 0.69 
-0.100936 0.167759 0.705 
-0.074998 0.172756 0.726 
-0.0470688 0.176563 0.742 
-0.0163792 0.165379 0.695 
0.0175727 0.149198 0.627 
0.045304 0.135397 0.569 
0.0661872 0.12683 0.533 
0.0849794 0.116598 0.49 
0.101132 0.109222 0.459 
0.114697 0.103035 0.433 
0.137551 0.0918508 0.386 
0.14707 0.0878055 0.369 
0.157182 0.0835223 0.351 
0.166914 0.0806669 0.339 
0.177235 0.0792391 0.333 
0.188795 0.0785253 0.33 
0.203176 0.0790012 0.332 
0.228408 0.0816187 0.343 
0.244906 0.0825705 0.347 
0.26396 0.0842362 0.354 
0.285143 0.0863778 0.363 
0.309618 0.0887573 0.373 
0.343882 0.0925646 0.389 
0.394117 0.0987515 0.415 
-0.582876 0.170133 0.708 
-0.562483 0.172536 0.718 
-0.542781 0.175419 0.73 
-0.523528 0.178784 0.744 
-0.503824 0.182388 0.759 
-0.484171 0.186473 0.776 
-0.46141 0.189837 0.79 
-0.439166 0.193923 0.807 
-0.41607 0.198248 0.825 
-0.388288 0.200891 0.836 
-0.3643 0.206178 0.858 
-0.34048 0.212666 0.885 
-0.305887 0.213147 0.887 
-0.16315 0.157637 0.656 
-0.141591 0.162924 0.678 
-0.116757 0.166048 0.691 
-0.0911445 0.169652 0.706 
-0.0650501 0.175179 0.729 
-0.0359864 0.175179 0.729 
-0.00641938 0.162443 0.676 
0.0230803 0.148265 0.617 
0.0609494 0.130243 0.542 
0.0775313 0.122313 0.509 
0.0956359 0.112701 0.469 
0.109035 0.106453 0.443 
0.135665 0.0939575 0.391 
0.145649 0.0893918 0.372 
0.155594 0.0848261 0.353 
0.164381 0.0821828 0.342 
0.174372 0.0805007 0.335 
0.185486 0.0795395 0.331 
0.198682 0.0795395 0.331 
0.224677 0.0819425 0.341 
0.242465 0.0833843 0.347 
0.261469 0.0850664 0.354 
0.282659 0.0869888 0.362 
0.304478 0.0891515 0.371 
0.334959 0.0922754 0.384 
0.394117 0.0997247 0.415 
-0.580394 0.17155 0.707 
-0.560018 0.173977 0.717 
-0.541069 0.177131 0.73 
-0.521783 0.180528 0.744 
-0.501382 0.183925 0.758 
-0.481729 0.18805 0.775 
-0.458394 0.191205 0.788 
-0.436731 0.195572 0.806 
-0.413131 0.199697 0.823 
-0.385865 0.202609 0.835 
-0.361865 0.207947 0.857 
-0.33764 0.214256 0.883 
-0.302094 0.214014 0.882 
-0.158534 0.159176 0.656 
-0.137224 0.164999 0.68 
-0.111895 0.167668 0.691 
-0.0862995 0.17155 0.707 
-0.0600034 0.177131 0.73 
-0.0303496 0.173977 0.717 
-0.00163385 0.161117 0.664 
0.0297256 0.146801 0.605 
0.0722658 0.12472 0.514 
0.0903655 0.115499 0.476 
0.104059 0.109918 0.453 
0.11565 0.104095 0.429 
0.139344 0.092448 0.381 
0.148044 0.0885657 0.365 
0.158646 0.0841981 0.347 
0.168007 0.0820142 0.338 
0.178797 0.080801 0.333 
0.190343 0.0800731 0.33 
0.205349 0.080801 0.333 
0.235404 0.0837128 0.345 
0.254936 0.0856539 0.353 
0.276876 0.0873524 0.36 
0.29851 0.0895363 0.369 
0.32434 0.0922054 0.38 
0.377929 0.0987568 0.407 
0.408682 0.102396 0.422 
-0.572811 0.174433 0.712 
-0.552071 0.176883 0.722 
-0.529085 0.178843 0.73 
-0.513679 0.183743 0.75 
-0.493454 0.187418 0.765 
-0.470217 0.190358 0.777 
-0.447719 0.194033 0.792 
-0.425602 0.198443 0.81 
-0.402534 0.203097 0.829 
-0.373941 0.205547 0.839 
-0.350637 0.211672 0.864 
-0.323877 0.216817 0.885 
-0.285006 0.214122 0.874 
-0.145571 0.161694 0.66 
-0.123414 0.167329 0.683 
-0.0988597 0.171984 0.702 
-0.0723868 0.175658 0.717 
-0.0447789 0.179578 0.733 
-0.0146432 0.169044 0.69 
0.0132664 0.154834 0.632 
0.0574524 0.13352 0.545 
0.0773789 0.124455 0.508 
0.0931238 0.115881 0.473 
0.106299 0.110001 0.449 
0.119273 0.103876 0.424 
0.139869 0.0930965 0.38 
0.148492 0.0891767 0.364 
0.158287 0.0852568 0.348 
0.167709 0.0830519 0.339 
0.181375 0.081337 0.332 
0.193439 0.080847 0.33 
0.228267 0.0842769 0.344 
0.245499 0.0855018 0.349 
0.264616 0.0872167 0.356 
0.288426 0.0894217 0.365 
0.310448 0.0916266 0.374 
0.336734 0.0943215 0.385 
0.39509 0.101671 0.415 
-0.578753 0.174372 0.705 
-0.558456 0.176845 0.715 
-0.539586 0.180061 0.728 
-0.520381 0.183523 0.742 
-0.500059 0.186986 0.756 
-0.479243 0.190696 0.771 
-0.456067 0.193911 0.784 
-0.434564 0.198364 0.802 
-0.411625 0.202816 0.82 
-0.384479 0.205784 0.832 
-0.360176 0.210978 0.853 
-0.334199 0.216172 0.874 
-0.299697 0.216419 0.875 
-0.154273 0.161016 0.651 
-0.133838 0.167941 0.679 
-0.10834 0.170415 0.689 
-0.0827487 0.174372 0.705 
-0.0564245 0.180061 0.728 
-0.0267984 0.176103 0.712 
0.00299199 0.161758 0.654 
0.0270212 0.15038 0.608 
0.0669311 0.130841 0.529 
0.085777 0.1207 0.488 
0.0996259 0.114269 0.462 
0.112424 0.107839 0.436 
0.129433 0.0996764 0.403 
0.141042 0.0929983 0.376 
0.150638 0.089783 0.363 
0.15946 0.0858256 0.347 
0.168799 0.0835996 0.338 
0.183157 0.0818682 0.331 
0.202226 0.0823629 0.333 
0.236086 0.0855783 0.346 
0.258878 0.0878043 0.355 
0.280112 0.0895356 0.362 
0.304426 0.092009 0.372 
0.326981 0.094235 0.381 
0.351151 0.0967084 0.391 
0.40965 0.104623 0.423 
-0.568788 0.176525 0.707 
-0.549013 0.179271 0.718 
-0.52836 0.182018 0.729 
-0.51094 0.186262 0.746 
-0.489584 0.189508 0.759 
-0.467191 0.192754 0.772 
-0.444327 0.196249 0.786 
-0.4235 0.201243 0.806 
-0.399621 0.205488 0.823 
-0.372604 0.208733 0.836 
-0.348608 0.214476 0.859 
-0.320583 0.218721 0.876 
-0.282309 0.217722 0.872 
-0.14513 0.16429 0.658 
-0.123052 0.170033 0.681 
-0.0978739 0.173528 0.695 
-0.0720839 0.178272 0.714 
-0.0445956 0.182267 0.73 
-0.0146007 0.171781 0.688 
0.0132454 0.157549 0.631 
0.0430848 0.143567 0.575 
0.0649373 0.13308 0.533 
0.0815312 0.124092 0.497 
0.0983027 0.116351 0.466 
0.114697 0.108112 0.433 
0.130054 0.100372 0.402 
0.141042 0.0938801 0.376 
0.150654 0.0901349 0.361 
0.158646 0.0866394 0.347 
0.168007 0.0843922 0.338 
0.182932 0.0828942 0.332 
0.203616 0.0833935 0.334 
0.233652 0.0863897 0.346 
0.255658 0.0883871 0.354 
0.275868 0.0903846 0.362 
0.299318 0.092382 0.37 
0.32434 0.0948789 0.38 
0.348424 0.0973757 0.39 
0.404775 0.104866 0.42 
-0.572165 0.177175 0.703 
-0.553426 0.180199 0.715 
-0.532996 0.182971 0.726 
-0.515161 0.187004 0.742 
-0.493431 0.190028 0.754 
-0.472589 0.193808 0.769 
-0.449402 0.197085 0.782 
-0.428921 0.202125 0.802 
-0.405361 0.20641 0.819 
-0.377715 0.209182 0.83 
-0.35376 0.214726 0.852 
-0.327299 0.219767 0.872 
-0.292199 0.219515 0.871 
-0.147938 0.163817 0.65 
-0.12728 0.170874 0.678 
-0.102024 0.173898 0.69 
-0.0761353 0.177679 0.705 
-0.0495953 0.183475 0.728 
-0.0196955 0.175662 0.697 
0.0103836 0.160541 0.637 
0.0367849 0.146679 0.582 
0.0572416 0.13685 0.543 
0.076922 0.127273 0.505 
0.0976271 0.117948 0.468 
0.118558 0.107111 0.425 
0.133831 0.0985423 0.391 
0.147188 0.0919896 0.365 
0.155979 0.0887133 0.352 
0.1647 0.085941 0.341 
0.175157 0.0844288 0.335 
0.191696 0.0834207 0.331 
0.215081 0.085941 0.341 
0.233652 0.0872011 0.346 
0.252452 0.0889653 0.353 
0.272566 0.0909815 0.361 
0.298451 0.0932498 0.37 
0.32082 0.095518 0.379 
0.348424 0.0982903 0.39 
0.39895 0.105095 0.417 
-0.573825 0.178314 0.701 
-0.552886 0.180604 0.71 
-0.533446 0.183656 0.722 
-0.515845 0.187726 0.738 
-0.493672 0.190524 0.749 
-0.474339 0.194849 0.766 
-0.449593 0.197392 0.776 
-0.431604 0.203497 0.8 
-0.408204 0.207822 0.817 
-0.37931 0.209857 0.825 
-0.356496 0.215961 0.849 
-0.330249 0.221049 0.869 
-0.295944 0.221303 0.87 
-0.15029 0.164578 0.647 
-0.129306 0.170938 0.672 
-0.10404 0.173481 0.682 
-0.0787659 0.177806 0.699 
-0.0526458 0.183911 0.723 
-0.0231623 0.178823 0.703 
0.00448421 0.164833 0.648 
0.0307326 0.15186 0.597 
0.0517177 0.140413 0.552 
0.0738049 0.129221 0.508 
0.094233 0.120318 0.473 
0.118279 0.107854 0.424 
0.133831 0.0994593 0.391 
0.145339 0.0938631 0.369 
0.153544 0.0900475 0.354 
0.162448 0.0872495 0.343 
0.172528 0.0854689 0.336 
0.187815 0.084197 0.331 
0.20344 0.0852145 0.335 
0.225041 0.0875038 0.344 
0.244561 0.08903 0.35 
0.263685 0.0908106 0.357 
0.294183 0.0938631 0.369 
0.314754 0.0956437 0.376 
0.342998 0.0986962 0.388 
0.393115 0.105819 0.416 
-0.577027 0.177905 0.693 
-0.55812 0.180729 0.704 
-0.540593 0.184323 0.718 
-0.519812 0.187146 0.729 
-0.500173 0.190741 0.743 
-0.48005 0.194591 0.758 
-0.457545 0.197929 0.771 
-0.435111 0.201779 0.786 
-0.413021 0.2064 0.804 
-0.388075 0.210251 0.819 
-0.363669 0.215129 0.838 
-0.337353 0.21975 0.856 
-0.307477 0.22283 0.868 
-0.16042 0.164042 0.639 
-0.138535 0.168406 0.656 
-0.115808 0.173541 0.676 
-0.0908285 0.177391 0.691 
-0.0650198 0.182269 0.71 
-0.0373858 0.185606 0.723 
-0.00633392 0.17123 0.667 
0.0202191 0.158651 0.618 
0.0417363 0.147612 0.575 
0.0624373 0.13683 0.533 
0.0823639 0.127075 0.495 
0.10277 0.116036 0.452 
0.130955 0.10243 0.399 
0.142541 0.0957553 0.373 
0.152334 0.0916479 0.357 
0.160968 0.0885673 0.345 
0.174104 0.0862568 0.336 
0.186046 0.0852299 0.332 
0.201083 0.0860001 0.335 
0.21956 0.0880538 0.343 
0.236635 0.0893374 0.348 
0.255548 0.0911344 0.355 
0.279184 0.0931882 0.363 
0.307761 0.0962688 0.375 
0.329596 0.0983225 0.383 
0.353869 0.10089 0.393 
0.413555 0.109361 0.426 
-0.566468 0.180307 0.696 
-0.549556 0.183934 0.71 
-0.527857 0.186265 0.719 
-0.513078 0.191447 0.739 
-0.486887 0.192742 0.744 
-0.468902 0.197664 0.763 
-0.445379 0.200773 0.775 
-0.426782 0.206731 0.798 
-0.402887 0.210876 0.814 
-0.37453 0.213208 0.823 
-0.350853 0.218907 0.845 
-0.325047 0.224348 0.866 
-0.290857 0.224607 0.867 
-0.148896 0.166059 0.641 
-0.128151 0.172535 0.666 
-0.103583 0.175903 0.679 
-0.0779771 0.179271 0.692 
-0.0522089 0.185747 0.717 
-0.0231294 0.181861 0.702 
0.00741906 0.165541 0.639 
0.0305267 0.153624 0.593 
0.0529162 0.142743 0.551 
0.0715628 0.131862 0.509 
0.0871635 0.125127 0.483 
0.122364 0.106474 0.411 
0.133254 0.101552 0.392 
0.144474 0.0955938 0.369 
0.154766 0.0914488 0.353 
0.163578 0.0885992 0.342 
0.174892 0.0870448 0.336 
0.186046 0.0860085 0.332 
0.204047 0.0870448 0.336 
0.22262 0.0891173 0.344 
0.240457 0.0906717 0.35 
0.259499 0.0924851 0.357 
0.287344 0.0953348 0.368 
0.309463 0.0974073 0.376 
0.331357 0.0994798 0.384 
0.355694 0.10207 0.394 
0.400863 0.108547 0.419 
-0.573742 0.180632 0.691 
-0.554888 0.183508 0.702 
-0.537408 0.187167 0.716 
-0.518102 0.190566 0.729 
-0.496418 0.193441 0.74 
-0.477011 0.197624 0.756 
-0.454555 0.201022 0.769 
-0.432716 0.205205 0.785 
-0.410113 0.209648 0.802 
-0.385211 0.21357 0.817 
-0.360409 0.218275 0.835 
-0.333779 0.222719 0.852 
-0.302626 0.22481 0.86 
-0.159918 0.166516 0.637 
-0.136634 0.16913 0.647 
-0.11478 0.175143 0.67 
-0.089777 0.178541 0.683 
-0.0643787 0.183769 0.703 
-0.0371272 0.18769 0.718 
-0.00789815 0.174359 0.667 
0.0174045 0.162334 0.621 
0.039243 0.151093 0.578 
0.0613021 0.139591 0.534 
0.0776423 0.131226 0.502 
0.0933207 0.123907 0.474 
0.126276 0.10587 0.405 
0.135938 0.10038 0.384 
0.147676 0.0946294 0.362 
0.156287 0.0912311 0.349 
0.165811 0.0888784 0.34 
0.176729 0.0875714 0.335 
0.189731 0.0870485 0.333 
0.209844 0.088617 0.339 
0.227972 0.0904468 0.346 
0.245959 0.0920153 0.352 
0.267589 0.0941065 0.36 
0.292377 0.0967206 0.37 
0.312938 0.0985505 0.377 
0.335798 0.100903 0.386 
0.361195 0.103779 0.397 
0.412556 0.111359 0.426 
-0.563212 0.182517 0.692 
-0.54646 0.186209 0.706 
-0.525654 0.188847 0.716 
-0.509606 0.193594 0.734 
-0.485578 0.195704 0.742 
-0.466444 0.200188 0.759 
-0.443655 0.203617 0.772 
-0.423038 0.208628 0.791 
-0.399422 0.212848 0.807 
-0.373165 0.216277 0.82 
-0.347947 0.221024 0.838 
-0.321669 0.226036 0.857 
-0.288509 0.226827 0.86 
-0.150955 0.16801 0.637 
-0.128713 0.17223 0.653 
-0.105509 0.176978 0.671 
-0.0805186 0.180934 0.686 
-0.0547968 0.186473 0.707 
-0.0176981 0.180143 0.683 
0.00887576 0.167746 0.636 
0.0318097 0.155878 0.591 
0.0517177 0.145591 0.552 
0.0694472 0.134777 0.511 
0.0852496 0.12792 0.485 
0.106157 0.117106 0.444 
0.118974 0.109721 0.416 
0.13002 0.105237 0.399 
0.14016 0.0991708 0.376 
0.15066 0.0941596 0.357 
0.160159 0.0909945 0.345 
0.170385 0.0891483 0.338 
0.18114 0.0878295 0.333 
0.200896 0.0886208 0.336 
0.223267 0.0909945 0.345 
0.241144 0.092577 0.351 
0.265057 0.0949508 0.36 
0.28726 0.0973246 0.369 
0.307699 0.0991708 0.376 
0.329556 0.101281 0.384 
0.352948 0.103655 0.393 
0.396994 0.109985 0.417 
-0.568057 0.183607 0.69 
-0.550732 0.187066 0.703 
-0.530884 0.189994 0.714 
-0.512973 0.193985 0.729 
-0.48922 0.196114 0.737 
-0.471068 0.200904 0.755 
-0.448561 0.204363 0.768 
-0.427193 0.208886 0.785 
-0.404471 0.21341 0.802 
-0.379463 0.217402 0.817 
-0.354109 0.221925 0.834 
-0.3274 0.226449 0.851 
-0.294162 0.226981 0.853 
-0.153218 0.168706 0.634 
-0.130565 0.172165 0.647 
-0.108171 0.177753 0.668 
-0.0831259 0.181212 0.681 
-0.0577841 0.187066 0.703 
-0.0298839 0.187865 0.706 
0.00445653 0.171367 0.644 
0.0304752 0.15753 0.592 
0.0517177 0.146886 0.552 
0.0724706 0.134911 0.507 
0.0896242 0.127195 0.478 
0.109607 0.116285 0.437 
0.127543 0.107237 0.403 
0.142046 0.0995204 0.374 
0.153939 0.0939324 0.353 
0.162776 0.0910053 0.342 
0.173316 0.0894087 0.336 
0.185045 0.0886104 0.333 
0.200108 0.0894087 0.336 
0.219393 0.0915375 0.344 
0.237174 0.0931341 0.35 
0.25615 0.0949968 0.357 
0.286394 0.0981899 0.369 
0.306818 0.100053 0.376 
0.328655 0.102181 0.384 
0.352026 0.104576 0.393 
0.410591 0.113091 0.425 
-0.563202 0.185225 0.69 
-0.546563 0.188984 0.704 
-0.524388 0.191131 0.712 
-0.508541 0.195963 0.73 
-0.484035 0.197842 0.737 
-0.466373 0.202943 0.756 
-0.443157 0.206164 0.768 
-0.422208 0.210996 0.786 
-0.398828 0.215291 0.802 
-0.374173 0.219586 0.818 
-0.348242 0.223881 0.834 
-0.32179 0.228713 0.852 
-0.287823 0.228713 0.852 
-0.14977 0.169656 0.632 
-0.12753 0.173682 0.647 
-0.105038 0.17932 0.668 
-0.0799317 0.182809 0.681 
-0.0544868 0.188715 0.703 
-0.0263844 0.188178 0.701 
0.00295996 0.173682 0.647 
0.0436605 0.15167 0.565 
0.0724706 0.1361 0.507 
0.087565 0.128584 0.479 
0.108831 0.117578 0.438 
0.126276 0.108719 0.405 
0.142046 0.100398 0.374 
0.153939 0.0947602 0.353 
0.1639 0.0915389 0.341 
0.174892 0.0901967 0.336 
0.191656 0.0899283 0.335 
0.207459 0.091002 0.339 
0.226189 0.0931496 0.347 
0.244174 0.0947602 0.353 
0.265793 0.0969078 0.361 
0.293957 0.0998606 0.372 
0.313769 0.101471 0.378 
0.337538 0.104156 0.388 
0.362105 0.10684 0.398 
0.415527 0.114625 0.427 
-0.558343 0.186302 0.688 
-0.543261 0.190635 0.704 
-0.520316 0.19253 0.711 
-0.504425 0.197404 0.729 
-0.48123 0.199841 0.738 
-0.462827 0.204716 0.756 
-0.439555 0.207965 0.768 
-0.418521 0.212839 0.786 
-0.395066 0.217172 0.802 
-0.370336 0.221504 0.818 
-0.343917 0.225566 0.833 
-0.317048 0.23017 0.85 
-0.28316 0.23017 0.85 
-0.149059 0.170325 0.629 
-0.127136 0.174658 0.645 
-0.10488 0.180615 0.667 
-0.0798143 0.184136 0.68 
-0.0542543 0.189551 0.7 
-0.0262338 0.188739 0.697 
0.00444961 0.174117 0.643 
