# .PCD v.7 - Point Cloud Data file format
VERSION .7
FIELDS x y z
SIZE 4 4 4
TYPE F F F
COUNT 1 1 1
WIDTH 1818
HEIGHT 1
VIEWPOINT 0 0 0 1 0 0 0
POINTS 1818
DATA ascii
0.564002 -0.192691 1.057 
0.585999 -0.184122 1.01 
0.60675 -0.176466 0.968 
0.630993 -0.170815 0.937 
0.644425 -0.163158 0.895 
0.649343 -0.154408 0.847 
0.665238 -0.149121 0.818 
0.67241 -0.142558 0.782 
0.685291 -0.137818 0.756 
0.694795 -0.132896 0.729 
-0.692738 -0.14532 0.804 
-0.656078 -0.1455 0.805 
-0.616252 -0.144958 0.802 
-0.57454 -0.143874 0.796 
-0.536088 -0.143512 0.794 
-0.497822 -0.143151 0.792 
-0.463234 -0.143874 0.796 
-0.423456 -0.14297 0.791 
-0.388542 -0.143693 0.795 
-0.360329 -0.147308 0.815 
-0.330252 -0.150923 0.835 
-0.297613 -0.154176 0.853 
-0.265109 -0.158514 0.877 
-0.231902 -0.163936 0.907 
-0.195481 -0.168997 0.935 
-0.155474 -0.172974 0.957 
-0.10913 -0.170263 0.942 
-0.0652235 -0.170263 0.942 
-0.0214524 -0.171347 0.948 
0.0227102 -0.171166 0.947 
0.0703091 -0.180023 0.996 
0.123882 -0.191048 1.057 
0.200632 -0.21328 1.18 
0.280385 -0.229005 1.267 
0.371053 -0.250333 1.385 
0.420197 -0.241476 1.336 
0.454661 -0.227559 1.259 
0.486841 -0.21581 1.194 
0.515232 -0.204966 1.134 
0.546547 -0.197194 1.091 
0.567283 -0.187253 1.036 
0.592398 -0.180204 0.997 
0.615159 -0.173516 0.96 
0.638596 -0.167913 0.929 
0.6496 -0.15996 0.885 
0.650258 -0.150561 0.833 
0.660958 -0.144416 0.799 
0.673732 -0.139355 0.771 
0.686658 -0.134836 0.746 
0.697252 -0.130318 0.721 
-0.684845 -0.14425 0.805 
-0.644107 -0.143533 0.801 
-0.608287 -0.143891 0.803 
-0.568015 -0.143175 0.799 
-0.530774 -0.143175 0.799 
-0.492914 -0.142995 0.798 
-0.455148 -0.142816 0.797 
-0.415378 -0.14192 0.792 
-0.382285 -0.143354 0.8 
-0.353191 -0.146758 0.819 
-0.323479 -0.150701 0.841 
-0.291378 -0.154464 0.862 
-0.25732 -0.158227 0.883 
-0.223507 -0.163602 0.913 
-0.185114 -0.167365 0.934 
-0.144611 -0.170949 0.954 
-0.0998302 -0.170412 0.951 
-0.0549786 -0.168799 0.942 
-0.0111422 -0.169874 0.948 
0.0332186 -0.17077 0.953 
0.0815487 -0.179371 1.001 
0.136915 -0.191556 1.069 
0.22903 -0.215747 1.204 
0.30528 -0.230979 1.289 
0.38917 -0.246031 1.373 
0.431382 -0.234204 1.307 
0.467066 -0.222198 1.24 
0.495656 -0.209834 1.171 
0.525803 -0.200516 1.119 
0.556783 -0.193169 1.078 
0.576621 -0.183493 1.024 
0.597523 -0.175608 0.98 
0.621542 -0.169695 0.947 
0.640376 -0.163244 0.911 
0.64761 -0.154822 0.864 
0.654442 -0.147296 0.822 
0.665787 -0.141562 0.79 
0.679486 -0.136903 0.764 
0.69076 -0.132244 0.738 
0.700594 -0.127764 0.713 
-0.675678 -0.143709 0.809 
-0.635605 -0.143177 0.806 
-0.595811 -0.142644 0.803 
-0.555601 -0.141933 0.799 
-0.522901 -0.143177 0.806 
-0.479914 -0.141578 0.797 
-0.43721 -0.139801 0.787 
-0.405617 -0.141578 0.797 
-0.374017 -0.143709 0.809 
-0.344207 -0.147085 0.828 
-0.311889 -0.150104 0.845 
-0.27992 -0.15419 0.868 
-0.246911 -0.158986 0.895 
-0.211156 -0.163605 0.921 
-0.168598 -0.166803 0.939 
-0.125761 -0.168046 0.946 
-0.0820997 -0.168934 0.951 
-0.0374555 -0.167513 0.943 
0.0065531 -0.168934 0.951 
0.0518425 -0.172132 0.969 
0.103315 -0.183323 1.032 
0.185775 -0.20535 1.156 
0.267126 -0.222226 1.251 
0.355611 -0.242832 1.367 
0.415033 -0.240345 1.353 
0.448061 -0.225246 1.268 
0.481165 -0.213699 1.203 
0.508209 -0.202153 1.138 
0.542017 -0.195225 1.099 
0.558695 -0.183856 1.035 
0.587585 -0.177994 1.002 
0.608968 -0.170888 0.962 
0.631379 -0.165026 0.929 
0.646356 -0.158098 0.89 
0.646878 -0.148683 0.837 
0.661307 -0.143354 0.807 
0.672073 -0.137847 0.776 
0.682688 -0.132874 0.748 
0.695489 -0.128788 0.725 
-0.691098 -0.141748 0.805 
-0.654389 -0.141924 0.806 
-0.616821 -0.141924 0.806 
-0.57566 -0.141044 0.801 
-0.536309 -0.140516 0.798 
-0.498488 -0.14034 0.797 
-0.462497 -0.140692 0.799 
-0.42153 -0.139459 0.792 
-0.3885 -0.140868 0.8 
-0.358236 -0.143685 0.816 
-0.32805 -0.147207 0.836 
-0.295654 -0.150552 0.855 
-0.262982 -0.154779 0.879 
-0.229337 -0.159885 0.908 
-0.191546 -0.163759 0.93 
-0.152979 -0.169041 0.96 
-0.107443 -0.167809 0.953 
-0.0626932 -0.166928 0.948 
-0.0185652 -0.167457 0.951 
0.0257883 -0.167633 0.952 
0.073404 -0.17538 0.996 
0.127528 -0.18665 1.06 
0.220444 -0.21095 1.198 
0.294733 -0.225036 1.278 
0.380915 -0.24194 1.374 
0.423584 -0.230319 1.308 
0.460471 -0.218873 1.243 
0.492132 -0.20778 1.18 
0.521631 -0.198095 1.125 
0.550594 -0.189995 1.079 
0.571928 -0.180839 1.027 
0.593846 -0.173267 0.984 
0.617607 -0.167281 0.95 
0.636805 -0.160941 0.914 
0.644327 -0.152313 0.865 
0.650611 -0.144742 0.822 
0.662943 -0.139283 0.791 
0.676809 -0.134705 0.765 
0.688252 -0.130127 0.739 
0.699226 -0.125901 0.715 
-0.679031 -0.14137 0.81 
-0.638901 -0.140847 0.807 
-0.599051 -0.140323 0.804 
-0.559481 -0.139799 0.801 
-0.526709 -0.141021 0.808 
-0.484812 -0.139799 0.801 
-0.439656 -0.137356 0.787 
-0.408606 -0.139276 0.798 
-0.3756 -0.140847 0.807 
-0.345943 -0.144163 0.826 
-0.314142 -0.147304 0.844 
-0.282292 -0.151318 0.867 
-0.248576 -0.155507 0.891 
-0.213553 -0.160394 0.919 
-0.173319 -0.162838 0.933 
-0.133032 -0.166852 0.956 
-0.088195 -0.166328 0.953 
-0.0434997 -0.165281 0.947 
0.00064629 -0.166852 0.956 
0.0455367 -0.168073 0.963 
0.0992351 -0.178545 1.023 
0.15954 -0.19181 1.099 
0.261765 -0.217117 1.244 
0.346737 -0.235442 1.349 
0.411133 -0.236315 1.354 
0.444121 -0.221305 1.268 
0.478617 -0.210485 1.206 
0.506447 -0.199315 1.142 
0.537622 -0.191461 1.097 
0.553857 -0.179593 1.029 
0.586028 -0.17488 1.002 
0.606841 -0.167724 0.961 
0.627901 -0.161616 0.926 
0.644973 -0.155333 0.89 
0.645578 -0.146083 0.837 
0.658417 -0.140498 0.805 
0.670003 -0.135262 0.775 
0.679703 -0.1302 0.746 
0.69532 -0.12671 0.726 
-0.691098 -0.139247 0.805 
-0.653577 -0.139247 0.805 
-0.618351 -0.139766 0.808 
-0.577816 -0.139074 0.804 
-0.537751 -0.138728 0.802 
-0.500369 -0.138728 0.802 
-0.461256 -0.138209 0.799 
-0.421361 -0.137344 0.794 
-0.389193 -0.139074 0.804 
-0.357405 -0.141323 0.817 
-0.326751 -0.144609 0.836 
-0.295014 -0.148242 0.857 
-0.261617 -0.152047 0.879 
-0.228177 -0.157236 0.909 
-0.189692 -0.160523 0.928 
-0.151645 -0.166231 0.961 
-0.106408 -0.165539 0.957 
-0.061414 -0.164502 0.951 
-0.0171595 -0.165193 0.955 
0.027382 -0.165366 0.956 
0.0750268 -0.172458 0.997 
0.129296 -0.183529 1.061 
0.226938 -0.206362 1.193 
0.306701 -0.224006 1.295 
0.386052 -0.235595 1.362 
0.428082 -0.224352 1.297 
0.465559 -0.2138 1.236 
0.496503 -0.202903 1.173 
0.524393 -0.193043 1.116 
0.551102 -0.184567 1.067 
0.578212 -0.177129 1.024 
0.595989 -0.168653 0.975 
0.620382 -0.163118 0.943 
0.637565 -0.156545 0.905 
0.64069 -0.14755 0.853 
0.652529 -0.141496 0.818 
0.664482 -0.136133 0.787 
0.678 -0.131636 0.761 
0.690032 -0.127311 0.736 
0.699733 -0.122987 0.711 
-0.674399 -0.139196 0.812 
-0.637336 -0.139368 0.813 
-0.592806 -0.137825 0.804 
-0.556022 -0.137996 0.805 
-0.520486 -0.139196 0.812 
-0.477289 -0.137653 0.803 
-0.434931 -0.13611 0.794 
-0.401932 -0.137482 0.802 
-0.369096 -0.139196 0.812 
-0.338183 -0.14211 0.829 
-0.30677 -0.145539 0.849 
-0.273807 -0.149139 0.87 
-0.241835 -0.154624 0.902 
-0.20378 -0.15771 0.92 
-0.165795 -0.16251 0.948 
-0.122763 -0.164053 0.957 
-0.0779937 -0.16371 0.955 
-0.0334458 -0.163538 0.954 
0.0110319 -0.16371 0.955 
0.056708 -0.167138 0.975 
0.108125 -0.176909 1.032 
0.172272 -0.189252 1.104 
0.265844 -0.213423 1.245 
0.349368 -0.230222 1.343 
0.411966 -0.230222 1.343 
0.444528 -0.215651 1.258 
0.480365 -0.20588 1.201 
0.509996 -0.195766 1.142 
0.537579 -0.186852 1.09 
0.557568 -0.176052 1.027 
0.585393 -0.170224 0.993 
0.60814 -0.163881 0.956 
0.62539 -0.157024 0.916 
0.642558 -0.151024 0.881 
0.645599 -0.142625 0.832 
0.657234 -0.136968 0.799 
0.66927 -0.131996 0.77 
0.679517 -0.127196 0.742 
0.694854 -0.123768 0.722 
-0.686546 -0.137085 0.807 
-0.644911 -0.136236 0.802 
-0.612832 -0.137425 0.809 
-0.572992 -0.136915 0.806 
-0.53476 -0.136745 0.805 
-0.499091 -0.137255 0.808 
-0.454577 -0.135217 0.796 
-0.419049 -0.135726 0.799 
-0.385152 -0.136915 0.806 
-0.353191 -0.139124 0.819 
-0.324248 -0.1432 0.843 
-0.290712 -0.146768 0.864 
-0.255658 -0.149825 0.882 
-0.222088 -0.155091 0.913 
-0.182483 -0.157639 0.928 
-0.144329 -0.163415 0.962 
-0.0975882 -0.162736 0.958 
-0.0527698 -0.162226 0.955 
-0.00831748 -0.163415 0.962 
0.0364457 -0.163075 0.96 
0.0869034 -0.171399 1.009 
0.141499 -0.181082 1.066 
0.224518 -0.202145 1.19 
0.304454 -0.219812 1.294 
0.382809 -0.230684 1.358 
0.425081 -0.219812 1.294 
0.462513 -0.20945 1.233 
0.497632 -0.200447 1.18 
0.523596 -0.189915 1.118 
0.547899 -0.180742 1.064 
0.578212 -0.173947 1.024 
0.595989 -0.165623 0.975 
0.619724 -0.160018 0.942 
0.635451 -0.153223 0.902 
0.638437 -0.14439 0.85 
0.651731 -0.138784 0.817 
0.664482 -0.133688 0.787 
0.677109 -0.129101 0.76 
0.689094 -0.124854 0.735 
0.700717 -0.120947 0.712 
-0.669394 -0.136168 0.809 
-0.636371 -0.137178 0.815 
-0.59251 -0.135831 0.807 
-0.555583 -0.136 0.808 
-0.521127 -0.136841 0.813 
-0.479666 -0.135831 0.807 
-0.43767 -0.134485 0.799 
-0.402433 -0.135158 0.803 
-0.369096 -0.136673 0.812 
-0.337775 -0.139366 0.828 
-0.307492 -0.143237 0.851 
-0.273807 -0.146435 0.87 
-0.241835 -0.151821 0.902 
-0.20378 -0.154851 0.92 
-0.16597 -0.159732 0.949 
-0.123405 -0.16192 0.962 
-0.0782387 -0.161247 0.958 
-0.0336211 -0.161415 0.959 
0.0110781 -0.161415 0.959 
0.0566499 -0.16394 0.974 
0.107916 -0.173366 1.03 
0.170248 -0.185485 1.102 
0.253498 -0.207366 1.232 
0.332121 -0.221504 1.316 
0.402729 -0.226722 1.347 
0.439248 -0.21393 1.271 
0.474565 -0.203663 1.21 
0.50288 -0.192891 1.146 
0.526199 -0.182455 1.084 
0.547994 -0.173366 1.03 
0.583273 -0.169663 1.008 
0.601494 -0.16192 0.962 
0.622146 -0.155861 0.926 
0.640161 -0.14997 0.891 
0.64091 -0.140713 0.836 
0.653039 -0.135158 0.803 
0.666391 -0.130445 0.775 
0.674413 -0.125227 0.744 
0.692889 -0.122366 0.727 
-0.689848 -0.134244 0.805 
-0.648274 -0.13341 0.8 
-0.620915 -0.135578 0.813 
-0.581586 -0.135245 0.811 
-0.543115 -0.135078 0.81 
-0.506608 -0.135411 0.812 
-0.462988 -0.133744 0.802 
-0.425606 -0.133744 0.802 
-0.391129 -0.134744 0.808 
-0.356531 -0.135912 0.815 
-0.32636 -0.139247 0.835 
-0.295702 -0.143249 0.859 
-0.261021 -0.146251 0.877 
-0.227926 -0.151421 0.908 
-0.189283 -0.154422 0.926 
-0.151645 -0.160259 0.961 
-0.107075 -0.160592 0.963 
-0.0618661 -0.159759 0.958 
-0.0173751 -0.16126 0.967 
0.0275252 -0.160259 0.961 
0.0753278 -0.166929 1.001 
0.128687 -0.176101 1.056 
0.204385 -0.195112 1.17 
0.277729 -0.209287 1.255 
0.357926 -0.222795 1.336 
0.413907 -0.21946 1.316 
0.449244 -0.207453 1.244 
0.483171 -0.197614 1.185 
0.518413 -0.190276 1.141 
0.540202 -0.17927 1.075 
0.563401 -0.171099 1.026 
0.585607 -0.163928 0.983 
0.610227 -0.158425 0.95 
0.624882 -0.151254 0.907 
0.633185 -0.143249 0.859 
0.646576 -0.137579 0.825 
0.66012 -0.132576 0.795 
0.670866 -0.127573 0.765 
0.681587 -0.123071 0.738 
0.696582 -0.119736 0.718 
-0.676516 -0.133324 0.807 
-0.643651 -0.134315 0.813 
-0.602777 -0.133654 0.809 
-0.564371 -0.133489 0.808 
-0.528665 -0.133985 0.811 
-0.490864 -0.133985 0.811 
-0.443007 -0.131011 0.793 
-0.410142 -0.132332 0.801 
-0.3756 -0.133324 0.807 
-0.345524 -0.136297 0.825 
-0.314887 -0.139767 0.846 
-0.282292 -0.143236 0.867 
-0.248576 -0.147201 0.891 
-0.213553 -0.151827 0.919 
-0.174248 -0.154966 0.938 
-0.13498 -0.160253 0.97 
-0.0888428 -0.158601 0.96 
-0.0439591 -0.158105 0.957 
0.000651022 -0.159096 0.963 
0.0455367 -0.159096 0.963 
0.0952112 -0.167522 1.014 
0.153425 -0.178426 1.08 
0.224465 -0.194947 1.18 
0.305991 -0.21345 1.292 
0.384068 -0.223858 1.355 
0.425111 -0.212789 1.288 
0.462169 -0.202712 1.227 
0.500736 -0.195442 1.183 
0.522044 -0.183547 1.111 
0.548097 -0.174791 1.058 
0.577083 -0.168844 1.022 
0.595378 -0.160914 0.974 
0.618408 -0.155297 0.94 
0.634042 -0.148688 0.9 
0.634681 -0.139602 0.845 
0.649338 -0.13448 0.814 
0.664482 -0.13002 0.787 
0.673545 -0.124898 0.756 
0.687219 -0.121098 0.733 
0.701701 -0.117794 0.713 
-0.66111 -0.131252 0.802 
-0.636949 -0.134034 0.819 
-0.596582 -0.133543 0.816 
-0.55581 -0.132888 0.812 
-0.519238 -0.133215 0.814 
-0.480115 -0.132888 0.812 
-0.439544 -0.13207 0.807 
-0.402428 -0.132234 0.808 
-0.366572 -0.132888 0.812 
-0.335202 -0.135507 0.828 
-0.306639 -0.140089 0.856 
-0.270792 -0.142217 0.869 
-0.239562 -0.147944 0.904 
-0.201139 -0.150727 0.921 
-0.163365 -0.155636 0.951 
-0.121166 -0.158418 0.968 
-0.0755761 -0.157436 0.962 
-0.0309287 -0.158418 0.968 
0.0141021 -0.157436 0.962 
0.0596764 -0.1594 0.974 
0.11144 -0.169056 1.033 
0.169321 -0.179366 1.096 
0.2475 -0.19835 1.212 
0.327317 -0.21357 1.305 
0.400041 -0.220116 1.345 
0.436585 -0.207679 1.269 
0.471123 -0.197368 1.206 
0.502411 -0.18804 1.149 
0.523987 -0.176093 1.076 
0.552796 -0.169547 1.036 
0.581751 -0.163655 1 
0.602599 -0.156945 0.959 
0.618949 -0.150072 0.917 
0.633549 -0.143689 0.878 
0.640429 -0.136161 0.832 
0.653085 -0.130924 0.8 
0.665347 -0.126178 0.771 
0.674906 -0.121432 0.742 
0.692279 -0.118486 0.724 
-0.683538 -0.130006 0.802 
-0.645351 -0.129843 0.801 
-0.619403 -0.132275 0.816 
-0.579231 -0.131789 0.813 
-0.540005 -0.131464 0.811 
-0.504681 -0.132113 0.815 
-0.460395 -0.13033 0.804 
-0.423972 -0.130654 0.806 
-0.387363 -0.130978 0.808 
-0.35403 -0.132599 0.818 
-0.325172 -0.13649 0.842 
-0.293057 -0.139894 0.863 
-0.258984 -0.143298 0.884 
-0.224679 -0.147837 0.912 
-0.185966 -0.150917 0.931 
-0.148084 -0.156752 0.967 
-0.103225 -0.157077 0.969 
-0.0575207 -0.155618 0.96 
-0.0129345 -0.157563 0.972 
0.0320377 -0.155942 0.962 
0.0812228 -0.161615 0.997 
0.135506 -0.171504 1.058 
0.202678 -0.186417 1.15 
0.282526 -0.204086 1.259 
0.361264 -0.216082 1.333 
0.415455 -0.212029 1.308 
0.452382 -0.20133 1.242 
0.484799 -0.19128 1.18 
0.5196 -0.183499 1.132 
0.540003 -0.173125 1.068 
0.56763 -0.166154 1.025 
0.588387 -0.15886 0.98 
0.612714 -0.15351 0.947 
0.628416 -0.146864 0.906 
0.629192 -0.137786 0.85 
0.645993 -0.133085 0.821 
0.661757 -0.128709 0.794 
0.670603 -0.123521 0.762 
0.6811 -0.119145 0.735 
0.695893 -0.115903 0.715 
-0.671915 -0.12892 0.803 
-0.647129 -0.131489 0.819 
-0.607468 -0.131168 0.817 
-0.563812 -0.129883 0.809 
-0.527405 -0.130204 0.811 
-0.492623 -0.131007 0.816 
-0.447067 -0.129562 0.807 
-0.406916 -0.12876 0.802 
-0.373681 -0.130204 0.811 
-0.342507 -0.132773 0.827 
-0.312413 -0.136466 0.85 
-0.278251 -0.139195 0.867 
-0.241567 -0.144654 0.901 
-0.20378 -0.147704 0.92 
-0.16597 -0.15236 0.949 
-0.124687 -0.156053 0.972 
-0.0790554 -0.15541 0.968 
-0.0339367 -0.15541 0.968 
0.0111244 -0.154608 0.963 
0.0564172 -0.155732 0.97 
0.107496 -0.164722 1.026 
0.164856 -0.174837 1.089 
0.244028 -0.191855 1.195 
0.332889 -0.209194 1.303 
0.403591 -0.214492 1.336 
0.441105 -0.203093 1.265 
0.473581 -0.192337 1.198 
0.505999 -0.183827 1.145 
0.52517 -0.172589 1.075 
0.555476 -0.166649 1.038 
0.581555 -0.160066 0.997 
0.601569 -0.153323 0.955 
0.617668 -0.14658 0.913 
0.628405 -0.139516 0.869 
0.638889 -0.133255 0.83 
0.653085 -0.128438 0.8 
0.664484 -0.123622 0.77 
0.674906 -0.119127 0.742 
0.691323 -0.116076 0.723 
-0.682223 -0.127036 0.799 
-0.645789 -0.127195 0.8 
-0.622952 -0.130216 0.819 
-0.584064 -0.130057 0.818 
-0.540671 -0.129103 0.812 
-0.505301 -0.129739 0.816 
-0.462686 -0.128467 0.808 
-0.423769 -0.128467 0.808 
-0.386108 -0.128467 0.808 
-0.353622 -0.130375 0.82 
-0.324248 -0.134032 0.843 
-0.292054 -0.137371 0.864 
-0.257687 -0.141346 0.889 
-0.222818 -0.145639 0.916 
-0.183663 -0.148501 0.934 
-0.14568 -0.154384 0.971 
-0.100731 -0.15486 0.974 
-0.0546512 -0.152953 0.962 
-0.00992431 -0.154701 0.973 
0.035027 -0.152953 0.962 
0.0821907 -0.157404 0.99 
0.136631 -0.16758 1.054 
0.206952 -0.18189 1.144 
0.295665 -0.201128 1.265 
0.379297 -0.215119 1.353 
0.422417 -0.205421 1.292 
0.457609 -0.194768 1.225 
0.494259 -0.186341 1.172 
0.518913 -0.176166 1.108 
0.546355 -0.168693 1.061 
0.571661 -0.161856 1.018 
0.592351 -0.15486 0.974 
0.616797 -0.149773 0.942 
0.630544 -0.142936 0.899 
0.630559 -0.134032 0.843 
0.646808 -0.129421 0.814 
0.66456 -0.125606 0.79 
0.671196 -0.1202 0.756 
0.684007 -0.116384 0.732 
0.698505 -0.113204 0.712 
-0.658216 -0.125008 0.794 
-0.644679 -0.129731 0.824 
-0.605536 -0.129574 0.823 
-0.560396 -0.128314 0.815 
-0.520486 -0.127842 0.812 
-0.48561 -0.128629 0.817 
-0.445338 -0.127999 0.813 
-0.404938 -0.127212 0.808 
-0.370005 -0.128157 0.814 
-0.338591 -0.130676 0.83 
-0.308938 -0.134612 0.855 
-0.272548 -0.136344 0.866 
-0.240167 -0.141854 0.901 
-0.20235 -0.144845 0.92 
-0.164496 -0.149411 0.949 
-0.123557 -0.153505 0.975 
-0.0778719 -0.153032 0.972 
-0.0325667 -0.153032 0.972 
0.0126468 -0.15193 0.965 
0.0578646 -0.15256 0.969 
0.108878 -0.161219 1.024 
0.165783 -0.170666 1.084 
0.238929 -0.185623 1.179 
0.337197 -0.205303 1.304 
0.406217 -0.209554 1.331 
0.444684 -0.199005 1.264 
0.474913 -0.187669 1.192 
0.510442 -0.179955 1.143 
0.529688 -0.169091 1.074 
0.557075 -0.162479 1.032 
0.582307 -0.156339 0.993 
0.601371 -0.149569 0.95 
0.618466 -0.143271 0.91 
0.625295 -0.135556 0.861 
0.639923 -0.130361 0.828 
0.654751 -0.125795 0.799 
0.665145 -0.120914 0.768 
0.676299 -0.116664 0.741 
0.691651 -0.113515 0.721 
-0.679277 -0.124242 0.797 
-0.646963 -0.125177 0.803 
-0.623198 -0.127983 0.821 
-0.584931 -0.127983 0.821 
-0.541403 -0.127048 0.815 
-0.50465 -0.12736 0.817 
-0.463714 -0.12658 0.812 
-0.426391 -0.126736 0.813 
-0.386586 -0.126113 0.809 
-0.354053 -0.127983 0.821 
-0.323863 -0.131257 0.842 
-0.292054 -0.134686 0.864 
-0.256882 -0.138895 0.891 
-0.221878 -0.143104 0.918 
-0.182211 -0.145598 0.934 
-0.14432 -0.151522 0.972 
-0.0996256 -0.152457 0.978 
-0.0533776 -0.150587 0.966 
-0.00840394 -0.151522 0.972 
0.0365216 -0.149963 0.962 
0.083306 -0.153549 0.985 
0.137744 -0.163681 1.05 
0.205505 -0.177088 1.136 
0.287583 -0.194391 1.247 
0.374261 -0.210447 1.35 
0.420021 -0.202185 1.297 
0.454914 -0.191429 1.228 
0.487128 -0.182076 1.168 
0.516067 -0.173502 1.113 
0.54294 -0.165864 1.064 
0.56803 -0.159005 1.02 
0.590829 -0.152613 0.979 
0.613707 -0.147157 0.944 
0.627748 -0.140454 0.901 
0.628117 -0.131725 0.845 
0.643804 -0.127048 0.815 
0.663387 -0.123618 0.793 
0.669439 -0.118162 0.758 
0.680595 -0.114109 0.732 
0.695186 -0.110992 0.712 
-0.66315 -0.122541 0.794 
-0.651377 -0.127479 0.826 
-0.612135 -0.127325 0.825 
-0.563619 -0.125936 0.816 
-0.523653 -0.125473 0.813 
-0.489344 -0.126399 0.819 
-0.450068 -0.12609 0.817 
-0.406945 -0.124547 0.807 
-0.372534 -0.125627 0.814 
-0.34117 -0.128097 0.83 
-0.310866 -0.131646 0.853 
-0.27365 -0.132881 0.861 
-0.242158 -0.138591 0.898 
-0.205209 -0.141987 0.92 
-0.167092 -0.146154 0.947 
-0.126976 -0.150938 0.978 
-0.0812252 -0.150629 0.976 
-0.0356237 -0.150166 0.973 
0.00962817 -0.148623 0.963 
0.0548535 -0.149549 0.969 
0.104457 -0.156185 1.012 
0.161216 -0.166063 1.076 
0.228066 -0.179181 1.161 
0.310891 -0.196158 1.271 
0.395177 -0.20943 1.357 
0.430388 -0.196621 1.274 
0.464396 -0.186435 1.208 
0.494408 -0.17702 1.147 
0.521599 -0.168532 1.092 
0.550478 -0.16205 1.05 
0.573159 -0.154951 1.004 
0.598344 -0.149549 0.969 
0.616281 -0.143221 0.928 
0.625364 -0.135505 0.878 
0.632898 -0.128714 0.834 
0.646801 -0.12393 0.803 
0.662075 -0.119917 0.777 
0.672228 -0.115441 0.748 
0.687241 -0.1122 0.727 
0.704264 -0.109577 0.71 
-0.643854 -0.120238 0.787 
-0.638031 -0.126349 0.827 
-0.59876 -0.126196 0.826 
-0.55619 -0.125279 0.82 
-0.515443 -0.124668 0.816 
-0.477994 -0.124821 0.817 
-0.439375 -0.124668 0.816 
-0.399865 -0.12421 0.813 
-0.364643 -0.125127 0.819 
-0.332049 -0.127265 0.833 
-0.303783 -0.131849 0.863 
-0.265391 -0.132766 0.869 
-0.234203 -0.138266 0.905 
-0.19584 -0.141016 0.923 
-0.158282 -0.146057 0.956 
-0.116578 -0.149724 0.98 
-0.0704658 -0.148807 0.974 
-0.0252217 -0.149724 0.98 
0.0202476 -0.148196 0.97 
0.0656621 -0.148655 0.973 
0.117517 -0.157363 1.03 
0.174365 -0.165766 1.085 
0.242766 -0.178905 1.171 
0.330334 -0.197544 1.293 
0.405102 -0.204877 1.341 
0.43971 -0.192655 1.261 
0.471605 -0.182266 1.193 
0.503789 -0.174169 1.14 
0.528101 -0.165155 1.081 
0.554406 -0.15828 1.036 
0.579424 -0.152169 0.996 
0.597572 -0.145293 0.951 
0.616249 -0.139488 0.913 
0.62262 -0.131543 0.861 
0.63658 -0.126349 0.827 
0.650636 -0.121765 0.797 
0.662758 -0.117335 0.768 
0.674906 -0.113362 0.742 
0.689411 -0.110154 0.721 
-0.677954 -0.120073 0.794 
-0.649825 -0.121737 0.805 
-0.628277 -0.124913 0.826 
-0.589777 -0.124913 0.826 
-0.547272 -0.124005 0.82 
-0.508431 -0.123854 0.819 
-0.469683 -0.123703 0.818 
-0.431556 -0.123703 0.818 
-0.390062 -0.122644 0.811 
-0.357038 -0.124308 0.822 
-0.325704 -0.12703 0.84 
-0.294739 -0.130659 0.864 
-0.261831 -0.13444 0.889 
-0.226344 -0.138069 0.913 
-0.187009 -0.140489 0.929 
-0.149277 -0.145933 0.965 
-0.10493 -0.148958 0.985 
-0.0582996 -0.147143 0.973 
-0.0130276 -0.14805 0.979 
0.0322708 -0.146538 0.969 
0.0779956 -0.147597 0.976 
0.131332 -0.156973 1.038 
0.192525 -0.168163 1.112 
0.265671 -0.182832 1.209 
0.352654 -0.200223 1.324 
0.409671 -0.197955 1.309 
0.448031 -0.188428 1.246 
0.479299 -0.178447 1.18 
0.510301 -0.170432 1.127 
0.535863 -0.162265 1.073 
0.560213 -0.155158 1.026 
0.584923 -0.14926 0.987 
0.602161 -0.142455 0.942 
0.621378 -0.137011 0.906 
0.622589 -0.128542 0.85 
0.639615 -0.124157 0.821 
0.655589 -0.120073 0.794 
0.665556 -0.115385 0.763 
0.677228 -0.111454 0.737 
0.689374 -0.107975 0.714 
-0.667633 -0.11854 0.792 
-0.655404 -0.12318 0.823 
-0.620043 -0.123779 0.827 
-0.58009 -0.12348 0.825 
-0.540323 -0.12318 0.823 
-0.498914 -0.122432 0.818 
-0.460786 -0.122432 0.818 
-0.422142 -0.122282 0.817 
-0.380122 -0.121833 0.814 
-0.346385 -0.12333 0.824 
-0.316575 -0.126772 0.847 
-0.28233 -0.129167 0.863 
-0.249692 -0.133957 0.895 
-0.213088 -0.137249 0.917 
-0.174062 -0.140243 0.937 
-0.13498 -0.145182 0.97 
-0.0909713 -0.147128 0.983 
-0.0451074 -0.146978 0.982 
0.000651022 -0.144134 0.963 
0.0460096 -0.145631 0.973 
0.0932393 -0.148625 0.993 
0.147813 -0.157455 1.052 
0.212752 -0.170177 1.137 
0.289866 -0.184396 1.232 
0.381117 -0.202357 1.352 
0.42311 -0.192778 1.288 
0.456136 -0.182001 1.216 
0.487933 -0.173171 1.157 
0.516103 -0.164939 1.102 
0.54542 -0.158054 1.056 
0.569301 -0.151319 1.011 
0.596303 -0.146379 0.978 
0.614461 -0.139794 0.934 
0.622771 -0.13231 0.884 
0.629423 -0.125425 0.838 
0.643754 -0.120786 0.807 
0.658937 -0.116595 0.779 
0.669365 -0.112254 0.75 
0.681784 -0.108662 0.726 
0.697881 -0.105968 0.708 
-0.646716 -0.116866 0.789 
-0.641636 -0.122938 0.83 
-0.602949 -0.122938 0.83 
-0.562223 -0.122494 0.827 
-0.52051 -0.121753 0.822 
-0.481023 -0.121457 0.82 
-0.442263 -0.121309 0.819 
-0.401622 -0.120569 0.814 
-0.367702 -0.121902 0.823 
-0.333344 -0.123383 0.833 
-0.30371 -0.127234 0.859 
-0.26556 -0.129456 0.874 
-0.228831 -0.134195 0.906 
-0.190516 -0.13701 0.925 
-0.153297 -0.14249 0.962 
-0.110938 -0.145749 0.984 
-0.0647433 -0.145008 0.979 
-0.0191899 -0.145601 0.983 
0.0264113 -0.144416 0.975 
0.0719301 -0.144564 0.976 
0.123798 -0.152414 1.029 
0.182944 -0.162338 1.096 
0.251538 -0.174484 1.178 
0.34308 -0.194183 1.311 
0.406653 -0.195368 1.319 
0.445417 -0.185889 1.255 
0.474602 -0.175076 1.182 
0.506392 -0.167374 1.13 
0.534325 -0.159968 1.08 
0.557055 -0.152414 1.029 
0.582086 -0.146637 0.99 
0.598598 -0.13938 0.941 
0.615832 -0.133603 0.902 
0.620677 -0.126049 0.851 
0.63784 -0.121753 0.822 
0.652299 -0.117458 0.793 
0.665241 -0.113163 0.764 
0.677001 -0.109312 0.738 
0.689228 -0.105905 0.715 
-0.660588 -0.115493 0.788 
-0.656318 -0.121502 0.829 
-0.620659 -0.122089 0.833 
-0.579737 -0.121649 0.83 
-0.538443 -0.121063 0.826 
-0.494434 -0.120037 0.819 
-0.457931 -0.120476 0.822 
-0.417576 -0.11989 0.818 
-0.379912 -0.120037 0.819 
-0.344659 -0.121063 0.826 
-0.314313 -0.124287 0.848 
-0.279649 -0.126486 0.863 
-0.244403 -0.131322 0.896 
-0.207842 -0.134693 0.919 
-0.169675 -0.138504 0.945 
-0.129351 -0.142608 0.973 
-0.0848622 -0.144073 0.983 
-0.0391635 -0.144513 0.986 
0.00665646 -0.141582 0.966 
0.052217 -0.143047 0.976 
0.0995107 -0.145686 0.994 
0.155965 -0.155799 1.063 
0.220785 -0.167377 1.142 
0.299455 -0.18174 1.24 
0.388655 -0.197716 1.349 
0.426764 -0.18687 1.275 
0.460261 -0.176904 1.207 
0.491272 -0.168257 1.148 
0.520578 -0.160782 1.097 
0.546694 -0.153747 1.049 
0.573446 -0.148031 1.01 
0.600534 -0.142901 0.975 
0.610864 -0.135133 0.922 
0.619799 -0.128098 0.874 
0.630306 -0.122235 0.834 
0.642701 -0.117399 0.801 
0.657113 -0.113441 0.774 
0.669904 -0.109631 0.748 
0.681214 -0.105966 0.723 
0.698103 -0.103475 0.706 
-0.655568 -0.117314 0.809 
-0.634662 -0.120504 0.831 
-0.595212 -0.120359 0.83 
-0.555184 -0.120069 0.828 
-0.513471 -0.119344 0.823 
-0.476266 -0.119634 0.825 
-0.43622 -0.119199 0.822 
-0.394518 -0.118184 0.815 
-0.36178 -0.119924 0.827 
-0.327533 -0.121519 0.838 
-0.296735 -0.125 0.862 
-0.261831 -0.128915 0.889 
-0.224361 -0.131235 0.905 
-0.185399 -0.133555 0.921 
-0.148968 -0.139646 0.963 
-0.106676 -0.143126 0.987 
-0.060549 -0.142836 0.985 
-0.014623 -0.142691 0.984 
0.0310511 -0.141821 0.978 
0.0767143 -0.141966 0.979 
0.128719 -0.149362 1.03 
0.189768 -0.160382 1.106 
0.259211 -0.172273 1.188 
0.350332 -0.19185 1.323 
0.405458 -0.188805 1.302 
0.446453 -0.180829 1.247 
0.475443 -0.170388 1.175 
0.506745 -0.162848 1.123 
0.536685 -0.156322 1.078 
0.559163 -0.148927 1.027 
0.583145 -0.142691 0.984 
0.599604 -0.136021 0.938 
0.613148 -0.12964 0.894 
0.620392 -0.122825 0.847 
0.637278 -0.118619 0.818 
0.650634 -0.114269 0.788 
0.664684 -0.110499 0.762 
0.677228 -0.106873 0.737 
0.689374 -0.103538 0.714 
-0.656016 -0.112471 0.784 
-0.654531 -0.11907 0.83 
-0.621038 -0.120074 0.837 
-0.579244 -0.1195 0.833 
-0.53912 -0.119213 0.831 
-0.494366 -0.117779 0.821 
-0.456654 -0.117922 0.822 
-0.41834 -0.117922 0.822 
-0.380951 -0.118209 0.824 
-0.34296 -0.118352 0.825 
-0.312627 -0.121509 0.847 
-0.278953 -0.124091 0.865 
-0.244676 -0.128681 0.897 
-0.207616 -0.131694 0.918 
-0.169496 -0.135424 0.944 
-0.129085 -0.139297 0.971 
-0.0852076 -0.141593 0.987 
-0.0393224 -0.142023 0.99 
0.00669091 -0.139297 0.971 
0.052431 -0.140588 0.98 
0.0993104 -0.14231 0.992 
0.155818 -0.152352 1.062 
0.220205 -0.163398 1.139 
0.294889 -0.176309 1.229 
0.384553 -0.19252 1.342 
0.424116 -0.182621 1.273 
0.458006 -0.17301 1.206 
0.489488 -0.164689 1.148 
0.519347 -0.157516 1.098 
0.545065 -0.150487 1.049 
0.572443 -0.145036 1.011 
0.599019 -0.139871 0.975 
0.605466 -0.131407 0.916 
0.618441 -0.125382 0.874 
0.62901 -0.119644 0.834 
0.641456 -0.11491 0.801 
0.654216 -0.110749 0.772 
0.667848 -0.107163 0.747 
0.67915 -0.103576 0.722 
0.697006 -0.101281 0.706 
-0.658448 -0.115084 0.811 
-0.636718 -0.118064 0.832 
-0.598657 -0.118206 0.833 
-0.559159 -0.118064 0.832 
-0.517877 -0.117496 0.828 
-0.478705 -0.117355 0.827 
-0.438562 -0.116929 0.824 
-0.398698 -0.116503 0.821 
-0.36353 -0.117922 0.831 
-0.327924 -0.119057 0.839 
-0.296391 -0.122179 0.861 
-0.263105 -0.125443 0.884 
-0.226169 -0.127855 0.901 
-0.188465 -0.130835 0.922 
-0.15196 -0.136653 0.963 
-0.109521 -0.139775 0.985 
-0.063868 -0.140343 0.989 
-0.0176986 -0.139775 0.985 
0.0281267 -0.13935 0.982 
0.0737475 -0.139066 0.98 
0.124422 -0.144884 1.021 
0.185152 -0.155952 1.099 
0.253368 -0.167163 1.178 
0.343604 -0.18632 1.313 
0.402645 -0.185327 1.306 
0.443998 -0.177522 1.251 
0.472996 -0.167163 1.178 
0.504152 -0.159642 1.125 
0.533335 -0.152972 1.078 
0.557055 -0.146019 1.029 
0.580322 -0.140059 0.987 
0.596501 -0.13339 0.94 
0.606256 -0.126294 0.89 
0.61703 -0.120051 0.846 
0.635512 -0.116219 0.819 
0.648186 -0.11182 0.788 
0.662316 -0.108131 0.762 
0.675854 -0.104725 0.738 
0.688117 -0.101461 0.715 
-0.652293 -0.109614 0.781 
-0.653742 -0.11635 0.829 
-0.622522 -0.117754 0.839 
-0.58133 -0.117333 0.836 
-0.543662 -0.117613 0.838 
-0.496172 -0.115649 0.824 
-0.45721 -0.115508 0.823 
-0.420885 -0.11607 0.827 
-0.381514 -0.11621 0.828 
-0.341678 -0.115789 0.825 
-0.310943 -0.118736 0.846 
-0.278251 -0.121684 0.867 
-0.246069 -0.125894 0.897 
-0.208586 -0.128561 0.916 
-0.169876 -0.131648 0.938 
-0.130325 -0.135999 0.969 
-0.0870047 -0.138947 0.99 
-0.040943 -0.139227 0.992 
0.00520898 -0.136982 0.976 
0.0511162 -0.138105 0.984 
0.0976706 -0.139087 0.991 
0.153733 -0.148631 1.059 
0.217477 -0.159157 1.134 
0.291311 -0.171508 1.222 
0.379903 -0.187087 1.333 
0.421144 -0.178245 1.27 
0.455754 -0.169122 1.205 
0.48728 -0.160982 1.147 
0.519055 -0.154526 1.101 
0.542917 -0.147087 1.048 
0.571437 -0.142034 1.012 
0.594767 -0.136561 0.973 
0.601961 -0.12842 0.915 
0.617135 -0.122947 0.876 
0.626962 -0.116912 0.833 
0.639413 -0.11228 0.8 
0.653016 -0.10835 0.772 
0.666687 -0.104842 0.747 
0.678028 -0.101333 0.722 
0.695909 -0.0990873 0.706 
-0.657546 -0.112842 0.813 
-0.634895 -0.115618 0.833 
-0.5975 -0.115895 0.835 
-0.559249 -0.116034 0.836 
-0.516549 -0.115201 0.83 
-0.477863 -0.115201 0.83 
-0.437589 -0.114785 0.827 
-0.398077 -0.114507 0.825 
-0.363111 -0.115618 0.833 
-0.32662 -0.11645 0.839 
-0.29471 -0.119365 0.86 
-0.262323 -0.122974 0.886 
-0.22427 -0.124778 0.899 
-0.187033 -0.12797 0.922 
-0.150308 -0.133522 0.962 
-0.10821 -0.136992 0.987 
-0.0626466 -0.137964 0.994 
-0.016201 -0.136992 0.987 
0.029743 -0.136715 0.985 
0.0755005 -0.136437 0.983 
0.125761 -0.141434 1.019 
0.186859 -0.152537 1.099 
0.255632 -0.16378 1.18 
0.344854 -0.181823 1.31 
0.401576 -0.17988 1.296 
0.443803 -0.172802 1.245 
0.473617 -0.163086 1.175 
0.504551 -0.15573 1.122 
0.532032 -0.14879 1.072 
0.558111 -0.142683 1.028 
0.580087 -0.136576 0.984 
0.595417 -0.129914 0.936 
0.604225 -0.122835 0.885 
0.614842 -0.117005 0.843 
0.633184 -0.113258 0.816 
0.647363 -0.109233 0.787 
0.660578 -0.105485 0.76 
0.675854 -0.102432 0.738 
0.688117 -0.0992395 0.715 
-0.650528 -0.1065 0.776 
-0.65345 -0.1135 0.827 
-0.625313 -0.115421 0.841 
-0.58472 -0.115147 0.839 
-0.548215 -0.115696 0.843 
-0.499867 -0.113637 0.828 
-0.459045 -0.113088 0.824 
-0.423191 -0.113774 0.829 
-0.384551 -0.113774 0.829 
-0.344659 -0.113363 0.826 
-0.31246 -0.115696 0.843 
-0.280945 -0.11899 0.867 
-0.248579 -0.12297 0.896 
-0.21074 -0.125303 0.913 
-0.17058 -0.127087 0.926 
-0.133198 -0.132851 0.968 
-0.0904449 -0.136419 0.994 
-0.0441143 -0.136419 0.994 
0.00218512 -0.134498 0.98 
0.0482539 -0.135596 0.988 
0.0944958 -0.13587 0.99 
0.149874 -0.144791 1.055 
0.212632 -0.154673 1.127 
0.28469 -0.166064 1.21 
0.372942 -0.181572 1.323 
0.417526 -0.174436 1.271 
0.453511 -0.165927 1.209 
0.484137 -0.157555 1.148 
0.517508 -0.151653 1.105 
0.53863 -0.143556 1.046 
0.568292 -0.13889 1.012 
0.590527 -0.133263 0.971 
0.599118 -0.125577 0.915 
0.613711 -0.120088 0.875 
0.623624 -0.114186 0.832 
0.639413 -0.109794 0.8 
0.65217 -0.105814 0.771 
0.665795 -0.102383 0.746 
0.677089 -0.0989521 0.721 
0.694923 -0.0967562 0.705 
-0.660968 -0.110044 0.811 
-0.639304 -0.112893 0.832 
-0.605576 -0.113843 0.839 
-0.565795 -0.113708 0.838 
-0.523593 -0.113029 0.833 
-0.481151 -0.112486 0.829 
-0.442511 -0.112486 0.829 
-0.40582 -0.113029 0.833 
-0.367874 -0.1133 0.835 
-0.329349 -0.113436 0.836 
-0.297677 -0.116286 0.857 
-0.265852 -0.119949 0.884 
-0.227698 -0.121578 0.896 
-0.191745 -0.125377 0.924 
-0.154631 -0.130397 0.961 
-0.112239 -0.133247 0.982 
-0.0675504 -0.135418 0.998 
-0.0208647 -0.134332 0.99 
0.0252029 -0.133925 0.987 
0.0711351 -0.13379 0.986 
0.119705 -0.136775 1.008 
0.180579 -0.148173 1.092 
0.247588 -0.158485 1.168 
0.332542 -0.174496 1.286 
0.399197 -0.177481 1.308 
0.438703 -0.169204 1.247 
0.470929 -0.160385 1.182 
0.499766 -0.152379 1.123 
0.527527 -0.145595 1.073 
0.553857 -0.139624 1.029 
0.57901 -0.134332 0.99 
0.595041 -0.127548 0.94 
0.601475 -0.120085 0.885 
0.611497 -0.11425 0.842 
0.630648 -0.110722 0.816 
0.645737 -0.106923 0.788 
0.658216 -0.103124 0.76 
0.673561 -0.100139 0.738 
0.684936 -0.0968821 0.714 
-0.650054 -0.103821 0.774 
-0.65126 -0.110125 0.821 
-0.628673 -0.112942 0.842 
-0.588027 -0.112674 0.84 
-0.552795 -0.113479 0.846 
-0.50426 -0.111467 0.831 
-0.460884 -0.110662 0.825 
-0.426015 -0.111601 0.832 
-0.386304 -0.111332 0.83 
-0.34678 -0.111064 0.828 
-0.31377 -0.113076 0.843 
-0.281966 -0.116161 0.866 
-0.249692 -0.120051 0.895 
-0.211926 -0.122332 0.912 
-0.171275 -0.123673 0.922 
-0.134702 -0.129843 0.968 
-0.0921744 -0.133599 0.996 
-0.0458424 -0.133867 0.998 
0.000665219 -0.131989 0.984 
0.0468608 -0.132928 0.991 
0.0931455 -0.133062 0.992 
0.147954 -0.141245 1.053 
0.209758 -0.150366 1.121 
0.28094 -0.161231 1.202 
0.36956 -0.175852 1.311 
0.418183 -0.170754 1.273 
0.45276 -0.161902 1.207 
0.483294 -0.153719 1.146 
0.521712 -0.147951 1.103 
0.539869 -0.139367 1.039 
0.568479 -0.134672 1.004 
0.591032 -0.129038 0.962 
0.596873 -0.121124 0.903 
0.60995 -0.115625 0.862 
0.623731 -0.11093 0.827 
0.639855 -0.107174 0.799 
0.653368 -0.103418 0.771 
0.664272 -0.0996627 0.743 
0.676328 -0.0964434 0.719 
0.695032 -0.0944314 0.704 
-0.660153 -0.107391 0.81 
-0.640072 -0.110441 0.833 
-0.60702 -0.111501 0.841 
-0.56647 -0.111236 0.839 
-0.524222 -0.110573 0.834 
-0.483603 -0.110176 0.831 
-0.44594 -0.110441 0.833 
-0.409069 -0.110971 0.837 
-0.369172 -0.110706 0.835 
-0.330648 -0.110838 0.836 
-0.298311 -0.113357 0.855 
-0.266621 -0.116937 0.882 
-0.22909 -0.118793 0.896 
-0.193181 -0.122506 0.924 
-0.155962 -0.127279 0.96 
-0.113649 -0.130063 0.981 
-0.0695164 -0.133112 1.004 
-0.0224933 -0.131786 0.994 
0.0236694 -0.130858 0.987 
0.069815 -0.131123 0.989 
0.117671 -0.133112 1.004 
0.178391 -0.144382 1.089 
0.244511 -0.15406 1.162 
0.324889 -0.167583 1.264 
0.397165 -0.173417 1.308 
0.436416 -0.165197 1.246 
0.469886 -0.156977 1.184 
0.497578 -0.148757 1.122 
0.52488 -0.141995 1.071 
0.550648 -0.136029 1.026 
0.576888 -0.131123 0.989 
0.593142 -0.124229 0.937 
0.601475 -0.117335 0.885 
0.610044 -0.111369 0.84 
0.627557 -0.107656 0.812 
0.644918 -0.104342 0.787 
0.656484 -0.100497 0.758 
0.671736 -0.0975802 0.736 
0.683977 -0.0945309 0.713 
-0.650773 -0.101154 0.772 
-0.651423 -0.107181 0.818 
-0.631289 -0.110326 0.842 
-0.592043 -0.110326 0.842 
-0.556737 -0.111112 0.848 
-0.508672 -0.109277 0.834 
-0.46642 -0.108491 0.828 
-0.431443 -0.109409 0.835 
-0.390643 -0.108884 0.831 
-0.35191 -0.108884 0.831 
-0.317322 -0.110326 0.842 
-0.285672 -0.113339 0.865 
-0.253013 -0.116877 0.892 
-0.215703 -0.119236 0.91 
-0.175763 -0.120939 0.923 
-0.139501 -0.127097 0.97 
-0.0968168 -0.130504 0.996 
-0.0506459 -0.131159 1.001 
-0.00394913 -0.129849 0.991 
0.0424122 -0.130373 0.995 
0.0885217 -0.12998 0.992 
0.14604 -0.137711 1.051 
0.207089 -0.146227 1.116 
0.277912 -0.156841 1.197 
0.364159 -0.170206 1.299 
0.41784 -0.167454 1.278 
0.452006 -0.158544 1.21 
0.481934 -0.150289 1.147 
0.518591 -0.145572 1.111 
0.535465 -0.136662 1.043 
0.56224 -0.131552 1.004 
0.584772 -0.126311 0.964 
0.595084 -0.119367 0.911 
0.608153 -0.113863 0.869 
0.617307 -0.10836 0.827 
0.635234 -0.104954 0.801 
0.650738 -0.101547 0.775 
0.662931 -0.0980091 0.748 
0.676339 -0.0949954 0.725 
0.690542 -0.0923749 0.705 
-0.663977 -0.104486 0.807 
-0.644991 -0.107593 0.831 
-0.615742 -0.109276 0.844 
-0.574354 -0.108888 0.841 
-0.535155 -0.108888 0.841 
-0.494186 -0.1085 0.838 
-0.452954 -0.107982 0.834 
-0.41706 -0.108759 0.84 
-0.375208 -0.107982 0.834 
-0.336739 -0.108111 0.835 
-0.303169 -0.110053 0.85 
-0.270062 -0.112772 0.871 
-0.235787 -0.11588 0.895 
-0.198841 -0.118728 0.917 
-0.161887 -0.12313 0.951 
-0.120528 -0.126238 0.975 
-0.0776239 -0.13051 1.008 
-0.0303671 -0.129345 0.999 
0.0159858 -0.127662 0.986 
0.0623833 -0.128568 0.993 
0.109433 -0.129474 1 
0.171565 -0.139573 1.078 
0.236214 -0.148637 1.148 
0.312941 -0.160548 1.24 
0.392264 -0.169871 1.312 
0.434064 -0.16262 1.256 
0.465937 -0.153816 1.188 
0.492348 -0.14527 1.122 
0.52183 -0.139185 1.075 
0.54693 -0.1331 1.028 
0.572279 -0.12805 0.989 
0.589615 -0.122094 0.943 
0.598631 -0.115362 0.891 
0.609266 -0.109794 0.848 
0.618954 -0.104745 0.809 
0.642051 -0.102414 0.791 
0.656604 -0.099048 0.765 
0.666923 -0.0954227 0.737 
0.678438 -0.0923153 0.713 
-0.658822 -0.0988828 0.773 
-0.65502 -0.104 0.813 
-0.635343 -0.10707 0.837 
-0.60203 -0.108093 0.845 
-0.562644 -0.108093 0.845 
-0.517685 -0.106942 0.836 
-0.477001 -0.106558 0.833 
-0.440805 -0.107198 0.838 
-0.400787 -0.106942 0.836 
-0.361821 -0.106942 0.836 
-0.324013 -0.107326 0.839 
-0.292038 -0.110012 0.86 
-0.259277 -0.11321 0.885 
-0.222215 -0.115385 0.902 
-0.185766 -0.118966 0.93 
-0.148391 -0.123955 0.969 
-0.105675 -0.126897 0.992 
-0.0602769 -0.128688 1.006 
-0.0133071 -0.127921 1 
0.0378883 -0.127665 0.998 
0.083898 -0.126897 0.992 
0.140067 -0.133421 1.043 
0.199897 -0.141352 1.105 
0.269148 -0.15133 1.183 
0.352522 -0.164506 1.286 
0.412142 -0.164378 1.285 
0.447792 -0.155935 1.219 
0.478531 -0.147876 1.156 
0.513069 -0.142504 1.114 
0.531519 -0.134061 1.048 
0.556 -0.128432 1.004 
0.579982 -0.123572 0.966 
0.59201 -0.117048 0.915 
0.604833 -0.111547 0.872 
0.612907 -0.105918 0.828 
0.632616 -0.102848 0.804 
0.649255 -0.0996503 0.779 
0.660043 -0.0959406 0.75 
0.677394 -0.0935101 0.731 
0.687134 -0.0903121 0.706 
-0.661941 -0.100715 0.797 
-0.649095 -0.104632 0.828 
-0.623036 -0.10678 0.845 
-0.582959 -0.106654 0.844 
-0.545552 -0.107033 0.847 
-0.503684 -0.106527 0.843 
-0.460535 -0.105643 0.836 
-0.424594 -0.106401 0.842 
-0.381687 -0.10539 0.834 
-0.342814 -0.10539 0.834 
-0.307586 -0.106654 0.844 
-0.275874 -0.109687 0.868 
-0.242197 -0.112846 0.893 
-0.205515 -0.115626 0.915 
-0.166961 -0.118532 0.938 
-0.127576 -0.122702 0.971 
-0.0856239 -0.127631 1.01 
-0.0382422 -0.12662 1.002 
0.00991811 -0.125356 0.992 
0.0564952 -0.126114 0.998 
0.103219 -0.126367 1 
0.162265 -0.134076 1.061 
0.226086 -0.143174 1.133 
0.302281 -0.155179 1.228 
0.382647 -0.165162 1.307 
0.431009 -0.160486 1.27 
0.460869 -0.150882 1.194 
0.486673 -0.142163 1.125 
0.522816 -0.137867 1.091 
0.543171 -0.130537 1.033 
0.566132 -0.124977 0.989 
0.588087 -0.120049 0.95 
0.596422 -0.113225 0.896 
0.60827 -0.107918 0.854 
0.613167 -0.102105 0.808 
0.640357 -0.100462 0.795 
0.656962 -0.0974291 0.771 
0.663241 -0.0932589 0.738 
0.674952 -0.0902261 0.714 
0.696329 -0.0887097 0.702 
-0.656737 -0.101349 0.812 
-0.637182 -0.104344 0.836 
-0.608234 -0.106091 0.85 
-0.56527 -0.105467 0.845 
-0.52215 -0.104718 0.839 
-0.481893 -0.104469 0.837 
-0.444467 -0.104843 0.84 
-0.405315 -0.104843 0.84 
-0.364854 -0.104469 0.837 
-0.326231 -0.104594 0.838 
-0.29471 -0.10734 0.86 
-0.260843 -0.109961 0.881 
-0.224769 -0.112457 0.901 
-0.189061 -0.116326 0.932 
-0.151402 -0.120944 0.969 
-0.108429 -0.12344 0.989 
-0.0635919 -0.125937 1.009 
-0.0164472 -0.125063 1.002 
0.0300449 -0.124189 0.995 
0.0779681 -0.124189 0.995 
0.128928 -0.127185 1.019 
0.18837 -0.135797 1.088 
0.256222 -0.145532 1.166 
0.337471 -0.158139 1.267 
0.403412 -0.160885 1.289 
0.440839 -0.153021 1.226 
0.472394 -0.145158 1.163 
0.504867 -0.139167 1.115 
0.527872 -0.131928 1.057 
0.550931 -0.125937 1.009 
0.575441 -0.121194 0.971 
0.590016 -0.115203 0.923 
0.601476 -0.109212 0.875 
0.611431 -0.10397 0.833 
0.629962 -0.100724 0.807 
0.645241 -0.0973545 0.78 
0.656256 -0.0937349 0.751 
0.674692 -0.0914883 0.733 
0.68468 -0.0883679 0.708 
-0.66148 -0.0976217 0.792 
-0.6498 -0.101566 0.824 
-0.627716 -0.104278 0.846 
-0.588979 -0.104401 0.847 
-0.550149 -0.104524 0.848 
-0.508215 -0.104031 0.844 
-0.466654 -0.103538 0.84 
-0.429537 -0.104031 0.844 
-0.385575 -0.102799 0.834 
-0.346702 -0.102799 0.834 
-0.310781 -0.103785 0.842 
-0.279598 -0.106866 0.867 
-0.245532 -0.109701 0.89 
-0.21001 -0.112906 0.916 
-0.17115 -0.115494 0.937 
-0.132102 -0.119685 0.971 
-0.0900633 -0.124123 1.007 
-0.0429982 -0.123753 1.004 
0.00378717 -0.123383 1.001 
0.0597755 -0.123383 1.001 
0.106539 -0.123506 1.002 
0.161501 -0.130162 1.056 
0.225488 -0.139284 1.13 
0.302035 -0.15124 1.227 
0.381476 -0.160607 1.303 
0.431688 -0.156786 1.272 
0.461641 -0.147419 1.196 
0.485808 -0.138421 1.123 
0.523296 -0.1346 1.092 
0.543171 -0.127327 1.033 
0.564987 -0.121657 0.987 
0.586849 -0.11685 0.948 
0.595756 -0.110317 0.895 
0.607558 -0.105141 0.853 
0.613167 -0.0995939 0.808 
0.638746 -0.097745 0.793 
0.65611 -0.09491 0.77 
0.662343 -0.0908425 0.737 
0.674952 -0.0880075 0.714 
0.695337 -0.0864051 0.701 
-0.655119 -0.0985819 0.81 
-0.63642 -0.101625 0.835 
-0.609665 -0.103694 0.852 
-0.566627 -0.103328 0.849 
-0.52333 -0.102598 0.843 
-0.482315 -0.102233 0.84 
-0.444745 -0.102598 0.843 
-0.40449 -0.102355 0.841 
-0.363988 -0.10199 0.838 
-0.324929 -0.10199 0.838 
-0.294398 -0.105032 0.863 
-0.259474 -0.107223 0.881 
-0.223865 -0.109901 0.903 
-0.188217 -0.113795 0.935 
-0.15036 -0.118298 0.972 
-0.107001 -0.120489 0.99 
-0.0620243 -0.122801 1.009 
-0.0148905 -0.12195 1.002 
0.04884 -0.121706 1 
0.0954503 -0.121706 1 
0.147601 -0.126453 1.039 
0.209991 -0.135459 1.113 
0.282808 -0.146291 1.202 
0.363358 -0.156879 1.289 
0.422453 -0.156514 1.286 
0.455012 -0.147021 1.208 
0.481265 -0.13838 1.137 
0.522044 -0.135215 1.111 
0.537673 -0.126696 1.041 
0.560291 -0.121098 0.995 
0.584109 -0.116594 0.958 
0.589382 -0.109292 0.898 
0.605229 -0.104789 0.861 
0.614629 -0.099799 0.82 
0.635334 -0.0971215 0.798 
0.65146 -0.0940788 0.773 
0.661698 -0.0905493 0.744 
0.673912 -0.0876284 0.72 
0.689785 -0.0854377 0.702 
-0.658962 -0.096963 0.807 
-0.640596 -0.0999668 0.832 
-0.617007 -0.10249 0.853 
-0.573864 -0.101889 0.848 
-0.533709 -0.101769 0.847 
-0.49423 -0.101769 0.847 
-0.453677 -0.101529 0.845 
-0.413801 -0.101409 0.844 
-0.3718 -0.100688 0.838 
-0.332344 -0.100568 0.837 
-0.301391 -0.103331 0.86 
-0.264649 -0.104653 0.871 
-0.231768 -0.108257 0.901 
-0.195459 -0.111501 0.928 
-0.155813 -0.114145 0.95 
-0.115525 -0.11823 0.984 
-0.071855 -0.121955 1.015 
-0.0242795 -0.120633 1.004 
0.0223827 -0.119912 0.998 
0.0892356 -0.120152 1 
0.140057 -0.123877 1.031 
0.200884 -0.132288 1.101 
0.270298 -0.14178 1.18 
0.352866 -0.153795 1.28 
0.413817 -0.154276 1.284 
0.447473 -0.145745 1.213 
0.476172 -0.137695 1.146 
0.513413 -0.133489 1.111 
0.53213 -0.125679 1.046 
0.554783 -0.120032 0.999 
0.578473 -0.115466 0.961 
0.586297 -0.108618 0.904 
0.602017 -0.104052 0.866 
0.613452 -0.0993661 0.827 
0.632289 -0.0963622 0.802 
0.647125 -0.0931181 0.775 
0.661208 -0.0901143 0.75 
0.673888 -0.0872307 0.726 
0.689206 -0.0849478 0.707 
-0.660686 -0.0952348 0.803 
-0.644215 -0.098437 0.83 
-0.621578 -0.101046 0.852 
-0.581866 -0.101046 0.852 
-0.540882 -0.100809 0.85 
-0.501853 -0.100928 0.851 
-0.460558 -0.100572 0.848 
-0.420536 -0.100453 0.847 
-0.376558 -0.0992671 0.837 
-0.338352 -0.0995044 0.839 
-0.304952 -0.101402 0.855 
-0.268201 -0.102588 0.865 
-0.236577 -0.106502 0.898 
-0.200142 -0.109467 0.923 
-0.160525 -0.111839 0.943 
-0.121022 -0.116108 0.979 
-0.0779319 -0.120022 1.012 
-0.0305799 -0.11931 1.006 
0.0162452 -0.118836 1.002 
0.0831039 -0.118717 1.001 
0.131965 -0.120734 1.018 
0.192279 -0.129391 1.091 
0.259177 -0.13793 1.163 
0.3406 -0.149909 1.264 
0.405837 -0.152281 1.284 
0.441022 -0.144216 1.216 
0.470278 -0.13627 1.149 
0.506053 -0.131645 1.11 
0.530152 -0.125122 1.055 
0.55132 -0.119073 1.004 
0.574288 -0.114329 0.964 
0.584659 -0.107688 0.908 
0.600052 -0.103062 0.869 
0.611071 -0.0983184 0.829 
0.630118 -0.0953534 0.804 
0.644343 -0.0920326 0.776 
0.657712 -0.0889491 0.75 
0.673275 -0.0864585 0.729 
0.68688 -0.0839679 0.708 
-0.660686 -0.0939872 0.803 
-0.644215 -0.0971474 0.83 
-0.621578 -0.0997224 0.852 
-0.583232 -0.0999565 0.854 
-0.542154 -0.0997224 0.852 
-0.502442 -0.0997224 0.852 
-0.461101 -0.0993713 0.849 
-0.421032 -0.0992542 0.848 
-0.377458 -0.0982008 0.839 
-0.338352 -0.0982008 0.839 
-0.305309 -0.100191 0.856 
-0.267891 -0.101127 0.864 
-0.236577 -0.105106 0.898 
-0.200359 -0.10815 0.924 
-0.160525 -0.110373 0.943 
-0.121146 -0.114704 0.98 
-0.0778549 -0.118333 1.011 
-0.0305799 -0.117747 1.006 
0.0163101 -0.117747 1.006 
0.0800734 -0.117279 1.002 
0.127916 -0.118333 1.011 
0.18837 -0.127345 1.088 
0.254244 -0.135421 1.157 
0.333476 -0.14654 1.252 
0.40216 -0.150403 1.285 
0.437244 -0.142327 1.216 
0.46905 -0.134134 1.146 
0.505597 -0.129803 1.109 
0.530152 -0.123483 1.055 
0.55132 -0.117513 1.004 
0.574288 -0.112831 0.964 
0.582606 -0.10616 0.907 
0.598013 -0.101595 0.868 
0.610519 -0.0971474 0.83 
0.628869 -0.0941042 0.804 
0.643138 -0.090827 0.776 
0.657712 -0.0877838 0.75 
0.672352 -0.0852088 0.728 
0.687851 -0.082985 0.709 
-0.655641 -0.0930861 0.806 
-0.637244 -0.0959734 0.831 
-0.615797 -0.0987451 0.855 
-0.575271 -0.0986297 0.854 
-0.535466 -0.0986297 0.854 
-0.4945 -0.0983987 0.852 
-0.452653 -0.0979367 0.848 
-0.41264 -0.0978212 0.847 
-0.370958 -0.0972438 0.842 
-0.330531 -0.0968973 0.839 
-0.298719 -0.0993226 0.86 
-0.262844 -0.100939 0.874 
-0.228714 -0.103942 0.9 
-0.193613 -0.107753 0.933 
-0.153505 -0.110179 0.954 
-0.108429 -0.114221 0.989 
-0.063844 -0.116993 1.013 
-0.0164144 -0.115491 1 
0.0442232 -0.115607 1.001 
0.091334 -0.116184 1.006 
0.141109 -0.11861 1.027 
0.202595 -0.127156 1.101 
0.271209 -0.135818 1.176 
0.355687 -0.148175 1.283 
0.413545 -0.147483 1.277 
0.449382 -0.139514 1.208 
0.476384 -0.131429 1.138 
0.5164 -0.128195 1.11 
0.532821 -0.120227 1.041 
0.555654 -0.114914 0.995 
0.579644 -0.110641 0.958 
0.585196 -0.103711 0.898 
0.602613 -0.0996691 0.863 
0.613787 -0.0951649 0.824 
0.633198 -0.0923931 0.8 
0.645343 -0.0889284 0.77 
0.66 -0.0861566 0.746 
0.672419 -0.0833848 0.722 
0.691403 -0.0816524 0.707 
-0.653502 -0.0920617 0.808 
-0.634895 -0.0949101 0.833 
-0.613243 -0.0976446 0.857 
-0.57196 -0.0974167 0.855 
-0.532108 -0.0974167 0.855 
-0.490529 -0.0970749 0.852 
-0.449229 -0.0967331 0.849 
-0.408692 -0.0965052 0.847 
-0.366598 -0.0958216 0.841 
-0.327399 -0.0958216 0.841 
-0.29471 -0.0979864 0.86 
-0.260547 -0.100265 0.88 
-0.224519 -0.102544 0.9 
-0.190887 -0.107215 0.941 
-0.150152 -0.109494 0.961 
-0.107001 -0.112798 0.99 
-0.0622701 -0.115419 1.013 
-0.0148756 -0.114052 1.001 
0.0383439 -0.115077 1.01 
0.0852512 -0.114849 1.008 
0.133809 -0.116216 1.02 
0.194508 -0.124648 1.094 
0.260759 -0.132396 1.162 
0.343648 -0.144473 1.268 
0.405291 -0.145385 1.276 
0.440777 -0.137295 1.205 
0.47108 -0.129661 1.138 
0.509845 -0.126129 1.107 
0.531519 -0.119407 1.048 
0.552677 -0.11371 0.998 
0.57698 -0.109494 0.961 
0.583599 -0.102772 0.902 
0.599978 -0.0985561 0.865 
0.612167 -0.0942265 0.827 
0.630256 -0.0912641 0.801 
0.642587 -0.087846 0.771 
0.659163 -0.0853393 0.749 
0.671834 -0.0826048 0.725 
0.690054 -0.0807818 0.709 
-0.657762 -0.0903568 0.804 
-0.639575 -0.0931664 0.829 
-0.619782 -0.0960883 0.855 
-0.582643 -0.0965379 0.859 
-0.543868 -0.0967627 0.861 
-0.500811 -0.0962007 0.856 
-0.458759 -0.0957512 0.852 
-0.418555 -0.0956388 0.851 
-0.373593 -0.0949645 0.845 
-0.332625 -0.094515 0.841 
-0.299357 -0.0964255 0.858 
-0.2639 -0.0981113 0.873 
-0.230113 -0.101146 0.9 
-0.194854 -0.104742 0.932 
-0.154175 -0.106652 0.949 
-0.114228 -0.110811 0.986 
-0.0701395 -0.113845 1.013 
-0.0226744 -0.112609 1.002 
0.0244368 -0.114519 1.019 
0.0742884 -0.113283 1.008 
0.121512 -0.113508 1.01 
0.182962 -0.122049 1.086 
0.246271 -0.12868 1.145 
0.323453 -0.138907 1.236 
0.394629 -0.143852 1.28 
0.430511 -0.136322 1.213 
0.461352 -0.129129 1.149 
0.495189 -0.124184 1.105 
0.525419 -0.119352 1.062 
0.546769 -0.113508 1.01 
0.569151 -0.108788 0.968 
0.575561 -0.101932 0.907 
0.592632 -0.0977741 0.87 
0.60771 -0.0938407 0.835 
0.623398 -0.0904692 0.805 
0.63793 -0.0873224 0.777 
0.652456 -0.0845128 0.752 
0.667394 -0.0820403 0.73 
0.682202 -0.0797927 0.71 
-0.665618 -0.0879993 0.794 
-0.648401 -0.0907701 0.819 
-0.62662 -0.0932083 0.841 
-0.602088 -0.0955358 0.862 
-0.561258 -0.0954249 0.861 
-0.518706 -0.0949816 0.857 
-0.477644 -0.09476 0.855 
-0.43728 -0.0946491 0.854 
-0.392047 -0.0939841 0.848 
-0.350443 -0.09343 0.843 
-0.313365 -0.094095 0.849 
-0.278953 -0.0958683 0.865 
-0.242229 -0.0978632 0.883 
-0.209497 -0.101964 0.92 
-0.171687 -0.105067 0.948 
-0.130862 -0.107838 0.973 
-0.0878835 -0.11083 1 
-0.041686 -0.111939 1.01 
0.00541712 -0.112493 1.015 
0.0524668 -0.111939 1.01 
0.0996418 -0.112049 1.011 
0.154355 -0.115374 1.041 
0.215738 -0.122689 1.107 
0.28569 -0.131112 1.183 
0.373674 -0.143747 1.297 
0.41873 -0.138649 1.251 
0.458355 -0.133218 1.202 
0.47929 -0.12413 1.12 
0.515833 -0.120473 1.087 
0.536861 -0.113158 1.021 
0.558691 -0.10817 0.976 
