# .PCD v.7 - Point Cloud Data file format
VERSION .7
FIELDS x y z
SIZE 4 4 4
TYPE F F F
COUNT 1 1 1
WIDTH 1824
HEIGHT 1
VIEWPOINT 0 0 0 1 0 0 0
POINTS 1824
DATA ascii
0.493533 -0.451274 1.289 
0.529992 -0.432019 1.234 
0.555134 -0.408213 1.166 
0.585959 -0.392458 1.121 
0.606897 -0.373203 1.066 
0.629482 -0.357799 1.022 
0.649291 -0.343095 0.98 
0.666603 -0.329091 0.94 
0.684721 -0.317187 0.906 
0.702076 -0.306334 0.875 
0.713995 -0.294431 0.841 
0.727222 -0.284278 0.812 
0.742457 -0.275876 0.788 
0.756443 -0.267824 0.765 
-0.581913 -0.24886 0.714 
-0.564001 -0.25583 0.734 
-0.545668 -0.263498 0.756 
-0.519883 -0.268378 0.77 
-0.493422 -0.273606 0.785 
-0.470218 -0.281623 0.808 
-0.440051 -0.286502 0.822 
-0.40076 -0.285805 0.82 
-0.363424 -0.286502 0.822 
-0.323133 -0.28476 0.817 
-0.285401 -0.285108 0.818 
-0.251808 -0.290336 0.833 
-0.224488 -0.306021 0.878 
-0.195688 -0.328676 0.943 
-0.15978 -0.346103 0.993 
-0.119861 -0.375729 1.078 
-0.0736194 -0.397339 1.14 
-0.0267391 -0.567776 1.629 
0.0498232 -0.575096 1.65 
0.127268 -0.577536 1.657 
0.203761 -0.575444 1.651 
0.280034 -0.57405 1.647 
0.345103 -0.555229 1.593 
0.393818 -0.52142 1.496 
0.431322 -0.485172 1.392 
0.466617 -0.456243 1.309 
0.513925 -0.444392 1.275 
0.541875 -0.419994 1.205 
0.569255 -0.399779 1.147 
0.5972 -0.383397 1.1 
0.616048 -0.364227 1.045 
0.637402 -0.34924 1.002 
0.658161 -0.335995 0.964 
0.677566 -0.323796 0.929 
0.688277 -0.309158 0.887 
0.700008 -0.29661 0.851 
0.72142 -0.289291 0.83 
0.732633 -0.278834 0.8 
0.749711 -0.271515 0.779 
-0.597406 -0.246362 0.71 
-0.576695 -0.252261 0.727 
-0.555502 -0.25816 0.744 
-0.532724 -0.264059 0.761 
-0.507055 -0.269264 0.776 
-0.483022 -0.276203 0.796 
-0.458245 -0.283837 0.818 
-0.422685 -0.285572 0.823 
-0.383858 -0.285225 0.822 
-0.345965 -0.285572 0.823 
-0.306857 -0.284878 0.821 
-0.269899 -0.286266 0.825 
-0.238739 -0.295288 0.851 
-0.208431 -0.309167 0.891 
-0.177211 -0.333804 0.962 
-0.140078 -0.353235 1.018 
-0.0959125 -0.385505 1.111 
-0.0471074 -0.411529 1.186 
0.0140093 -0.575655 1.659 
0.0902347 -0.568715 1.639 
0.168459 -0.574961 1.657 
0.244803 -0.572879 1.651 
0.317274 -0.564898 1.628 
0.374319 -0.537833 1.55 
0.416313 -0.501399 1.445 
0.446846 -0.463231 1.335 
0.493056 -0.448657 1.293 
0.528074 -0.428185 1.234 
0.553322 -0.404589 1.166 
0.587177 -0.388628 1.12 
0.60627 -0.368503 1.062 
0.629218 -0.353582 1.019 
0.649486 -0.339355 0.978 
0.666642 -0.325476 0.938 
0.6831 -0.312984 0.902 
0.70022 -0.302228 0.871 
0.713601 -0.291124 0.839 
0.726689 -0.281061 0.81 
0.742737 -0.27308 0.787 
0.756641 -0.2651 0.764 
-0.580804 -0.246641 0.714 
-0.563628 -0.253895 0.735 
-0.544494 -0.261149 0.756 
-0.518013 -0.26564 0.769 
-0.493456 -0.271858 0.787 
-0.468962 -0.279112 0.808 
-0.439308 -0.284293 0.823 
-0.399973 -0.283603 0.821 
-0.363469 -0.284984 0.825 
-0.323439 -0.283603 0.821 
-0.284825 -0.283257 0.82 
-0.249913 -0.287057 0.831 
-0.223378 -0.303638 0.879 
-0.192307 -0.327473 0.948 
-0.155933 -0.344745 0.998 
-0.114304 -0.370652 1.073 
-0.0685454 -0.395178 1.144 
-0.0217171 -0.563751 1.632 
0.0548837 -0.569278 1.648 
0.132497 -0.572732 1.658 
0.209397 -0.571696 1.655 
0.285152 -0.568932 1.647 
0.347855 -0.546824 1.583 
0.395004 -0.512281 1.483 
0.429075 -0.473592 1.371 
0.468167 -0.449757 1.302 
0.517074 -0.439739 1.273 
0.541091 -0.412795 1.195 
0.565584 -0.389997 1.129 
0.597399 -0.37687 1.091 
0.615571 -0.357871 1.036 
0.638228 -0.344054 0.996 
0.659905 -0.331618 0.96 
0.677492 -0.318837 0.923 
0.688508 -0.304674 0.882 
0.705297 -0.293966 0.851 
0.722202 -0.284984 0.825 
0.733917 -0.274967 0.796 
0.749709 -0.267367 0.774 
-0.592726 -0.245876 0.715 
-0.571135 -0.251034 0.73 
-0.551089 -0.257567 0.749 
-0.526515 -0.262726 0.764 
-0.499901 -0.26754 0.778 
-0.47794 -0.275793 0.802 
-0.451546 -0.282671 0.822 
-0.413232 -0.282671 0.822 
-0.377199 -0.28439 0.827 
-0.336605 -0.282671 0.822 
-0.298291 -0.282671 0.822 
-0.262507 -0.285422 0.83 
-0.23218 -0.296082 0.861 
-0.198964 -0.306743 0.892 
-0.167316 -0.334941 0.974 
-0.127557 -0.359357 1.045 
-0.0844332 -0.384804 1.119 
-0.034728 -0.414034 1.204 
0.0294746 -0.5705 1.659 
0.105835 -0.565342 1.644 
0.184017 -0.570156 1.658 
0.260351 -0.568093 1.652 
0.329591 -0.555025 1.614 
0.385758 -0.52889 1.538 
0.422348 -0.488312 1.42 
0.455836 -0.45358 1.319 
0.505157 -0.44292 1.288 
0.532719 -0.417473 1.214 
0.558237 -0.395464 1.15 
0.591621 -0.382397 1.112 
0.610469 -0.362795 1.055 
0.630256 -0.346633 1.008 
0.653724 -0.334597 0.973 
0.669618 -0.320498 0.932 
0.681691 -0.306399 0.891 
0.69887 -0.296082 0.861 
0.715403 -0.28611 0.832 
0.728801 -0.276481 0.804 
0.745308 -0.268916 0.782 
-0.598768 -0.242711 0.709 
-0.57769 -0.247846 0.724 
-0.555965 -0.253323 0.74 
-0.534157 -0.259485 0.758 
-0.510672 -0.265647 0.776 
-0.485509 -0.271809 0.794 
-0.460363 -0.278997 0.815 
-0.428594 -0.283105 0.827 
-0.389104 -0.282421 0.825 
-0.351501 -0.283105 0.827 
-0.312576 -0.282763 0.826 
-0.273412 -0.282078 0.824 
-0.240424 -0.288583 0.843 
-0.212107 -0.30433 0.889 
-0.179078 -0.330004 0.964 
-0.140825 -0.346436 1.012 
-0.0985598 -0.377246 1.102 
-0.0503644 -0.402578 1.176 
0.00624637 -0.565184 1.651 
0.0828976 -0.56313 1.645 
0.161415 -0.569634 1.664 
0.237682 -0.566553 1.655 
0.310066 -0.557995 1.63 
0.367331 -0.530951 1.551 
0.407311 -0.491926 1.437 
0.442934 -0.459404 1.342 
0.487782 -0.443315 1.295 
0.524439 -0.424145 1.239 
0.546948 -0.39847 1.164 
0.578476 -0.383408 1.12 
0.599146 -0.364237 1.064 
0.623741 -0.350202 1.023 
0.644514 -0.336166 0.982 
0.664276 -0.3235 0.945 
0.681339 -0.311176 0.909 
0.695046 -0.298853 0.873 
0.712608 -0.288925 0.844 
0.724328 -0.278313 0.813 
0.737846 -0.269412 0.787 
0.753861 -0.262223 0.766 
-0.583244 -0.244335 0.717 
-0.563628 -0.250469 0.735 
-0.543774 -0.257285 0.755 
-0.516666 -0.261374 0.767 
-0.494083 -0.26853 0.788 
-0.468962 -0.275346 0.808 
-0.439842 -0.280798 0.824 
-0.400461 -0.280117 0.822 
-0.36479 -0.282161 0.828 
-0.325803 -0.281821 0.827 
-0.28552 -0.280117 0.822 
-0.249913 -0.283184 0.831 
-0.222012 -0.299541 0.879 
-0.189761 -0.323736 0.95 
-0.153597 -0.341797 1.003 
-0.110349 -0.363606 1.067 
-0.0651043 -0.390528 1.146 
-0.0166969 -0.557848 1.637 
0.0601503 -0.562959 1.652 
0.137649 -0.565004 1.658 
0.214799 -0.564663 1.657 
0.289212 -0.559211 1.641 
0.349432 -0.534334 1.568 
0.394762 -0.499235 1.465 
0.429226 -0.462772 1.358 
0.470762 -0.442325 1.298 
0.517346 -0.430739 1.264 
0.540245 -0.403818 1.185 
0.562815 -0.381667 1.12 
0.593603 -0.368377 1.081 
0.614798 -0.351679 1.032 
0.637848 -0.338389 0.993 
0.660708 -0.326803 0.959 
0.67672 -0.313513 0.92 
0.689096 -0.300222 0.881 
0.706125 -0.29034 0.852 
0.721326 -0.280798 0.824 
0.732073 -0.270575 0.794 
0.747772 -0.263078 0.772 
-0.594948 -0.242543 0.715 
-0.573404 -0.247631 0.73 
-0.5512 -0.253059 0.746 
-0.527505 -0.258486 0.762 
-0.502964 -0.264253 0.779 
-0.478635 -0.271037 0.799 
-0.4541 -0.278839 0.822 
-0.418315 -0.280536 0.827 
-0.381605 -0.281892 0.831 
-0.341634 -0.280875 0.828 
-0.301943 -0.279857 0.825 
-0.265087 -0.281553 0.83 
-0.232433 -0.290712 0.857 
-0.1999 -0.301907 0.89 
-0.168482 -0.329723 0.972 
-0.127675 -0.346005 1.02 
-0.0842068 -0.37857 1.116 
-0.0346703 -0.407743 1.202 
0.0320328 -0.562428 1.658 
0.108851 -0.560054 1.651 
0.187493 -0.565142 1.666 
0.263236 -0.561071 1.654 
0.330864 -0.545467 1.608 
0.388148 -0.521722 1.538 
0.418874 -0.475248 1.401 
0.456873 -0.44845 1.322 
0.505157 -0.436916 1.288 
0.532719 -0.411814 1.214 
0.555324 -0.388069 1.144 
0.588961 -0.375517 1.107 
0.607576 -0.356182 1.05 
0.627755 -0.340578 1.004 
0.653052 -0.329723 0.972 
0.668181 -0.315475 0.93 
0.679395 -0.301228 0.888 
0.697246 -0.291391 0.859 
0.713252 -0.281892 0.831 
0.727552 -0.272734 0.804 
0.743142 -0.264931 0.781 
-0.601818 -0.239744 0.71 
-0.578337 -0.243796 0.722 
-0.556755 -0.249198 0.738 
-0.536513 -0.255952 0.758 
-0.51133 -0.262367 0.777 
-0.485509 -0.268108 0.794 
-0.461492 -0.275874 0.817 
-0.429631 -0.279926 0.829 
-0.390991 -0.279926 0.829 
-0.353201 -0.280601 0.831 
-0.313711 -0.279926 0.829 
-0.274076 -0.278913 0.826 
-0.238547 -0.283978 0.841 
-0.210488 -0.299848 0.888 
-0.179821 -0.326862 0.968 
-0.13884 -0.340706 1.009 
-0.0948765 -0.371096 1.099 
-0.0468691 -0.398447 1.18 
0.0139333 -0.557151 1.65 
0.0911156 -0.558839 1.655 
0.169882 -0.564242 1.671 
0.24584 -0.559852 1.658 
0.316884 -0.549047 1.626 
0.374077 -0.523046 1.549 
0.408535 -0.478812 1.418 
0.446846 -0.450786 1.335 
0.493056 -0.436604 1.293 
0.524651 -0.41398 1.226 
0.549051 -0.390681 1.157 
0.581091 -0.376499 1.115 
0.598427 -0.355901 1.054 
0.62298 -0.342395 1.014 
0.647769 -0.330914 0.98 
0.663058 -0.315719 0.935 
0.677919 -0.302887 0.897 
0.69325 -0.291744 0.864 
0.712297 -0.283303 0.839 
0.72364 -0.272835 0.808 
0.737746 -0.264393 0.783 
0.753477 -0.257302 0.762 
-0.582637 -0.241666 0.719 
-0.561344 -0.247043 0.735 
-0.542145 -0.254102 0.756 
-0.514703 -0.259816 0.773 
-0.4892 -0.26553 0.79 
-0.463258 -0.271916 0.809 
-0.435545 -0.278302 0.828 
-0.396472 -0.277966 0.827 
-0.359224 -0.278974 0.83 
-0.320923 -0.27931 0.831 
-0.279134 -0.276285 0.822 
-0.244336 -0.280319 0.834 
-0.215918 -0.296452 0.882 
-0.186698 -0.321661 0.957 
-0.147952 -0.338466 1.007 
-0.103017 -0.361994 1.077 
-0.0566431 -0.388211 1.155 
-0.00144196 -0.552234 1.643 
0.0758247 -0.557276 1.658 
0.153843 -0.559965 1.666 
0.230801 -0.558284 1.661 
0.302469 -0.547865 1.63 
0.360102 -0.521312 1.551 
0.399219 -0.481314 1.432 
0.435703 -0.450056 1.339 
0.481746 -0.435267 1.295 
0.519083 -0.416781 1.24 
0.542453 -0.391908 1.166 
0.572232 -0.375775 1.118 
0.59307 -0.356952 1.062 
0.619578 -0.34418 1.024 
0.641892 -0.331072 0.985 
0.662665 -0.318972 0.949 
0.679337 -0.306535 0.912 
0.69256 -0.294099 0.875 
0.710715 -0.285024 0.848 
0.721045 -0.273932 0.815 
0.731093 -0.263849 0.785 
0.748123 -0.257127 0.765 
-0.590456 -0.240548 0.719 
-0.567013 -0.244898 0.732 
-0.545999 -0.25092 0.75 
-0.518034 -0.254935 0.762 
-0.497081 -0.262629 0.785 
-0.472811 -0.269655 0.806 
-0.446043 -0.276346 0.826 
-0.408036 -0.276681 0.827 
-0.371723 -0.278354 0.832 
-0.333744 -0.279023 0.834 
-0.292396 -0.276681 0.827 
-0.255691 -0.278688 0.833 
-0.225716 -0.290063 0.867 
-0.193142 -0.306791 0.917 
-0.160023 -0.329541 0.985 
-0.11883 -0.352626 1.054 
-0.0747292 -0.378053 1.13 
-0.0234456 -0.401806 1.201 
0.0451295 -0.557377 1.666 
0.122266 -0.555035 1.659 
0.200315 -0.557042 1.665 
0.274916 -0.55102 1.647 
0.337163 -0.52827 1.579 
0.386568 -0.497156 1.486 
0.421782 -0.46002 1.375 
0.465023 -0.440281 1.316 
0.509563 -0.426229 1.274 
0.537237 -0.402475 1.203 
0.556813 -0.377718 1.129 
0.587304 -0.364001 1.088 
0.607523 -0.346604 1.036 
0.629224 -0.332552 0.994 
0.653807 -0.321847 0.962 
0.669596 -0.308464 0.922 
0.683975 -0.296085 0.885 
0.700641 -0.286049 0.855 
0.716243 -0.276681 0.827 
0.730147 -0.267648 0.8 
0.742494 -0.258949 0.774 
-0.597444 -0.237766 0.714 
-0.575226 -0.242428 0.728 
-0.55319 -0.247757 0.744 
-0.53036 -0.253418 0.761 
-0.505294 -0.258746 0.777 
-0.481152 -0.265406 0.797 
-0.457931 -0.273731 0.822 
-0.424212 -0.276728 0.831 
-0.387334 -0.27806 0.835 
-0.347997 -0.277727 0.834 
-0.307642 -0.276395 0.83 
-0.269279 -0.276728 0.831 
-0.23554 -0.282722 0.849 
-0.205201 -0.296042 0.889 
-0.174523 -0.323682 0.972 
-0.134004 -0.33567 1.008 
-0.0915447 -0.366307 1.1 
-0.0432756 -0.393613 1.182 
0.0191066 -0.550792 1.654 
0.096898 -0.554788 1.666 
0.175179 -0.556786 1.672 
0.251598 -0.553456 1.662 
0.319759 -0.537805 1.615 
0.375221 -0.510831 1.534 
0.409695 -0.463544 1.392 
0.453098 -0.442565 1.329 
0.498766 -0.428579 1.287 
0.52706 -0.404269 1.214 
0.551434 -0.381958 1.147 
0.582219 -0.367639 1.104 
0.599812 -0.347991 1.045 
0.622455 -0.334005 1.003 
0.65119 -0.325014 0.976 
0.663133 -0.309363 0.929 
0.679059 -0.297374 0.893 
0.694049 -0.286385 0.86 
0.712793 -0.27806 0.835 
0.723805 -0.267737 0.804 
0.738555 -0.259745 0.78 
0.751067 -0.251753 0.756 
-0.58074 -0.240303 0.725 
-0.556755 -0.244612 0.738 
-0.536513 -0.251241 0.758 
-0.511761 -0.256544 0.774 
-0.487976 -0.263173 0.794 
-0.461759 -0.269471 0.813 
-0.432728 -0.275106 0.83 
-0.395466 -0.2761 0.833 
-0.357068 -0.276431 0.834 
-0.318195 -0.276431 0.834 
-0.276977 -0.274111 0.827 
-0.240737 -0.276763 0.835 
-0.213177 -0.292341 0.882 
-0.180006 -0.321177 0.969 
-0.140407 -0.334436 1.009 
-0.0972182 -0.360289 1.087 
-0.0499362 -0.386474 1.166 
0.0113766 -0.547228 1.651 
0.0894002 -0.553857 1.671 
0.167686 -0.555183 1.675 
0.244438 -0.5522 1.666 
0.312618 -0.535959 1.617 
0.368551 -0.509111 1.536 
0.404789 -0.465691 1.405 
0.444838 -0.4405 1.329 
0.49153 -0.427242 1.289 
0.521227 -0.403709 1.218 
0.548102 -0.382828 1.155 
0.576921 -0.366918 1.107 
0.596156 -0.348025 1.05 
0.619908 -0.334436 1.009 
0.647769 -0.324823 0.98 
0.661605 -0.309908 0.935 
0.679542 -0.298639 0.901 
0.691908 -0.286375 0.864 
0.710994 -0.278089 0.839 
0.72149 -0.267482 0.807 
0.734919 -0.258533 0.78 
0.745566 -0.249915 0.754 
-0.582824 -0.238187 0.722 
-0.55982 -0.242805 0.736 
-0.539795 -0.249403 0.756 
-0.515237 -0.254682 0.772 
-0.490428 -0.26062 0.79 
-0.464515 -0.266888 0.809 
-0.437359 -0.273486 0.829 
-0.401124 -0.275136 0.834 
-0.362251 -0.275136 0.834 
-0.323765 -0.275465 0.835 
-0.280153 -0.272166 0.825 
-0.244336 -0.275136 0.834 
-0.21581 -0.288991 0.876 
-0.185138 -0.313074 0.949 
-0.149665 -0.332538 1.008 
-0.106833 -0.351342 1.065 
-0.0615432 -0.378064 1.146 
-0.00652344 -0.540044 1.637 
0.07144 -0.55291 1.676 
0.148845 -0.550271 1.668 
0.226591 -0.550271 1.668 
0.297221 -0.537405 1.629 
0.354824 -0.511013 1.549 
0.394499 -0.469446 1.423 
0.432327 -0.440415 1.335 
0.480845 -0.428209 1.298 
0.515488 -0.407755 1.236 
0.544351 -0.387301 1.174 
0.568454 -0.367507 1.114 
0.590863 -0.350023 1.061 
0.615573 -0.336497 1.02 
0.638411 -0.323961 0.982 
0.6591 -0.312084 0.946 
0.67792 -0.300868 0.912 
0.689621 -0.288002 0.873 
0.707725 -0.279094 0.846 
0.718896 -0.268538 0.814 
0.728014 -0.258311 0.783 
0.737171 -0.249074 0.755 
-0.590159 -0.236408 0.72 
-0.565876 -0.240349 0.732 
-0.544833 -0.246259 0.75 
-0.520073 -0.251184 0.765 
-0.498347 -0.258408 0.787 
-0.472811 -0.264646 0.806 
-0.446043 -0.271213 0.826 
-0.412477 -0.274496 0.836 
-0.372617 -0.27384 0.834 
-0.335745 -0.275482 0.839 
-0.290177 -0.27187 0.828 
-0.25371 -0.274168 0.835 
-0.22225 -0.28369 0.864 
-0.191878 -0.299122 0.911 
-0.159861 -0.323092 0.984 
-0.121758 -0.345091 1.051 
-0.0778943 -0.369388 1.125 
-0.0269965 -0.391716 1.193 
0.0480616 -0.550963 1.678 
0.125295 -0.546695 1.665 
0.203267 -0.54768 1.668 
0.277981 -0.541769 1.65 
0.339402 -0.518129 1.578 
0.378147 -0.474459 1.445 
0.41991 -0.447206 1.362 
0.469552 -0.434401 1.323 
0.506323 -0.414043 1.261 
0.534625 -0.391716 1.193 
0.558073 -0.370373 1.128 
0.583581 -0.353956 1.078 
0.604429 -0.337539 1.028 
0.626961 -0.324405 0.988 
0.651895 -0.314226 0.957 
0.668845 -0.301749 0.919 
0.68535 -0.290585 0.885 
0.700328 -0.280078 0.853 
0.714925 -0.270556 0.824 
0.726819 -0.261034 0.795 
0.73601 -0.251512 0.766 
-0.599089 -0.232675 0.712 
-0.577029 -0.237251 0.726 
-0.55591 -0.242806 0.743 
-0.533907 -0.248688 0.761 
-0.508261 -0.25359 0.776 
-0.48365 -0.259799 0.795 
-0.45783 -0.266335 0.815 
-0.428085 -0.271564 0.831 
-0.392632 -0.273851 0.838 
-0.353572 -0.273851 0.838 
-0.310221 -0.271237 0.83 
-0.272843 -0.272544 0.834 
-0.236775 -0.275812 0.844 
-0.206793 -0.288884 0.884 
-0.180013 -0.314047 0.961 
-0.140825 -0.330713 1.012 
-0.099763 -0.352281 1.078 
-0.0531459 -0.378098 1.157 
0.00881683 -0.539859 1.652 
0.0870638 -0.547702 1.676 
0.165675 -0.549336 1.681 
0.243011 -0.547049 1.674 
0.308379 -0.525481 1.608 
0.363781 -0.498684 1.526 
0.400993 -0.459795 1.407 
0.440045 -0.433652 1.327 
0.487525 -0.421234 1.289 
0.518292 -0.398685 1.22 
0.548756 -0.380385 1.164 
0.571928 -0.360778 1.104 
0.594588 -0.344111 1.053 
0.616772 -0.329733 1.009 
0.64275 -0.319275 0.977 
0.6587 -0.30555 0.935 
0.679747 -0.295746 0.905 
0.690819 -0.283001 0.866 
0.708387 -0.274178 0.839 
0.718983 -0.263721 0.807 
0.730346 -0.25457 0.779 
0.733194 -0.24346 0.745 
-0.590159 -0.234171 0.72 
-0.565876 -0.238074 0.732 
-0.544833 -0.243928 0.75 
-0.521433 -0.249457 0.767 
-0.498347 -0.255962 0.787 
-0.472224 -0.261816 0.805 
-0.445503 -0.268321 0.825 
-0.41445 -0.2732 0.84 
-0.373064 -0.271574 0.835 
-0.336145 -0.2732 0.84 
-0.295224 -0.271574 0.835 
-0.256305 -0.271574 0.835 
-0.223633 -0.279379 0.859 
-0.193427 -0.29434 0.905 
-0.162275 -0.315806 0.971 
-0.123953 -0.338898 1.042 
-0.0812454 -0.365242 1.123 
-0.0305234 -0.385732 1.186 
0.0429496 -0.54705 1.682 
0.120555 -0.543472 1.671 
0.198559 -0.543797 1.672 
0.274011 -0.538919 1.657 
0.335346 -0.514526 1.582 
0.375467 -0.472245 1.452 
0.415067 -0.442323 1.36 
0.466496 -0.431265 1.326 
0.503599 -0.411101 1.264 
0.530918 -0.388009 1.193 
0.555059 -0.367193 1.129 
0.58077 -0.350931 1.079 
0.601234 -0.334344 1.028 
0.624523 -0.32166 0.989 
0.650278 -0.311903 0.959 
0.666714 -0.299219 0.92 
0.684143 -0.288486 0.887 
0.696859 -0.277103 0.852 
0.714958 -0.268972 0.827 
0.724349 -0.258564 0.795 
0.734587 -0.249457 0.767 
-0.599869 -0.229492 0.709 
-0.579614 -0.234671 0.725 
-0.55862 -0.240174 0.742 
-0.537454 -0.246324 0.761 
-0.511218 -0.250855 0.775 
-0.48613 -0.256681 0.793 
-0.459363 -0.262508 0.811 
-0.431958 -0.268981 0.831 
-0.397484 -0.271895 0.84 
-0.358758 -0.272218 0.841 
-0.315379 -0.268658 0.83 
-0.276692 -0.268658 0.83 
-0.240013 -0.270924 0.837 
-0.211086 -0.284518 0.879 
-0.182889 -0.305881 0.945 
-0.145398 -0.327245 1.011 
-0.103816 -0.345695 1.068 
-0.0580328 -0.371266 1.147 
0.00111343 -0.533108 1.647 
0.0795356 -0.544437 1.682 
0.15784 -0.544113 1.681 
0.23549 -0.542494 1.676 
0.30182 -0.522102 1.613 
0.358538 -0.496531 1.534 
0.395276 -0.456395 1.41 
0.434514 -0.430176 1.329 
0.482264 -0.417876 1.291 
0.515967 -0.397484 1.228 
0.549399 -0.380976 1.177 
0.567982 -0.357024 1.103 
0.592439 -0.341487 1.055 
0.614853 -0.327245 1.011 
0.638404 -0.315592 0.975 
0.656496 -0.302968 0.936 
0.677683 -0.293258 0.906 
0.689717 -0.280958 0.868 
0.706621 -0.271895 0.84 
0.717363 -0.261537 0.808 
0.727925 -0.25215 0.779 
0.726955 -0.23985 0.741 
-0.590751 -0.23129 0.718 
-0.568151 -0.235799 0.732 
-0.546434 -0.241276 0.749 
-0.523816 -0.247074 0.767 
-0.497756 -0.253839 0.788 
-0.470973 -0.259315 0.805 
-0.444221 -0.265758 0.825 
-0.414621 -0.271556 0.843 
-0.373547 -0.270267 0.839 
-0.33484 -0.27059 0.84 
-0.294983 -0.269945 0.838 
-0.252715 -0.269301 0.836 
-0.221164 -0.278643 0.865 
-0.190463 -0.293461 0.911 
-0.158399 -0.314077 0.975 
-0.120831 -0.335982 1.043 
-0.0781021 -0.363363 1.128 
-0.0267929 -0.381402 1.184 
0.0510009 -0.544078 1.689 
0.12842 -0.538602 1.672 
0.206723 -0.539568 1.675 
0.280034 -0.530549 1.647 
0.339037 -0.504134 1.565 
0.376707 -0.460969 1.431 
0.419471 -0.43391 1.347 
0.472589 -0.425212 1.32 
0.506599 -0.403307 1.252 
0.533368 -0.380758 1.182 
0.554608 -0.358853 1.114 
0.58312 -0.345002 1.071 
0.602895 -0.328573 1.02 
0.628118 -0.317298 0.985 
0.650079 -0.306024 0.95 
0.669508 -0.295071 0.916 
0.68499 -0.283797 0.881 
0.698858 -0.273167 0.848 
0.718356 -0.265758 0.825 
0.722868 -0.253839 0.788 
0.72875 -0.243531 0.756 
-0.597143 -0.22793 0.711 
-0.575901 -0.232739 0.726 
-0.554009 -0.237868 0.742 
-0.534825 -0.244921 0.764 
-0.506595 -0.249729 0.779 
-0.481152 -0.2555 0.797 
-0.454589 -0.261591 0.816 
-0.427275 -0.268323 0.837 
-0.391973 -0.270887 0.845 
-0.350918 -0.269605 0.841 
-0.308754 -0.26704 0.833 
-0.26828 -0.269284 0.84 
-0.231855 -0.27249 0.85 
-0.201057 -0.284993 0.889 
-0.17165 -0.306471 0.956 
-0.134934 -0.325385 1.015 
-0.0940132 -0.349108 1.089 
-0.0461541 -0.37251 1.162 
0.0244661 -0.535043 1.669 
0.102994 -0.538889 1.681 
0.181993 -0.540813 1.687 
0.258616 -0.536645 1.674 
0.319548 -0.509396 1.589 
0.367107 -0.475095 1.482 
0.400571 -0.436305 1.361 
0.451052 -0.424123 1.323 
0.49334 -0.408094 1.273 
0.522719 -0.385974 1.204 
0.545665 -0.363855 1.135 
0.572726 -0.348146 1.086 
0.597516 -0.33372 1.041 
0.618731 -0.319615 0.997 
0.645186 -0.309998 0.967 
0.65885 -0.295892 0.923 
0.6821 -0.287557 0.897 
0.692435 -0.275055 0.858 
0.71194 -0.267361 0.834 
0.719304 -0.256141 0.799 
0.73098 -0.247485 0.772 
0.734331 -0.236586 0.738 
-0.583946 -0.230335 0.722 
-0.561726 -0.23512 0.737 
-0.54097 -0.241181 0.756 
-0.516436 -0.246286 0.772 
-0.492277 -0.252347 0.791 
-0.465196 -0.257771 0.808 
-0.439176 -0.264789 0.83 
-0.409175 -0.270532 0.848 
-0.367906 -0.269255 0.844 
-0.325063 -0.266384 0.835 
-0.280223 -0.26447 0.829 
-0.243623 -0.266703 0.836 
-0.214204 -0.279145 0.875 
-0.183528 -0.295415 0.926 
-0.150372 -0.316471 0.992 
-0.110643 -0.33625 1.054 
-0.0663011 -0.36241 1.136 
-0.0139865 -0.379637 1.19 
0.0643115 -0.540425 1.694 
0.142254 -0.536597 1.682 
0.219735 -0.534364 1.675 
0.29034 -0.520965 1.633 
0.34738 -0.493848 1.548 
0.382403 -0.450141 1.411 
0.424031 -0.425896 1.335 
0.474964 -0.416006 1.304 
0.510682 -0.396546 1.243 
0.537512 -0.374852 1.175 
0.558002 -0.353158 1.107 
0.586472 -0.33976 1.065 
0.60565 -0.323489 1.014 
0.630376 -0.312324 0.979 
0.649768 -0.300201 0.941 
0.671515 -0.29063 0.911 
0.685763 -0.279145 0.875 
0.701637 -0.269574 0.845 
0.717345 -0.260961 0.818 
0.723147 -0.249795 0.783 
0.719866 -0.236715 0.742 
-0.595225 -0.226673 0.714 
-0.572964 -0.231118 0.728 
-0.549397 -0.235562 0.742 
-0.531464 -0.243182 0.766 
-0.504822 -0.247626 0.78 
-0.479276 -0.253341 0.798 
-0.453715 -0.260007 0.819 
-0.425689 -0.266357 0.839 
-0.390269 -0.268897 0.847 
-0.349547 -0.267944 0.844 
-0.308371 -0.266357 0.839 
-0.266975 -0.266674 0.84 
-0.230535 -0.269849 0.85 
-0.1999 -0.282548 0.89 
-0.169631 -0.302548 0.953 
-0.133357 -0.322231 1.015 
-0.0886107 -0.344454 1.085 
-0.0409484 -0.370804 1.168 
0.0244514 -0.529539 1.668 
0.103423 -0.535888 1.688 
0.182425 -0.536841 1.691 
0.258307 -0.530809 1.672 
0.319951 -0.505094 1.591 
0.366364 -0.469537 1.479 
0.40361 -0.430806 1.357 
0.455163 -0.420012 1.323 
0.494561 -0.401916 1.266 
0.523399 -0.380011 1.197 
0.544353 -0.357153 1.125 
0.573449 -0.343184 1.081 
0.598442 -0.329216 1.037 
0.619958 -0.315565 0.994 
0.644839 -0.305406 0.962 
0.660284 -0.292389 0.921 
0.681833 -0.2835 0.893 
0.692671 -0.271436 0.855 
0.713674 -0.264452 0.833 
0.719076 -0.252706 0.796 
0.730529 -0.244134 0.769 
-0.603423 -0.223668 0.708 
-0.582508 -0.228407 0.723 
-0.560195 -0.233146 0.738 
-0.540046 -0.239464 0.758 
-0.515369 -0.244519 0.774 
-0.488591 -0.249889 0.791 
-0.462001 -0.255576 0.809 
-0.437405 -0.263474 0.834 
-0.407134 -0.26916 0.852 
-0.364834 -0.267265 0.846 
-0.321555 -0.264105 0.836 
-0.282251 -0.26379 0.835 
-0.244206 -0.264737 0.838 
-0.214204 -0.276426 0.875 
-0.182735 -0.291274 0.922 
-0.14778 -0.311177 0.985 
-0.108591 -0.331711 1.05 
-0.0510377 -0.363303 1.15 
0.00624637 -0.521577 1.651 
0.0852661 -0.534529 1.692 
0.164131 -0.534529 1.692 
0.240985 -0.530106 1.678 
0.305501 -0.507361 1.606 
0.358094 -0.477664 1.512 
0.393422 -0.438491 1.388 
0.436663 -0.417956 1.323 
0.481755 -0.404056 1.279 
0.51555 -0.384785 1.218 
0.541779 -0.364251 1.153 
0.56608 -0.346244 1.096 
0.591825 -0.332027 1.051 
0.615814 -0.319075 1.01 
0.636638 -0.306438 0.97 
0.655138 -0.294433 0.932 
0.674593 -0.284324 0.9 
0.688677 -0.273267 0.865 
0.705397 -0.264421 0.837 
0.713282 -0.253364 0.802 
0.7282 -0.245782 0.778 
0.723193 -0.232514 0.736 
-0.588738 -0.226655 0.721 
-0.563602 -0.230113 0.732 
-0.54395 -0.2364 0.752 
-0.52108 -0.242059 0.77 
-0.496532 -0.247717 0.788 
-0.468382 -0.25369 0.807 
-0.442511 -0.260606 0.829 
-0.413127 -0.266579 0.848 
-0.373602 -0.266579 0.848 
-0.331319 -0.264378 0.841 
-0.293509 -0.265636 0.845 
-0.252319 -0.26375 0.839 
-0.220328 -0.272552 0.867 
-0.188218 -0.285126 0.907 
-0.154572 -0.304931 0.97 
-0.116801 -0.325679 1.036 
-0.071407 -0.356172 1.133 
-0.0195003 -0.373462 1.188 
0.0512424 -0.533472 1.697 
0.13011 -0.532529 1.694 
0.208204 -0.530329 1.687 
0.278164 -0.514296 1.636 
0.335571 -0.486947 1.549 
0.374601 -0.447337 1.423 
0.415519 -0.421559 1.341 
0.467686 -0.412443 1.312 
0.506669 -0.395153 1.257 
0.529733 -0.370318 1.178 
0.549899 -0.348313 1.108 
0.58037 -0.336053 1.069 
0.597773 -0.318763 1.014 
0.626588 -0.309647 0.985 
0.645189 -0.297072 0.945 
0.662979 -0.285755 0.909 
0.683621 -0.276953 0.881 
0.696718 -0.266265 0.847 
0.716205 -0.259034 0.824 
0.720728 -0.247403 0.787 
0.723726 -0.2364 0.752 
-0.594948 -0.223658 0.715 
-0.573404 -0.22835 0.73 
-0.548983 -0.232417 0.743 
-0.530966 -0.239924 0.767 
-0.504901 -0.244616 0.782 
-0.477394 -0.249934 0.799 
-0.45117 -0.25619 0.819 
-0.42409 -0.263072 0.841 
-0.388552 -0.265574 0.849 
-0.347336 -0.264323 0.845 
-0.308679 -0.264949 0.847 
-0.265986 -0.263072 0.841 
-0.228675 -0.265261 0.848 
-0.198294 -0.278087 0.889 
-0.167268 -0.296542 0.948 
-0.131521 -0.316875 1.013 
-0.0889648 -0.334392 1.069 
-0.040738 -0.363483 1.162 
0.0244074 -0.520826 1.665 
0.103974 -0.530836 1.697 
0.18318 -0.531149 1.698 
0.257071 -0.520513 1.664 
0.320353 -0.498304 1.593 
0.36463 -0.460454 1.472 
0.400571 -0.425732 1.361 
0.45037 -0.41322 1.321 
0.492178 -0.397267 1.27 
0.51968 -0.374432 1.197 
0.541819 -0.352535 1.127 
0.569562 -0.337833 1.08 
0.595794 -0.324695 1.038 
0.619352 -0.312183 0.998 
0.64185 -0.300922 0.962 
0.658136 -0.288409 0.922 
0.678298 -0.279025 0.892 
0.691628 -0.268077 0.857 
0.709379 -0.259944 0.831 
0.716603 -0.248995 0.796 
0.728139 -0.24055 0.769 
0.730204 -0.229914 0.735 
-0.578157 -0.225971 0.726 
-0.554065 -0.230017 0.739 
-0.536495 -0.237487 0.763 
-0.509467 -0.241534 0.776 
-0.483666 -0.246825 0.793 
-0.45783 -0.253673 0.815 
-0.431176 -0.26052 0.837 
-0.400128 -0.265811 0.854 
-0.356948 -0.263321 0.846 
-0.316765 -0.262699 0.844 
-0.277754 -0.26301 0.845 
-0.236958 -0.261454 0.84 
-0.207225 -0.273904 0.88 
-0.176596 -0.291023 0.935 
-0.140555 -0.30752 0.988 
-0.100243 -0.326195 1.048 
-0.0524569 -0.355453 1.142 
0.000818003 -0.376618 1.21 
0.0858708 -0.530378 1.704 
0.164616 -0.528199 1.697 
0.240985 -0.522285 1.678 
0.306452 -0.501431 1.611 
0.355489 -0.467193 1.501 
0.393422 -0.432021 1.388 
0.437654 -0.412724 1.326 
0.481755 -0.398095 1.279 
0.513011 -0.377241 1.212 
0.53755 -0.356075 1.144 
0.565047 -0.340513 1.094 
0.590699 -0.326506 1.049 
0.615205 -0.314056 1.009 
0.635325 -0.301294 0.968 
0.655841 -0.290401 0.933 
0.671485 -0.278262 0.894 
0.688426 -0.268613 0.863 
0.704165 -0.259586 0.834 
0.712746 -0.249004 0.8 
0.728471 -0.241845 0.777 
0.723353 -0.228772 0.735 
-0.583631 -0.223914 0.723 
-0.560581 -0.22825 0.737 
-0.539795 -0.234134 0.756 
-0.516571 -0.239709 0.774 
-0.490428 -0.244664 0.79 
-0.463941 -0.250238 0.808 
-0.440524 -0.2586 0.835 
-0.410743 -0.264485 0.854 
-0.369635 -0.263555 0.851 
-0.327643 -0.261697 0.845 
-0.288598 -0.262007 0.846 
-0.248872 -0.261697 0.845 
-0.215932 -0.26975 0.871 
-0.181977 -0.27997 0.904 
-0.149003 -0.301339 0.973 
-0.110682 -0.321779 1.039 
-0.0627159 -0.351511 1.135 
-0.0103666 -0.371331 1.199 
0.0701093 -0.52866 1.707 
0.149147 -0.526801 1.701 
0.225745 -0.520607 1.681 
0.294147 -0.503574 1.626 
0.344909 -0.469507 1.516 
0.384869 -0.43482 1.404 
0.426575 -0.411902 1.33 
0.474241 -0.399824 1.291 
0.510405 -0.381861 1.233 
0.532873 -0.358324 1.157 
0.558906 -0.34129 1.102 
0.585904 -0.327664 1.058 
0.606399 -0.312798 1.01 
0.630183 -0.301649 0.974 
0.649224 -0.28988 0.936 
0.666203 -0.278731 0.9 
0.686688 -0.26975 0.871 
0.698895 -0.25922 0.837 
0.71146 -0.249929 0.807 
0.723084 -0.241257 0.779 
0.719425 -0.228559 0.738 
-0.588222 -0.221558 0.719 
-0.564739 -0.225564 0.732 
-0.545118 -0.231727 0.752 
-0.522276 -0.237273 0.77 
-0.498388 -0.243128 0.789 
-0.470388 -0.24775 0.804 
-0.444759 -0.25453 0.826 
-0.415112 -0.260076 0.844 
-0.380226 -0.263158 0.854 
-0.336833 -0.260384 0.845 
-0.299559 -0.262233 0.851 
-0.258061 -0.260384 0.845 
-0.222816 -0.265315 0.861 
-0.190323 -0.276408 0.897 
-0.157289 -0.295513 0.959 
-0.120691 -0.316775 1.028 
-0.0770229 -0.335264 1.088 
-0.0268155 -0.365155 1.185 
0.0488636 -0.525699 1.706 
0.12823 -0.525083 1.704 
0.207654 -0.525083 1.704 
0.274443 -0.501972 1.629 
0.332949 -0.477012 1.548 
0.371343 -0.437261 1.419 
0.414052 -0.413842 1.343 
0.465293 -0.403981 1.311 
0.507126 -0.38919 1.263 
0.526559 -0.362073 1.175 
0.548672 -0.341735 1.109 
0.575461 -0.327561 1.063 
0.596197 -0.312461 1.014 
0.622519 -0.302292 0.981 
0.640315 -0.289658 0.94 
0.6572 -0.278257 0.903 
0.680704 -0.270861 0.879 
0.695402 -0.261001 0.847 
0.709719 -0.252064 0.818 
0.718591 -0.242204 0.786 
0.720636 -0.23111 0.75 
-0.594948 -0.219214 0.715 
-0.573404 -0.223813 0.73 
-0.5512 -0.228719 0.746 
-0.530966 -0.235157 0.767 
-0.504901 -0.239756 0.782 
-0.478036 -0.244662 0.798 
-0.45189 -0.250794 0.818 
-0.424891 -0.257539 0.84 
-0.392167 -0.261831 0.854 
-0.349061 -0.259378 0.846 
-0.311825 -0.261218 0.852 
-0.270835 -0.259991 0.848 
-0.229721 -0.259685 0.847 
-0.198553 -0.271029 0.884 
-0.167317 -0.288198 0.94 
-0.131649 -0.307207 1.002 
-0.0899475 -0.325296 1.061 
-0.0418111 -0.35013 1.142 
0.0121477 -0.372511 1.215 
0.102114 -0.524275 1.71 
0.181499 -0.523355 1.707 
0.252957 -0.507106 1.654 
0.318077 -0.48871 1.594 
0.358651 -0.446707 1.457 
0.39992 -0.418807 1.366 
0.448996 -0.405623 1.323 
0.492906 -0.39152 1.277 
0.518054 -0.36454 1.189 
0.543088 -0.345224 1.126 
0.567009 -0.328668 1.072 
0.591517 -0.314258 1.025 
0.619958 -0.304754 0.994 
0.637465 -0.291571 0.951 
0.654549 -0.27992 0.913 
0.674962 -0.271029 0.884 
0.692671 -0.262138 0.855 
0.703393 -0.251713 0.821 
0.717269 -0.243435 0.794 
0.719129 -0.232091 0.757 
-0.599391 -0.218104 0.715 
-0.575565 -0.221764 0.727 
-0.552856 -0.22634 0.742 
-0.533638 -0.233051 0.764 
-0.507153 -0.237321 0.778 
-0.481785 -0.242812 0.796 
-0.455856 -0.248913 0.816 
-0.430111 -0.256234 0.84 
-0.39794 -0.260809 0.855 
-0.354738 -0.258369 0.847 
-0.317492 -0.260199 0.853 
-0.276757 -0.259284 0.85 
-0.236301 -0.258369 0.847 
-0.204258 -0.26813 0.879 
-0.173133 -0.284297 0.932 
-0.137068 -0.300464 0.985 
-0.0970792 -0.319987 1.049 
-0.0502832 -0.34561 1.133 
0.00269795 -0.369098 1.21 
0.0916473 -0.522533 1.713 
0.17079 -0.520398 1.706 
0.245172 -0.509722 1.671 
0.309524 -0.488369 1.601 
0.353435 -0.449324 1.473 
0.395156 -0.42065 1.379 
0.443773 -0.406313 1.332 
0.48535 -0.389841 1.278 
0.512241 -0.365133 1.197 
0.53956 -0.34683 1.137 
0.564414 -0.330358 1.083 
0.585937 -0.314801 1.032 
0.616221 -0.305955 1.003 
0.634549 -0.292838 0.96 
0.66019 -0.284602 0.933 
0.670492 -0.271181 0.889 
0.688705 -0.262334 0.86 
0.701672 -0.252573 0.828 
0.714338 -0.243727 0.799 
0.721479 -0.233966 0.767 
0.7207 -0.222679 0.73 
-0.579459 -0.219117 0.722 
-0.559414 -0.22458 0.74 
-0.53769 -0.230043 0.758 
-0.511638 -0.234291 0.772 
-0.487362 -0.240058 0.791 
-0.461314 -0.245824 0.81 
-0.437155 -0.253715 0.836 
-0.408668 -0.260391 0.858 
-0.366098 -0.25857 0.852 
-0.327535 -0.259481 0.855 
-0.286337 -0.258267 0.851 
-0.247832 -0.259481 0.855 
-0.212358 -0.264943 0.873 
-0.178943 -0.276172 0.91 
-0.14598 -0.295292 0.973 
-0.10735 -0.315019 1.038 
-0.0635136 -0.339298 1.118 
-0.0122396 -0.364183 1.2 
0.0678918 -0.521389 1.718 
0.146763 -0.517141 1.704 
0.224594 -0.513499 1.692 
0.291263 -0.492862 1.624 
0.338035 -0.454015 1.496 
0.382687 -0.426095 1.404 
0.426424 -0.405458 1.336 
0.470406 -0.390283 1.286 
0.503128 -0.370253 1.22 
0.530157 -0.350527 1.155 
0.555677 -0.333531 1.099 
0.580947 -0.319268 1.052 
0.603033 -0.305611 1.007 
0.627379 -0.294989 0.972 
0.647078 -0.28376 0.935 
0.662502 -0.27162 0.895 
0.682187 -0.263123 0.867 
0.695095 -0.253108 0.834 
0.709326 -0.24461 0.806 
0.718167 -0.235202 0.775 
0.716332 -0.223366 0.736 
-0.588433 -0.217995 0.722 
-0.564001 -0.221619 0.734 
-0.542059 -0.226751 0.751 
-0.519208 -0.232186 0.769 
-0.495936 -0.238225 0.789 
-0.468472 -0.243056 0.805 
-0.442193 -0.249396 0.826 
-0.413956 -0.255737 0.847 
-0.378898 -0.258756 0.857 
-0.33658 -0.256945 0.851 
-0.298311 -0.258152 0.855 
-0.258761 -0.258454 0.856 
-0.220652 -0.260568 0.863 
-0.187327 -0.270532 0.896 
-0.153987 -0.288949 0.957 
-0.117496 -0.310387 1.028 
-0.073439 -0.327597 1.085 
-0.0251008 -0.359602 1.191 
0.049236 -0.519022 1.719 
0.128607 -0.516003 1.709 
0.20936 -0.51872 1.718 
0.273263 -0.489735 1.622 
0.332304 -0.466486 1.545 
0.371605 -0.428744 1.42 
0.414052 -0.405495 1.343 
0.461744 -0.392814 1.301 
0.499898 -0.375906 1.245 
0.525662 -0.354167 1.173 
0.548672 -0.334843 1.109 
0.571671 -0.318841 1.056 
0.595609 -0.305858 1.013 
0.62125 -0.295592 0.979 
0.638272 -0.282911 0.937 
0.656415 -0.271739 0.9 
0.677414 -0.263587 0.873 
0.691782 -0.253925 0.841 
0.705775 -0.245169 0.812 
0.714317 -0.235507 0.78 
0.716989 -0.22494 0.745 
-0.594097 -0.215672 0.718 
-0.571563 -0.219877 0.732 
-0.548457 -0.224383 0.747 
-0.528079 -0.230691 0.768 
-0.501897 -0.235197 0.783 
-0.474911 -0.240003 0.799 
-0.449173 -0.246311 0.82 
-0.420976 -0.252318 0.84 
-0.390005 -0.257725 0.858 
-0.34675 -0.255322 0.85 
-0.309299 -0.257124 0.856 
-0.269086 -0.256824 0.855 
-0.228966 -0.256524 0.854 
-0.193772 -0.264634 0.881 
-0.161819 -0.282957 0.942 
-0.126173 -0.302782 1.008 
-0.0839036 -0.320805 1.068 
-0.0362326 -0.34063 1.134 
0.0179721 -0.368265 1.226 
0.110599 -0.516051 1.718 
0.191009 -0.516952 1.721 
0.257357 -0.490519 1.633 
0.321831 -0.473397 1.576 
0.35867 -0.429542 1.43 
0.403015 -0.407013 1.355 
0.451723 -0.394397 1.313 
0.496114 -0.376976 1.255 
0.521466 -0.354447 1.18 
0.546177 -0.335824 1.118 
0.567784 -0.318702 1.061 
0.591641 -0.305485 1.017 
0.618936 -0.295873 0.985 
0.635823 -0.282957 0.942 
0.650867 -0.270942 0.902 
0.673705 -0.263432 0.877 
0.690138 -0.254421 0.847 
0.699467 -0.243908 0.812 
0.714614 -0.236398 0.787 
0.712157 -0.224083 0.746 
-0.597726 -0.214258 0.717 
-0.573751 -0.217844 0.729 
-0.550878 -0.222326 0.744 
-0.531464 -0.2289 0.766 
-0.504822 -0.233084 0.78 
-0.479276 -0.238463 0.798 
-0.453161 -0.244439 0.818 
-0.425689 -0.250714 0.839 
-0.394876 -0.256093 0.857 
-0.352446 -0.2543 0.851 
-0.315354 -0.256392 0.858 
-0.274399 -0.255496 0.855 
-0.235096 -0.256093 0.857 
-0.199478 -0.261771 0.876 
-0.167521 -0.278804 0.933 
-0.131478 -0.295538 0.989 
-0.0911643 -0.315559 1.056 
-0.0446845 -0.336178 1.125 
0.0102769 -0.36367 1.217 
0.10033 -0.515473 1.725 
0.180628 -0.515175 1.724 
0.250084 -0.493659 1.652 
0.312829 -0.472144 1.58 
0.35125 -0.429113 1.436 
0.396633 -0.407 1.362 
0.44863 -0.39684 1.328 
0.48554 -0.377416 1.263 
0.512943 -0.355602 1.19 
0.540228 -0.337971 1.131 
0.565682 -0.322432 1.079 
0.582864 -0.305101 1.021 
0.615016 -0.29763 0.996 
0.633547 -0.285079 0.954 
0.658114 -0.276712 0.926 
0.67054 -0.262966 0.88 
0.688108 -0.2543 0.851 
0.697842 -0.243841 0.816 
0.71333 -0.236371 0.791 
0.709417 -0.223521 0.748 
0.720401 -0.216349 0.724 
-0.575768 -0.214927 0.723 
-0.554815 -0.219981 0.74 
-0.535089 -0.226224 0.761 
-0.510123 -0.23098 0.777 
-0.484885 -0.236331 0.795 
-0.459096 -0.242276 0.815 
-0.43196 -0.248519 0.836 
-0.402865 -0.254762 0.857 
-0.36165 -0.25387 0.854 
-0.32352 -0.256248 0.862 
-0.28137 -0.254464 0.856 
-0.242882 -0.255951 0.861 
-0.205341 -0.259221 0.872 
-0.17058 -0.275273 0.926 
-0.1354 -0.292515 0.984 
-0.0953584 -0.311541 1.048 
-0.0497506 -0.333241 1.121 
0.0064792 -0.360888 1.214 
0.0979325 -0.51428 1.73 
0.178259 -0.513388 1.727 
0.248267 -0.492579 1.657 
0.310178 -0.469392 1.579 
0.351512 -0.424504 1.428 
0.397578 -0.403695 1.358 
0.449336 -0.393588 1.324 
0.486365 -0.373076 1.255 
0.515772 -0.353159 1.188 
0.541338 -0.334728 1.126 
0.566925 -0.319567 1.075 
0.584314 -0.302622 1.018 
0.615628 -0.294893 0.992 
0.635177 -0.283003 0.952 
0.653853 -0.272301 0.916 
0.67038 -0.261004 0.878 
0.687 -0.252086 0.848 
0.696539 -0.241682 0.813 
0.712753 -0.234547 0.789 
0.707729 -0.221467 0.745 
-0.601613 -0.211438 0.715 
-0.57544 -0.2141 0.724 
-0.554413 -0.219127 0.741 
-0.533907 -0.225041 0.761 
-0.509571 -0.230069 0.778 
-0.484259 -0.235391 0.796 
-0.45783 -0.24101 0.815 
-0.430661 -0.24722 0.836 
-0.401534 -0.25343 0.857 
-0.360745 -0.252839 0.855 
-0.322181 -0.254909 0.862 
-0.280367 -0.25343 0.857 
-0.242386 -0.2555 0.864 
-0.203986 -0.257866 0.872 
-0.172708 -0.272652 0.922 
-0.138316 -0.290691 0.983 
-0.0980504 -0.308138 1.042 
-0.0529965 -0.330021 1.116 
0.00270241 -0.35841 1.212 
0.0954649 -0.512775 1.734 
0.17588 -0.511592 1.73 
0.246285 -0.491187 1.661 
0.307529 -0.466643 1.578 
0.344856 -0.422285 1.428 
0.392689 -0.403063 1.363 
0.445173 -0.393305 1.33 
0.480132 -0.37083 1.254 
0.511094 -0.351904 1.19 
0.53847 -0.334457 1.131 
0.565051 -0.319671 1.081 
0.581847 -0.302224 1.022 
0.612236 -0.293944 0.994 
0.632728 -0.282411 0.955 
0.655966 -0.273539 0.925 
0.667196 -0.260527 0.881 
0.684946 -0.251952 0.852 
0.69659 -0.242193 0.819 
0.709644 -0.233913 0.791 
0.705931 -0.221197 0.748 
0.716036 -0.213804 0.723 
-0.579138 -0.212681 0.723 
-0.558264 -0.217681 0.74 
-0.537221 -0.223271 0.759 
-0.509778 -0.226801 0.771 
-0.486121 -0.233861 0.795 
-0.459798 -0.23945 0.814 
-0.432222 -0.245333 0.834 
-0.403254 -0.25151 0.855 
-0.364252 -0.252099 0.857 
-0.327334 -0.254452 0.865 
-0.284694 -0.252393 0.858 
-0.246984 -0.254746 0.866 
-0.207573 -0.255923 0.87 
-0.176046 -0.269749 0.917 
-0.142753 -0.288869 0.982 
-0.102117 -0.304166 1.034 
-0.0577289 -0.32564 1.107 
-0.00292731 -0.354174 1.204 
0.0849328 -0.511552 1.739 
0.165224 -0.509198 1.731 
0.238094 -0.493019 1.676 
0.299421 -0.466839 1.587 
0.336923 -0.421243 1.432 
0.386473 -0.403299 1.371 
0.437564 -0.391827 1.332 
0.469265 -0.367999 1.251 
0.505223 -0.352409 1.198 
0.533431 -0.335053 1.139 
0.558198 -0.318874 1.084 
0.5784 -0.302989 1.03 
0.605731 -0.292988 0.996 
0.627928 -0.282103 0.959 
0.64878 -0.272102 0.925 
0.661851 -0.259747 0.883 
0.680715 -0.25151 0.855 
0.693599 -0.242097 0.823 
0.707056 -0.233861 0.795 
0.703864 -0.221211 0.752 
0.71042 -0.212681 0.723 
-0.582508 -0.211557 0.723 
-0.560954 -0.216239 0.739 
-0.538621 -0.221214 0.756 
-0.510708 -0.224432 0.767 
-0.489208 -0.231748 0.792 
-0.464286 -0.237892 0.813 
-0.435307 -0.242867 0.83 
-0.407611 -0.249597 0.853 
-0.370872 -0.251645 0.86 
-0.331749 -0.253401 0.866 
-0.289029 -0.251352 0.859 
-0.25131 -0.253693 0.867 
-0.211385 -0.254279 0.869 
-0.17831 -0.267446 0.914 
-0.145656 -0.287051 0.981 
-0.104821 -0.301096 1.029 
-0.0608925 -0.322457 1.102 
-0.0103147 -0.349084 1.193 
0.0743812 -0.510605 1.745 
0.154467 -0.506509 1.731 
0.229444 -0.494219 1.689 
0.291383 -0.467299 1.597 
0.330479 -0.419311 1.433 
0.381469 -0.402632 1.376 
0.432004 -0.390342 1.334 
0.463434 -0.366056 1.251 
0.500891 -0.351425 1.201 
0.531368 -0.335332 1.146 
0.553656 -0.317482 1.085 
0.578054 -0.30373 1.038 
0.601692 -0.291733 0.997 
0.624108 -0.280906 0.96 
0.644469 -0.270665 0.925 
0.658593 -0.259253 0.886 
0.678562 -0.251352 0.859 
0.690157 -0.241404 0.825 
0.706531 -0.234088 0.8 
0.70291 -0.221214 0.756 
0.706903 -0.21185 0.724 
-0.588938 -0.210725 0.724 
-0.563628 -0.213927 0.735 
-0.541613 -0.218875 0.752 
-0.516666 -0.223241 0.767 
-0.49471 -0.229644 0.789 
-0.467499 -0.236338 0.812 
-0.438118 -0.240995 0.828 
-0.410622 -0.247689 0.851 
-0.375752 -0.250891 0.862 
-0.337131 -0.252055 0.866 
-0.295053 -0.2506 0.861 
-0.256402 -0.252055 0.866 
-0.216037 -0.252055 0.866 
-0.180159 -0.264571 0.909 
-0.148401 -0.284945 0.979 
-0.107283 -0.29746 1.022 
-0.0641417 -0.319871 1.099 
-0.0139395 -0.345193 1.186 
0.0690774 -0.508767 1.748 
0.14926 -0.504402 1.733 
0.22539 -0.494215 1.698 
0.287137 -0.465982 1.601 
0.325798 -0.416793 1.432 
0.378016 -0.401367 1.379 
0.4285 -0.388852 1.336 
0.460753 -0.36353 1.249 
0.499025 -0.349559 1.201 
0.530511 -0.334133 1.148 
0.552988 -0.316379 1.087 
0.577552 -0.302699 1.04 
0.600143 -0.290184 0.997 
0.621968 -0.279124 0.959 
0.643032 -0.269228 0.925 
0.656475 -0.257585 0.885 
0.678015 -0.250309 0.86 
0.688875 -0.240122 0.825 
0.70617 -0.233137 0.801 
0.700807 -0.219748 0.755 
0.706753 -0.211016 0.725 
-0.590063 -0.2096 0.724 
-0.564769 -0.212785 0.735 
-0.542781 -0.217706 0.752 
-0.515474 -0.222049 0.767 
-0.49411 -0.228708 0.79 
-0.466924 -0.234787 0.811 
-0.438118 -0.239709 0.828 
-0.4093 -0.246367 0.851 
-0.375281 -0.250131 0.864 
-0.335786 -0.25071 0.866 
-0.294398 -0.249841 0.863 
-0.254297 -0.251289 0.868 
-0.214086 -0.251578 0.869 
-0.178943 -0.263448 0.91 
-0.14733 -0.284292 0.982 
-0.105592 -0.295583 1.021 
-0.062491 -0.318453 1.1 
-0.0120866 -0.343061 1.185 
0.0745943 -0.506631 1.75 
0.155091 -0.503156 1.738 
0.229444 -0.488971 1.689 
0.290288 -0.4606 1.591 
0.328403 -0.412253 1.424 
0.38036 -0.397198 1.372 
0.431356 -0.385618 1.332 
0.461952 -0.36101 1.247 
0.500474 -0.347404 1.2 
0.529977 -0.330902 1.143 
0.55483 -0.313821 1.084 
0.5796 -0.299636 1.035 
0.60297 -0.287766 0.994 
0.624479 -0.276765 0.956 
0.644544 -0.266632 0.921 
0.658361 -0.255342 0.882 
0.678059 -0.247525 0.855 
0.688522 -0.237393 0.82 
0.706358 -0.230734 0.797 
0.698958 -0.216548 0.748 
0.707334 -0.208732 0.721 
-0.586372 -0.208763 0.725 
-0.561726 -0.212219 0.737 
-0.540255 -0.217402 0.755 
-0.50965 -0.221433 0.769 
-0.48921 -0.228632 0.794 
-0.463022 -0.234103 0.813 
-0.434018 -0.238998 0.83 
-0.406286 -0.245621 0.853 
-0.371684 -0.249076 0.865 
-0.331749 -0.249364 0.866 
-0.28736 -0.248212 0.862 
-0.249476 -0.250516 0.87 
-0.209405 -0.251092 0.872 
-0.174621 -0.26405 0.917 
-0.141371 -0.283054 0.983 
-0.0997329 -0.295436 1.026 
-0.0558066 -0.317608 1.103 
-0.00475808 -0.343812 1.194 
0.0826092 -0.503048 1.747 
0.163568 -0.501608 1.742 
0.235209 -0.482027 1.674 
0.295271 -0.454384 1.578 
0.332923 -0.407449 1.415 
0.385064 -0.393339 1.366 
0.434279 -0.380669 1.322 
0.46739 -0.358785 1.246 
0.503536 -0.343812 1.194 
0.531441 -0.325671 1.131 
0.558849 -0.311561 1.082 
0.581126 -0.297164 1.032 
0.60484 -0.285646 0.992 
0.626136 -0.274704 0.954 
0.645297 -0.264338 0.918 
0.659602 -0.253396 0.88 
0.678327 -0.245333 0.852 
0.688542 -0.235255 0.817 
0.702946 -0.227192 0.789 
0.69847 -0.214522 0.745 
0.707606 -0.207036 0.719 
-0.584601 -0.20821 0.727 
-0.559806 -0.211646 0.739 
-0.537446 -0.216515 0.756 
-0.50804 -0.221098 0.772 
-0.487344 -0.228257 0.797 
-0.459798 -0.233126 0.814 
-0.430149 -0.237709 0.83 
-0.402002 -0.245728 0.858 
-0.364542 -0.247446 0.864 
-0.325022 -0.248019 0.866 
-0.279325 -0.246873 0.862 
-0.240811 -0.248592 0.868 
-0.201969 -0.250596 0.875 
-0.169324 -0.265489 0.927 
-0.133735 -0.281527 0.983 
-0.0926569 -0.296706 1.036 
-0.0476235 -0.318472 1.112 
0.00459682 -0.347971 1.215 
0.0958503 -0.498615 1.741 
0.1771 -0.498901 1.742 
0.244358 -0.47198 1.648 
0.304606 -0.447637 1.563 
0.340026 -0.403245 1.408 
0.391248 -0.388925 1.358 
0.438144 -0.374892 1.309 
0.473608 -0.355704 1.242 
0.508389 -0.340238 1.188 
0.53609 -0.322482 1.126 
0.564006 -0.309021 1.079 
0.584124 -0.293842 1.026 
0.607925 -0.282673 0.987 
0.629415 -0.272076 0.95 
0.648165 -0.261766 0.914 
0.661292 -0.250596 0.875 
0.67961 -0.242577 0.847 
0.689375 -0.232553 0.812 
0.692598 -0.221098 0.772 
0.698381 -0.211933 0.74 
0.711084 -0.205632 0.718 
-0.578619 -0.207365 0.728 
-0.55591 -0.211638 0.743 
-0.528689 -0.21705 0.762 
-0.504822 -0.222177 0.78 
-0.481078 -0.228159 0.801 
-0.453715 -0.233286 0.819 
-0.420976 -0.239267 0.84 
-0.393641 -0.246673 0.866 
-0.352869 -0.246388 0.865 
-0.314358 -0.247813 0.87 
-0.270889 -0.246388 0.865 
-0.230838 -0.246673 0.866 
-0.192453 -0.249237 0.875 
-0.159334 -0.266612 0.936 
-0.122876 -0.283133 0.994 
-0.0816283 -0.301933 1.06 
-0.0347139 -0.32529 1.142 
0.0199742 -0.350926 1.232 
0.11695 -0.493631 1.733 
0.197155 -0.492207 1.728 
0.261306 -0.463153 1.626 
0.3089 -0.418148 1.468 
0.359589 -0.398494 1.399 
0.409918 -0.384537 1.35 
0.444471 -0.361465 1.269 
0.487745 -0.350071 1.229 
0.521082 -0.33469 1.175 
0.544974 -0.316744 1.112 
0.57158 -0.303357 1.065 
0.591471 -0.28883 1.014 
0.610388 -0.276012 0.969 
0.63864 -0.268891 0.944 
0.648653 -0.255503 0.897 
0.6666 -0.246673 0.866 
0.681657 -0.237843 0.835 
0.696414 -0.229868 0.807 
0.692727 -0.216195 0.759 
0.700285 -0.207935 0.73 
-0.606597 -0.206517 0.729 
-0.572618 -0.206517 0.729 
-0.550461 -0.21105 0.745 
-0.525328 -0.216432 0.764 
-0.501897 -0.221815 0.783 
-0.477289 -0.227481 0.803 
-0.449721 -0.23258 0.821 
-0.418397 -0.240229 0.848 
-0.387807 -0.245894 0.868 
-0.34695 -0.245611 0.867 
-0.308306 -0.247028 0.872 
-0.266127 -0.245611 0.867 
-0.225196 -0.245045 0.865 
-0.187442 -0.248444 0.877 
-0.156425 -0.265158 0.936 
-0.119908 -0.281872 0.995 
-0.0790735 -0.303119 1.07 
-0.0313837 -0.325782 1.15 
0.0238024 -0.349011 1.232 
0.122123 -0.490089 1.73 
0.202173 -0.488673 1.725 
0.265703 -0.459494 1.622 
0.307365 -0.410768 1.45 
0.360987 -0.395471 1.396 
0.412626 -0.383006 1.352 
0.445739 -0.358926 1.267 
0.48846 -0.347312 1.226 
0.521127 -0.331731 1.171 
0.54547 -0.313317 1.106 
0.57165 -0.300002 1.059 
0.593449 -0.286688 1.012 
0.610234 -0.27309 0.964 
0.638175 -0.266008 0.939 
0.649987 -0.253543 0.895 
0.668518 -0.245045 0.865 
0.682613 -0.235979 0.833 
0.69719 -0.228047 0.805 
0.692338 -0.214166 0.756 
0.700629 -0.206234 0.728 
-0.60773 -0.205385 0.729 
-0.573751 -0.205385 0.729 
-0.553099 -0.210456 0.747 
-0.526515 -0.215245 0.764 
-0.503114 -0.220598 0.783 
-0.47794 -0.225951 0.802 
-0.450447 -0.231023 0.82 
-0.413267 -0.239756 0.851 
-0.382382 -0.245391 0.871 
-0.340607 -0.244546 0.868 
-0.300841 -0.245109 0.87 
-0.259392 -0.244264 0.867 
-0.219234 -0.244546 0.868 
-0.182333 -0.251307 0.892 
-0.150067 -0.26793 0.951 
-0.1113 -0.282017 1.001 
-0.0703259 -0.306809 1.089 
-0.0209867 -0.329066 1.168 
0.0372315 -0.347379 1.233 
0.144373 -0.489937 1.739 
0.220503 -0.479231 1.701 
0.279871 -0.447395 1.588 
0.32154 -0.400909 1.423 
0.374783 -0.387385 1.375 
0.426424 -0.376398 1.336 
0.456506 -0.351605 1.248 
0.493643 -0.337237 1.197 
0.526026 -0.322868 1.146 
0.552644 -0.307936 1.093 
0.577082 -0.294413 1.045 
0.597644 -0.281171 0.998 
0.617697 -0.26962 0.957 
0.640157 -0.260605 0.925 
0.653725 -0.249335 0.885 
0.673773 -0.241728 0.858 
0.684648 -0.231868 0.823 
0.701046 -0.224824 0.798 
0.69291 -0.211019 0.749 
0.702556 -0.203694 0.723 
-0.604026 -0.204532 0.73 
-0.570001 -0.204532 0.73 
-0.549926 -0.209856 0.749 
-0.526016 -0.214339 0.765 
-0.502538 -0.219662 0.784 
-0.477289 -0.224985 0.803 
-0.449173 -0.229749 0.82 
-0.409781 -0.238714 0.852 
-0.379191 -0.244598 0.873 
-0.336173 -0.242917 0.867 
-0.296103 -0.243197 0.868 
-0.256235 -0.243758 0.87 
-0.216179 -0.244318 0.872 
-0.177781 -0.251322 0.897 
-0.146279 -0.270375 0.965 
-0.105394 -0.281302 1.004 
-0.0636164 -0.305397 1.09 
-0.0138102 -0.329213 1.175 
0.0452584 -0.348265 1.243 
0.158881 -0.490317 1.75 
0.230144 -0.469303 1.675 
0.288711 -0.439604 1.569 
0.329223 -0.397297 1.418 
0.381377 -0.383288 1.368 
0.429195 -0.369559 1.319 
0.462774 -0.348545 1.244 
0.498152 -0.333416 1.19 
0.5271 -0.317445 1.133 
0.558413 -0.305678 1.091 
0.579108 -0.290548 1.037 
0.600216 -0.27794 0.992 
0.620386 -0.266732 0.952 
0.641018 -0.257206 0.918 
0.656246 -0.24684 0.881 
0.674356 -0.238714 0.852 
0.685572 -0.229188 0.818 
0.704236 -0.223024 0.796 
0.694286 -0.208175 0.743 
0.704391 -0.20117 0.718 
-0.599175 -0.203677 0.731 
-0.568195 -0.204791 0.735 
-0.547739 -0.210085 0.754 
-0.522113 -0.213986 0.768 
-0.499614 -0.219837 0.789 
-0.472224 -0.224295 0.805 
-0.444963 -0.229589 0.824 
-0.40591 -0.238226 0.855 
-0.373765 -0.243242 0.873 
-0.330022 -0.241013 0.865 
-0.289704 -0.241013 0.865 
-0.251404 -0.242963 0.872 
-0.211485 -0.243799 0.875 
-0.175578 -0.250765 0.9 
-0.143132 -0.268597 0.964 
-0.102478 -0.280299 1.006 
-0.0601741 -0.303425 1.089 
-0.0101764 -0.327944 1.177 
0.0473794 -0.347727 1.248 
0.161877 -0.488434 1.753 
0.231496 -0.464193 1.666 
0.289479 -0.434659 1.56 
0.331426 -0.395094 1.418 
0.382941 -0.380605 1.366 
0.42961 -0.366116 1.314 
0.464333 -0.346334 1.243 
0.49832 -0.330452 1.186 
0.527927 -0.315128 1.131 
0.560621 -0.304261 1.092 
0.5796 -0.288379 1.035 
0.600544 -0.275841 0.99 
0.619906 -0.264417 0.949 
0.640345 -0.254944 0.915 
0.656121 -0.244914 0.879 
0.674093 -0.236833 0.85 
0.685164 -0.22736 0.816 
0.702813 -0.220952 0.793 
0.694504 -0.206742 0.742 
0.704524 -0.199776 0.717 
-0.601953 -0.203095 0.733 
-0.569337 -0.203649 0.735 
-0.548183 -0.208637 0.753 
-0.523306 -0.212793 0.768 
-0.50084 -0.218611 0.789 
-0.473475 -0.223044 0.805 
