# .PCD v.7 - Point Cloud Data file format
VERSION .7
FIELDS x y z
SIZE 4 4 4
TYPE F F F
COUNT 1 1 1
WIDTH 1824
HEIGHT 1
VIEWPOINT 0 0 0 1 0 0 0
POINTS 1824
DATA ascii
0.757902 -0.288182 0.775 
-0.571042 -0.258465 0.698 
-0.547596 -0.265501 0.717 
-0.523499 -0.270315 0.73 
-0.499532 -0.275869 0.745 
-0.474287 -0.282905 0.764 
-0.449586 -0.28994 0.783 
-0.423114 -0.296976 0.802 
-0.389581 -0.299938 0.81 
-0.350523 -0.298828 0.807 
-0.312909 -0.298828 0.807 
-0.273247 -0.296606 0.801 
-0.23768 -0.298828 0.807 
-0.205519 -0.306974 0.829 
-0.176944 -0.325489 0.879 
-0.143709 -0.344003 0.929 
-0.107001 -0.366591 0.99 
-0.0652822 -0.393253 1.062 
-0.0169264 -0.421765 1.139 
0.0537847 -0.598025 1.615 
0.128741 -0.596544 1.611 
0.203577 -0.595804 1.609 
0.28117 -0.601358 1.624 
0.355766 -0.599507 1.619 
0.411784 -0.572475 1.546 
0.458807 -0.542852 1.466 
0.481024 -0.493232 1.332 
0.519052 -0.471385 1.273 
0.55885 -0.455462 1.23 
0.588628 -0.435096 1.175 
0.613826 -0.4151 1.121 
0.631614 -0.393623 1.063 
0.651684 -0.376589 1.017 
0.671591 -0.361778 0.977 
0.687035 -0.346596 0.936 
0.704901 -0.334376 0.903 
0.716383 -0.320675 0.866 
0.73228 -0.310307 0.838 
0.744646 -0.299568 0.809 
0.756243 -0.28957 0.782 
-0.576395 -0.255906 0.694 
-0.554061 -0.262175 0.711 
-0.534109 -0.268812 0.729 
-0.508362 -0.273237 0.741 
-0.482776 -0.278399 0.755 
-0.459442 -0.285774 0.775 
-0.433553 -0.293518 0.796 
-0.403424 -0.29868 0.81 
-0.364767 -0.297942 0.808 
-0.323867 -0.294993 0.8 
-0.284803 -0.29573 0.802 
-0.249581 -0.298311 0.809 
-0.212921 -0.299786 0.813 
-0.185145 -0.317117 0.86 
-0.153831 -0.336291 0.912 
-0.118402 -0.357678 0.97 
-0.0788495 -0.385334 1.045 
-0.0321032 -0.410408 1.113 
0.0285863 -0.593304 1.609 
0.104548 -0.598835 1.624 
0.179133 -0.595147 1.614 
0.254205 -0.594779 1.613 
0.331633 -0.598835 1.624 
0.396042 -0.582242 1.579 
0.446142 -0.553111 1.5 
0.470697 -0.502225 1.362 
0.507902 -0.477519 1.295 
0.5472 -0.45982 1.247 
0.578139 -0.43917 1.191 
0.60705 -0.420733 1.141 
0.627828 -0.400084 1.085 
0.646513 -0.381278 1.034 
0.670521 -0.368003 0.998 
0.683307 -0.349935 0.949 
0.698408 -0.335923 0.911 
0.711593 -0.322648 0.875 
0.725721 -0.311217 0.844 
0.741492 -0.30163 0.818 
0.751027 -0.290568 0.788 
-0.583102 -0.254461 0.693 
-0.55894 -0.259234 0.706 
-0.54168 -0.266945 0.727 
-0.514779 -0.270617 0.737 
-0.488901 -0.27539 0.75 
-0.466654 -0.283101 0.771 
-0.440661 -0.290445 0.791 
-0.41145 -0.295953 0.806 
-0.37481 -0.296687 0.808 
-0.335479 -0.295218 0.804 
-0.292793 -0.29375 0.8 
-0.257741 -0.29632 0.807 
-0.22149 -0.298156 0.812 
-0.19201 -0.311742 0.849 
-0.161955 -0.331203 0.902 
-0.125761 -0.347359 0.946 
-0.0882291 -0.375265 1.022 
-0.0431752 -0.399132 1.087 
0.013604 -0.591538 1.611 
0.0897392 -0.598515 1.63 
0.164596 -0.594476 1.619 
0.238872 -0.591538 1.611 
0.317469 -0.598148 1.629 
0.38422 -0.584194 1.591 
0.436481 -0.556288 1.515 
0.468761 -0.511859 1.394 
0.501191 -0.480648 1.309 
0.53987 -0.461554 1.257 
0.571797 -0.440992 1.201 
0.601641 -0.422632 1.151 
0.623407 -0.40207 1.095 
0.639953 -0.381507 1.039 
0.662542 -0.367187 1 
0.678659 -0.351398 0.957 
0.693035 -0.33671 0.917 
0.711705 -0.325695 0.887 
0.721636 -0.312109 0.85 
0.737074 -0.302195 0.823 
0.749052 -0.291914 0.795 
0.761387 -0.282734 0.77 
-0.565589 -0.256675 0.702 
-0.545773 -0.26289 0.719 
-0.522234 -0.268009 0.733 
-0.496725 -0.272762 0.746 
-0.474958 -0.280441 0.767 
-0.449515 -0.287022 0.785 
-0.421868 -0.293238 0.802 
-0.39024 -0.297626 0.814 
-0.350135 -0.295797 0.809 
-0.314744 -0.297991 0.815 
-0.264606 -0.294335 0.805 
-0.22906 -0.296894 0.812 
-0.196393 -0.304938 0.834 
-0.167152 -0.323586 0.885 
-0.133442 -0.342964 0.938 
-0.094851 -0.368558 1.008 
-0.0509071 -0.391959 1.072 
-0.00101631 -0.423403 1.158 
0.0797069 -0.596714 1.632 
0.154725 -0.592692 1.621 
0.229854 -0.591595 1.618 
0.307911 -0.596714 1.632 
0.377391 -0.586476 1.604 
0.428193 -0.555397 1.519 
0.466144 -0.518834 1.419 
0.492147 -0.479711 1.312 
0.533057 -0.462161 1.264 
0.565278 -0.441319 1.207 
0.594759 -0.422307 1.155 
0.617147 -0.401831 1.099 
0.634923 -0.381721 1.044 
0.658702 -0.367827 1.006 
0.674732 -0.351739 0.962 
0.691147 -0.337845 0.924 
0.707993 -0.325779 0.891 
0.719239 -0.312616 0.855 
0.733344 -0.302013 0.826 
0.74568 -0.291775 0.798 
0.757367 -0.282269 0.772 
-0.570774 -0.254492 0.699 
-0.548973 -0.259589 0.713 
-0.528036 -0.265778 0.73 
-0.502808 -0.270511 0.743 
-0.477628 -0.275972 0.758 
-0.455135 -0.283982 0.78 
-0.429517 -0.291264 0.8 
-0.399583 -0.296725 0.815 
-0.358933 -0.29454 0.809 
-0.320432 -0.293812 0.807 
-0.276548 -0.293812 0.807 
-0.237305 -0.294905 0.81 
-0.202753 -0.299638 0.823 
-0.17438 -0.317842 0.873 
-0.141806 -0.337138 0.926 
-0.104823 -0.358254 0.984 
-0.0633926 -0.385196 1.058 
-0.01517 -0.415051 1.14 
0.059058 -0.590537 1.622 
0.134826 -0.591265 1.624 
0.210521 -0.591265 1.624 
0.287274 -0.59345 1.63 
0.362134 -0.591629 1.625 
0.413894 -0.559226 1.536 
0.456725 -0.526095 1.445 
0.478378 -0.480221 1.319 
0.52103 -0.463473 1.273 
0.558481 -0.445998 1.225 
0.582916 -0.422332 1.16 
0.611175 -0.405221 1.113 
0.6285 -0.384104 1.055 
0.648768 -0.36772 1.01 
0.670353 -0.35425 0.973 
0.686282 -0.339686 0.933 
0.706304 -0.328764 0.903 
0.716071 -0.314565 0.864 
0.730956 -0.304006 0.835 
0.740371 -0.292356 0.803 
0.755521 -0.283982 0.78 
-0.575317 -0.251593 0.694 
-0.554385 -0.257393 0.71 
-0.534507 -0.263919 0.728 
-0.508138 -0.267907 0.739 
-0.482667 -0.272982 0.753 
-0.46124 -0.28132 0.776 
-0.434931 -0.287846 0.794 
-0.405941 -0.293646 0.81 
-0.367732 -0.293283 0.809 
-0.328392 -0.291833 0.805 
-0.286934 -0.292921 0.808 
-0.249552 -0.294734 0.813 
-0.212178 -0.295459 0.815 
-0.183381 -0.311047 0.858 
-0.151579 -0.328811 0.907 
-0.116293 -0.349838 0.965 
-0.0764131 -0.374852 1.034 
-0.0302102 -0.401316 1.107 
0.0387296 -0.585479 1.615 
0.115205 -0.591642 1.632 
0.190336 -0.588742 1.624 
0.266031 -0.588742 1.624 
0.342568 -0.590192 1.628 
0.401742 -0.566628 1.563 
0.446052 -0.532551 1.469 
0.47039 -0.486872 1.343 
0.51116 -0.466933 1.288 
0.550351 -0.449895 1.241 
0.578299 -0.427781 1.18 
0.605928 -0.409292 1.129 
0.625886 -0.38899 1.073 
0.645033 -0.371227 1.024 
0.673143 -0.360713 0.995 
0.681917 -0.341862 0.943 
0.700469 -0.329899 0.91 
0.712679 -0.316485 0.873 
0.724892 -0.304522 0.84 
0.737667 -0.294009 0.811 
0.749651 -0.28422 0.784 
-0.578795 -0.250154 0.693 
-0.555488 -0.25629 0.71 
-0.534902 -0.262427 0.727 
-0.509287 -0.266759 0.739 
-0.483195 -0.271451 0.752 
-0.462446 -0.280115 0.776 
-0.435615 -0.286251 0.793 
-0.406697 -0.292027 0.809 
-0.368989 -0.292027 0.809 
-0.330462 -0.291305 0.807 
-0.288546 -0.292027 0.809 
-0.252388 -0.293831 0.814 
-0.214447 -0.293831 0.814 
-0.182048 -0.309714 0.858 
-0.15017 -0.327402 0.907 
-0.11515 -0.349421 0.968 
-0.0749512 -0.373967 1.036 
-0.0285417 -0.400318 1.109 
0.036198 -0.582609 1.614 
0.112946 -0.590551 1.636 
0.187928 -0.58658 1.625 
0.263508 -0.586219 1.624 
0.340247 -0.588024 1.629 
0.399825 -0.564922 1.565 
0.444675 -0.531351 1.472 
0.469339 -0.483703 1.34 
0.511557 -0.465293 1.289 
0.549908 -0.447606 1.24 
0.578299 -0.425947 1.18 
0.604855 -0.406816 1.127 
0.624719 -0.386601 1.071 
0.644403 -0.369275 1.023 
0.67179 -0.358445 0.993 
0.681194 -0.340036 0.942 
0.700469 -0.328485 0.91 
0.713495 -0.31549 0.874 
0.724892 -0.303217 0.84 
0.735848 -0.292027 0.809 
0.748695 -0.282641 0.783 
-0.578552 -0.249437 0.694 
-0.556436 -0.254109 0.707 
-0.53681 -0.260578 0.725 
-0.512731 -0.26561 0.739 
-0.484758 -0.269205 0.749 
-0.464258 -0.278549 0.775 
-0.438079 -0.285019 0.793 
-0.408199 -0.290051 0.807 
-0.372421 -0.291488 0.811 
-0.333382 -0.29041 0.808 
-0.296819 -0.291488 0.811 
-0.259657 -0.292207 0.813 
-0.220046 -0.293286 0.816 
-0.183423 -0.306225 0.852 
-0.150004 -0.325633 0.906 
-0.115031 -0.347558 0.967 
-0.0748789 -0.371998 1.035 
-0.028516 -0.398236 1.108 
0.0361756 -0.579742 1.613 
0.113015 -0.588368 1.637 
0.188275 -0.585133 1.628 
0.263832 -0.584415 1.626 
0.340247 -0.585493 1.629 
0.399569 -0.562131 1.564 
0.444978 -0.529424 1.473 
0.466909 -0.481262 1.339 
0.510345 -0.464009 1.291 
0.548423 -0.446039 1.241 
0.577932 -0.425192 1.183 
0.603104 -0.405065 1.127 
0.623637 -0.385297 1.072 
0.64407 -0.368404 1.025 
0.670247 -0.356903 0.993 
0.680452 -0.338932 0.943 
0.699055 -0.327071 0.91 
0.712952 -0.314491 0.875 
0.723587 -0.301912 0.84 
0.736407 -0.291488 0.811 
0.747478 -0.281425 0.783 
-0.580708 -0.248358 0.694 
-0.558633 -0.253011 0.707 
-0.537576 -0.258736 0.723 
-0.51433 -0.264104 0.738 
-0.485785 -0.267325 0.747 
-0.464862 -0.276987 0.774 
-0.439865 -0.284145 0.794 
-0.409453 -0.288797 0.807 
-0.374142 -0.290586 0.812 
-0.335052 -0.289513 0.809 
-0.298814 -0.290944 0.813 
-0.26092 -0.290944 0.813 
-0.222854 -0.292376 0.817 
-0.190654 -0.30168 0.843 
-0.160339 -0.319573 0.893 
-0.126027 -0.339256 0.948 
-0.0873658 -0.362159 1.012 
-0.0426588 -0.384347 1.074 
0.00802082 -0.416555 1.164 
0.0908403 -0.590477 1.65 
0.166121 -0.584751 1.634 
0.240799 -0.581173 1.624 
0.318248 -0.584393 1.633 
0.383737 -0.568647 1.589 
0.434464 -0.53966 1.508 
0.45421 -0.485623 1.357 
0.499538 -0.468803 1.31 
0.539629 -0.451268 1.261 
0.57183 -0.431227 1.205 
0.593599 -0.407608 1.139 
0.615461 -0.387926 1.084 
0.635881 -0.37039 1.035 
0.658345 -0.356433 0.996 
0.672926 -0.34033 0.951 
0.690101 -0.327446 0.915 
0.706323 -0.315637 0.882 
0.71862 -0.303469 0.848 
0.734007 -0.293807 0.821 
0.743114 -0.282713 0.79 
0.758216 -0.27484 0.768 
-0.565589 -0.250131 0.702 
-0.544254 -0.255475 0.717 
-0.522234 -0.261176 0.733 
-0.495393 -0.265096 0.744 
-0.474958 -0.273291 0.767 
-0.451233 -0.280773 0.788 
-0.422394 -0.286118 0.803 
-0.391678 -0.291106 0.817 
-0.353165 -0.29075 0.816 
-0.316675 -0.292175 0.82 
-0.276417 -0.290037 0.814 
-0.237598 -0.288968 0.811 
-0.202507 -0.292888 0.822 
-0.173581 -0.309634 0.869 
-0.14104 -0.328163 0.921 
-0.105249 -0.352036 0.988 
-0.0628533 -0.373771 1.049 
-0.0150902 -0.404057 1.134 
0.0566774 -0.579362 1.626 
0.133117 -0.582213 1.634 
0.209535 -0.582925 1.636 
0.285091 -0.5815 1.632 
0.358282 -0.576868 1.619 
0.412579 -0.548719 1.54 
0.45102 -0.51095 1.434 
0.475968 -0.469618 1.318 
0.520275 -0.454653 1.276 
0.555215 -0.435412 1.222 
0.576605 -0.410114 1.151 
0.607255 -0.395149 1.109 
0.62389 -0.374127 1.05 
0.645917 -0.359162 1.008 
0.666219 -0.344553 0.967 
0.68334 -0.331013 0.929 
0.703176 -0.320324 0.899 
0.714413 -0.30714 0.862 
0.729205 -0.296807 0.833 
0.735761 -0.284336 0.798 
0.751646 -0.276498 0.776 
-0.57538 -0.247621 0.698 
-0.551401 -0.251523 0.709 
-0.531514 -0.257909 0.727 
-0.507211 -0.262875 0.741 
-0.480965 -0.267487 0.754 
-0.461786 -0.277066 0.781 
-0.433008 -0.282032 0.795 
-0.403922 -0.287708 0.811 
-0.367475 -0.288773 0.814 
-0.328725 -0.288063 0.812 
-0.291236 -0.288418 0.813 
-0.254899 -0.290192 0.818 
-0.216242 -0.289482 0.816 
-0.184323 -0.299415 0.844 
-0.153917 -0.317863 0.896 
-0.119664 -0.339148 0.956 
-0.0803684 -0.362917 1.023 
-0.0350185 -0.388814 1.096 
0.0171658 -0.415421 1.171 
0.103658 -0.58535 1.65 
0.179142 -0.580738 1.637 
0.254351 -0.578255 1.63 
0.330731 -0.578964 1.632 
0.391096 -0.556615 1.569 
0.441445 -0.529298 1.492 
0.459957 -0.476439 1.343 
0.506991 -0.462249 1.303 
0.543325 -0.442383 1.247 
0.576367 -0.423935 1.195 
0.5961 -0.399812 1.127 
0.616975 -0.3803 1.072 
0.640189 -0.365046 1.029 
0.662738 -0.351565 0.991 
0.676773 -0.334891 0.944 
0.69405 -0.322475 0.909 
0.710494 -0.311122 0.877 
0.720528 -0.298351 0.841 
0.73624 -0.289127 0.815 
0.744778 -0.27813 0.784 
-0.586332 -0.24477 0.693 
-0.561226 -0.247949 0.702 
-0.542057 -0.254307 0.72 
-0.519091 -0.259605 0.735 
-0.492089 -0.26349 0.746 
-0.471417 -0.271614 0.769 
-0.447469 -0.279031 0.79 
-0.419483 -0.285036 0.807 
-0.387074 -0.288921 0.818 
-0.34852 -0.288568 0.817 
-0.311579 -0.289627 0.82 
-0.271692 -0.287861 0.815 
-0.233418 -0.287508 0.814 
-0.199079 -0.292806 0.829 
-0.169342 -0.309053 0.875 
-0.136198 -0.32742 0.927 
-0.0996107 -0.350731 0.993 
-0.0563341 -0.370511 1.049 
-0.00811365 -0.404065 1.144 
0.0673164 -0.578901 1.639 
0.143448 -0.577842 1.636 
0.219433 -0.577135 1.634 
0.295595 -0.577135 1.634 
0.365841 -0.567952 1.608 
0.417764 -0.538283 1.524 
0.445499 -0.4906 1.389 
0.483057 -0.464463 1.315 
0.524894 -0.447863 1.268 
0.557283 -0.427377 1.21 
0.578179 -0.402652 1.14 
0.60861 -0.388171 1.099 
0.625612 -0.368038 1.042 
0.6483 -0.35391 1.002 
0.664582 -0.337663 0.956 
0.683179 -0.325301 0.921 
0.704032 -0.315411 0.893 
0.712744 -0.30093 0.852 
0.729494 -0.291746 0.826 
0.739171 -0.280797 0.795 
0.752793 -0.27232 0.771 
-0.575118 -0.245804 0.699 
-0.549523 -0.248968 0.708 
-0.530384 -0.25565 0.727 
-0.506743 -0.260924 0.742 
-0.481066 -0.265848 0.756 
-0.460572 -0.274639 0.781 
-0.431773 -0.279562 0.795 
-0.402662 -0.285188 0.811 
-0.36801 -0.28765 0.818 
-0.32827 -0.286243 0.814 
-0.291042 -0.286947 0.816 
-0.254249 -0.288353 0.82 
-0.215501 -0.28765 0.818 
-0.182795 -0.296441 0.843 
-0.152354 -0.314727 0.895 
-0.118055 -0.335826 0.955 
-0.078856 -0.36009 1.024 
-0.0334676 -0.387167 1.101 
0.0189852 -0.411782 1.171 
0.106286 -0.580575 1.651 
0.182352 -0.577761 1.643 
0.257829 -0.5753 1.636 
0.333471 -0.574245 1.633 
0.391025 -0.548223 1.559 
0.443168 -0.523959 1.49 
0.462044 -0.472266 1.343 
0.508234 -0.457497 1.301 
0.543076 -0.43675 1.242 
0.577256 -0.419519 1.193 
0.594668 -0.3942 1.121 
0.616909 -0.375914 1.069 
0.64054 -0.361145 1.027 
0.660256 -0.346375 0.985 
0.67534 -0.331255 0.942 
0.692523 -0.318947 0.907 
0.708874 -0.307694 0.875 
0.718815 -0.295035 0.839 
0.735337 -0.286243 0.814 
0.744778 -0.275694 0.784 
-0.588485 -0.242617 0.693 
-0.558749 -0.246118 0.703 
-0.539449 -0.25242 0.721 
-0.516367 -0.257671 0.736 
-0.490577 -0.262222 0.749 
-0.468441 -0.269574 0.77 
-0.444348 -0.276926 0.791 
-0.413214 -0.282528 0.807 
-0.380719 -0.286379 0.818 
-0.342592 -0.286379 0.818 
-0.305209 -0.287079 0.82 
-0.266338 -0.286379 0.818 
-0.228489 -0.286729 0.819 
-0.193801 -0.291981 0.834 
-0.164216 -0.309485 0.884 
-0.13011 -0.32734 0.935 
-0.0923595 -0.349396 0.998 
-0.0484147 -0.369002 1.054 
0.00077744 -0.402611 1.15 
0.0860768 -0.58011 1.657 
0.161733 -0.574508 1.641 
0.23764 -0.573108 1.637 
0.313749 -0.572758 1.636 
0.377846 -0.554903 1.585 
0.427213 -0.524795 1.499 
0.454974 -0.473681 1.353 
0.501956 -0.458977 1.311 
0.537722 -0.438321 1.252 
0.569893 -0.419066 1.197 
0.58805 -0.393859 1.125 
0.61259 -0.376704 1.076 
0.633794 -0.360249 1.029 
0.653929 -0.345545 0.987 
0.670858 -0.331191 0.946 
0.687744 -0.318588 0.91 
0.703681 -0.307035 0.877 
0.716152 -0.294781 0.842 
0.732969 -0.286029 0.817 
0.741794 -0.275176 0.786 
0.758622 -0.268174 0.766 
-0.563726 -0.242934 0.697 
-0.54314 -0.249905 0.717 
-0.520385 -0.255133 0.732 
-0.496895 -0.26071 0.748 
-0.473766 -0.267332 0.767 
-0.448866 -0.273955 0.786 
-0.421671 -0.280228 0.804 
-0.391364 -0.285457 0.819 
-0.353622 -0.285805 0.82 
-0.316171 -0.286502 0.822 
-0.275829 -0.284411 0.816 
-0.238378 -0.285108 0.818 
-0.202209 -0.287896 0.826 
-0.172826 -0.303929 0.872 
-0.139458 -0.320659 0.92 
-0.103819 -0.344709 0.989 
-0.06099 -0.364227 1.045 
-0.0133518 -0.395945 1.136 
0.0619577 -0.568822 1.632 
0.138702 -0.57161 1.64 
0.216061 -0.57405 1.647 
0.291584 -0.57161 1.64 
0.360844 -0.560457 1.608 
0.41357 -0.531876 1.526 
0.4396 -0.475412 1.364 
0.485469 -0.458682 1.316 
0.52354 -0.439164 1.26 
0.557776 -0.420691 1.207 
0.578933 -0.396642 1.138 
0.606985 -0.380957 1.093 
0.627833 -0.36353 1.043 
0.645965 -0.347149 0.996 
0.664582 -0.333207 0.956 
0.681696 -0.320311 0.919 
0.702456 -0.310552 0.891 
0.70975 -0.296261 0.85 
0.726447 -0.287199 0.824 
0.737007 -0.276743 0.794 
0.75062 -0.268378 0.77 
-0.576464 -0.242198 0.698 
-0.549385 -0.244627 0.705 
-0.527399 -0.251914 0.726 
-0.505797 -0.25816 0.744 
-0.480617 -0.263365 0.759 
-0.457559 -0.270652 0.78 
-0.429843 -0.276203 0.796 
-0.401129 -0.282102 0.813 
-0.367702 -0.285572 0.823 
-0.327341 -0.283837 0.818 
-0.289921 -0.284531 0.82 
-0.251701 -0.284531 0.82 
-0.214001 -0.285225 0.822 
-0.180603 -0.293206 0.845 
-0.150075 -0.311596 0.898 
-0.115088 -0.331375 0.955 
-0.0755263 -0.354623 1.022 
-0.0302648 -0.384811 1.109 
0.0225853 -0.40563 1.169 
0.116476 -0.572532 1.65 
0.192797 -0.570797 1.645 
0.269798 -0.571491 1.647 
0.342988 -0.565592 1.63 
0.397887 -0.537139 1.548 
0.446659 -0.510421 1.471 
0.475095 -0.460455 1.327 
0.514692 -0.44137 1.272 
0.550064 -0.42298 1.219 
0.574024 -0.400079 1.153 
0.600542 -0.382729 1.103 
0.628902 -0.369197 1.064 
0.640872 -0.348724 1.005 
0.662396 -0.335886 0.968 
0.676817 -0.321312 0.926 
0.69743 -0.311249 0.897 
0.709258 -0.298064 0.859 
0.723127 -0.287654 0.829 
0.733281 -0.276897 0.798 
0.747304 -0.26857 0.774 
-0.578887 -0.240769 0.697 
-0.552671 -0.243532 0.705 
-0.52932 -0.250095 0.724 
-0.507211 -0.255968 0.741 
-0.483517 -0.26184 0.758 
-0.460603 -0.269094 0.779 
-0.433008 -0.274621 0.795 
-0.403424 -0.279803 0.81 
-0.372441 -0.284984 0.825 
-0.331154 -0.282566 0.818 
-0.294459 -0.283948 0.822 
-0.255834 -0.283603 0.821 
-0.217082 -0.284639 0.824 
-0.181711 -0.289475 0.838 
-0.152014 -0.308474 0.893 
-0.11719 -0.327473 0.948 
-0.0779319 -0.349581 1.012 
-0.0302375 -0.382743 1.108 
0.0225659 -0.403469 1.168 
0.116476 -0.569969 1.65 
0.193031 -0.568932 1.647 
0.270454 -0.570314 1.651 
0.343409 -0.563751 1.632 
0.397887 -0.534734 1.548 
0.44423 -0.505372 1.463 
0.474737 -0.458048 1.326 
0.513478 -0.438358 1.269 
0.550064 -0.421086 1.219 
0.573028 -0.397596 1.151 
0.599454 -0.380325 1.101 
0.630084 -0.368234 1.066 
0.639596 -0.346472 1.003 
0.661712 -0.334036 0.967 
0.676086 -0.319528 0.925 
0.69743 -0.309856 0.897 
0.707099 -0.296384 0.858 
0.720969 -0.286021 0.828 
0.732959 -0.276003 0.799 
0.746102 -0.267367 0.774 
-0.57997 -0.239686 0.697 
-0.546874 -0.242781 0.706 
-0.525458 -0.250346 0.728 
-0.503679 -0.256536 0.746 
-0.478965 -0.262038 0.762 
-0.453923 -0.268228 0.78 
-0.427739 -0.274762 0.799 
-0.398805 -0.280608 0.816 
-0.36475 -0.283703 0.825 
-0.325506 -0.283015 0.823 
-0.286448 -0.282327 0.821 
-0.248181 -0.282327 0.821 
-0.210937 -0.283703 0.825 
-0.178879 -0.296426 0.862 
-0.145781 -0.311557 0.906 
-0.110067 -0.331158 0.963 
-0.0698517 -0.354886 1.032 
-0.0184005 -0.385492 1.121 
0.0356915 -0.406468 1.182 
0.131618 -0.566373 1.647 
0.208891 -0.567749 1.651 
0.285325 -0.566717 1.648 
0.354887 -0.555369 1.615 
0.407789 -0.526483 1.531 
0.431212 -0.464584 1.351 
0.481745 -0.452892 1.317 
0.517562 -0.431572 1.255 
0.555862 -0.416441 1.211 
0.576408 -0.392025 1.14 
0.602484 -0.375175 1.091 
0.634772 -0.364515 1.06 
0.640934 -0.341475 0.993 
0.665072 -0.33047 0.961 
0.67884 -0.316027 0.919 
0.700472 -0.306743 0.892 
0.704613 -0.291268 0.847 
0.723887 -0.283359 0.824 
0.735465 -0.273386 0.795 
0.747256 -0.264445 0.769 
-0.57538 -0.238945 0.698 
-0.546874 -0.241684 0.706 
-0.525866 -0.248873 0.727 
-0.503485 -0.254692 0.744 
-0.479519 -0.260512 0.761 
-0.454551 -0.266674 0.779 
-0.429517 -0.273863 0.8 
-0.399583 -0.278997 0.815 
-0.36692 -0.283105 0.827 
-0.327182 -0.282078 0.824 
-0.288424 -0.281736 0.823 
-0.249456 -0.281051 0.821 
-0.212475 -0.282763 0.826 
-0.178964 -0.293033 0.856 
-0.146214 -0.308095 0.9 
-0.110752 -0.327266 0.956 
-0.0710396 -0.351229 1.026 
-0.0233727 -0.379642 1.109 
0.0299524 -0.401551 1.173 
0.124242 -0.565184 1.651 
0.200708 -0.563815 1.647 
0.278149 -0.565184 1.651 
0.349511 -0.556283 1.625 
0.402747 -0.526843 1.539 
0.423831 -0.465909 1.361 
0.473663 -0.4529 1.323 
0.513073 -0.434072 1.268 
0.550064 -0.417298 1.219 
0.570539 -0.392308 1.146 
0.598365 -0.376219 1.099 
0.631266 -0.365607 1.068 
0.637319 -0.341301 0.997 
0.661843 -0.330347 0.965 
0.675326 -0.315627 0.922 
0.697266 -0.306384 0.895 
0.703478 -0.291664 0.852 
0.721383 -0.283105 0.827 
0.7342 -0.27352 0.799 
0.745373 -0.264277 0.772 
-0.579138 -0.237179 0.696 
-0.553766 -0.240246 0.705 
-0.533467 -0.246039 0.722 
-0.510891 -0.251492 0.738 
-0.489405 -0.258307 0.758 
-0.463659 -0.263759 0.774 
-0.439184 -0.270916 0.795 
-0.408705 -0.275346 0.808 
-0.380228 -0.282161 0.828 
-0.339984 -0.280798 0.824 
-0.301943 -0.281139 0.825 
-0.262851 -0.280457 0.823 
-0.225036 -0.281139 0.825 
-0.188166 -0.283524 0.832 
-0.153728 -0.299541 0.879 
-0.120582 -0.320328 0.94 
-0.0814238 -0.339752 0.997 
-0.0363193 -0.3694 1.084 
0.0152023 -0.395298 1.16 
0.10183 -0.566367 1.662 
0.177786 -0.561596 1.648 
0.256608 -0.566026 1.661 
0.330609 -0.560233 1.644 
0.385438 -0.530245 1.556 
0.430886 -0.498894 1.464 
0.462044 -0.45766 1.343 
0.508234 -0.443348 1.301 
0.540452 -0.421197 1.236 
0.567579 -0.399729 1.173 
0.589363 -0.3786 1.111 
0.615178 -0.363266 1.066 
0.63653 -0.345205 1.013 
0.654723 -0.330551 0.97 
0.671071 -0.31692 0.93 
0.692909 -0.307379 0.902 
0.703989 -0.294429 0.864 
0.715834 -0.283184 0.831 
0.730051 -0.273983 0.804 
0.742705 -0.265123 0.778 
-0.58755 -0.236437 0.697 
-0.556656 -0.237115 0.699 
-0.53832 -0.243561 0.718 
-0.515401 -0.248649 0.733 
-0.494366 -0.255433 0.753 
-0.469638 -0.2612 0.77 
-0.445014 -0.267984 0.79 
-0.416459 -0.273412 0.806 
-0.388293 -0.280196 0.826 
-0.349793 -0.280196 0.826 
-0.312046 -0.280875 0.828 
-0.273123 -0.280536 0.827 
-0.233441 -0.279179 0.823 
-0.196029 -0.280536 0.827 
-0.161244 -0.294444 0.868 
-0.127831 -0.315136 0.929 
-0.089808 -0.334811 0.987 
-0.0465552 -0.355843 1.049 
0.00257532 -0.3918 1.155 
0.0842582 -0.567177 1.672 
0.159863 -0.559036 1.648 
0.239118 -0.564803 1.665 
0.312729 -0.557679 1.644 
0.374673 -0.536647 1.582 
0.422617 -0.505778 1.491 
0.453628 -0.457609 1.349 
0.502722 -0.445397 1.313 
0.532139 -0.420295 1.239 
0.563228 -0.401298 1.183 
0.585437 -0.379927 1.12 
0.608605 -0.362627 1.069 
0.632384 -0.345666 1.019 
0.649189 -0.330062 0.973 
0.670271 -0.318528 0.939 
0.688184 -0.306995 0.905 
0.701313 -0.294783 0.869 
0.712793 -0.283249 0.835 
0.727406 -0.27409 0.808 
0.741395 -0.26561 0.783 
0.756035 -0.258147 0.761 
-0.560477 -0.235354 0.697 
-0.540868 -0.241094 0.714 
-0.518963 -0.246497 0.73 
-0.498223 -0.25325 0.75 
-0.473766 -0.258991 0.767 
-0.448295 -0.265069 0.785 
-0.421147 -0.271147 0.803 
-0.391842 -0.276887 0.82 
-0.35664 -0.279251 0.827 
-0.318863 -0.279926 0.829 
-0.278195 -0.2779 0.823 
-0.241 -0.279251 0.827 
-0.202454 -0.279251 0.827 
-0.166245 -0.290056 0.859 
-0.130155 -0.312342 0.925 
-0.0922163 -0.330914 0.98 
-0.0496724 -0.3532 1.046 
0.000778116 -0.388655 1.151 
0.0816605 -0.564579 1.672 
0.157493 -0.557151 1.65 
0.237099 -0.563566 1.669 
0.310175 -0.555125 1.644 
0.372685 -0.534865 1.584 
0.420864 -0.504137 1.493 
0.445245 -0.455513 1.349 
0.495315 -0.444032 1.315 
0.525286 -0.419045 1.241 
0.561984 -0.40385 1.196 
0.582092 -0.380551 1.127 
0.60534 -0.362992 1.075 
0.62728 -0.344758 1.021 
0.643142 -0.32855 0.973 
0.670096 -0.319771 0.947 
0.684822 -0.306602 0.908 
0.697514 -0.294108 0.871 
0.710994 -0.283303 0.839 
0.724172 -0.27351 0.81 
0.740292 -0.265744 0.787 
0.752293 -0.257302 0.762 
-0.565619 -0.234607 0.698 
-0.543778 -0.239313 0.712 
-0.522365 -0.245363 0.73 
-0.499712 -0.251077 0.747 
-0.475474 -0.256791 0.764 
-0.450227 -0.262841 0.782 
-0.42436 -0.269563 0.802 
-0.394699 -0.274941 0.818 
-0.361803 -0.278974 0.83 
-0.322338 -0.278302 0.828 
-0.280752 -0.276621 0.823 
-0.24357 -0.277966 0.827 
-0.205023 -0.277966 0.827 
-0.169258 -0.287041 0.854 
-0.134582 -0.30788 0.916 
-0.0972032 -0.325694 0.969 
-0.0559045 -0.349894 1.041 
-0.00797889 -0.378128 1.125 
0.0474215 -0.403336 1.2 
0.145026 -0.555932 1.654 
0.223731 -0.559965 1.666 
0.297585 -0.552907 1.645 
0.362428 -0.535429 1.593 
0.411459 -0.504506 1.501 
0.431707 -0.452409 1.346 
0.481955 -0.440981 1.312 
0.517856 -0.420478 1.251 
0.557283 -0.406697 1.21 
0.575643 -0.381489 1.135 
0.600303 -0.364347 1.084 
0.633417 -0.3546 1.055 
0.63733 -0.328719 0.978 
0.664061 -0.319644 0.951 
0.680082 -0.306872 0.913 
0.696518 -0.29578 0.88 
0.706525 -0.283344 0.843 
0.722815 -0.274605 0.817 
0.736681 -0.265866 0.791 
0.748123 -0.257127 0.765 
-0.570503 -0.234192 0.7 
-0.544791 -0.237203 0.709 
-0.524634 -0.244229 0.73 
-0.499532 -0.249247 0.745 
-0.475413 -0.254935 0.762 
-0.450287 -0.260957 0.78 
-0.423642 -0.268652 0.803 
-0.39232 -0.274674 0.821 
-0.357503 -0.27735 0.829 
-0.319248 -0.277685 0.83 
-0.278935 -0.27735 0.829 
-0.239715 -0.276681 0.827 
-0.201412 -0.277016 0.828 
-0.166604 -0.285714 0.854 
-0.134141 -0.305453 0.913 
-0.0969023 -0.323185 0.966 
-0.0558508 -0.347942 1.04 
-0.000997878 -0.380394 1.137 
0.0818559 -0.560722 1.676 
0.15797 -0.553696 1.655 
0.237525 -0.559384 1.672 
0.309986 -0.549682 1.643 
0.37245 -0.529608 1.583 
0.419455 -0.497825 1.488 
0.442492 -0.450652 1.347 
0.493648 -0.440281 1.316 
0.524201 -0.415858 1.243 
0.560126 -0.400134 1.196 
0.579311 -0.37638 1.125 
0.60367 -0.359652 1.075 
0.627017 -0.344931 1.031 
0.638404 -0.326196 0.975 
0.665614 -0.317497 0.949 
0.682171 -0.305119 0.912 
0.696074 -0.293074 0.876 
0.707462 -0.281365 0.841 
0.721802 -0.271997 0.813 
0.73727 -0.263968 0.789 
0.747557 -0.254935 0.762 
-0.56724 -0.233104 0.7 
-0.543014 -0.236767 0.711 
-0.524217 -0.243427 0.731 
-0.499532 -0.24809 0.745 
-0.475413 -0.253751 0.762 
-0.44971 -0.259412 0.779 
-0.422394 -0.267404 0.803 
-0.389913 -0.274397 0.824 
-0.354919 -0.277061 0.832 
-0.316519 -0.277394 0.833 
-0.276067 -0.277061 0.832 
-0.236146 -0.275729 0.828 
-0.19803 -0.276395 0.83 
-0.163759 -0.284054 0.853 
-0.132868 -0.304368 0.914 
-0.0927823 -0.323016 0.97 
-0.0511014 -0.346992 1.042 
-0.000991735 -0.376297 1.13 
0.0793465 -0.558784 1.678 
0.155681 -0.552124 1.658 
0.235209 -0.557452 1.674 
0.307059 -0.546463 1.641 
0.370224 -0.527482 1.584 
0.417703 -0.496179 1.49 
0.442492 -0.448559 1.347 
0.494023 -0.438569 1.317 
0.524623 -0.41426 1.244 
0.558721 -0.397276 1.193 
0.578281 -0.373966 1.123 
0.602547 -0.357316 1.073 
0.62618 -0.341997 1.027 
0.639263 -0.324348 0.974 
0.665682 -0.315357 0.947 
0.682838 -0.303369 0.911 
0.695842 -0.291047 0.874 
0.708768 -0.280058 0.841 
0.722176 -0.270401 0.812 
0.736624 -0.262076 0.787 
0.747758 -0.253418 0.761 
-0.566153 -0.232017 0.7 
-0.541909 -0.235663 0.711 
-0.523081 -0.242292 0.731 
-0.499043 -0.247264 0.746 
-0.474229 -0.252567 0.762 
-0.449012 -0.259196 0.782 
-0.419899 -0.266156 0.803 
-0.390386 -0.273448 0.825 
-0.355345 -0.2761 0.833 
-0.316899 -0.276431 0.834 
-0.277693 -0.2761 0.833 
-0.237432 -0.274443 0.828 
-0.199079 -0.274774 0.829 
-0.164697 -0.282066 0.851 
-0.133553 -0.30129 0.909 
-0.0938034 -0.319852 0.965 
-0.0526697 -0.345042 1.041 
-0.00444725 -0.369901 1.116 
0.0820024 -0.556509 1.679 
0.158352 -0.54988 1.659 
0.238378 -0.556177 1.678 
0.309609 -0.543913 1.641 
0.371744 -0.523695 1.58 
0.417199 -0.49055 1.48 
0.446014 -0.445804 1.345 
0.498115 -0.436523 1.317 
0.527214 -0.411332 1.241 
0.557714 -0.392108 1.183 
0.580216 -0.371227 1.12 
0.603058 -0.353991 1.068 
0.625941 -0.339407 1.024 
0.64163 -0.322503 0.973 
0.666507 -0.312891 0.944 
0.684916 -0.301622 0.91 
0.69616 -0.288695 0.871 
0.70969 -0.278089 0.839 
0.722914 -0.268476 0.81 
0.736252 -0.259859 0.784 
0.74618 -0.25091 0.757 
-0.564783 -0.231259 0.701 
-0.541977 -0.235548 0.714 
-0.520097 -0.240826 0.73 
-0.498057 -0.246764 0.748 
-0.4731 -0.252043 0.764 
-0.44837 -0.258311 0.783 
-0.422394 -0.264909 0.803 
-0.394075 -0.271177 0.822 
-0.361388 -0.275465 0.835 
-0.321696 -0.274806 0.833 
-0.28253 -0.274476 0.832 
-0.243164 -0.273816 0.83 
-0.204231 -0.273486 0.829 
-0.169187 -0.279424 0.847 
-0.136905 -0.29493 0.894 
-0.101627 -0.314723 0.954 
-0.0604064 -0.341445 1.035 
-0.012964 -0.363878 1.103 
0.0432194 -0.39159 1.187 
0.145727 -0.548292 1.662 
0.224805 -0.552251 1.674 
0.297404 -0.542354 1.644 
0.36129 -0.523879 1.588 
0.410636 -0.494188 1.498 
0.43848 -0.446683 1.354 
0.488254 -0.434807 1.318 
0.521327 -0.412373 1.25 
0.554088 -0.394229 1.195 
0.575815 -0.371136 1.125 
0.600888 -0.354971 1.076 
0.625023 -0.340785 1.033 
0.637981 -0.322971 0.979 
0.66057 -0.312084 0.946 
0.680827 -0.301527 0.914 
0.691769 -0.288332 0.874 
0.705687 -0.277775 0.842 
0.72016 -0.268538 0.814 
0.734818 -0.26029 0.789 
0.742255 -0.250393 0.759 
-0.572133 -0.230498 0.702 
-0.544791 -0.232797 0.709 
-0.525458 -0.239035 0.728 
-0.500979 -0.243632 0.742 
-0.478336 -0.249871 0.761 
-0.452759 -0.255452 0.778 
-0.428809 -0.263004 0.801 
-0.40076 -0.269243 0.82 
-0.370498 -0.275153 0.838 
-0.331043 -0.274825 0.837 
-0.290635 -0.273511 0.833 
-0.252413 -0.274168 0.835 
-0.212215 -0.272526 0.83 
-0.175619 -0.27581 0.84 
-0.142153 -0.287302 0.875 
-0.109478 -0.310286 0.945 
-0.0681821 -0.338524 1.031 
-0.0213959 -0.359866 1.096 
0.0316123 -0.383179 1.167 
0.127959 -0.547023 1.666 
0.205612 -0.547023 1.666 
0.280884 -0.542426 1.652 
0.347053 -0.526009 1.602 
0.39803 -0.496458 1.512 
0.426634 -0.449833 1.37 
0.470082 -0.431117 1.313 
0.510241 -0.414043 1.261 
0.544649 -0.396313 1.207 
0.571535 -0.37694 1.148 
0.592376 -0.357239 1.088 
0.621218 -0.345091 1.051 
0.635133 -0.327032 0.996 
0.650763 -0.312256 0.951 
0.672432 -0.302077 0.92 
0.6881 -0.290585 0.885 
0.70133 -0.279422 0.851 
0.714003 -0.269243 0.82 
0.731124 -0.261691 0.797 
0.740318 -0.252169 0.768 
-0.581379 -0.228754 0.7 
-0.555023 -0.231368 0.708 
-0.533083 -0.23627 0.723 
-0.50629 -0.239538 0.733 
-0.486939 -0.247054 0.756 
-0.462457 -0.252937 0.774 
-0.4385 -0.260126 0.796 
-0.407449 -0.264047 0.808 
-0.38123 -0.272217 0.833 
-0.344458 -0.273851 0.838 
-0.303941 -0.272544 0.834 
-0.265704 -0.273198 0.836 
-0.22728 -0.273851 0.838 
-0.188445 -0.274178 0.839 
-0.153077 -0.281041 0.86 
-0.120225 -0.302609 0.926 
-0.0814748 -0.319929 0.979 
-0.0357162 -0.34836 1.066 
0.0150188 -0.374503 1.146 
0.107895 -0.547702 1.676 
0.183351 -0.539859 1.652 
0.263818 -0.547049 1.674 
0.33245 -0.532016 1.628 
0.385256 -0.501952 1.536 
0.417379 -0.456201 1.396 
0.456873 -0.432018 1.322 
0.501235 -0.417639 1.278 
0.537984 -0.400646 1.226 
0.563091 -0.379078 1.16 
0.584173 -0.358817 1.098 
0.611048 -0.345092 1.056 
0.630256 -0.329406 1.008 
0.646333 -0.314373 0.962 
0.667463 -0.303589 0.929 
0.683221 -0.291825 0.893 
0.698058 -0.281041 0.86 
0.709819 -0.270256 0.827 
0.724838 -0.26176 0.801 
0.738384 -0.25359 0.776 
-0.590674 -0.228317 0.702 
-0.561133 -0.229618 0.706 
-0.540198 -0.234822 0.722 
-0.512158 -0.237424 0.73 
-0.493196 -0.244904 0.753 
-0.465443 -0.250108 0.769 
-0.441332 -0.256938 0.79 
-0.411678 -0.261491 0.804 
-0.385839 -0.269622 0.829 
-0.351387 -0.272874 0.839 
-0.311909 -0.272549 0.838 
-0.273175 -0.272874 0.839 
-0.233511 -0.272224 0.837 
-0.194498 -0.272224 0.837 
-0.158086 -0.276777 0.851 
-0.127048 -0.296942 0.913 
-0.089398 -0.31418 0.966 
-0.0432543 -0.340849 1.048 
0.00602021 -0.366868 1.128 
0.0978286 -0.54705 1.682 
0.173398 -0.538268 1.655 
0.255534 -0.549001 1.688 
0.323323 -0.531113 1.633 
0.378646 -0.503468 1.548 
0.411166 -0.454357 1.397 
0.452757 -0.431916 1.328 
0.500316 -0.419882 1.291 
0.533573 -0.399717 1.229 
0.558646 -0.377926 1.162 
0.582219 -0.359062 1.104 
0.607274 -0.344102 1.058 
0.62899 -0.328815 1.011 
0.644013 -0.313204 0.963 
0.666007 -0.302796 0.931 
0.680446 -0.290437 0.893 
0.697003 -0.280355 0.862 
0.709814 -0.269947 0.83 
0.724152 -0.261166 0.803 
0.736921 -0.25271 0.777 
0.743287 -0.242953 0.747 
-0.561928 -0.228845 0.707 
-0.540198 -0.2337 0.722 
-0.512158 -0.236289 0.73 
-0.489166 -0.244058 0.754 
-0.46185 -0.250855 0.775 
-0.436714 -0.257329 0.795 
-0.406194 -0.261537 0.808 
-0.379479 -0.269305 0.832 
-0.344794 -0.272542 0.842 
-0.303371 -0.2706 0.836 
-0.26405 -0.271571 0.839 
-0.224944 -0.271571 0.839 
-0.18606 -0.271895 0.84 
-0.151454 -0.28031 0.866 
-0.118273 -0.298437 0.922 
-0.0795454 -0.315268 0.974 
-0.030834 -0.346018 1.069 
0.0205913 -0.37515 1.159 
0.115638 -0.542171 1.675 
0.191745 -0.536668 1.658 
0.271134 -0.540876 1.671 
0.337741 -0.523397 1.617 
0.388839 -0.492647 1.522 
0.420866 -0.44636 1.379 
0.462978 -0.425968 1.316 
0.502404 -0.408166 1.261 
0.539373 -0.392305 1.212 
0.570623 -0.374502 1.157 
0.586225 -0.351521 1.086 
0.615733 -0.339868 1.05 
0.634576 -0.323684 1 
0.647127 -0.3075 0.95 
0.668845 -0.297466 0.919 
0.684576 -0.286137 0.884 
0.700328 -0.276102 0.853 
0.709719 -0.264774 0.818 
0.728648 -0.257976 0.797 
0.737931 -0.248589 0.768 
-0.582778 -0.226458 0.703 
-0.554705 -0.22839 0.709 
-0.531959 -0.2329 0.723 
-0.505841 -0.236444 0.734 
-0.478889 -0.244819 0.76 
-0.453968 -0.250617 0.778 
-0.428443 -0.25706 0.798 
-0.401054 -0.263503 0.818 
-0.3718 -0.269945 0.838 
-0.335123 -0.271878 0.844 
-0.295083 -0.271234 0.842 
-0.255533 -0.270912 0.841 
-0.215562 -0.269945 0.838 
-0.176924 -0.27059 0.84 
-0.144168 -0.283153 0.879 
-0.110124 -0.302158 0.938 
-0.0677854 -0.330184 1.025 
-0.0212202 -0.350156 1.087 
0.0317478 -0.377537 1.172 
0.133775 -0.539246 1.674 
0.210789 -0.536669 1.666 
0.287749 -0.535381 1.662 
0.349833 -0.512832 1.592 
0.399266 -0.482873 1.499 
0.435042 -0.439064 1.363 
0.483209 -0.425534 1.321 
0.514676 -0.402019 1.248 
0.543451 -0.378825 1.176 
0.573337 -0.363041 1.127 
0.597544 -0.346612 1.076 
0.620007 -0.331794 1.03 
0.634939 -0.315366 0.979 
0.655545 -0.303769 0.943 
0.677245 -0.294105 0.913 
0.688831 -0.280898 0.872 
0.705215 -0.271556 0.843 
0.717129 -0.26157 0.812 
0.731733 -0.253517 0.787 
0.72936 -0.240631 0.747 
-0.569388 -0.225686 0.704 
-0.544196 -0.228892 0.714 
-0.52165 -0.2337 0.729 
-0.497705 -0.238509 0.744 
-0.473148 -0.245562 0.766 
-0.447724 -0.251332 0.784 
-0.420622 -0.257103 0.802 
-0.395665 -0.265438 0.828 
-0.364403 -0.270887 0.845 
-0.324248 -0.270246 0.843 
-0.285293 -0.270567 0.844 
-0.244497 -0.268964 0.839 
-0.204412 -0.267682 0.835 
-0.167871 -0.271528 0.847 
-0.135819 -0.287237 0.896 
-0.0996203 -0.304227 0.949 
-0.0552063 -0.329553 1.028 
-0.00780868 -0.352955 1.101 
0.0467102 -0.378922 1.182 
0.154767 -0.537287 1.676 
0.235387 -0.543057 1.694 
0.305066 -0.527028 1.644 
0.364745 -0.503626 1.571 
0.400892 -0.460989 1.438 
0.443149 -0.432458 1.349 
0.494773 -0.422841 1.319 
0.519984 -0.395271 1.233 
0.549228 -0.373472 1.165 
0.577108 -0.357122 1.114 
0.600753 -0.340132 1.061 
0.623243 -0.326027 1.017 
0.637674 -0.309998 0.967 
0.66227 -0.300701 0.938 
0.678895 -0.28916 0.902 
0.692709 -0.277299 0.865 
0.710146 -0.268643 0.838 
0.719702 -0.258064 0.805 
0.733707 -0.25005 0.78 
0.732547 -0.237868 0.742 
-0.561928 -0.225549 0.707 
-0.540198 -0.230335 0.722 
-0.512859 -0.233206 0.731 
-0.490205 -0.239905 0.752 
-0.465443 -0.245329 0.769 
-0.441332 -0.252028 0.79 
-0.411166 -0.256175 0.803 
-0.387235 -0.265427 0.832 
-0.353481 -0.269255 0.844 
-0.313398 -0.268617 0.842 
-0.274803 -0.269255 0.844 
-0.234627 -0.268298 0.841 
-0.195428 -0.268298 0.841 
-0.158272 -0.271808 0.852 
-0.126213 -0.289354 0.907 
-0.0889353 -0.306581 0.961 
-0.0429242 -0.331784 1.04 
0.00603622 -0.360815 1.131 
0.0619213 -0.380275 1.192 
0.168387 -0.536597 1.682 
0.250014 -0.543615 1.704 
0.316291 -0.521922 1.636 
0.37167 -0.494167 1.549 
0.401174 -0.446632 1.4 
0.446771 -0.42781 1.341 
0.497503 -0.41792 1.31 
0.522746 -0.391122 1.226 
0.550565 -0.371343 1.164 
0.57728 -0.354435 1.111 
0.600187 -0.338164 1.06 
0.621404 -0.323489 1.014 
0.637014 -0.308176 0.966 
0.66227 -0.299244 0.938 
0.676637 -0.286802 0.899 
0.691908 -0.275636 0.864 
0.709299 -0.267022 0.837 
0.719702 -0.256814 0.805 
0.733707 -0.248838 0.78 
0.730573 -0.236077 0.74 
-0.563027 -0.224451 0.707 
-0.541319 -0.229213 0.722 
-0.513292 -0.231753 0.73 
-0.489553 -0.238419 0.751 
-0.465443 -0.244134 0.769 
-0.44189 -0.251118 0.791 
-0.411678 -0.255245 0.804 
-0.387701 -0.264452 0.833 
-0.3539 -0.268262 0.845 
-0.314142 -0.267944 0.844 
-0.275129 -0.268262 0.845 
-0.234906 -0.267309 0.842 
-0.19566 -0.267309 0.842 
-0.158272 -0.270484 0.852 
-0.126213 -0.287945 0.907 
-0.0889353 -0.305088 0.961 
-0.0443687 -0.328898 1.036 
0.00426766 -0.358105 1.128 
0.0599685 -0.377789 1.19 
0.168888 -0.535571 1.687 
0.250014 -0.540968 1.704 
0.315904 -0.518745 1.634 
0.371431 -0.491443 1.548 
0.401908 -0.44287 1.395 
0.448185 -0.425091 1.339 
0.49725 -0.41398 1.304 
0.523367 -0.388265 1.223 
0.552373 -0.369534 1.164 
0.578641 -0.351439 1.107 
0.601773 -0.335565 1.057 
0.622091 -0.320644 1.01 
0.638028 -0.305723 0.963 
0.662348 -0.296516 0.934 
0.67414 -0.283183 0.892 
0.691646 -0.273659 0.862 
0.70975 -0.265404 0.836 
0.719162 -0.254928 0.803 
0.733977 -0.247309 0.779 
0.732872 -0.234927 0.74 
-0.563027 -0.223352 0.707 
-0.541319 -0.228091 0.722 
-0.513995 -0.230934 0.731 
-0.488901 -0.236937 0.75 
-0.466049 -0.243255 0.77 
-0.44189 -0.249889 0.791 
-0.411678 -0.253996 0.804 
-0.387701 -0.263158 0.833 
-0.3539 -0.266949 0.845 
-0.314514 -0.266949 0.845 
-0.275454 -0.267265 0.846 
-0.235185 -0.266317 0.843 
-0.195892 -0.266317 0.843 
-0.158643 -0.269792 0.854 
-0.126074 -0.28622 0.906 
-0.0888428 -0.303279 0.96 
-0.0443259 -0.326973 1.035 
0.00427901 -0.357301 1.131 
0.0600189 -0.376256 1.191 
0.174233 -0.533266 1.688 
0.254709 -0.537057 1.7 
0.320589 -0.515574 1.632 
0.374782 -0.487142 1.542 
0.404787 -0.439123 1.39 
0.450657 -0.421432 1.334 
0.497458 -0.408795 1.294 
0.525874 -0.385417 1.22 
0.556468 -0.368042 1.165 
0.578789 -0.348771 1.104 
0.601703 -0.332975 1.054 
0.621808 -0.318127 1.007 
0.63886 -0.303911 0.962 
0.662378 -0.294433 0.932 
0.673254 -0.280849 0.889 
0.691377 -0.271687 0.86 
0.709348 -0.263474 0.834 
0.719512 -0.253364 0.802 
0.735187 -0.246098 0.779 
0.73303 -0.233462 0.739 
-0.563027 -0.222254 0.707 
-0.541319 -0.226969 0.722 
-0.514698 -0.230113 0.732 
-0.491084 -0.235143 0.748 
-0.468418 -0.24143 0.768 
-0.44445 -0.248032 0.789 
-0.414392 -0.252118 0.802 
-0.387235 -0.261549 0.832 
-0.354319 -0.26595 0.846 
-0.314887 -0.26595 0.846 
-0.27578 -0.266265 0.847 
-0.235185 -0.265007 0.843 
-0.196125 -0.265322 0.844 
-0.158643 -0.268465 0.854 
-0.125935 -0.284498 0.905 
-0.0886577 -0.301159 0.958 
-0.0472204 -0.323164 1.028 
0.000753103 -0.350199 1.114 
0.0560816 -0.372833 1.186 
0.164616 -0.533472 1.697 
0.243713 -0.533472 1.697 
0.311778 -0.515239 1.639 
0.368041 -0.488519 1.554 
0.397107 -0.440421 1.401 
0.443925 -0.422817 1.345 
0.493809 -0.412129 1.311 
0.518513 -0.385093 1.225 
0.548827 -0.367175 1.168 
0.576072 -0.349571 1.112 
0.596846 -0.332281 1.057 
0.61834 -0.317191 1.009 
0.635695 -0.303045 0.964 
0.660858 -0.294243 0.936 
0.673627 -0.281354 0.895 
0.689766 -0.271294 0.863 
0.707152 -0.262807 0.836 
0.717914 -0.252433 0.803 
0.733707 -0.245202 0.78 
0.729586 -0.232314 0.739 
-0.568223 -0.221468 0.708 
-0.544294 -0.225222 0.72 
-0.517829 -0.22835 0.73 
-0.492419 -0.232417 0.743 
-0.473191 -0.240237 0.768 
-0.447645 -0.245867 0.786 
-0.41833 -0.250247 0.8 
-0.392053 -0.260882 0.834 
-0.358262 -0.264636 0.846 
-0.319207 -0.264949 0.847 
-0.280719 -0.265887 0.85 
-0.239114 -0.263697 0.843 
-0.199822 -0.263697 0.843 
-0.161862 -0.265887 0.85 
-0.12929 -0.281215 0.899 
-0.0927341 -0.298419 0.954 
-0.0517084 -0.31969 1.022 
-0.00435958 -0.342212 1.094 
0.0502552 -0.368801 1.179 
0.157075 -0.532087 1.701 
0.234553 -0.52802 1.688 
0.305252 -0.51457 1.645 
0.363584 -0.489858 1.566 
0.394155 -0.439808 1.406 
0.440726 -0.421666 1.348 
0.490856 -0.41103 1.314 
0.515127 -0.383503 1.226 
0.546598 -0.366299 1.171 
0.575554 -0.34753 1.111 
0.595717 -0.330013 1.055 
0.617727 -0.315311 1.008 
0.635695 -0.301547 0.964 
0.660858 -0.292789 0.936 
0.673627 -0.279963 0.895 
0.688967 -0.269641 0.862 
0.706307 -0.261195 0.835 
0.717559 -0.251498 0.804 
0.733434 -0.244303 0.781 
0.728437 -0.231165 0.739 
-0.570931 -0.220991 0.71 
-0.544656 -0.223792 0.719 
-0.518963 -0.227216 0.73 
-0.492909 -0.230951 0.742 
-0.474384 -0.239044 0.768 
-0.448295 -0.244335 0.785 
-0.419049 -0.248692 0.799 
-0.393349 -0.259586 0.834 
-0.360002 -0.263633 0.847 
-0.320523 -0.263633 0.847 
-0.282703 -0.265189 0.852 
-0.240709 -0.262699 0.844 
-0.20137 -0.262699 0.844 
-0.162991 -0.264255 0.849 
-0.130106 -0.278573 0.895 
-0.0940188 -0.296314 0.952 
-0.0531919 -0.31748 1.02 
-0.00602607 -0.338645 1.088 
0.05017 -0.366347 1.177 
0.15726 -0.530067 1.703 
0.234414 -0.525087 1.687 
0.305623 -0.512636 1.647 
0.36312 -0.486802 1.564 
0.394435 -0.437935 1.407 
0.440726 -0.419571 1.348 
0.489735 -0.408055 1.311 
0.515127 -0.381598 1.226 
0.546598 -0.364479 1.171 
0.573132 -0.346426 1.113 
0.593562 -0.328996 1.057 
0.615814 -0.314367 1.01 
0.6327 -0.300049 0.964 
0.660059 -0.292268 0.939 
0.673094 -0.279507 0.898 
0.688677 -0.269235 0.865 
0.703712 -0.259898 0.835 
0.71595 -0.25056 0.805 
0.731944 -0.243401 0.782 
0.728106 -0.23064 0.741 
-0.575858 -0.220507 0.712 
-0.546129 -0.222365 0.718 
-0.521231 -0.226082 0.73 
-0.494547 -0.229488 0.741 
-0.476149 -0.237541 0.767 
-0.449586 -0.242496 0.783 
-0.421004 -0.247141 0.798 
-0.394855 -0.256742 0.829 
-0.360002 -0.262317 0.847 
-0.321279 -0.262936 0.849 
-0.283035 -0.264175 0.853 
-0.240994 -0.261697 0.845 
-0.20137 -0.261388 0.844 
-0.163183 -0.263246 0.85 
-0.12996 -0.276873 0.894 
-0.0939201 -0.294526 0.951 
-0.0531398 -0.315585 1.019 
-0.00600946 -0.336026 1.085 
0.0599685 -0.368544 1.19 
0.17079 -0.52835 1.706 
0.248987 -0.525563 1.697 
0.316291 -0.506671 1.636 
0.370951 -0.478798 1.546 
0.40146 -0.433891 1.401 
0.447438 -0.415928 1.343 
0.493325 -0.402302 1.299 
0.520188 -0.377835 1.22 
0.551984 -0.361421 1.167 
0.5764 -0.342529 1.106 
0.594453 -0.324257 1.047 
0.616836 -0.31094 1.004 
0.637193 -0.298552 0.964 
0.659482 -0.288641 0.932 
0.674263 -0.276873 0.894 
0.688705 -0.266343 0.86 
0.705909 -0.257981 0.833 
0.71702 -0.24838 0.802 
0.733707 -0.241567 0.78 
0.726624 -0.22794 0.736 
-0.575559 -0.219709 0.713 
-0.544656 -0.221558 0.719 
-0.518963 -0.224948 0.73 
-0.492909 -0.228645 0.742 
-0.475002 -0.236965 0.769 
-0.448295 -0.241896 0.785 
-0.418524 -0.245902 0.798 
-0.394231 -0.254222 0.825 
-0.360891 -0.260693 0.846 
-0.322978 -0.261925 0.85 
-0.284693 -0.263158 0.854 
-0.242881 -0.261001 0.847 
-0.202922 -0.260384 0.845 
-0.164116 -0.261309 0.848 
-0.130909 -0.274559 0.891 
-0.0952973 -0.29274 0.95 
-0.0546156 -0.313386 1.017 
-0.00767392 -0.333415 1.082 
0.0539188 -0.363306 1.179 
0.165489 -0.525699 1.706 
0.242995 -0.521385 1.692 
0.311968 -0.505362 1.64 
0.367094 -0.477628 1.55 
0.400138 -0.432639 1.404 
0.445683 -0.41415 1.344 
0.491685 -0.400591 1.3 
0.519142 -0.376556 1.222 
0.549699 -0.3593 1.166 
0.575202 -0.341119 1.107 
0.592826 -0.32263 1.047 
0.616502 -0.309996 1.006 
0.635695 -0.297054 0.964 
0.65874 -0.287501 0.933 
0.673627 -0.275792 0.895 
0.688168 -0.265315 0.861 
0.704615 -0.256687 0.833 
0.715774 -0.247134 0.802 
0.732495 -0.240355 0.78 
0.724649 -0.22618 0.734 
-0.576366 -0.218908 0.714 
-0.546129 -0.220134 0.718 
-0.519803 -0.2232 0.728 
-0.49388 -0.226879 0.74 
-0.47677 -0.235464 0.768 
-0.449586 -0.240063 0.783 
-0.419949 -0.244049 0.796 
-0.394871 -0.251713 0.821 
-0.36485 -0.258458 0.843 
-0.328647 -0.260911 0.851 
-0.291019 -0.262751 0.857 
-0.249316 -0.260911 0.851 
-0.208173 -0.259072 0.845 
-0.169387 -0.259991 0.848 
-0.134761 -0.269802 0.88 
-0.100988 -0.290651 0.948 
-0.060157 -0.30782 1.004 
-0.0143583 -0.330814 1.079 
0.0480538 -0.358715 1.17 
0.154614 -0.522129 1.703 
0.231518 -0.51661 1.685 
0.3038 -0.506186 1.651 
0.359998 -0.478593 1.561 
0.393364 -0.432604 1.411 
0.439282 -0.413901 1.35 
0.485466 -0.400105 1.305 
0.514478 -0.376804 1.229 
0.542918 -0.357795 1.167 
0.570185 -0.341545 1.114 
0.591394 -0.324683 1.059 
0.612922 -0.310579 1.013 
0.630162 -0.296476 0.967 
0.65638 -0.288198 0.94 
0.671888 -0.276547 0.902 
0.68702 -0.266123 0.868 
0.700658 -0.256312 0.836 
0.712198 -0.246808 0.805 
0.728299 -0.239756 0.782 
0.721719 -0.226266 0.738 
-0.581389 -0.217188 0.712 
-0.549743 -0.217799 0.714 
-0.524419 -0.221154 0.725 
-0.499424 -0.225119 0.738 
-0.481409 -0.233051 0.764 
-0.454551 -0.237626 0.779 
-0.427906 -0.243117 0.797 
-0.398602 -0.247997 0.813 
-0.3718 -0.255623 0.838 
-0.339094 -0.260504 0.854 
-0.299288 -0.260504 0.854 
-0.258572 -0.259589 0.851 
-0.218906 -0.259589 0.851 
-0.177977 -0.257759 0.845 
-0.1422 -0.26447 0.867 
-0.110594 -0.287348 0.942 
-0.0695188 -0.299549 0.982 
-0.0258756 -0.326393 1.07 
0.03702 -0.355677 1.166 
0.137843 -0.516128 1.692 
0.215426 -0.513077 1.682 
0.29365 -0.512772 1.681 
0.34943 -0.481658 1.579 
0.383913 -0.437122 1.433 
0.428374 -0.415464 1.362 
0.474523 -0.400822 1.314 
0.507635 -0.379775 1.245 
0.533861 -0.358422 1.175 
0.567588 -0.34561 1.133 
0.586448 -0.326698 1.071 
0.610223 -0.313276 1.027 
0.626693 -0.298329 0.978 
0.650969 -0.288873 0.947 
0.665748 -0.276671 0.907 
0.681483 -0.2663 0.873 
0.698184 -0.257454 0.844 
0.708686 -0.247387 0.811 
0.724396 -0.240066 0.787 
0.729165 -0.23 0.754 
-0.581617 -0.216993 0.715 
-0.548291 -0.216993 0.715 
-0.522167 -0.220028 0.725 
-0.497805 -0.224276 0.739 
-0.480916 -0.232774 0.767 
-0.453292 -0.237023 0.781 
-0.424362 -0.241272 0.795 
-0.39705 -0.247341 0.815 
-0.368772 -0.254928 0.84 
-0.335506 -0.259481 0.855 
-0.296691 -0.260391 0.858 
-0.255802 -0.259481 0.855 
-0.21494 -0.258267 0.851 
-0.174039 -0.256446 0.845 
-0.138956 -0.26464 0.872 
-0.106542 -0.286795 0.945 
-0.0653385 -0.299844 0.988 
-0.0209273 -0.325337 1.072 
0.0422727 -0.352348 1.161 
0.148884 -0.51532 1.698 
0.226685 -0.512285 1.688 
0.300479 -0.504091 1.661 
0.35674 -0.475866 1.568 
0.387062 -0.428523 1.412 
0.435235 -0.411831 1.357 
0.479016 -0.395746 1.304 
0.509991 -0.373895 1.232 
0.537905 -0.353258 1.164 
0.56825 -0.338994 1.117 
0.59088 -0.322909 1.064 
0.61158 -0.308342 1.016 
0.629102 -0.294382 0.97 
0.653459 -0.285277 0.94 
0.669085 -0.273745 0.902 
0.683534 -0.263123 0.867 
0.69973 -0.254321 0.838 
0.710578 -0.24461 0.806 
0.726797 -0.23763 0.783 
0.715851 -0.222152 0.732 
-0.583022 -0.21558 0.714 
-0.549743 -0.21558 0.714 
-0.523696 -0.218599 0.724 
-0.499424 -0.222826 0.738 
-0.482039 -0.230978 0.765 
-0.455135 -0.235507 0.78 
-0.427369 -0.240338 0.796 
-0.399093 -0.245773 0.814 
-0.371356 -0.252718 0.837 
-0.340682 -0.259058 0.858 
-0.299989 -0.258454 0.856 
-0.259787 -0.258152 0.855 
-0.219678 -0.25785 0.854 
-0.177767 -0.254831 0.844 
-0.142036 -0.261474 0.866 
-0.110359 -0.283817 0.94 
-0.0693772 -0.295894 0.98 
-0.0257305 -0.321256 1.064 
0.0276743 -0.34843 1.154 
0.0854157 -0.365338 1.21 
0.205826 -0.509964 1.689 
0.284888 -0.510568 1.691 
0.342413 -0.480677 1.592 
0.379718 -0.438104 1.451 
0.422993 -0.414252 1.372 
0.467422 -0.397645 1.317 
0.502307 -0.377718 1.251 
0.530144 -0.357186 1.183 
0.562031 -0.342995 1.136 
0.581957 -0.324578 1.075 
0.605017 -0.310689 1.029 
0.623788 -0.2968 0.983 
0.645765 -0.286232 0.948 
0.662295 -0.274759 0.91 
0.680704 -0.265399 0.879 
0.69376 -0.255133 0.845 
0.705381 -0.245471 0.813 
0.722248 -0.238527 0.79 
0.721801 -0.226449 0.75 
-0.590504 -0.214771 0.715 
-0.557957 -0.215071 0.716 
-0.531178 -0.217775 0.725 
-0.506304 -0.22168 0.738 
-0.482137 -0.226486 0.754 
-0.459442 -0.232794 0.775 
-0.43479 -0.239102 0.796 
-0.406181 -0.244208 0.813 
-0.376441 -0.249615 0.831 
-0.34868 -0.257725 0.858 
-0.307249 -0.256524 0.854 
-0.267444 -0.256524 0.854 
-0.227906 -0.256824 0.855 
-0.186294 -0.254421 0.847 
-0.148722 -0.257725 0.858 
-0.115447 -0.273645 0.911 
-0.0775515 -0.290767 0.968 
-0.0351131 -0.314797 1.048 
0.0146126 -0.334922 1.115 
0.0720769 -0.362557 1.207 
0.190419 -0.508241 1.692 
0.270557 -0.510644 1.7 
0.332922 -0.486013 1.618 
0.370734 -0.441257 1.469 
0.41534 -0.415124 1.382 
0.46101 -0.398903 1.328 
0.49692 -0.379078 1.262 
0.525357 -0.358352 1.193 
0.555154 -0.342432 1.14 
0.577341 -0.32501 1.082 
0.597023 -0.30909 1.029 
0.621793 -0.297976 0.992 
0.642441 -0.286561 0.954 
0.656666 -0.273946 0.912 
0.677709 -0.265535 0.884 
0.689635 -0.254721 0.848 
0.702505 -0.24541 0.817 
0.719737 -0.238501 0.794 
0.721703 -0.227086 0.756 
-0.59884 -0.214258 0.717 
-0.56542 -0.214258 0.717 
-0.53681 -0.216648 0.725 
-0.512731 -0.220832 0.739 
-0.4867 -0.224717 0.752 
-0.464261 -0.230992 0.773 
-0.438757 -0.23667 0.792 
-0.411482 -0.242347 0.811 
-0.380132 -0.246531 0.825 
-0.352861 -0.254599 0.852 
-0.314251 -0.255496 0.855 
-0.275041 -0.256093 0.857 
-0.234548 -0.255496 0.855 
-0.194013 -0.254599 0.852 
-0.155206 -0.256093 0.857 
-0.121044 -0.268943 0.9 
-0.0840167 -0.285677 0.956 
-0.0422225 -0.305698 1.023 
0.00742133 -0.321835 1.077 
0.0640942 -0.357993 1.198 
0.172526 -0.507106 1.697 
0.253106 -0.510095 1.707 
0.318248 -0.487982 1.633 
0.366591 -0.453617 1.518 
