# .PCD v.7 - Point Cloud Data file format
VERSION .7
FIELDS x y z
SIZE 4 4 4
TYPE F F F
COUNT 1 1 1
WIDTH 1792
HEIGHT 1
VIEWPOINT 0 0 0 1 0 0 0
POINTS 1792
DATA ascii
0.395438 -0.108855 0.486 
0.414814 -0.108855 0.486 
0.435977 -0.109303 0.488 
0.457299 -0.109751 0.49 
0.477807 -0.109975 0.491 
-0.486329 -0.133204 0.601 
-0.464676 -0.133869 0.604 
-0.442785 -0.134534 0.607 
-0.432377 -0.138966 0.627 
-0.421024 -0.143621 0.648 
-0.387261 -0.140739 0.635 
-0.346832 -0.13542 0.611 
-0.325112 -0.136528 0.616 
-0.300553 -0.136528 0.616 
-0.276891 -0.136972 0.618 
-0.252661 -0.137193 0.619 
-0.228719 -0.137636 0.621 
-0.203961 -0.137636 0.621 
-0.180934 -0.138966 0.627 
-0.156186 -0.139188 0.628 
-0.132611 -0.140739 0.635 
-0.107633 -0.141183 0.637 
-0.0821075 -0.140961 0.636 
-0.0570192 -0.141626 0.639 
-0.0317905 -0.142734 0.644 
-0.006125 -0.142956 0.645 
0.0196809 -0.143621 0.648 
0.0455153 -0.143621 0.648 
0.07157 -0.144064 0.65 
0.0976341 -0.144286 0.651 
0.124347 -0.145172 0.655 
0.150461 -0.145172 0.655 
0.176844 -0.145394 0.656 
0.203307 -0.145615 0.657 
0.230548 -0.14628 0.66 
0.256861 -0.14628 0.66 
0.284461 -0.146945 0.663 
0.311362 -0.147167 0.664 
0.334782 -0.145837 0.658 
0.351139 -0.141848 0.64 
0.35841 -0.134977 0.609 
0.356298 -0.125668 0.567 
0.358187 -0.118797 0.536 
0.367518 -0.11503 0.519 
0.366558 -0.107937 0.487 
0.383596 -0.107272 0.484 
0.404556 -0.107716 0.486 
0.424805 -0.107937 0.487 
0.446045 -0.10838 0.489 
0.466492 -0.108602 0.49 
0.487019 -0.108824 0.491 
-0.47522 -0.132233 0.603 
-0.454173 -0.13311 0.607 
-0.432806 -0.133987 0.611 
-0.431844 -0.141662 0.646 
-0.404832 -0.141224 0.644 
-0.367971 -0.137057 0.625 
-0.336122 -0.134864 0.615 
-0.31211 -0.135084 0.616 
-0.288485 -0.135522 0.618 
-0.264274 -0.135742 0.619 
-0.239983 -0.135961 0.62 
-0.215959 -0.136399 0.622 
-0.19239 -0.137277 0.626 
-0.167701 -0.137496 0.627 
-0.143614 -0.138373 0.631 
-0.119584 -0.139689 0.637 
-0.0941876 -0.139689 0.637 
-0.0687918 -0.139689 0.637 
-0.0408522 -0.141224 0.644 
-0.0151773 -0.141224 0.644 
0.0105466 -0.141882 0.647 
0.0363411 -0.141882 0.647 
0.0623278 -0.14232 0.649 
0.088338 -0.14254 0.65 
0.114779 -0.143197 0.653 
0.141029 -0.143417 0.654 
0.167358 -0.143636 0.655 
0.194062 -0.144075 0.657 
0.220926 -0.144513 0.659 
0.247949 -0.144952 0.661 
0.273887 -0.144733 0.66 
0.301564 -0.14539 0.663 
0.327997 -0.14539 0.663 
0.346945 -0.14232 0.649 
0.355586 -0.135742 0.619 
0.355199 -0.126312 0.576 
0.358467 -0.119733 0.546 
0.363521 -0.11447 0.522 
0.366662 -0.109207 0.498 
0.37565 -0.106137 0.484 
0.396578 -0.106576 0.486 
0.41681 -0.106795 0.487 
0.437121 -0.107014 0.488 
0.458448 -0.107453 0.49 
0.478959 -0.107672 0.491 
-0.482101 -0.130385 0.601 
-0.461189 -0.131253 0.605 
-0.438514 -0.131687 0.607 
-0.429331 -0.136459 0.629 
-0.415822 -0.140364 0.647 
-0.379177 -0.136459 0.629 
-0.343655 -0.132988 0.613 
-0.320778 -0.133639 0.616 
-0.2967 -0.133856 0.617 
-0.272543 -0.134073 0.618 
-0.248707 -0.134507 0.62 
-0.22435 -0.134724 0.621 
-0.199592 -0.134724 0.621 
-0.176523 -0.136025 0.627 
-0.151768 -0.136242 0.628 
-0.128345 -0.137978 0.636 
-0.103151 -0.138195 0.637 
-0.0776329 -0.137978 0.636 
-0.0526057 -0.138846 0.64 
-0.0272596 -0.139714 0.644 
-0.00158956 -0.140147 0.646 
0.0242025 -0.140364 0.647 
0.0500744 -0.140581 0.648 
0.0760259 -0.140798 0.649 
0.102214 -0.141232 0.651 
0.129153 -0.142317 0.656 
0.155069 -0.1421 0.655 
0.181459 -0.142317 0.656 
0.208246 -0.142751 0.658 
0.235548 -0.143402 0.661 
0.261504 -0.143185 0.66 
0.289125 -0.143836 0.663 
0.316986 -0.144486 0.666 
0.337864 -0.1421 0.655 
0.352308 -0.137544 0.634 
0.357335 -0.130168 0.6 
0.355839 -0.12149 0.56 
0.358471 -0.114765 0.529 
0.369516 -0.111727 0.515 
0.368464 -0.105219 0.485 
0.3878 -0.105219 0.485 
0.407976 -0.105436 0.486 
0.428231 -0.105653 0.487 
0.449485 -0.106087 0.489 
0.469939 -0.106304 0.49 
-0.496432 -0.129405 0.603 
-0.472392 -0.129405 0.603 
-0.451326 -0.130263 0.607 
-0.434163 -0.132409 0.617 
-0.432133 -0.139705 0.651 
-0.398068 -0.136916 0.638 
-0.363871 -0.133697 0.623 
-0.333238 -0.13198 0.615 
-0.309221 -0.132194 0.616 
-0.285587 -0.132624 0.618 
-0.260948 -0.132624 0.618 
-0.237075 -0.133053 0.62 
-0.213384 -0.133697 0.623 
-0.189757 -0.134555 0.627 
-0.16476 -0.134555 0.627 
-0.140877 -0.135628 0.632 
-0.116596 -0.136701 0.637 
-0.0910567 -0.136486 0.636 
-0.0659073 -0.136916 0.638 
-0.0407888 -0.137989 0.643 
-0.0151537 -0.137989 0.643 
0.0105466 -0.138847 0.647 
0.0363411 -0.138847 0.647 
0.0623278 -0.139276 0.649 
0.088338 -0.139491 0.65 
0.114955 -0.140349 0.654 
0.140813 -0.140135 0.653 
0.167358 -0.140564 0.655 
0.193767 -0.140778 0.656 
0.222471 -0.141422 0.659 
0.249122 -0.141637 0.66 
0.275435 -0.141637 0.66 
0.303119 -0.142281 0.663 
0.329054 -0.142066 0.662 
0.34793 -0.139062 0.648 
0.355307 -0.132194 0.616 
0.356757 -0.122752 0.572 
0.358927 -0.11567 0.539 
0.367006 -0.111593 0.52 
0.367666 -0.105155 0.49 
0.38246 -0.103867 0.484 
0.403417 -0.104296 0.486 
0.423662 -0.104511 0.487 
0.444898 -0.10494 0.489 
0.465343 -0.105155 0.49 
0.485868 -0.105369 0.491 
-0.475844 -0.127778 0.602 
-0.455596 -0.12884 0.607 
-0.433529 -0.129476 0.61 
-0.431347 -0.136481 0.643 
-0.403819 -0.135844 0.64 
-0.370619 -0.133085 0.627 
-0.338456 -0.130325 0.614 
-0.315 -0.13075 0.616 
-0.290912 -0.130962 0.617 
-0.266746 -0.131174 0.618 
-0.242891 -0.131599 0.62 
-0.219228 -0.132236 0.623 
-0.194703 -0.132448 0.624 
-0.170641 -0.133085 0.627 
-0.146341 -0.133721 0.63 
-0.122571 -0.135207 0.637 
-0.0970228 -0.134995 0.636 
-0.0717795 -0.135207 0.637 
-0.0466749 -0.136056 0.641 
-0.0212184 -0.136693 0.644 
0.00446345 -0.136905 0.645 
0.0302718 -0.13733 0.647 
0.0562397 -0.137754 0.649 
0.082114 -0.137754 0.649 
0.108654 -0.138603 0.653 
0.134688 -0.138603 0.653 
0.16146 -0.13924 0.656 
0.187613 -0.13924 0.656 
0.214418 -0.139665 0.658 
0.241748 -0.140301 0.661 
0.26729 -0.139877 0.659 
0.295345 -0.140726 0.663 
0.323719 -0.141575 0.667 
0.341382 -0.137967 0.65 
0.3543 -0.133085 0.627 
0.355557 -0.123321 0.581 
0.358513 -0.116741 0.55 
0.361764 -0.11101 0.523 
0.367696 -0.10634 0.501 
0.376785 -0.102732 0.484 
0.397718 -0.103157 0.486 
0.417952 -0.103369 0.487 
0.438266 -0.103581 0.488 
0.458659 -0.103793 0.489 
0.48011 -0.104218 0.491 
-0.48351 -0.126157 0.601 
-0.462608 -0.126996 0.605 
-0.439938 -0.127416 0.607 
-0.430121 -0.131824 0.628 
-0.415404 -0.135183 0.644 
-0.380047 -0.131824 0.628 
-0.345399 -0.128256 0.611 
-0.323667 -0.129305 0.616 
-0.299594 -0.129515 0.617 
-0.275441 -0.129725 0.618 
-0.251209 -0.129935 0.619 
-0.227263 -0.130355 0.621 
-0.202505 -0.130355 0.621 
-0.179464 -0.131614 0.627 
-0.154713 -0.131824 0.628 
-0.131328 -0.133503 0.636 
-0.106139 -0.133713 0.637 
-0.0807428 -0.133713 0.637 
-0.0555207 -0.134133 0.639 
-0.0302331 -0.134973 0.643 
-0.00460522 -0.135183 0.644 
0.0211679 -0.135812 0.647 
0.047035 -0.136022 0.648 
0.0728694 -0.136022 0.648 
0.0991608 -0.136652 0.651 
0.126076 -0.137702 0.656 
0.151765 -0.137282 0.654 
0.178382 -0.137702 0.656 
0.204848 -0.137912 0.657 
0.232096 -0.138541 0.66 
0.258409 -0.138541 0.66 
0.285153 -0.138751 0.661 
0.313391 -0.139591 0.665 
0.335303 -0.137702 0.656 
0.350987 -0.133713 0.637 
0.355112 -0.126157 0.601 
0.356997 -0.11881 0.566 
0.358773 -0.112302 0.535 
0.368735 -0.108944 0.519 
0.36731 -0.102437 0.488 
0.384388 -0.101807 0.485 
0.404556 -0.102017 0.486 
0.424805 -0.102227 0.487 
0.446045 -0.102646 0.489 
0.46554 -0.102646 0.489 
0.487019 -0.103066 0.491 
-0.474432 -0.124955 0.602 
-0.454173 -0.125992 0.607 
-0.433515 -0.12703 0.612 
-0.430507 -0.133672 0.644 
-0.398938 -0.132219 0.637 
-0.365919 -0.129521 0.624 
-0.33468 -0.127653 0.615 
-0.310666 -0.127861 0.616 
-0.286572 -0.128068 0.617 
-0.262398 -0.128276 0.618 
-0.238529 -0.128691 0.62 
-0.214845 -0.129314 0.623 
-0.191227 -0.130144 0.627 
-0.16623 -0.130144 0.627 
-0.141909 -0.130766 0.63 
-0.11809 -0.132219 0.637 
-0.0924027 -0.131804 0.635 
-0.0674035 -0.132427 0.638 
-0.0421651 -0.13305 0.641 
-0.0166357 -0.133257 0.642 
0.00901531 -0.134088 0.646 
0.0348238 -0.134295 0.647 
0.0607121 -0.134503 0.648 
0.0868136 -0.134918 0.65 
0.113248 -0.135541 0.653 
0.139068 -0.135333 0.652 
0.165822 -0.135956 0.655 
0.191935 -0.135956 0.655 
0.219048 -0.136578 0.658 
0.246026 -0.136993 0.66 
0.271926 -0.136786 0.659 
0.300009 -0.137616 0.663 
0.327426 -0.138031 0.665 
0.345423 -0.13471 0.649 
0.354134 -0.128483 0.619 
0.356169 -0.120803 0.582 
0.358513 -0.114161 0.55 
0.361764 -0.108557 0.523 
0.366228 -0.103575 0.499 
0.374515 -0.100462 0.484 
0.394625 -0.100669 0.485 
0.414814 -0.100877 0.486 
0.435083 -0.101085 0.487 
0.455432 -0.101292 0.488 
0.476834 -0.101707 0.49 
-0.486329 -0.123338 0.601 
-0.464676 -0.123953 0.604 
-0.442785 -0.124569 0.607 
-0.432377 -0.128673 0.627 
-0.41562 -0.131752 0.642 
-0.381519 -0.128879 0.628 
-0.344834 -0.125185 0.61 
-0.323667 -0.126416 0.616 
-0.299594 -0.126621 0.617 
-0.274996 -0.126621 0.617 
-0.250803 -0.126826 0.618 
-0.227629 -0.127647 0.622 
-0.202831 -0.127647 0.622 
-0.179464 -0.128673 0.627 
-0.154713 -0.128879 0.628 
-0.131328 -0.13052 0.636 
-0.106139 -0.130726 0.637 
-0.0807428 -0.130726 0.637 
-0.0556076 -0.131341 0.64 
-0.0301861 -0.131752 0.642 
-0.00459807 -0.131957 0.643 
0.0211352 -0.132573 0.646 
0.047035 -0.132983 0.648 
0.0728694 -0.132983 0.648 
0.0991608 -0.133599 0.651 
0.125884 -0.13442 0.655 
0.151765 -0.134214 0.654 
0.178382 -0.134625 0.656 
0.204536 -0.134625 0.656 
0.232096 -0.135446 0.66 
0.258017 -0.13524 0.659 
0.284722 -0.135446 0.66 
0.313391 -0.136472 0.665 
0.335303 -0.134625 0.656 
0.350987 -0.130726 0.637 
0.356144 -0.122722 0.598 
0.355839 -0.114924 0.56 
0.358581 -0.108972 0.531 
0.369024 -0.105894 0.516 
0.369975 -0.0993268 0.484 
0.390075 -0.099532 0.485 
0.410255 -0.0997372 0.486 
0.430515 -0.0999425 0.487 
0.451778 -0.100353 0.489 
0.471274 -0.100353 0.489 
-0.490557 -0.121928 0.601 
-0.46815 -0.122334 0.603 
-0.447055 -0.123145 0.607 
-0.434698 -0.126594 0.624 
-0.421445 -0.130652 0.644 
-0.386552 -0.127609 0.629 
-0.349698 -0.123957 0.611 
-0.328001 -0.124971 0.616 
-0.303443 -0.124971 0.616 
-0.278884 -0.124971 0.616 
-0.255151 -0.125377 0.618 
-0.232005 -0.126189 0.622 
-0.206874 -0.125986 0.621 
-0.183875 -0.127203 0.627 
-0.158878 -0.127203 0.627 
-0.135376 -0.128623 0.634 
-0.11062 -0.129232 0.637 
-0.0852244 -0.129232 0.637 
-0.0600164 -0.129637 0.639 
-0.0346489 -0.130043 0.641 
-0.0091219 -0.130449 0.643 
0.0165902 -0.131058 0.646 
0.0424104 -0.13126 0.647 
0.068205 -0.13126 0.647 
0.0944354 -0.131869 0.65 
0.12109 -0.132681 0.654 
0.146939 -0.132478 0.653 
0.173502 -0.132883 0.655 
0.199616 -0.132883 0.655 
0.227108 -0.133695 0.659 
0.253381 -0.133695 0.659 
0.280078 -0.133898 0.66 
0.308248 -0.134709 0.664 
0.3322 -0.133695 0.659 
0.349769 -0.130449 0.643 
0.354386 -0.123145 0.607 
0.356757 -0.116045 0.572 
0.358327 -0.109553 0.54 
0.36649 -0.105698 0.521 
0.367666 -0.099409 0.49 
0.384388 -0.0983946 0.485 
0.403724 -0.0983946 0.485 
0.424805 -0.0988004 0.487 
0.445132 -0.0990032 0.488 
0.463636 -0.0988004 0.487 
0.486027 -0.099409 0.49 
-0.472235 -0.120519 0.601 
-0.452749 -0.121722 0.607 
-0.434904 -0.123527 0.616 
-0.426638 -0.129342 0.645 
-0.392842 -0.126735 0.632 
-0.359502 -0.123928 0.618 
-0.331796 -0.123326 0.615 
-0.307776 -0.123527 0.616 
-0.283218 -0.123527 0.616 
-0.259499 -0.123928 0.618 
-0.236381 -0.12473 0.622 
-0.211583 -0.12473 0.622 
-0.187986 -0.125532 0.626 
-0.163289 -0.125733 0.627 
-0.139174 -0.126535 0.631 
-0.115102 -0.127738 0.637 
-0.0895652 -0.127537 0.636 
-0.0644111 -0.127938 0.638 
-0.0391586 -0.12854 0.641 
-0.0136245 -0.12874 0.642 
0.0120453 -0.129543 0.646 
0.0378585 -0.129743 0.647 
0.063653 -0.129743 0.647 
0.0897241 -0.130144 0.649 
0.116311 -0.130946 0.653 
0.142345 -0.130946 0.653 
0.168894 -0.131347 0.655 
0.195008 -0.131347 0.655 
0.222134 -0.131949 0.658 
0.248744 -0.132149 0.659 
0.275435 -0.13235 0.66 
0.302662 -0.132751 0.662 
0.329551 -0.132952 0.663 
0.34793 -0.129944 0.648 
0.352698 -0.122123 0.609 
0.355931 -0.115305 0.575 
0.357771 -0.108888 0.543 
0.364745 -0.104677 0.522 
0.366114 -0.0984604 0.491 
0.38019 -0.0970567 0.484 
0.400312 -0.0972572 0.485 
0.421378 -0.0976583 0.487 
0.441699 -0.0978588 0.488 
0.459265 -0.0974577 0.486 
0.48258 -0.0982599 0.49 
-0.475053 -0.119109 0.601 
-0.454095 -0.119902 0.605 
-0.433529 -0.120893 0.61 
-0.427322 -0.126244 0.637 
-0.397059 -0.125649 0.634 
-0.3624 -0.122478 0.618 
-0.335029 -0.121487 0.613 
-0.31211 -0.122082 0.616 
-0.287552 -0.122082 0.616 
-0.263847 -0.122478 0.618 
-0.24037 -0.123073 0.621 
-0.216306 -0.123469 0.623 
-0.191776 -0.123668 0.624 
-0.167701 -0.124262 0.627 
-0.143159 -0.124658 0.629 
-0.119584 -0.126244 0.637 
-0.0938919 -0.125848 0.635 
-0.0688998 -0.126442 0.638 
-0.0436684 -0.127037 0.641 
-0.0181413 -0.127235 0.642 
0.00748872 -0.127829 0.645 
0.033255 -0.128028 0.646 
0.059101 -0.128226 0.647 
0.0850268 -0.128424 0.648 
0.111374 -0.129019 0.651 
0.137539 -0.129217 0.652 
0.164035 -0.129613 0.654 
0.190399 -0.129811 0.655 
0.217174 -0.130208 0.657 
0.244108 -0.130604 0.659 
0.270791 -0.130802 0.66 
0.298004 -0.131199 0.662 
0.325867 -0.131793 0.665 
0.344431 -0.12882 0.65 
0.352682 -0.122677 0.619 
0.355414 -0.115542 0.583 
0.357873 -0.1092 0.551 
0.360538 -0.103651 0.523 
0.365614 -0.0981017 0.495 
0.376785 -0.0959216 0.484 
0.3969 -0.0961198 0.485 
0.417094 -0.096318 0.486 
0.437368 -0.0965162 0.487 
0.456783 -0.0965162 0.487 
0.478155 -0.0969125 0.489 
-0.477872 -0.1177 0.601 
-0.456178 -0.118287 0.604 
-0.434959 -0.119071 0.608 
-0.427607 -0.123967 0.633 
-0.399175 -0.124358 0.635 
-0.364438 -0.121225 0.619 
-0.335918 -0.119854 0.612 
-0.313555 -0.120637 0.616 
-0.288996 -0.120637 0.616 
-0.265296 -0.121029 0.618 
-0.241826 -0.121617 0.621 
-0.217418 -0.121812 0.622 
-0.193239 -0.122204 0.624 
-0.169171 -0.122792 0.627 
-0.144634 -0.123183 0.629 
-0.121077 -0.12475 0.637 
-0.0953811 -0.124358 0.635 
-0.070396 -0.124946 0.638 
-0.0451717 -0.125533 0.641 
-0.0196469 -0.125729 0.642 
0.00596682 -0.126121 0.644 
0.03174 -0.126513 0.646 
0.0575837 -0.126708 0.647 
0.0835071 -0.126904 0.648 
0.109679 -0.127296 0.65 
0.13601 -0.127688 0.652 
0.162501 -0.128079 0.654 
0.188863 -0.128275 0.655 
0.215633 -0.128667 0.657 
0.242562 -0.129059 0.659 
0.269243 -0.129254 0.66 
0.296004 -0.12945 0.661 
0.324307 -0.130234 0.665 
0.342906 -0.127296 0.65 
0.352933 -0.121812 0.622 
0.355261 -0.114566 0.585 
0.357873 -0.107908 0.551 
0.360538 -0.102424 0.523 
0.366034 -0.0967449 0.494 
0.37792 -0.0947866 0.484 
0.398037 -0.0949824 0.485 
0.418233 -0.0951782 0.486 
0.43851 -0.0953741 0.487 
0.457925 -0.0953741 0.487 
0.479301 -0.0957657 0.489 
-0.47567 -0.116097 0.6 
-0.454761 -0.116871 0.604 
-0.434246 -0.117838 0.609 
-0.426796 -0.122676 0.634 
-0.397686 -0.122869 0.635 
-0.361814 -0.119386 0.617 
-0.335029 -0.118612 0.613 
-0.31211 -0.119193 0.616 
-0.287552 -0.119193 0.616 
-0.26342 -0.119386 0.617 
-0.240757 -0.120354 0.622 
-0.215959 -0.120354 0.622 
-0.191776 -0.120741 0.624 
-0.167701 -0.121321 0.627 
-0.143159 -0.121708 0.629 
-0.119584 -0.123256 0.637 
-0.0938919 -0.122869 0.635 
-0.0688998 -0.12345 0.638 
-0.0436684 -0.12403 0.641 
-0.0181413 -0.124224 0.642 
0.00747711 -0.124611 0.644 
0.033255 -0.124998 0.646 
0.059101 -0.125191 0.647 
0.0850268 -0.125385 0.648 
0.111203 -0.125772 0.65 
0.137539 -0.126159 0.652 
0.164035 -0.126546 0.654 
0.19069 -0.126933 0.656 
0.217174 -0.127126 0.657 
0.244108 -0.127513 0.659 
0.270791 -0.127707 0.66 
0.297554 -0.1279 0.661 
0.325867 -0.128674 0.665 
0.344431 -0.125772 0.65 
0.352682 -0.119773 0.619 
0.355414 -0.112807 0.583 
0.357873 -0.106616 0.551 
0.360538 -0.101198 0.523 
0.365189 -0.0959734 0.496 
0.37565 -0.0936515 0.484 
0.395762 -0.093845 0.485 
0.415954 -0.0940385 0.486 
0.436226 -0.094232 0.487 
0.456577 -0.0944255 0.488 
0.477983 -0.0948125 0.49 
-0.478484 -0.11469 0.6 
-0.456079 -0.115072 0.602 
-0.435667 -0.116028 0.607 
-0.428414 -0.120807 0.632 
-0.401295 -0.121571 0.636 
-0.365299 -0.11813 0.618 
-0.336802 -0.116792 0.611 
-0.315 -0.117748 0.616 
-0.290441 -0.117748 0.616 
-0.266314 -0.117939 0.617 
-0.243282 -0.118704 0.621 
-0.219228 -0.119086 0.623 
-0.194391 -0.119086 0.623 
-0.170369 -0.11966 0.626 
-0.145877 -0.120042 0.628 
-0.122379 -0.121571 0.636 
-0.0968703 -0.12138 0.635 
-0.0718922 -0.121953 0.638 
-0.0466021 -0.122336 0.64 
-0.0211525 -0.122718 0.642 
0.00445653 -0.1231 0.644 
0.030225 -0.123483 0.646 
0.0560664 -0.123674 0.647 
0.0819875 -0.123865 0.648 
0.107988 -0.124056 0.649 
0.134275 -0.124438 0.651 
0.160967 -0.125012 0.654 
0.187613 -0.125394 0.656 
0.213766 -0.125394 0.656 
0.241017 -0.125968 0.659 
0.267696 -0.126159 0.66 
0.294008 -0.126159 0.66 
0.322748 -0.127115 0.665 
0.342432 -0.12463 0.652 
0.352365 -0.118704 0.621 
0.354654 -0.111631 0.584 
0.356581 -0.105323 0.551 
0.360538 -0.0999712 0.523 
0.366075 -0.0959571 0.502 
0.372245 -0.0925164 0.484 
0.39235 -0.0927076 0.485 
0.412535 -0.0928987 0.486 
0.431911 -0.0928987 0.486 
0.453143 -0.093281 0.488 
0.474536 -0.0936633 0.49 
-0.48351 -0.113471 0.601 
-0.45955 -0.113471 0.601 
-0.438488 -0.114227 0.605 
-0.430121 -0.118569 0.628 
-0.406407 -0.120268 0.637 
-0.37204 -0.117436 0.622 
-0.340543 -0.115171 0.61 
-0.319333 -0.116304 0.616 
-0.294775 -0.116304 0.616 
-0.270655 -0.116492 0.617 
-0.246854 -0.11687 0.619 
-0.22397 -0.117814 0.624 
-0.198455 -0.117436 0.622 
-0.174774 -0.118192 0.626 
-0.150056 -0.11838 0.627 
-0.126853 -0.12008 0.636 
-0.101338 -0.119891 0.635 
-0.0762611 -0.120268 0.637 
-0.051025 -0.120646 0.639 
-0.0256693 -0.121212 0.642 
-7.43439e-05 -0.12159 0.644 
0.0256404 -0.121779 0.645 
0.0515144 -0.122156 0.647 
0.0774284 -0.122345 0.648 
0.103422 -0.122534 0.649 
0.129695 -0.122912 0.651 
0.156366 -0.123478 0.654 
0.18244 -0.123478 0.654 
0.209151 -0.123856 0.656 
0.236381 -0.124422 0.659 
0.263052 -0.124611 0.66 
0.289365 -0.124611 0.66 
0.318069 -0.125555 0.665 
0.338882 -0.123478 0.654 
0.351562 -0.118947 0.63 
0.354747 -0.111583 0.591 
0.356545 -0.105164 0.557 
0.358352 -0.0994999 0.527 
0.367125 -0.0962903 0.51 
0.368464 -0.0915702 0.485 
0.387001 -0.0913814 0.484 
0.407136 -0.0915702 0.485 
0.427352 -0.091759 0.486 
0.448566 -0.0921366 0.488 
0.46898 -0.0923254 0.489 
-0.487739 -0.112062 0.601 
-0.463006 -0.111876 0.6 
-0.442744 -0.112808 0.605 
-0.433847 -0.11691 0.627 
-0.412383 -0.118775 0.637 
-0.382127 -0.117283 0.629 
-0.345697 -0.113554 0.609 
-0.324584 -0.114672 0.615 
-0.299578 -0.114486 0.614 
-0.275995 -0.114859 0.616 
-0.252252 -0.115232 0.618 
-0.229824 -0.116351 0.624 
-0.204289 -0.115978 0.622 
-0.180069 -0.116351 0.624 
-0.155937 -0.11691 0.627 
-0.132402 -0.118215 0.634 
-0.107295 -0.118402 0.635 
-0.0822366 -0.118775 0.637 
-0.05693 -0.118961 0.638 
-0.0317411 -0.119893 0.643 
-0.00609651 -0.119707 0.642 
0.0195898 -0.120266 0.645 
0.0454451 -0.120639 0.647 
0.0712397 -0.120639 0.647 
0.0974841 -0.121199 0.65 
0.123588 -0.121385 0.651 
0.150002 -0.121758 0.653 
0.176035 -0.121758 0.653 
0.202997 -0.122317 0.656 
0.229849 -0.12269 0.658 
0.256472 -0.122877 0.659 
0.283603 -0.12325 0.661 
0.310893 -0.123623 0.663 
0.334273 -0.122504 0.657 
0.35059 -0.119147 0.639 
0.353702 -0.112062 0.601 
0.355669 -0.105536 0.566 
0.35685 -0.0995693 0.534 
0.366101 -0.0963994 0.517 
0.365769 -0.0911786 0.489 
0.381325 -0.0902463 0.484 
0.401449 -0.0904327 0.485 
0.421653 -0.0906192 0.486 
0.441936 -0.0908057 0.487 
0.462299 -0.0909921 0.488 
0.483729 -0.091365 0.49 
-0.470042 -0.110468 0.6 
-0.449839 -0.111389 0.605 
-0.434866 -0.113783 0.618 
-0.421346 -0.117281 0.637 
-0.394707 -0.116912 0.635 
-0.356012 -0.112678 0.612 
-0.332154 -0.112862 0.613 
-0.308217 -0.113046 0.614 
-0.283738 -0.113046 0.614 
-0.260526 -0.113598 0.617 
-0.237839 -0.114519 0.622 
-0.213042 -0.114519 0.622 
-0.187941 -0.114335 0.621 
-0.16476 -0.11544 0.627 
-0.140208 -0.115808 0.629 
-0.11623 -0.116912 0.635 
-0.0909135 -0.116912 0.635 
-0.0659073 -0.117465 0.638 
-0.0406619 -0.118017 0.641 
-0.0151066 -0.118017 0.641 
0.0104977 -0.11857 0.644 
0.036285 -0.118938 0.646 
0.0621357 -0.119122 0.647 
0.0882021 -0.11949 0.649 
0.114252 -0.119674 0.65 
0.140813 -0.120227 0.653 
0.166847 -0.120227 0.653 
0.193767 -0.120779 0.656 
0.21992 -0.120779 0.656 
0.247199 -0.121331 0.659 
0.274717 -0.121884 0.662 
0.3002 -0.121515 0.66 
0.327502 -0.121884 0.662 
0.346945 -0.11949 0.649 
0.353288 -0.11323 0.615 
0.355077 -0.106418 0.578 
0.355878 -0.100158 0.544 
0.362297 -0.0961076 0.522 
0.365494 -0.0916888 0.498 
0.37565 -0.0891112 0.484 
0.395762 -0.0892954 0.485 
0.415954 -0.0894795 0.486 
0.436226 -0.0896636 0.487 
0.456577 -0.0898477 0.488 
0.477983 -0.0902159 0.49 
-0.47567 -0.109061 0.6 
-0.454761 -0.109788 0.604 
-0.434246 -0.110697 0.609 
-0.426796 -0.115242 0.634 
-0.399803 -0.115605 0.636 
-0.362672 -0.11197 0.616 
-0.335918 -0.111243 0.612 
-0.312028 -0.111424 0.613 
-0.287589 -0.111424 0.613 
-0.264867 -0.112151 0.617 
-0.241437 -0.112697 0.62 
-0.218117 -0.113424 0.624 
-0.19231 -0.112879 0.621 
-0.169171 -0.113969 0.627 
-0.144404 -0.114151 0.628 
-0.120507 -0.115242 0.634 
-0.0952309 -0.115242 0.634 
-0.070396 -0.115969 0.638 
-0.0451012 -0.116332 0.64 
-0.0196163 -0.116514 0.641 
0.00596682 -0.117059 0.644 
0.0316909 -0.117241 0.645 
0.0574947 -0.117423 0.646 
0.083636 -0.117968 0.649 
0.109679 -0.11815 0.65 
0.13601 -0.118513 0.652 
0.162253 -0.118695 0.653 
0.188863 -0.119059 0.655 
0.215305 -0.11924 0.656 
0.242562 -0.119786 0.659 
0.270059 -0.120331 0.662 
0.295556 -0.119968 0.66 
0.32382 -0.120695 0.664 
0.343961 -0.118513 0.652 
0.351798 -0.112697 0.62 
0.354047 -0.105971 0.583 
0.355934 -0.0999729 0.55 
0.359998 -0.0952469 0.524 
0.366351 -0.0916115 0.504 
0.37111 -0.0879762 0.484 
0.390406 -0.0879762 0.484 
0.410548 -0.0881579 0.485 
0.431657 -0.0885215 0.487 
0.451999 -0.0887032 0.488 
0.473387 -0.0890668 0.49 
-0.484113 -0.107654 0.6 
-0.460959 -0.107834 0.601 
-0.440634 -0.108731 0.606 
-0.431594 -0.112678 0.628 
-0.408753 -0.114114 0.636 
-0.377971 -0.112499 0.627 
-0.343404 -0.109448 0.61 
-0.321177 -0.110166 0.614 
-0.295731 -0.109807 0.612 
-0.273105 -0.110525 0.616 
-0.249354 -0.110884 0.618 
-0.227261 -0.11214 0.625 
-0.201048 -0.111422 0.621 
-0.17771 -0.112319 0.626 
-0.152996 -0.112499 0.627 
-0.129428 -0.113755 0.634 
-0.104152 -0.113755 0.634 
-0.0792489 -0.114293 0.637 
-0.0539376 -0.114472 0.638 
-0.0286805 -0.11519 0.642 
-0.00309493 -0.115549 0.644 
0.02258 -0.115549 0.644 
0.0483299 -0.115728 0.645 
0.0743891 -0.116267 0.648 
0.100533 -0.116625 0.65 
0.126642 -0.116805 0.651 
0.153064 -0.117164 0.653 
0.178824 -0.116984 0.652 
0.206074 -0.117702 0.656 
0.232936 -0.118061 0.658 
0.259956 -0.11842 0.66 
0.286269 -0.11842 0.66 
0.314477 -0.119137 0.664 
0.336841 -0.117702 0.656 
0.351374 -0.113934 0.635 
0.354741 -0.107295 0.598 
0.356425 -0.101016 0.563 
0.356663 -0.0950946 0.53 
0.365675 -0.0920444 0.513 
0.365805 -0.0872 0.486 
0.383596 -0.0868411 0.484 
0.403724 -0.0870205 0.485 
0.423932 -0.0872 0.486 
0.445132 -0.0875588 0.488 
0.46554 -0.0877382 0.489 
0.486027 -0.0879176 0.49 
-0.470042 -0.106247 0.6 
-0.449839 -0.107133 0.605 
-0.434866 -0.109435 0.618 
-0.419852 -0.112799 0.637 
-0.393837 -0.112622 0.636 
-0.353418 -0.108018 0.61 
-0.330717 -0.108549 0.613 
-0.306278 -0.108549 0.613 
-0.281839 -0.108549 0.613 
-0.259499 -0.109435 0.618 
-0.236001 -0.109966 0.621 
-0.211923 -0.11032 0.623 
-0.186785 -0.110143 0.622 
-0.163289 -0.111028 0.627 
-0.138954 -0.11156 0.63 
-0.114379 -0.112091 0.633 
-0.0894244 -0.112445 0.635 
-0.0644111 -0.112976 0.638 
-0.0391586 -0.113507 0.641 
-0.0136033 -0.113507 0.641 
0.0119893 -0.113862 0.643 
0.0377414 -0.114216 0.645 
0.063653 -0.11457 0.647 
0.0898623 -0.115101 0.65 
0.116133 -0.115455 0.652 
0.142345 -0.115632 0.653 
0.168378 -0.115632 0.653 
0.195305 -0.116164 0.656 
0.221459 -0.116164 0.656 
0.248744 -0.116695 0.659 
0.276269 -0.117226 0.662 
0.301747 -0.116872 0.66 
0.32806 -0.116872 0.66 
0.34793 -0.114747 0.648 
0.353 -0.108372 0.612 
0.355199 -0.101997 0.576 
0.356497 -0.0961537 0.543 
0.363521 -0.092435 0.522 
0.364552 -0.0871227 0.492 
0.37792 -0.085706 0.484 
0.398037 -0.0858831 0.485 
0.418233 -0.0860602 0.486 
0.43941 -0.0864144 0.488 
0.458866 -0.0864144 0.488 
0.480282 -0.0867685 0.49 
-0.478484 -0.10484 0.6 
-0.456836 -0.105364 0.603 
-0.436385 -0.106238 0.608 
-0.427058 -0.110082 0.63 
-0.404914 -0.111305 0.637 
-0.369389 -0.108335 0.62 
-0.340224 -0.106937 0.612 
-0.316341 -0.107112 0.613 
-0.290949 -0.106762 0.611 
-0.268772 -0.107636 0.616 
-0.245402 -0.10816 0.619 
-0.222507 -0.109034 0.624 
-0.196679 -0.108509 0.621 
-0.173582 -0.109558 0.627 
-0.148585 -0.109558 0.627 
-0.124771 -0.110606 0.633 
-0.0996914 -0.110781 0.634 
-0.0747673 -0.111305 0.637 
-0.0494489 -0.11148 0.638 
-0.0241261 -0.112004 0.641 
0.00143595 -0.112528 0.644 
0.0271109 -0.112528 0.644 
0.0528678 -0.112703 0.645 
0.0790699 -0.113402 0.649 
0.105106 -0.113577 0.65 
0.13102 -0.113577 0.65 
0.157659 -0.114101 0.653 
0.183411 -0.113926 0.652 
0.21069 -0.114625 0.656 
0.237565 -0.114975 0.658 
0.265001 -0.115499 0.661 
0.290913 -0.115324 0.66 
0.318668 -0.115848 0.663 
0.339895 -0.114101 0.653 
0.351359 -0.109558 0.627 
0.354747 -0.103267 0.591 
0.355905 -0.0971518 0.556 
0.359032 -0.0922592 0.528 
0.364965 -0.0885898 0.507 
0.367705 -0.084571 0.484 
0.387001 -0.084571 0.484 
0.407136 -0.0847457 0.485 
0.427352 -0.0849204 0.486 
0.448566 -0.0852699 0.488 
0.469939 -0.0856194 0.49 
-0.491967 -0.103605 0.601 
-0.468006 -0.103605 0.601 
-0.448479 -0.10464 0.607 
-0.434764 -0.107225 0.622 
-0.418358 -0.109811 0.637 
-0.392346 -0.109639 0.636 
-0.351987 -0.105157 0.61 
-0.329279 -0.105674 0.613 
-0.30484 -0.105674 0.613 
-0.280401 -0.105674 0.613 
-0.25805 -0.106536 0.618 
-0.234544 -0.107053 0.621 
-0.210124 -0.107225 0.622 
-0.185922 -0.10757 0.624 
-0.161819 -0.108087 0.627 
-0.137695 -0.108777 0.631 
-0.112716 -0.108949 0.632 
-0.0880737 -0.109639 0.636 
-0.0629149 -0.109984 0.638 
-0.0375966 -0.110328 0.64 
-0.0120812 -0.110328 0.64 
0.0134973 -0.110846 0.643 
0.0392541 -0.11119 0.645 
0.0651703 -0.111535 0.647 
0.0912461 -0.11188 0.649 
0.117662 -0.112397 0.652 
0.143876 -0.11257 0.653 
0.169389 -0.112225 0.651 
0.196844 -0.113087 0.656 
0.222997 -0.113087 0.656 
0.24991 -0.113431 0.658 
0.277822 -0.114121 0.662 
0.303295 -0.113776 0.66 
0.329109 -0.113604 0.659 
0.34891 -0.111535 0.647 
0.353277 -0.105157 0.61 
0.355312 -0.0989508 0.574 
0.357112 -0.0934344 0.542 
0.364047 -0.0898143 0.521 
0.364552 -0.084815 0.492 
0.37792 -0.0834359 0.484 
0.398037 -0.0836083 0.485 
0.417373 -0.0836083 0.485 
0.43941 -0.0841255 0.488 
0.457925 -0.0839531 0.487 
0.480282 -0.0844702 0.49 
-0.478484 -0.102026 0.6 
-0.456836 -0.102536 0.603 
-0.436385 -0.103386 0.608 
-0.427058 -0.107127 0.63 
-0.404914 -0.108317 0.637 
-0.369389 -0.105427 0.62 
-0.340224 -0.104066 0.612 
-0.315825 -0.104066 0.612 
-0.290949 -0.103896 0.611 
-0.268772 -0.104747 0.616 
-0.245006 -0.105087 0.618 
-0.222507 -0.106107 0.624 
-0.196679 -0.105597 0.621 
-0.173582 -0.106617 0.627 
-0.148822 -0.106787 0.628 
-0.124771 -0.107637 0.633 
-0.0996914 -0.107807 0.634 
-0.0747673 -0.108317 0.637 
-0.0494489 -0.108487 0.638 
-0.0240508 -0.108658 0.639 
0.00143372 -0.109338 0.643 
0.0271109 -0.109508 0.644 
0.0527858 -0.109508 0.644 
0.0790699 -0.110358 0.649 
0.105106 -0.110528 0.65 
0.13102 -0.110528 0.65 
0.1579 -0.111208 0.654 
0.183411 -0.110868 0.652 
0.211011 -0.111718 0.657 
0.237565 -0.111888 0.658 
0.2646 -0.112228 0.66 
0.290913 -0.112228 0.66 
0.318668 -0.112739 0.663 
0.339374 -0.110868 0.652 
0.351359 -0.106617 0.627 
0.354747 -0.100495 0.591 
0.355905 -0.094544 0.556 
0.359032 -0.0897827 0.528 
0.364245 -0.0860418 0.506 
0.367705 -0.0823009 0.484 
0.387001 -0.0823009 0.484 
0.407136 -0.0824709 0.485 
0.427352 -0.0826409 0.486 
0.447646 -0.082811 0.487 
0.46898 -0.0831511 0.489 
-0.48552 -0.100619 0.6 
-0.462368 -0.100786 0.601 
-0.442785 -0.101793 0.607 
-0.432377 -0.105147 0.627 
-0.413227 -0.106656 0.636 
-0.384822 -0.105817 0.631 
-0.347695 -0.102296 0.61 
-0.324966 -0.102799 0.613 
-0.300527 -0.102799 0.613 
-0.276989 -0.103134 0.615 
-0.253702 -0.103637 0.618 
-0.230546 -0.104308 0.622 
-0.205748 -0.104308 0.622 
-0.182405 -0.105147 0.627 
-0.157408 -0.105147 0.627 
-0.133466 -0.105985 0.632 
-0.10827 -0.105985 0.632 
-0.0837305 -0.106824 0.637 
-0.0584262 -0.106991 0.638 
-0.0330422 -0.107159 0.639 
-0.00759027 -0.107494 0.641 
0.0179931 -0.107662 0.642 
0.0437241 -0.107997 0.644 
0.0698301 -0.108668 0.648 
0.0959598 -0.109004 0.65 
0.121874 -0.109004 0.65 
0.148698 -0.109674 0.654 
0.173702 -0.109004 0.65 
0.201459 -0.11001 0.656 
0.227959 -0.110178 0.657 
0.254926 -0.110513 0.659 
0.282053 -0.110848 0.661 
0.308872 -0.111016 0.662 
0.333239 -0.110345 0.658 
0.349638 -0.107327 0.64 
0.354051 -0.10129 0.604 
0.355594 -0.0952524 0.568 
0.35693 -0.0898861 0.536 
0.363477 -0.0863644 0.515 
0.365368 -0.082172 0.49 
0.38019 -0.0811658 0.484 
0.400312 -0.0813335 0.485 
0.419648 -0.0813335 0.485 
0.440794 -0.0816689 0.487 
0.461155 -0.0818366 0.488 
0.48258 -0.082172 0.49 
-0.477077 -0.0992116 0.6 
-0.456178 -0.0998731 0.604 
-0.435674 -0.1007 0.609 
-0.426256 -0.104338 0.631 
-0.404278 -0.105164 0.636 
-0.368793 -0.102353 0.619 
-0.340224 -0.101196 0.612 
-0.316341 -0.101361 0.613 
-0.290949 -0.101031 0.611 
-0.269208 -0.102023 0.617 
-0.245006 -0.102188 0.618 
-0.221794 -0.102849 0.622 
-0.196996 -0.102849 0.622 
-0.173582 -0.103676 0.627 
-0.148822 -0.103842 0.628 
-0.124771 -0.104668 0.633 
-0.0996914 -0.104834 0.634 
-0.0748846 -0.105495 0.638 
-0.0494489 -0.105495 0.638 
-0.0240508 -0.10566 0.639 
0.00143372 -0.106322 0.643 
0.0271109 -0.106487 0.644 
0.0528678 -0.106653 0.645 
0.0789481 -0.107149 0.648 
0.105268 -0.107645 0.651 
0.13102 -0.107479 0.65 
0.1579 -0.108141 0.654 
0.183411 -0.10781 0.652 
0.211011 -0.108637 0.657 
0.237565 -0.108802 0.658 
0.265001 -0.109298 0.661 
0.290913 -0.109133 0.66 
0.318668 -0.109629 0.663 
0.339374 -0.10781 0.652 
0.351359 -0.103676 0.627 
0.354928 -0.0973928 0.589 
0.355289 -0.0911094 0.551 
0.360538 -0.0864795 0.523 
0.364617 -0.0826764 0.5 
0.372245 -0.0800307 0.484 
0.391541 -0.0800307 0.484 
0.411686 -0.0801961 0.485 
0.431911 -0.0803614 0.486 
0.452215 -0.0805268 0.487 
0.474536 -0.0810228 0.49 
-0.481299 -0.0978045 0.6 
-0.459665 -0.0982936 0.603 
-0.438514 -0.0989456 0.607 
-0.428648 -0.102369 0.628 
-0.40811 -0.10351 0.635 
-0.376765 -0.10188 0.625 
-0.343967 -0.0995976 0.611 
-0.320653 -0.0999236 0.613 
-0.295731 -0.0997606 0.612 
-0.273105 -0.100413 0.616 
-0.249354 -0.100739 0.618 
-0.226533 -0.101554 0.623 
-0.201048 -0.101228 0.621 
-0.177994 -0.102206 0.627 
-0.152996 -0.102206 0.627 
-0.129428 -0.103347 0.634 
-0.103988 -0.103184 0.633 
-0.0792489 -0.103836 0.637 
-0.0539376 -0.103999 0.638 
-0.0285465 -0.104162 0.639 
-0.00308531 -0.104651 0.642 
0.0225099 -0.104651 0.642 
0.0483299 -0.10514 0.645 
0.0743891 -0.105629 0.648 
0.100533 -0.105955 0.65 
0.126252 -0.105792 0.649 
0.153299 -0.106607 0.654 
0.17855 -0.106118 0.651 
0.206388 -0.107096 0.657 
0.232936 -0.107259 0.658 
0.259956 -0.107585 0.66 
0.286269 -0.107585 0.66 
0.314477 -0.108237 0.664 
0.336328 -0.10677 0.655 
0.350821 -0.103347 0.634 
0.354741 -0.0974785 0.598 
0.357058 -0.0919363 0.564 
0.357231 -0.086231 0.529 
0.364017 -0.0829709 0.509 
0.36619 -0.0790587 0.485 
0.384731 -0.0788957 0.484 
0.404861 -0.0790587 0.485 
0.424197 -0.0790587 0.485 
0.445362 -0.0793847 0.487 
0.465732 -0.0795477 0.488 
0.487176 -0.0798737 0.49 
-0.465187 -0.0965581 0.601 
-0.444163 -0.0972007 0.605 
-0.435318 -0.100735 0.627 
-0.41621 -0.102181 0.636 
-0.387781 -0.101378 0.631 
-0.349982 -0.0978434 0.609 
-0.327841 -0.098486 0.613 
-0.303402 -0.098486 0.613 
-0.279873 -0.0988074 0.615 
-0.2566 -0.0992894 0.618 
-0.232713 -0.0996107 0.62 
-0.20833 -0.0997714 0.621 
-0.18505 -0.100575 0.626 
-0.160348 -0.100735 0.627 
-0.136215 -0.101378 0.631 
-0.111058 -0.101378 0.631 
-0.0867183 -0.102342 0.637 
-0.0614187 -0.102503 0.638 
-0.0360393 -0.102663 0.639 
-0.0105637 -0.102663 0.639 
0.0149586 -0.102985 0.641 
0.0407667 -0.103627 0.645 
0.0666877 -0.103949 0.647 
0.092911 -0.104431 0.65 
0.118825 -0.104431 0.65 
0.145407 -0.104913 0.653 
0.170916 -0.104591 0.651 
0.198382 -0.105395 0.656 
0.224535 -0.105395 0.656 
0.251835 -0.105877 0.659 
0.278952 -0.106198 0.661 
0.306229 -0.106519 0.663 
0.330152 -0.105716 0.658 
0.348803 -0.103467 0.644 
0.354126 -0.0978434 0.609 
0.356036 -0.0920595 0.573 
0.355738 -0.0864364 0.538 
0.363165 -0.0832231 0.518 
0.366034 -0.0793672 0.494 
0.377139 -0.0775999 0.483 
0.397216 -0.0777606 0.484 
0.417373 -0.0779213 0.485 
0.43851 -0.0782426 0.487 
0.457925 -0.0782426 0.487 
0.480282 -0.0787246 0.49 
-0.474263 -0.0949903 0.6 
-0.453345 -0.0956236 0.604 
-0.435661 -0.0970485 0.613 
-0.42598 -0.100531 0.635 
-0.400033 -0.100373 0.634 
-0.361495 -0.0972068 0.614 
-0.336467 -0.0970485 0.613 
-0.312537 -0.0972068 0.614 
-0.28712 -0.0968902 0.612 
-0.265296 -0.09784 0.618 
-0.240658 -0.09784 0.618 
-0.217068 -0.098315 0.621 
-0.192929 -0.0986316 0.623 
-0.168901 -0.0991066 0.626 
-0.144634 -0.0995815 0.629 
-0.120127 -0.100056 0.632 
-0.0953811 -0.100531 0.635 
-0.070396 -0.101006 0.638 
-0.0450307 -0.101165 0.639 
-0.0195245 -0.101006 0.638 
0.00594829 -0.10164 0.642 
0.0316909 -0.102115 0.645 
0.0574947 -0.102273 0.646 
0.0835071 -0.10259 0.648 
0.109848 -0.103065 0.651 
0.135802 -0.103065 0.651 
0.162253 -0.103381 0.653 
0.188863 -0.103698 0.655 
0.215305 -0.103856 0.656 
0.242194 -0.104173 0.658 
0.269651 -0.104648 0.661 
0.296004 -0.104648 0.661 
0.322357 -0.104648 0.661 
0.342906 -0.102906 0.65 
0.351231 -0.0979984 0.619 
0.354047 -0.0922989 0.583 
0.355934 -0.0870745 0.55 
0.359311 -0.0827999 0.523 
0.364326 -0.078842 0.498 
0.372609 -0.0764672 0.483 
0.392676 -0.0766255 0.484 
0.412823 -0.0767839 0.485 
0.43305 -0.0769422 0.486 
0.453357 -0.0771005 0.487 
0.475685 -0.0775754 0.49 
-0.481299 -0.0935832 0.6 
-0.458902 -0.0938952 0.602 
-0.438514 -0.094675 0.607 
-0.428648 -0.0979505 0.628 
-0.40811 -0.0990423 0.635 
-0.368198 -0.0963907 0.618 
-0.340224 -0.0954549 0.612 
-0.316341 -0.0956109 0.613 
-0.291425 -0.0954549 0.612 
-0.269644 -0.0963907 0.618 
-0.245006 -0.0963907 0.618 
-0.221081 -0.0967027 0.62 
-0.196996 -0.0970146 0.622 
-0.173582 -0.0977945 0.627 
-0.148822 -0.0979505 0.628 
-0.124771 -0.0987303 0.633 
-0.0996914 -0.0988863 0.634 
-0.0747673 -0.0993542 0.637 
-0.0494489 -0.0995102 0.638 
-0.0240132 -0.0995102 0.638 
0.00143149 -0.100134 0.642 
0.0270688 -0.10029 0.643 
0.0529498 -0.100758 0.646 
0.0789481 -0.10107 0.648 
0.105106 -0.101382 0.65 
0.13102 -0.101382 0.65 
0.157659 -0.10185 0.653 
0.183974 -0.102006 0.654 
0.210368 -0.102162 0.655 
0.237565 -0.10263 0.658 
0.2646 -0.102942 0.66 
0.291354 -0.103098 0.661 
0.318668 -0.103409 0.663 
0.339374 -0.101694 0.652 
0.351359 -0.0977945 0.627 
0.354747 -0.0921795 0.591 
0.357185 -0.0870324 0.558 
0.357672 -0.0820413 0.526 
0.365432 -0.0789219 0.506 
0.37111 -0.0754905 0.484 
0.390406 -0.0754905 0.484 
0.410548 -0.0756464 0.485 
0.430771 -0.0758024 0.486 
0.451073 -0.0759584 0.487 
0.472421 -0.0762703 0.489 
-0.484113 -0.0921761 0.6 
-0.460959 -0.0923298 0.601 
-0.439907 -0.0929443 0.605 
-0.430906 -0.0963241 0.627 
-0.409599 -0.0975531 0.635 
-0.378836 -0.0961704 0.626 
-0.344269 -0.0935588 0.609 
-0.322091 -0.0941733 0.613 
-0.297652 -0.0941733 0.613 
-0.274996 -0.0947878 0.617 
-0.250803 -0.0949414 0.618 
-0.226897 -0.0952487 0.62 
-0.202505 -0.0954023 0.621 
-0.179178 -0.0961704 0.626 
-0.154467 -0.0963241 0.627 
-0.130709 -0.0972458 0.633 
-0.105306 -0.0970922 0.632 
-0.0807428 -0.0978603 0.637 
-0.0554338 -0.0980139 0.638 
-0.029998 -0.0980139 0.638 
-0.00458376 -0.0984748 0.641 
0.0209716 -0.0984748 0.641 
0.0468898 -0.099243 0.646 
0.0728694 -0.0995502 0.648 
0.0990085 -0.0998575 0.65 
0.12473 -0.0997038 0.649 
0.151301 -0.100165 0.652 
0.177839 -0.100472 0.654 
0.204848 -0.100933 0.657 
0.231041 -0.100933 0.657 
0.258017 -0.10124 0.659 
0.284722 -0.101394 0.66 
0.312919 -0.102008 0.664 
0.335814 -0.100933 0.657 
0.349885 -0.0975531 0.635 
0.35393 -0.0920225 0.599 
0.356997 -0.0869528 0.566 
0.356555 -0.081115 0.528 
0.367593 -0.0789642 0.514 
0.367327 -0.074509 0.485 
0.385068 -0.0742018 0.483 
0.405162 -0.0743554 0.484 
0.425335 -0.074509 0.485 
0.446504 -0.0748163 0.487 
0.466877 -0.0749699 0.488 
-0.495609 -0.0910716 0.602 
-0.470042 -0.090769 0.6 
-0.449095 -0.0913742 0.604 
-0.434866 -0.0934921 0.618 
-0.421346 -0.0963664 0.637 
-0.391599 -0.0953075 0.63 
-0.354848 -0.0922818 0.61 
-0.332154 -0.0927357 0.613 
-0.308217 -0.092887 0.614 
-0.283276 -0.0927357 0.613 
-0.260948 -0.0934921 0.618 
-0.23631 -0.0934921 0.618 
-0.212699 -0.0939459 0.621 
-0.188849 -0.0943998 0.624 
-0.164234 -0.0945511 0.625 
-0.140208 -0.0951562 0.629 
-0.115498 -0.0954588 0.631 
-0.0909135 -0.0960639 0.635 
-0.065804 -0.0963664 0.637 
-0.040535 -0.096669 0.639 
-0.0150594 -0.096669 0.639 
0.0104325 -0.0968203 0.64 
0.0362288 -0.0975767 0.645 
0.0621357 -0.0978793 0.647 
0.0880661 -0.0980305 0.648 
0.114252 -0.0983331 0.65 
0.140382 -0.0984844 0.651 
0.167102 -0.0989382 0.654 
0.193471 -0.0990895 0.655 
0.218914 -0.098787 0.653 
0.246824 -0.0995434 0.658 
0.273887 -0.0998459 0.66 
0.301109 -0.100148 0.662 
0.326018 -0.0996946 0.659 
0.34641 -0.0980305 0.648 
0.353288 -0.0930382 0.615 
0.353848 -0.0871383 0.576 
0.354345 -0.0807844 0.534 
0.365083 -0.0785152 0.519 
0.366449 -0.0745819 0.493 
0.379405 -0.0730691 0.483 
0.399486 -0.0732203 0.484 
0.419648 -0.0733716 0.485 
0.440794 -0.0736742 0.487 
0.461155 -0.0738255 0.488 
0.48258 -0.074128 0.49 
-0.477077 -0.0893619 0.6 
-0.455422 -0.0898087 0.603 
-0.435674 -0.0907023 0.609 
-0.425581 -0.09383 0.63 
-0.39814 -0.093979 0.631 
-0.364117 -0.0917449 0.616 
-0.337353 -0.0911492 0.612 
-0.313465 -0.0912981 0.613 
-0.288555 -0.0911492 0.612 
-0.266746 -0.0920428 0.618 
-0.242107 -0.0920428 0.618 
-0.218173 -0.0923406 0.62 
-0.194079 -0.0926385 0.622 
-0.170097 -0.0930853 0.625 
-0.146109 -0.0936811 0.629 
-0.121802 -0.0942768 0.633 
-0.0967177 -0.0944258 0.634 
-0.0717795 -0.0948726 0.637 
-0.0464565 -0.0950215 0.638 
-0.0210537 -0.0951704 0.639 
0.00443577 -0.0954683 0.641 
0.0301315 -0.0959151 0.644 
0.0560664 -0.0963619 0.647 
0.0819875 -0.0965109 0.648 
0.108155 -0.0968087 0.65 
0.134275 -0.0969577 0.651 
0.160475 -0.0971066 0.652 
0.186755 -0.0972556 0.653 
0.212463 -0.0971066 0.652 
0.240651 -0.0980002 0.658 
0.267696 -0.0982981 0.66 
0.294454 -0.098447 0.661 
0.321292 -0.098596 0.662 
0.342432 -0.0971066 0.652 
0.351798 -0.0923406 0.62 
0.354047 -0.08683 0.583 
0.353754 -0.079681 0.535 
0.366301 -0.0772981 0.519 
0.366916 -0.07283 0.489 
0.382803 -0.0719363 0.483 
0.402892 -0.0720853 0.484 
0.423932 -0.0723832 0.486 
0.44422 -0.0725321 0.487 
0.464588 -0.072681 0.488 
0.486027 -0.0729789 0.49 
-0.472068 -0.0878082 0.599 
-0.45118 -0.0883946 0.603 
-0.43564 -0.0901537 0.615 
-0.42284 -0.0933787 0.637 
-0.392453 -0.092206 0.629 
-0.357447 -0.0897139 0.612 
-0.333592 -0.0898605 0.613 
-0.309153 -0.0898605 0.613 
-0.284714 -0.0898605 0.613 
-0.262398 -0.0905935 0.618 
-0.237759 -0.0905935 0.618 
-0.213811 -0.0908866 0.62 
-0.190007 -0.0913264 0.623 
-0.1657 -0.0916196 0.625 
-0.141683 -0.092206 0.629 
-0.116977 -0.0924992 0.631 
-0.0924027 -0.0930855 0.635 
-0.0671922 -0.0932321 0.636 
-0.0419678 -0.0935253 0.638 
-0.016558 -0.0936719 0.639 
0.00893158 -0.0938185 0.64 
0.0347162 -0.0945514 0.645 
0.0606184 -0.0948446 0.647 
0.0865465 -0.0949912 0.648 
0.112728 -0.0952844 0.65 
0.139068 -0.0955776 0.652 
0.165316 -0.0957242 0.653 
0.191349 -0.0957242 0.653 
0.21705 -0.0955776 0.652 
0.245281 -0.0964571 0.658 
0.272339 -0.0967503 0.66 
0.299104 -0.0968969 0.661 
0.324965 -0.0967503 0.66 
0.345423 -0.0951378 0.649 
0.35299 -0.0904469 0.617 
0.353109 -0.0845832 0.577 
0.354345 -0.0782798 0.534 
0.365787 -0.0762275 0.52 
0.366114 -0.0719764 0.491 
0.379405 -0.0708036 0.483 
0.399486 -0.0709502 0.484 
0.420513 -0.0712434 0.486 
0.440794 -0.07139 0.487 
0.461155 -0.0715366 0.488 
0.48258 -0.0718298 0.49 
-0.476282 -0.0864035 0.599 
-0.455422 -0.0869805 0.603 
-0.435674 -0.0878459 0.609 
-0.425581 -0.0908751 0.63 
-0.397509 -0.0908751 0.63 
-0.364708 -0.0889999 0.617 
-0.335918 -0.0882787 0.612 
-0.312028 -0.0884229 0.613 
-0.286651 -0.0881344 0.611 
-0.265296 -0.0891441 0.618 
-0.240658 -0.0891441 0.618 
-0.216719 -0.0894326 0.62 
-0.19262 -0.0897211 0.622 
-0.168631 -0.0901539 0.625 
-0.144634 -0.0907309 0.629 
-0.119937 -0.0910194 0.631 
-0.0952309 -0.0914521 0.634 
-0.0701753 -0.0917406 0.636 
-0.0449602 -0.0920291 0.638 
-0.0195551 -0.0921733 0.639 
0.00593902 -0.0924618 0.641 
0.0316418 -0.0928946 0.644 
0.0575837 -0.0933273 0.647 
0.0835071 -0.0934715 0.648 
0.109679 -0.09376 0.65 
0.13601 -0.0940485 0.652 
0.162004 -0.0940485 0.652 
0.18771 -0.0939043 0.651 
0.213992 -0.0940485 0.652 
0.242194 -0.094914 0.658 
0.269243 -0.0952025 0.66 
0.296004 -0.0953467 0.661 
0.322844 -0.095491 0.662 
0.343434 -0.0939043 0.651 
0.352365 -0.0895769 0.621 
0.353439 -0.0839513 0.582 
0.354345 -0.0770275 0.534 
0.365787 -0.075008 0.52 
0.366166 -0.0703921 0.488 
0.38167 -0.0696709 0.483 
0.401757 -0.0698152 0.484 
0.422793 -0.0701037 0.486 
0.443078 -0.0702479 0.487 
0.463443 -0.0703921 0.488 
0.484878 -0.0706806 0.49 
-0.473473 -0.0849987 0.599 
-0.452594 -0.0855663 0.603 
-0.43495 -0.0868434 0.612 
-0.427322 -0.090391 0.637 
-0.393928 -0.0892557 0.629 
-0.359468 -0.0869853 0.613 
-0.333592 -0.0869853 0.613 
-0.309153 -0.0869853 0.613 
-0.284249 -0.0868434 0.612 
-0.261973 -0.0875529 0.617 
-0.237759 -0.0876948 0.618 
-0.213811 -0.0879786 0.62 
-0.190007 -0.0884043 0.623 
-0.165965 -0.08883 0.626 
-0.141683 -0.0892557 0.629 
-0.116792 -0.0893976 0.63 
-0.0922572 -0.0899652 0.634 
-0.0670866 -0.0901072 0.635 
-0.0419678 -0.0905328 0.638 
-0.016558 -0.0906748 0.639 
0.00894553 -0.0909586 0.641 
0.0347162 -0.0915262 0.645 
0.0606184 -0.09181 0.647 
0.0865465 -0.0919519 0.648 
0.112554 -0.0920938 0.649 
0.139068 -0.0925195 0.652 
0.165316 -0.0926614 0.653 
0.190763 -0.0923776 0.651 
0.21705 -0.0925195 0.652 
0.245281 -0.0933709 0.658 
0.271926 -0.0935128 0.659 
0.298652 -0.0936547 0.66 
0.324965 -0.0936547 0.66 
0.345423 -0.0920938 0.649 
0.35299 -0.0875529 0.617 
0.352619 -0.0814512 0.574 
0.353754 -0.0759171 0.535 
0.365083 -0.0736466 0.519 
0.365769 -0.0693896 0.489 
0.37975 -0.0683963 0.482 
0.400621 -0.0686801 0.484 
0.421653 -0.0689639 0.486 
0.441936 -0.0691058 0.487 
0.461352 -0.0691058 0.487 
0.483729 -0.0695315 0.49 
-0.469258 -0.083594 0.599 
-0.448352 -0.0841522 0.603 
-0.434163 -0.086106 0.617 
-0.419852 -0.0888971 0.637 
-0.388883 -0.0876411 0.628 
-0.352838 -0.0849895 0.609 
-0.330177 -0.0854082 0.612 
-0.306278 -0.0855477 0.613 
-0.281839 -0.0855477 0.613 
-0.258659 -0.0859664 0.616 
-0.234861 -0.0862455 0.618 
-0.210903 -0.0865246 0.62 
-0.187386 -0.0870828 0.624 
-0.163289 -0.0875015 0.627 
-0.138954 -0.0879202 0.63 
-0.114018 -0.0880597 0.631 
-0.0892835 -0.0884784 0.634 
-0.0640073 -0.0884784 0.634 
-0.0389754 -0.0890366 0.638 
-0.0135821 -0.0893157 0.64 
0.0119707 -0.0895949 0.642 
0.0377414 -0.0900135 0.645 
0.063653 -0.0902926 0.647 
0.0895858 -0.0904322 0.648 
0.115598 -0.0905717 0.649 
0.141909 -0.0908509 0.651 
0.168378 -0.09113 0.653 
0.194114 -0.0909904 0.652 
0.220108 -0.0909904 0.652 
0.248367 -0.0918278 0.658 
0.275017 -0.0919673 0.659 
0.301747 -0.0921069 0.66 
0.327563 -0.0919673 0.659 
0.347393 -0.0902926 0.647 
0.353 -0.0854082 0.612 
0.353349 -0.0799655 0.573 
0.353871 -0.0752206 0.539 
0.363348 -0.072569 0.52 
0.365769 -0.0682428 0.489 
0.37975 -0.0672659 0.482 
0.400621 -0.067545 0.484 
0.421653 -0.0678241 0.486 
0.441936 -0.0679637 0.487 
0.461352 -0.0679637 0.487 
0.483729 -0.0683824 0.49 
-0.469258 -0.0821892 0.599 
-0.448352 -0.082738 0.603 
-0.434163 -0.084659 0.617 
-0.423504 -0.0875404 0.638 
-0.391829 -0.0861683 0.628 
-0.354266 -0.0835613 0.609 
-0.331612 -0.0839729 0.612 
-0.307213 -0.0839729 0.612 
-0.282814 -0.0839729 0.612 
-0.260104 -0.0845218 0.616 
-0.23631 -0.0847962 0.618 
-0.212357 -0.0850706 0.62 
-0.188849 -0.0856195 0.624 
-0.16476 -0.0860311 0.627 
-0.140208 -0.0863055 0.629 
-0.115498 -0.0865799 0.631 
-0.0907704 -0.0869916 0.634 
-0.0653908 -0.0868544 0.633 
-0.0404081 -0.0874032 0.637 
-0.015083 -0.0878148 0.64 
0.0104488 -0.087952 0.641 
0.0362288 -0.0885009 0.645 
0.0621357 -0.0887753 0.647 
0.0911055 -0.0889125 0.648 
0.11712 -0.0890497 0.649 
0.143435 -0.0893241 0.651 
0.16991 -0.0895986 0.653 
0.195643 -0.0894614 0.652 
0.221977 -0.0895986 0.653 
0.24991 -0.0902846 0.658 
0.276563 -0.0904218 0.659 
0.303295 -0.090559 0.66 
0.328609 -0.0902846 0.658 
0.347832 -0.0885009 0.645 
0.353277 -0.0836985 0.61 
0.352836 -0.0782101 0.57 
0.353817 -0.0736821 0.537 
0.363866 -0.0712123 0.519 
0.364665 -0.0666844 0.486 
0.38088 -0.0661355 0.482 
0.401757 -0.06641 0.484 
0.422793 -0.0666844 0.486 
0.443078 -0.0668216 0.487 
0.462494 -0.0668216 0.487 
0.483889 -0.067096 0.489 
-0.472068 -0.0807844 0.599 
-0.45118 -0.0813239 0.603 
-0.434931 -0.0828074 0.614 
-0.426496 -0.0860442 0.638 
-0.395403 -0.0848304 0.629 
-0.362083 -0.0829423 0.615 
-0.335369 -0.0824028 0.611 
-0.31101 -0.0824028 0.611 
-0.286651 -0.0824028 0.611 
-0.264867 -0.083212 0.617 
-0.240658 -0.0833469 0.618 
-0.216369 -0.0834817 0.619 
-0.19262 -0.0838863 0.622 
-0.168901 -0.0844258 0.626 
-0.144404 -0.0846955 0.628 
-0.120127 -0.085235 0.632 
-0.0952309 -0.0855047 0.634 
-0.0699546 -0.0855047 0.634 
-0.0448898 -0.0859093 0.637 
-0.0195245 -0.0860442 0.638 
0.00593902 -0.0864488 0.641 
0.0316418 -0.0868534 0.644 
0.0575837 -0.087258 0.647 
0.0835071 -0.0873928 0.648 
0.10951 -0.0875277 0.649 
0.13601 -0.0879323 0.652 
0.161756 -0.0877974 0.651 
0.187421 -0.0876626 0.65 
0.214977 -0.0883369 0.655 
0.242194 -0.0887415 0.658 
0.268835 -0.0888764 0.659 
0.295556 -0.0890112 0.66 
0.322844 -0.089281 0.662 
0.342906 -0.0876626 0.65 
0.351798 -0.0836166 0.62 
0.353439 -0.0784917 0.582 
0.354625 -0.0736366 0.546 
0.360381 -0.0702649 0.521 
0.367984 -0.0678373 0.503 
0.372609 -0.06514 0.483 
0.392676 -0.0652749 0.484 
0.412823 -0.0654098 0.485 
0.433941 -0.0656795 0.487 
0.454288 -0.0658144 0.488 
0.473743 -0.0658144 0.488 
-0.483306 -0.0793797 0.599 
-0.460192 -0.0795122 0.6 
-0.437726 -0.0797772 0.602 
-0.428157 -0.0825602 0.623 
-0.410441 -0.0840179 0.634 
-0.381519 -0.0832228 0.628 
-0.344269 -0.0807049 0.609 
-0.32104 -0.0809699 0.611 
-0.297166 -0.0811024 0.612 
-0.27455 -0.0816325 0.616 
-0.250397 -0.081765 0.617 
-0.226531 -0.0820301 0.619 
-0.201852 -0.0820301 0.619 
-0.178605 -0.0826927 0.624 
-0.154467 -0.0830902 0.627 
-0.130502 -0.0837528 0.632 
-0.105639 -0.0840179 0.634 
-0.0803625 -0.0840179 0.634 
-0.05526 -0.0842829 0.636 
-0.029951 -0.0844154 0.637 
-0.00458376 -0.0849455 0.641 
0.021037 -0.0852106 0.643 
0.0468173 -0.0854756 0.645 
0.0728694 -0.0858732 0.648 
0.0987038 -0.0858732 0.648 
0.125115 -0.0862707 0.651 
0.150837 -0.0861382 0.65 
0.177295 -0.0864033 0.652 
0.204224 -0.0868008 0.655 
0.231041 -0.0870659 0.657 
0.257626 -0.0871984 0.658 
0.284722 -0.0874634 0.66 
0.312448 -0.087861 0.663 
0.33428 -0.0866683 0.654 
0.349885 -0.0841504 0.635 
0.35393 -0.0793797 0.599 
0.353212 -0.0742114 0.56 
0.35542 -0.0702358 0.53 
0.366603 -0.0683805 0.516 
0.364665 -0.0644049 0.486 
0.38009 -0.0637423 0.481 
0.401757 -0.0641398 0.484 
0.422793 -0.0644049 0.486 
0.443078 -0.0645374 0.487 
0.462494 -0.0645374 0.487 
0.483889 -0.0648024 0.489 
-0.472068 -0.0779749 0.599 
-0.450432 -0.0783655 0.602 
-0.434931 -0.0799275 0.614 
-0.427833 -0.0833121 0.64 
-0.396032 -0.0820104 0.63 
-0.362083 -0.0800577 0.615 
-0.333936 -0.079537 0.611 
-0.309577 -0.079537 0.611 
-0.285684 -0.0796672 0.612 
-0.262993 -0.0801879 0.616 
-0.239209 -0.0804483 0.618 
-0.214917 -0.0805784 0.619 
-0.191468 -0.0810991 0.623 
-0.167433 -0.0814897 0.626 
-0.142931 -0.08175 0.628 
-0.118645 -0.0822707 0.632 
-0.093744 -0.082531 0.634 
-0.0682518 -0.0822707 0.632 
-0.0433278 -0.0827914 0.636 
-0.0180565 -0.0831819 0.639 
0.00745389 -0.0835725 0.642 
