# .PCD v.7 - Point Cloud Data file format
VERSION .7
FIELDS x y z
SIZE 4 4 4
TYPE F F F
COUNT 1 1 1
WIDTH 1814
HEIGHT 1
VIEWPOINT 0 0 0 1 0 0 0
POINTS 1814
DATA ascii
0.572977 -0.15273 0.845 
0.587723 -0.146585 0.811 
0.603928 -0.141524 0.783 
0.619976 -0.137005 0.758 
0.627642 -0.131221 0.726 
0.643258 -0.127607 0.706 
0.654137 -0.123449 0.683 
-14.9296 -2.82478 15.764 
-0.626816 -0.142995 0.798 
-0.594055 -0.14407 0.804 
-0.557965 -0.144429 0.806 
-0.510712 -0.141741 0.791 
-0.478036 -0.142995 0.798 
-0.440841 -0.142995 0.798 
-0.414269 -0.146758 0.819 
-0.381605 -0.148909 0.831 
-0.351537 -0.152672 0.852 
-0.322805 -0.158047 0.882 
-0.288401 -0.161811 0.903 
-0.253677 -0.166649 0.93 
-0.216436 -0.171487 0.957 
-0.171291 -0.170949 0.954 
-0.126825 -0.170949 0.954 
-0.082445 -0.171128 0.955 
-0.0380116 -0.171487 0.957 
0.00685629 -0.178296 0.995 
0.0565506 -0.189406 1.057 
0.114527 -0.204996 1.144 
0.187286 -0.22399 1.25 
0.288239 -0.247285 1.38 
0.339787 -0.238326 1.33 
0.377732 -0.222915 1.244 
0.411898 -0.21073 1.176 
0.446368 -0.199978 1.116 
0.480075 -0.192632 1.075 
0.506014 -0.183851 1.026 
0.527386 -0.175071 0.977 
0.554746 -0.169516 0.946 
0.567188 -0.160556 0.896 
0.57361 -0.151238 0.844 
0.588257 -0.145146 0.81 
0.603598 -0.139949 0.781 
0.619514 -0.135469 0.756 
0.62877 -0.130093 0.726 
0.643442 -0.12633 0.705 
0.654239 -0.122209 0.682 
-11.3663 -2.15671 12.141 
-0.626061 -0.142999 0.805 
-0.587078 -0.142644 0.803 
-0.551703 -0.143177 0.806 
-0.505205 -0.14069 0.792 
-0.471187 -0.141933 0.799 
-0.436118 -0.142644 0.803 
-0.411599 -0.147262 0.829 
-0.377008 -0.148861 0.838 
-0.344549 -0.152947 0.861 
-0.312549 -0.157032 0.884 
-0.276996 -0.161118 0.907 
-0.241967 -0.166092 0.935 
-0.203691 -0.170533 0.96 
-0.158945 -0.170533 0.96 
-0.113485 -0.169467 0.954 
-0.0692359 -0.17 0.957 
-0.0248357 -0.171421 0.965 
0.0213122 -0.181369 1.021 
0.0737602 -0.194159 1.093 
0.131437 -0.204639 1.152 
0.204446 -0.223824 1.26 
0.298526 -0.244786 1.378 
0.34617 -0.233595 1.315 
0.38615 -0.220272 1.24 
0.418169 -0.207482 1.168 
0.45096 -0.196468 1.106 
0.480248 -0.187764 1.057 
0.510979 -0.181191 1.02 
0.532238 -0.172665 0.972 
0.55437 -0.165737 0.933 
0.566459 -0.157032 0.884 
0.574667 -0.148506 0.836 
0.590145 -0.142821 0.804 
0.604201 -0.137492 0.774 
0.620424 -0.133229 0.75 
0.630914 -0.128255 0.722 
0.644317 -0.124347 0.7 
0.656636 -0.120617 0.679 
-0.677325 -0.143333 0.814 
-0.625109 -0.1421 0.807 
-0.584583 -0.141396 0.803 
-0.54988 -0.1421 0.807 
-0.502147 -0.139635 0.793 
-0.468633 -0.141044 0.801 
-0.433452 -0.141748 0.805 
-0.408719 -0.146326 0.831 
-0.374438 -0.148087 0.841 
-0.344653 -0.152842 0.868 
-0.310153 -0.155835 0.885 
-0.275891 -0.159885 0.908 
-0.241286 -0.165168 0.938 
-0.20241 -0.169217 0.961 
-0.157781 -0.169394 0.962 
-0.112238 -0.168337 0.956 
-0.067749 -0.168513 0.957 
-0.0233122 -0.169746 0.964 
0.0229433 -0.180135 1.023 
0.0758035 -0.193341 1.098 
0.133458 -0.203202 1.154 
0.206239 -0.221691 1.259 
0.29574 -0.242117 1.375 
0.344127 -0.231551 1.315 
0.385153 -0.218873 1.243 
0.418137 -0.206547 1.173 
0.44782 -0.19563 1.111 
0.478918 -0.18753 1.065 
0.506721 -0.179783 1.021 
0.528251 -0.17133 0.973 
0.55238 -0.164991 0.937 
0.566155 -0.156715 0.89 
0.573502 -0.147911 0.84 
0.588586 -0.1421 0.807 
0.602921 -0.136818 0.777 
0.618573 -0.132416 0.752 
0.629287 -0.127485 0.724 
0.642886 -0.123612 0.702 
0.654433 -0.119738 0.68 
-0.692092 -0.142766 0.818 
-0.643571 -0.140498 0.805 
-0.606803 -0.140672 0.806 
-0.569941 -0.140847 0.807 
-0.52844 -0.140148 0.803 
-0.486663 -0.139974 0.802 
-0.447041 -0.139276 0.798 
-0.416009 -0.14137 0.81 
-0.388528 -0.14521 0.832 
-0.358576 -0.148875 0.853 
-0.33003 -0.154111 0.883 
-0.292472 -0.156031 0.894 
-0.255739 -0.16179 0.927 
-0.218951 -0.166677 0.955 
-0.175169 -0.167375 0.959 
-0.130606 -0.16755 0.96 
-0.0858597 -0.16755 0.96 
-0.0408569 -0.166503 0.954 
0.0037342 -0.172262 0.987 
0.0528126 -0.182909 1.048 
0.110294 -0.198442 1.137 
0.180299 -0.216768 1.242 
0.261147 -0.233872 1.34 
0.325053 -0.234919 1.346 
0.36642 -0.220782 1.265 
0.400162 -0.207692 1.19 
0.436484 -0.198965 1.14 
0.465568 -0.189192 1.084 
0.495806 -0.181163 1.038 
0.518498 -0.172611 0.989 
0.542902 -0.165979 0.951 
0.562529 -0.158998 0.911 
0.56913 -0.149573 0.857 
0.579226 -0.142243 0.815 
0.596765 -0.137531 0.788 
0.612592 -0.132993 0.762 
0.623444 -0.127931 0.733 
0.638769 -0.124266 0.712 
0.649305 -0.120077 0.688 
0.659585 -0.116238 0.666 
-0.66683 -0.140458 0.812 
-0.626658 -0.139939 0.809 
-0.586767 -0.13942 0.806 
-0.552606 -0.140285 0.811 
-0.504723 -0.138555 0.801 
-0.46789 -0.139074 0.804 
-0.431486 -0.13942 0.806 
-0.406136 -0.143744 0.831 
-0.373151 -0.145993 0.844 
-0.345677 -0.151182 0.874 
-0.309126 -0.153258 0.886 
-0.270843 -0.157409 0.91 
-0.23646 -0.162945 0.942 
-0.196846 -0.166577 0.963 
-0.151803 -0.166404 0.962 
-0.106852 -0.166231 0.961 
-0.0619307 -0.165885 0.959 
-0.0173212 -0.16675 0.964 
0.0293869 -0.177475 1.026 
0.0857925 -0.193216 1.117 
0.143533 -0.201173 1.163 
0.220138 -0.22193 1.283 
0.298049 -0.236287 1.366 
0.34636 -0.226254 1.308 
0.386773 -0.214838 1.242 
0.420675 -0.203248 1.175 
0.448332 -0.191659 1.108 
0.478317 -0.183356 1.06 
0.506814 -0.176091 1.018 
0.530182 -0.167961 0.971 
0.549365 -0.16035 0.927 
0.563168 -0.152393 0.881 
0.572683 -0.144436 0.835 
0.587431 -0.138728 0.802 
0.602999 -0.133885 0.774 
0.617607 -0.129387 0.748 
0.62892 -0.124717 0.721 
0.64231 -0.120911 0.699 
0.65365 -0.117106 0.677 
-0.696332 -0.140567 0.82 
-0.650086 -0.138853 0.81 
-0.609307 -0.138168 0.806 
-0.573867 -0.138682 0.809 
-0.535497 -0.13851 0.808 
-0.491559 -0.13851 0.808 
-0.449404 -0.137139 0.8 
-0.417267 -0.138853 0.81 
-0.390289 -0.142796 0.833 
-0.360323 -0.146396 0.854 
-0.331027 -0.151196 0.882 
-0.293203 -0.15291 0.892 
-0.258657 -0.158053 0.922 
-0.222934 -0.163367 0.953 
-0.180763 -0.165424 0.965 
-0.135643 -0.165253 0.964 
-0.0907107 -0.165253 0.964 
-0.0453985 -0.163881 0.956 
-0.000860966 -0.168167 0.981 
0.0476077 -0.178452 1.041 
0.104071 -0.193195 1.127 
0.171051 -0.211023 1.231 
0.244016 -0.225422 1.315 
0.313203 -0.231251 1.349 
0.359632 -0.221137 1.29 
0.396005 -0.208623 1.217 
0.427433 -0.196966 1.149 
0.455453 -0.186509 1.088 
0.485695 -0.178966 1.044 
0.509796 -0.170224 0.993 
0.53648 -0.164224 0.958 
0.553835 -0.15651 0.913 
0.561769 -0.147424 0.86 
0.573161 -0.140396 0.819 
0.591181 -0.135768 0.792 
0.606684 -0.131139 0.765 
0.621349 -0.126854 0.74 
0.633684 -0.122568 0.715 
0.646487 -0.118797 0.693 
0.657239 -0.115025 0.671 
-0.68614 -0.139293 0.82 
-0.640808 -0.137765 0.811 
-0.600776 -0.137255 0.808 
-0.565903 -0.137934 0.812 
-0.525454 -0.137255 0.808 
-0.479132 -0.136576 0.804 
-0.442756 -0.136915 0.806 
-0.411221 -0.138954 0.818 
-0.382672 -0.142521 0.839 
-0.349708 -0.145069 0.854 
-0.320064 -0.149825 0.882 
-0.287809 -0.154582 0.91 
-0.250787 -0.157979 0.93 
-0.214354 -0.163245 0.961 
-0.170797 -0.164434 0.968 
-0.124769 -0.163245 0.961 
-0.0802265 -0.163755 0.964 
-0.0349647 -0.162226 0.955 
0.00988812 -0.168002 0.989 
0.0596086 -0.178873 1.053 
0.117153 -0.192803 1.135 
0.186237 -0.211149 1.243 
0.262443 -0.226946 1.336 
0.323499 -0.226097 1.331 
0.364971 -0.214036 1.26 
0.400498 -0.202315 1.191 
0.435718 -0.193312 1.138 
0.464709 -0.183799 1.082 
0.493717 -0.176155 1.037 
0.51688 -0.166982 0.983 
0.540373 -0.160357 0.944 
0.561637 -0.153732 0.905 
0.569112 -0.144559 0.851 
0.580163 -0.137765 0.811 
0.596628 -0.133008 0.783 
0.611292 -0.128422 0.756 
0.624295 -0.124005 0.73 
0.636677 -0.119928 0.706 
0.648718 -0.116191 0.684 
0.660699 -0.112794 0.664 
-0.668472 -0.13701 0.814 
-0.628982 -0.136673 0.812 
-0.589679 -0.136336 0.81 
-0.556013 -0.137346 0.816 
-0.513545 -0.136505 0.811 
-0.473314 -0.136168 0.809 
-0.435606 -0.136168 0.809 
-0.406259 -0.139029 0.826 
-0.375328 -0.141891 0.843 
-0.347596 -0.146772 0.872 
-0.311528 -0.14896 0.885 
-0.278829 -0.153673 0.913 
-0.242226 -0.157544 0.936 
-0.204964 -0.162594 0.966 
-0.160435 -0.163099 0.969 
-0.114913 -0.162594 0.966 
-0.0695976 -0.16192 0.962 
-0.0247585 -0.16192 0.962 
0.0209573 -0.16899 1.004 
0.0732203 -0.182623 1.085 
0.131437 -0.1939 1.152 
0.202327 -0.21191 1.259 
0.281119 -0.228237 1.356 
0.332642 -0.220494 1.31 
0.375369 -0.210227 1.249 
0.413104 -0.200297 1.19 
0.443763 -0.189693 1.127 
0.472513 -0.180604 1.073 
0.499151 -0.172524 1.025 
0.520781 -0.164277 0.976 
0.543645 -0.157712 0.937 
0.560366 -0.150475 0.894 
0.569001 -0.141891 0.843 
0.583038 -0.136 0.808 
0.598422 -0.131118 0.779 
0.613546 -0.126742 0.753 
0.624524 -0.122029 0.725 
0.63834 -0.118326 0.703 
0.650105 -0.114623 0.681 
-0.706524 -0.136745 0.82 
-0.657897 -0.135912 0.815 
-0.616107 -0.135078 0.81 
-0.581208 -0.135745 0.814 
-0.543268 -0.135745 0.814 
-0.506568 -0.136078 0.816 
-0.463367 -0.134578 0.807 
-0.42628 -0.134744 0.808 
-0.399681 -0.13858 0.831 
-0.368332 -0.141415 0.848 
-0.340826 -0.146584 0.879 
-0.303608 -0.148419 0.89 
-0.269488 -0.152588 0.915 
-0.233533 -0.15709 0.942 
-0.195263 -0.16176 0.97 
-0.149587 -0.16126 0.967 
-0.104623 -0.161426 0.968 
-0.059381 -0.161093 0.966 
-0.0143703 -0.16126 0.967 
0.0323211 -0.169764 1.018 
0.0876847 -0.186607 1.119 
0.14659 -0.195613 1.173 
0.219451 -0.21329 1.279 
0.294776 -0.225296 1.351 
0.344506 -0.216958 1.301 
0.384904 -0.206119 1.236 
0.422107 -0.196613 1.179 
0.444691 -0.183272 1.099 
0.476963 -0.176268 1.057 
0.504325 -0.168931 1.013 
0.530728 -0.162093 0.972 
0.545809 -0.153588 0.921 
0.556206 -0.14475 0.868 
0.566419 -0.137412 0.824 
0.585741 -0.133077 0.798 
0.601079 -0.128407 0.77 
0.616288 -0.124238 0.745 
0.627419 -0.119736 0.718 
0.641555 -0.116234 0.697 
0.652767 -0.112565 0.675 
-0.699728 -0.136132 0.824 
-0.648087 -0.134976 0.817 
-0.602777 -0.133654 0.809 
-0.56926 -0.134645 0.815 
-0.531273 -0.134645 0.815 
-0.494496 -0.134976 0.817 
-0.451387 -0.133489 0.808 
-0.416286 -0.134315 0.813 
-0.388631 -0.13795 0.835 
-0.358088 -0.141254 0.855 
-0.326425 -0.144888 0.877 
-0.291408 -0.147862 0.895 
-0.258341 -0.152984 0.926 
-0.221686 -0.157609 0.954 
-0.180935 -0.160914 0.974 
-0.134841 -0.160088 0.969 
-0.0899533 -0.160583 0.972 
-0.0440969 -0.158601 0.96 
0.00066319 -0.16207 0.981 
0.0492251 -0.171983 1.041 
0.10507 -0.184869 1.119 
0.172121 -0.202381 1.225 
0.244749 -0.216093 1.308 
0.312026 -0.220554 1.335 
0.357438 -0.209485 1.268 
0.395516 -0.198912 1.204 
0.427628 -0.188338 1.14 
0.45546 -0.178426 1.08 
0.485661 -0.171322 1.037 
0.508233 -0.162566 0.984 
0.533825 -0.156618 0.948 
0.553623 -0.15001 0.908 
0.559847 -0.140923 0.853 
0.572191 -0.13448 0.814 
0.589894 -0.13002 0.787 
0.60508 -0.125559 0.76 
0.621963 -0.121924 0.738 
0.632348 -0.117464 0.711 
0.644897 -0.113829 0.689 
0.655394 -0.110194 0.667 
-0.689042 -0.135016 0.825 
-0.634616 -0.133543 0.816 
-0.593319 -0.133379 0.815 
-0.558057 -0.134034 0.819 
-0.519883 -0.134034 0.819 
-0.47818 -0.133052 0.813 
-0.440286 -0.133052 0.813 
-0.406846 -0.134525 0.822 
-0.377948 -0.137961 0.843 
-0.347895 -0.141726 0.866 
-0.315343 -0.145326 0.888 
-0.2829 -0.150072 0.917 
-0.244348 -0.15269 0.933 
-0.20775 -0.157927 0.965 
-0.164289 -0.1594 0.974 
-0.118891 -0.1594 0.974 
-0.0730396 -0.158418 0.968 
-0.0278343 -0.157927 0.965 
0.0176776 -0.162837 0.995 
0.068175 -0.173311 1.059 
0.126525 -0.186567 1.14 
0.198573 -0.206206 1.26 
0.273638 -0.219298 1.34 
0.328822 -0.214552 1.311 
0.372531 -0.203915 1.246 
0.410564 -0.194423 1.188 
0.439659 -0.183458 1.121 
0.469091 -0.174948 1.069 
0.497073 -0.167583 1.024 
0.518733 -0.159564 0.975 
0.539875 -0.15269 0.933 
0.555851 -0.14549 0.889 
0.563694 -0.137307 0.839 
0.580527 -0.132234 0.808 
0.596001 -0.127488 0.779 
0.610395 -0.123069 0.752 
0.62313 -0.118814 0.726 
0.635251 -0.114886 0.702 
0.648941 -0.111613 0.682 
-0.709524 -0.133248 0.822 
-0.659854 -0.132761 0.819 
-0.612331 -0.131302 0.81 
-0.579542 -0.132437 0.817 
-0.539473 -0.131951 0.814 
-0.50523 -0.132923 0.82 
-0.462453 -0.131627 0.812 
-0.424082 -0.131464 0.811 
-0.395331 -0.134544 0.83 
-0.365239 -0.137786 0.85 
-0.335197 -0.141839 0.875 
-0.300133 -0.144595 0.892 
-0.266673 -0.149134 0.92 
-0.230359 -0.15351 0.947 
-0.191922 -0.158211 0.976 
-0.14538 -0.157077 0.969 
-0.100731 -0.157887 0.974 
-0.0550489 -0.157077 0.969 
-0.00992431 -0.157725 0.973 
0.0370296 -0.164857 1.017 
0.0924022 -0.180419 1.113 
0.153483 -0.191928 1.184 
0.225589 -0.20749 1.28 
0.298399 -0.217054 1.339 
0.347876 -0.209273 1.291 
0.387186 -0.197602 1.219 
0.420329 -0.187065 1.154 
0.445358 -0.175718 1.084 
0.478043 -0.169396 1.045 
0.504067 -0.162102 1 
0.533056 -0.156914 0.968 
0.545324 -0.147999 0.913 
0.553152 -0.138921 0.857 
0.566107 -0.132599 0.818 
0.586506 -0.128709 0.794 
0.600741 -0.124008 0.765 
0.618096 -0.120442 0.743 
0.627251 -0.115741 0.714 
0.640179 -0.112174 0.692 
0.654942 -0.109257 0.674 
-0.698822 -0.133094 0.829 
-0.647434 -0.13181 0.821 
-0.603128 -0.131328 0.818 
-0.567073 -0.13181 0.821 
-0.530094 -0.132131 0.823 
-0.489941 -0.131649 0.82 
-0.449517 -0.131007 0.816 
-0.412996 -0.131489 0.819 
-0.383976 -0.1347 0.839 
-0.352679 -0.13775 0.858 
-0.32107 -0.141443 0.881 
-0.288588 -0.145778 0.908 
-0.252775 -0.149631 0.932 
-0.215174 -0.153805 0.958 
-0.174081 -0.157016 0.978 
-0.129022 -0.157658 0.982 
-0.082572 -0.156374 0.974 
-0.0368301 -0.154929 0.965 
0.00831775 -0.15814 0.985 
0.0575322 -0.167773 1.045 
0.117659 -0.180295 1.123 
0.190137 -0.201648 1.256 
0.261945 -0.212405 1.323 
0.322632 -0.211763 1.319 
0.364891 -0.201167 1.253 
0.401673 -0.190892 1.189 
0.432873 -0.180777 1.126 
0.46208 -0.172107 1.072 
0.489596 -0.164562 1.025 
0.516687 -0.156374 0.974 
0.537848 -0.149631 0.932 
0.551474 -0.141603 0.882 
0.561679 -0.134218 0.836 
0.579809 -0.129562 0.807 
0.595236 -0.124906 0.778 
0.608771 -0.120411 0.75 
0.622271 -0.116397 0.725 
0.634346 -0.112544 0.701 
0.647989 -0.109333 0.681 
-0.70869 -0.131011 0.824 
-0.658439 -0.130693 0.822 
-0.612582 -0.129103 0.812 
-0.581104 -0.130534 0.821 
-0.541515 -0.130216 0.819 
-0.50457 -0.130534 0.821 
-0.462327 -0.129421 0.814 
-0.424908 -0.12958 0.815 
-0.393567 -0.131806 0.829 
-0.363918 -0.135145 0.85 
-0.333074 -0.138802 0.873 
-0.298747 -0.141823 0.892 
-0.265531 -0.146434 0.921 
-0.229371 -0.150886 0.949 
-0.190795 -0.155496 0.978 
-0.142369 -0.154066 0.969 
-0.0981061 -0.155496 0.978 
-0.0521453 -0.154384 0.971 
-0.00690795 -0.15486 0.974 
0.0402293 -0.161856 1.018 
0.0955162 -0.176325 1.109 
0.157693 -0.188885 1.188 
0.229208 -0.203195 1.278 
0.302107 -0.212575 1.337 
0.349161 -0.203672 1.281 
0.387165 -0.19286 1.213 
0.419561 -0.182367 1.147 
0.447042 -0.17235 1.084 
0.477371 -0.165354 1.04 
0.505653 -0.158517 0.997 
0.532187 -0.152794 0.961 
0.54636 -0.144685 0.91 
0.552543 -0.135781 0.854 
0.567378 -0.130057 0.818 
0.586259 -0.125924 0.792 
0.600356 -0.121313 0.763 
0.620918 -0.118451 0.745 
0.627481 -0.113363 0.713 
0.6394 -0.109706 0.69 
0.654043 -0.106844 0.672 
-0.698376 -0.130676 0.83 
-0.646454 -0.129574 0.823 
-0.606616 -0.129259 0.821 
-0.56796 -0.130046 0.826 
-0.530742 -0.130361 0.828 
-0.487393 -0.129101 0.82 
-0.448077 -0.128786 0.818 
-0.411955 -0.129416 0.822 
-0.382278 -0.132408 0.841 
-0.351645 -0.135714 0.862 
-0.319416 -0.139178 0.884 
-0.288284 -0.144216 0.916 
-0.249879 -0.146735 0.932 
-0.212197 -0.150828 0.958 
-0.171392 -0.154292 0.98 
-0.126355 -0.155079 0.985 
-0.0797088 -0.153662 0.976 
-0.0340769 -0.153032 0.972 
0.01139 -0.155236 0.986 
0.0607794 -0.164525 1.045 
0.11745 -0.176491 1.121 
0.189985 -0.197588 1.255 
0.260955 -0.207507 1.318 
0.322632 -0.207664 1.319 
0.364308 -0.196958 1.251 
0.400321 -0.186567 1.185 
0.431335 -0.176648 1.122 
0.460786 -0.168304 1.069 
0.488163 -0.160904 1.022 
0.514188 -0.153505 0.975 
0.535526 -0.146892 0.933 
0.55419 -0.140595 0.893 
0.562425 -0.132408 0.841 
0.578555 -0.127055 0.807 
0.593264 -0.122331 0.777 
0.607606 -0.11808 0.75 
0.621145 -0.114144 0.725 
0.633257 -0.110366 0.701 
0.646931 -0.107217 0.681 
-0.710832 -0.128607 0.825 
-0.667251 -0.128607 0.825 
-0.625749 -0.127983 0.821 
-0.590491 -0.128919 0.827 
-0.550659 -0.128919 0.827 
-0.509635 -0.128295 0.823 
-0.468412 -0.127516 0.818 
-0.429233 -0.127204 0.816 
-0.395513 -0.128607 0.825 
-0.366581 -0.132036 0.847 
-0.337143 -0.136089 0.873 
-0.303244 -0.139207 0.893 
-0.268945 -0.143104 0.918 
-0.233302 -0.147625 0.947 
-0.195354 -0.152457 0.978 
-0.147037 -0.15121 0.97 
-0.101248 -0.152613 0.979 
-0.0553329 -0.151834 0.974 
-0.00993451 -0.151834 0.974 
0.0367383 -0.15729 1.009 
0.091406 -0.171632 1.101 
0.152317 -0.183167 1.175 
0.223474 -0.197665 1.268 
0.298176 -0.208577 1.338 
0.345181 -0.199691 1.281 
0.38466 -0.189714 1.217 
0.418173 -0.179738 1.153 
0.445311 -0.169605 1.088 
0.474595 -0.162278 1.041 
0.507539 -0.157446 1.01 
0.529201 -0.149807 0.961 
0.544129 -0.142013 0.911 
0.551249 -0.132816 0.852 
0.568071 -0.127671 0.819 
0.585519 -0.123307 0.791 
0.599569 -0.118786 0.762 
0.622585 -0.116448 0.747 
0.626601 -0.110992 0.712 
0.638474 -0.107406 0.689 
0.653069 -0.1046 0.671 
-0.698766 -0.128405 0.832 
-0.651667 -0.127788 0.828 
-0.610112 -0.127171 0.824 
-0.572502 -0.127634 0.827 
-0.522391 -0.127634 0.827 
-0.479164 -0.126399 0.819 
-0.440452 -0.126245 0.818 
-0.404292 -0.126862 0.822 
-0.375773 -0.130257 0.844 
-0.345204 -0.133653 0.866 
-0.314344 -0.13782 0.893 
-0.28005 -0.141524 0.917 
-0.242226 -0.144456 0.936 
-0.204751 -0.148932 0.965 
-0.162587 -0.151555 0.982 
-0.114938 -0.151092 0.979 
-0.0691648 -0.150784 0.977 
-0.023675 -0.151092 0.979 
0.0222929 -0.153407 0.994 
0.0729039 -0.162976 1.056 
0.132764 -0.177175 1.148 
0.204283 -0.194306 1.259 
0.277378 -0.204955 1.328 
0.332378 -0.200788 1.301 
0.373684 -0.19091 1.237 
0.408676 -0.180879 1.172 
0.437213 -0.170693 1.106 
0.467552 -0.163285 1.058 
0.495858 -0.156648 1.015 
0.516946 -0.149086 0.966 
0.539283 -0.143067 0.927 
0.544957 -0.13319 0.863 
0.559415 -0.127325 0.825 
0.579027 -0.123312 0.799 
0.593901 -0.118837 0.77 
0.613432 -0.11575 0.75 
0.62159 -0.110966 0.719 
0.635969 -0.107725 0.698 
0.647433 -0.104329 0.676 
-0.707844 -0.126196 0.826 
-0.666622 -0.126654 0.829 
-0.62268 -0.125585 0.822 
-0.589343 -0.126654 0.829 
-0.55336 -0.127265 0.833 
-0.509592 -0.126043 0.825 
-0.468854 -0.125432 0.821 
-0.430063 -0.125279 0.82 
-0.394231 -0.126043 0.825 
-0.365697 -0.129557 0.848 
-0.335402 -0.133224 0.872 
-0.301857 -0.136432 0.893 
-0.267228 -0.140099 0.917 
-0.232075 -0.144835 0.948 
-0.194032 -0.149571 0.979 
-0.147037 -0.148196 0.97 
-0.102874 -0.149724 0.98 
-0.0571964 -0.149724 0.98 
-0.0114478 -0.148807 0.974 
0.0350312 -0.153544 1.005 
0.0887178 -0.166377 1.089 
0.14921 -0.177988 1.165 
0.220107 -0.192502 1.26 
0.296097 -0.204419 1.338 
0.342119 -0.1951 1.277 
0.384342 -0.186697 1.222 
0.417104 -0.17646 1.155 
0.444844 -0.166683 1.091 
0.472978 -0.159044 1.041 
0.505969 -0.154307 1.01 
0.527381 -0.145905 0.955 
0.543149 -0.138571 0.907 
0.551946 -0.12971 0.849 
0.56992 -0.124974 0.818 
0.585003 -0.120238 0.787 
0.598777 -0.115807 0.758 
0.624069 -0.113974 0.746 
0.627047 -0.108474 0.71 
0.638755 -0.10496 0.687 
0.652225 -0.102057 0.668 
-0.698312 -0.125971 0.833 
-0.653523 -0.12582 0.832 
-0.613265 -0.125518 0.83 
-0.573194 -0.125215 0.828 
-0.537829 -0.125971 0.833 
-0.493612 -0.12461 0.824 
-0.453547 -0.124157 0.821 
-0.418315 -0.125064 0.827 
-0.382983 -0.126122 0.834 
-0.355663 -0.130357 0.862 
-0.321341 -0.132776 0.878 
-0.290956 -0.137767 0.911 
-0.253132 -0.140338 0.928 
-0.215531 -0.144118 0.953 
-0.176319 -0.148504 0.982 
-0.131478 -0.149562 0.989 
-0.0847759 -0.148504 0.982 
-0.0390046 -0.148504 0.982 
0.00669091 -0.14684 0.971 
0.0553736 -0.156519 1.035 
0.111224 -0.168012 1.111 
0.17768 -0.183135 1.211 
0.252298 -0.19735 1.305 
0.316964 -0.199769 1.321 
0.358477 -0.189184 1.251 
0.395797 -0.179656 1.188 
0.424207 -0.168919 1.117 
0.457083 -0.162114 1.072 
0.483873 -0.154704 1.023 
0.510689 -0.147748 0.977 
0.533454 -0.141699 0.937 
0.551259 -0.135347 0.895 
0.557814 -0.126727 0.838 
0.574081 -0.121888 0.806 
0.589642 -0.117503 0.777 
0.60411 -0.113419 0.75 
0.618618 -0.10979 0.726 
0.630888 -0.106161 0.702 
0.643757 -0.102985 0.681 
0.656652 -0.100112 0.662 
-0.68537 -0.124677 0.833 
-0.644991 -0.124378 0.831 
-0.607151 -0.124827 0.834 
-0.567596 -0.124677 0.833 
-0.528135 -0.124527 0.832 
-0.484062 -0.12318 0.823 
-0.444618 -0.122881 0.821 
-0.408331 -0.12348 0.825 
-0.377499 -0.126024 0.842 
-0.347895 -0.129616 0.866 
-0.316408 -0.133358 0.891 
-0.276898 -0.1371 0.916 
-0.240851 -0.140991 0.942 
-0.202798 -0.145182 0.97 
-0.159861 -0.147278 0.984 
-0.113069 -0.14608 0.976 
-0.0682701 -0.147577 0.986 
-0.0220634 -0.14593 0.975 
0.0238133 -0.148625 0.993 
0.0746152 -0.158204 1.057 
0.134313 -0.171524 1.146 
0.20411 -0.186492 1.246 
0.279862 -0.199064 1.33 
0.331058 -0.192778 1.288 
0.375303 -0.184995 1.236 
0.406644 -0.17377 1.161 
0.439454 -0.165089 1.103 
0.468169 -0.157455 1.052 
0.497537 -0.151468 1.012 
0.518077 -0.143236 0.957 
0.539753 -0.137399 0.918 
0.545908 -0.12782 0.854 
0.564356 -0.122881 0.821 
0.579869 -0.118241 0.79 
0.596395 -0.11435 0.764 
0.621251 -0.112404 0.751 
0.624797 -0.107016 0.715 
0.636953 -0.103573 0.692 
0.648899 -0.10043 0.671 
-0.703534 -0.122938 0.83 
-0.668853 -0.123679 0.835 
-0.626161 -0.122938 0.83 
-0.588182 -0.123087 0.831 
-0.552094 -0.123679 0.835 
-0.509487 -0.12279 0.829 
-0.468575 -0.122198 0.825 
-0.4296 -0.12205 0.824 
-0.391668 -0.122198 0.825 
-0.364774 -0.126197 0.852 
-0.332693 -0.129159 0.872 
-0.299417 -0.132418 0.894 
-0.260104 -0.135825 0.917 
-0.225185 -0.140713 0.95 
-0.186618 -0.145156 0.98 
-0.14094 -0.145156 0.98 
-0.0959419 -0.146193 0.987 
-0.0498364 -0.145897 0.985 
-0.00385349 -0.143231 0.967 
0.0433499 -0.150637 1.017 
0.0975345 -0.161894 1.093 
0.158396 -0.172706 1.166 
0.229712 -0.186481 1.259 
0.305117 -0.197294 1.332 
0.347077 -0.186481 1.259 
0.387711 -0.178187 1.203 
0.416387 -0.166485 1.124 
0.450843 -0.160116 1.081 
0.477582 -0.152562 1.03 
0.506205 -0.146489 0.989 
0.528848 -0.140268 0.947 
0.541525 -0.132566 0.895 
0.551974 -0.124864 0.843 
0.571628 -0.120717 0.815 
0.584932 -0.115829 0.782 
0.599927 -0.11183 0.755 
0.619134 -0.109015 0.736 
0.626805 -0.104572 0.706 
0.639154 -0.101313 0.684 
0.652396 -0.0984989 0.665 
-0.692204 -0.122382 0.835 
-0.654849 -0.122675 0.837 
-0.614365 -0.122382 0.835 
-0.572689 -0.121795 0.831 
-0.535883 -0.122235 0.834 
-0.492243 -0.121063 0.826 
-0.452095 -0.120623 0.823 
-0.416751 -0.121502 0.829 
-0.379479 -0.121942 0.832 
-0.354622 -0.126925 0.866 
-0.319338 -0.128977 0.88 
-0.284814 -0.13396 0.914 
-0.247512 -0.136892 0.934 
-0.209875 -0.140849 0.961 
-0.169377 -0.144513 0.986 
-0.123044 -0.144073 0.983 
-0.077383 -0.144366 0.985 
-0.0312482 -0.14334 0.978 
0.014322 -0.143194 0.977 
0.0638427 -0.152721 1.042 
0.121796 -0.165472 1.129 
0.187396 -0.177783 1.213 
0.264849 -0.193026 1.317 
0.322272 -0.190681 1.301 
0.364664 -0.181594 1.239 
0.397526 -0.170895 1.166 
0.430171 -0.162687 1.11 
0.461937 -0.155945 1.064 
0.487974 -0.148763 1.015 
0.510943 -0.141582 0.966 
0.534098 -0.136012 0.928 
0.540391 -0.126046 0.86 
0.558202 -0.121209 0.827 
0.575101 -0.116812 0.797 
0.589972 -0.112562 0.768 
0.609472 -0.109631 0.748 
0.620217 -0.105527 0.72 
0.632892 -0.102156 0.697 
0.644378 -0.0989313 0.675 
-0.705698 -0.120069 0.828 
-0.67355 -0.121229 0.836 
-0.634584 -0.121229 0.836 
-0.594905 -0.121084 0.835 
-0.556652 -0.121229 0.836 
-0.516447 -0.120939 0.834 
-0.473566 -0.119924 0.827 
-0.433967 -0.119634 0.825 
-0.395034 -0.119489 0.824 
-0.368313 -0.123405 0.851 
-0.335599 -0.126015 0.869 
-0.302905 -0.12935 0.892 
-0.268652 -0.132975 0.917 
-0.233055 -0.137181 0.946 
-0.193956 -0.140806 0.971 
-0.150841 -0.142836 0.985 
-0.10493 -0.142836 0.985 
-0.0594979 -0.143996 0.993 
-0.0129877 -0.141531 0.976 
0.0333365 -0.145156 1.001 
0.0853477 -0.154872 1.068 
0.144996 -0.166183 1.146 
0.215206 -0.180249 1.243 
0.293579 -0.193735 1.336 
0.337738 -0.183874 1.268 
0.382443 -0.177204 1.222 
0.41459 -0.167198 1.153 
0.44362 -0.157772 1.088 
0.472069 -0.150667 1.039 
0.501962 -0.145301 1.002 
0.521834 -0.138196 0.953 
0.536161 -0.13051 0.9 
0.548601 -0.12355 0.852 
0.566217 -0.118909 0.82 
0.579375 -0.113979 0.786 
0.595634 -0.110209 0.76 
0.618603 -0.108033 0.745 
0.625265 -0.103393 0.713 
0.637256 -0.100058 0.69 
0.648074 -0.0968675 0.668 
-0.697473 -0.119357 0.832 
-0.665027 -0.120504 0.84 
-0.623639 -0.120074 0.837 
-0.581833 -0.1195 0.833 
-0.543006 -0.1195 0.833 
-0.503574 -0.119357 0.832 
-0.461443 -0.118496 0.826 
-0.424479 -0.118926 0.829 
-0.385839 -0.118926 0.829 
-0.360182 -0.123374 0.86 
-0.326797 -0.125956 0.878 
-0.294664 -0.129829 0.905 
-0.256946 -0.132124 0.921 
-0.221221 -0.136572 0.952 
-0.181121 -0.139871 0.975 
-0.137902 -0.142166 0.991 
-0.0916191 -0.142023 0.99 
-0.0453831 -0.141736 0.988 
0.00515027 -0.138437 0.965 
0.0534019 -0.147474 1.028 
0.108512 -0.157947 1.101 
0.171153 -0.169136 1.179 
0.24586 -0.183913 1.282 
0.313481 -0.188647 1.315 
0.354824 -0.178605 1.245 
0.391299 -0.16928 1.18 
0.424035 -0.159525 1.112 
0.456181 -0.152926 1.066 
0.483089 -0.14604 1.018 
0.508598 -0.139584 0.973 
0.530608 -0.133702 0.932 
0.540788 -0.125956 0.878 
0.553192 -0.1195 0.833 
0.569276 -0.11491 0.801 
0.587678 -0.111323 0.776 
0.602141 -0.10745 0.749 
0.615789 -0.103863 0.724 
0.6289 -0.100564 0.701 
0.640811 -0.0974077 0.679 
0.656614 -0.0951124 0.663 
-0.684275 -0.118915 0.838 
-0.646756 -0.119199 0.84 
-0.60688 -0.119057 0.839 
-0.565067 -0.11849 0.835 
-0.526778 -0.118632 0.836 
-0.483143 -0.117496 0.828 
-0.444013 -0.117355 0.827 
-0.405466 -0.117355 0.827 
-0.372244 -0.119057 0.839 
-0.343858 -0.122889 0.866 
-0.311204 -0.126011 0.888 
-0.278018 -0.129842 0.915 
-0.241543 -0.133248 0.939 
-0.203042 -0.136795 0.964 
-0.162702 -0.140769 0.992 
-0.11529 -0.13935 0.982 
-0.0702975 -0.140911 0.993 
-0.0237717 -0.139492 0.983 
0.0253561 -0.140911 0.993 
0.0757524 -0.148999 1.05 
0.135619 -0.162054 1.142 
0.203235 -0.1744 1.229 
0.281928 -0.188732 1.33 
0.331508 -0.181921 1.282 
0.373866 -0.173832 1.225 
0.407071 -0.163473 1.152 
0.439669 -0.155385 1.095 
0.468749 -0.148431 1.046 
0.495735 -0.142188 1.002 
0.516453 -0.135376 0.954 
0.530933 -0.128139 0.903 
0.542562 -0.121328 0.855 
0.559254 -0.116503 0.821 
0.575687 -0.112246 0.791 
0.590098 -0.108131 0.762 
0.610837 -0.105577 0.744 
0.621221 -0.101603 0.716 
0.633567 -0.0983394 0.693 
0.64569 -0.0953594 0.672 
-0.698376 -0.116491 0.83 
-0.670022 -0.118315 0.843 
-0.627737 -0.117754 0.839 
-0.585824 -0.117192 0.835 
-0.54494 -0.116771 0.832 
-0.509202 -0.117473 0.837 
-0.465133 -0.11621 0.828 
-0.42757 -0.116491 0.83 
-0.389352 -0.116631 0.831 
-0.360182 -0.120701 0.86 
-0.326797 -0.123227 0.878 
-0.294339 -0.126877 0.904 
-0.256946 -0.129263 0.921 
-0.221686 -0.133894 0.954 
-0.180564 -0.13642 0.972 
-0.138459 -0.139648 0.995 
-0.0917117 -0.139087 0.991 
-0.0455209 -0.139087 0.991 
0.00215836 -0.135859 0.968 
0.0498656 -0.143298 1.021 
0.104518 -0.153683 1.095 
0.165927 -0.163929 1.168 
0.238669 -0.177543 1.265 
0.309395 -0.184561 1.315 
0.351519 -0.175017 1.247 
0.387632 -0.165613 1.18 
0.419606 -0.15635 1.114 
0.451636 -0.149754 1.067 
0.478814 -0.143017 1.019 
0.505134 -0.137263 0.978 
0.528194 -0.131648 0.938 
0.537771 -0.123789 0.882 
0.550659 -0.117754 0.839 
0.568677 -0.113543 0.809 
0.584357 -0.109192 0.778 
0.599082 -0.105403 0.751 
0.612978 -0.101894 0.726 
0.625435 -0.0985259 0.702 
0.638467 -0.0955785 0.681 
0.653478 -0.0931925 0.664 
-0.681181 -0.11645 0.839 
-0.643606 -0.116728 0.841 
-0.603688 -0.116589 0.84 
-0.563191 -0.116312 0.838 
-0.524132 -0.116312 0.838 
-0.480442 -0.115201 0.83 
-0.441223 -0.115062 0.829 
-0.403069 -0.115201 0.83 
-0.367906 -0.117144 0.844 
-0.33791 -0.120475 0.868 
-0.304648 -0.12339 0.889 
-0.271798 -0.127415 0.918 
-0.234248 -0.13033 0.939 
-0.195147 -0.133522 0.962 
-0.155933 -0.138519 0.998 
-0.108648 -0.137547 0.991 
-0.0627096 -0.138103 0.995 
-0.0162503 -0.137409 0.99 
0.0334032 -0.139213 1.003 
0.0846284 -0.146986 1.059 
0.146649 -0.158922 1.145 
0.215914 -0.171553 1.236 
0.294769 -0.184877 1.332 
0.339172 -0.175716 1.266 
0.378366 -0.166972 1.203 
0.414576 -0.159338 1.148 
0.441627 -0.149761 1.079 
0.470492 -0.143238 1.032 
0.497488 -0.137409 0.99 
0.522217 -0.131996 0.951 
0.530799 -0.123668 0.891 
0.546635 -0.118116 0.851 
0.564254 -0.113674 0.819 
0.578154 -0.109094 0.786 
0.592107 -0.105069 0.757 
0.610815 -0.102293 0.737 
0.623282 -0.0988231 0.712 
0.635262 -0.0956308 0.689 
0.646067 -0.0925773 0.667 
-0.695344 -0.114049 0.831 
-0.662421 -0.11597 0.845 
-0.621561 -0.115696 0.843 
-0.576743 -0.114598 0.835 
-0.537823 -0.114598 0.835 
-0.498904 -0.114598 0.835 
-0.45723 -0.113912 0.83 
-0.420056 -0.114323 0.833 
-0.379857 -0.113912 0.83 
-0.354324 -0.118303 0.862 
-0.320705 -0.120774 0.88 
-0.288905 -0.124754 0.909 
-0.251419 -0.127224 0.927 
-0.215398 -0.131616 0.959 
-0.174437 -0.134498 0.98 
-0.130467 -0.136282 0.993 
-0.084098 -0.136145 0.992 
-0.0378987 -0.136282 0.993 
0.00824175 -0.133949 0.976 
0.056321 -0.140399 1.023 
0.112442 -0.151791 1.106 
0.174965 -0.161947 1.18 
0.248674 -0.175122 1.276 
0.314669 -0.178827 1.303 
0.356675 -0.169907 1.238 
0.390949 -0.1603 1.168 
0.42538 -0.152477 1.111 
0.456119 -0.145752 1.062 
0.47991 -0.138341 1.008 
0.508075 -0.1334 0.972 
0.524345 -0.126401 0.921 
0.534629 -0.119127 0.868 
0.551235 -0.114186 0.832 
0.566613 -0.109657 0.799 
0.587228 -0.106638 0.777 
0.600175 -0.102658 0.748 
0.612966 -0.0990893 0.722 
0.62602 -0.0959328 0.699 
0.640699 -0.0933251 0.68 
0.654595 -0.0908548 0.662 
-0.679383 -0.113979 0.84 
-0.643279 -0.114522 0.844 
-0.603225 -0.114386 0.843 
-0.561256 -0.113843 0.839 
-0.523395 -0.114115 0.841 
-0.479014 -0.112893 0.832 
-0.440763 -0.113029 0.833 
-0.401937 -0.113029 0.833 
-0.36747 -0.114386 0.843 
-0.338299 -0.117914 0.869 
-0.304991 -0.120763 0.89 
-0.271502 -0.124427 0.917 
-0.233001 -0.126734 0.934 
-0.195147 -0.130533 0.962 
-0.156245 -0.135689 1 
-0.108868 -0.134739 0.993 
-0.0625835 -0.134739 0.993 
-0.0162995 -0.134739 0.993 
0.0302261 -0.135825 1.001 
0.0805697 -0.142338 1.049 
0.141065 -0.155093 1.143 
0.208793 -0.166626 1.228 
0.288127 -0.180467 1.33 
0.33643 -0.173411 1.278 
0.373694 -0.162827 1.2 
0.410293 -0.1555 1.146 
0.440305 -0.147087 1.084 
0.468644 -0.140438 1.035 
0.494412 -0.134332 0.99 
0.519262 -0.12904 0.951 
0.529216 -0.12117 0.893 
0.544672 -0.115336 0.85 
0.562981 -0.111129 0.819 
0.577667 -0.106787 0.787 
0.59015 -0.102581 0.756 
0.608015 -0.0997315 0.735 
0.621302 -0.096475 0.711 
0.633271 -0.0933542 0.688 
0.646965 -0.0907761 0.669 
-0.694507 -0.111332 0.83 
-0.666621 -0.113613 0.847 
-0.626402 -0.113479 0.846 
-0.581419 -0.112406 0.838 
-0.541065 -0.112137 0.836 
-0.503901 -0.11254 0.839 
-0.460363 -0.111467 0.831 
-0.423659 -0.112003 0.835 
-0.383818 -0.111735 0.833 
-0.356174 -0.115357 0.86 
-0.323072 -0.117905 0.879 
-0.291088 -0.121661 0.907 
-0.253476 -0.123941 0.924 
-0.218378 -0.128636 0.959 
-0.176758 -0.130916 0.976 
-0.134628 -0.13427 1.001 
-0.0870047 -0.132794 0.99 
-0.0411907 -0.133867 0.998 
0.00524633 -0.131855 0.983 
0.0528305 -0.136416 1.017 
0.108709 -0.147951 1.103 
0.169847 -0.156939 1.17 
0.242791 -0.169816 1.266 
0.310144 -0.17451 1.301 
0.352544 -0.165926 1.237 
0.3898 -0.156939 1.17 
0.422891 -0.148756 1.109 
0.454041 -0.142318 1.061 
0.47692 -0.134806 1.005 
0.506565 -0.13038 0.972 
0.520075 -0.122868 0.916 
0.532781 -0.116027 0.865 
0.550573 -0.111467 0.831 
0.565904 -0.10704 0.798 
0.586472 -0.104089 0.776 
0.59857 -0.100065 0.746 
0.612117 -0.0967117 0.721 
0.625124 -0.0936266 0.698 
0.641641 -0.0913463 0.681 
0.653606 -0.0886636 0.661 
-0.67919 -0.111766 0.843 
-0.641416 -0.112032 0.845 
-0.60203 -0.112032 0.845 
-0.559315 -0.111369 0.84 
-0.522639 -0.111899 0.844 
-0.477574 -0.110573 0.834 
-0.439753 -0.110838 0.836 
-0.399828 -0.110573 0.834 
-0.366581 -0.112297 0.847 
-0.336371 -0.115479 0.871 
-0.303244 -0.118396 0.893 
-0.268359 -0.121445 0.916 
-0.229853 -0.123699 0.933 
-0.192757 -0.127941 0.965 
-0.153291 -0.132714 1.001 
-0.105675 -0.131521 0.992 
-0.0593781 -0.131389 0.991 
-0.0132538 -0.132052 0.996 
0.0334032 -0.13298 1.003 
0.0837494 -0.138946 1.048 
0.144743 -0.151674 1.144 
0.212436 -0.162678 1.227 
0.291601 -0.175936 1.327 
0.338271 -0.168379 1.27 
0.375221 -0.15817 1.193 
0.410965 -0.150878 1.138 
0.441218 -0.142923 1.078 
0.467757 -0.136029 1.026 
0.494976 -0.130593 0.985 
0.516726 -0.12476 0.941 
0.528002 -0.117202 0.884 
0.544761 -0.111899 0.844 
0.564031 -0.108054 0.815 
0.579858 -0.104077 0.785 
0.591318 -0.0998341 0.753 
0.607282 -0.0967847 0.73 
0.620223 -0.0936028 0.706 
0.633703 -0.0908186 0.685 
0.646196 -0.0881669 0.665 
-0.687015 -0.109409 0.835 
-0.659738 -0.111374 0.85 
-0.621578 -0.111636 0.852 
-0.574354 -0.110195 0.841 
-0.537064 -0.110588 0.844 
-0.494186 -0.109802 0.838 
-0.454041 -0.10954 0.836 
-0.414081 -0.109277 0.834 
-0.375208 -0.109277 0.834 
-0.34924 -0.11347 0.866 
-0.315653 -0.11596 0.885 
-0.282774 -0.119498 0.912 
-0.243954 -0.121332 0.926 
-0.208599 -0.126049 0.962 
-0.168186 -0.129456 0.988 
-0.123742 -0.131159 1.001 
-0.0757757 -0.128932 0.984 
-0.0304279 -0.131159 1.001 
0.0161317 -0.130373 0.995 
0.0647078 -0.134959 1.03 
0.125193 -0.1478 1.128 
0.188329 -0.156579 1.195 
0.264653 -0.169813 1.296 
0.323054 -0.168764 1.288 
0.361078 -0.159068 1.214 
0.398053 -0.1516 1.157 
0.431667 -0.144786 1.105 
0.461746 -0.138366 1.056 
0.482902 -0.130766 0.998 
0.509261 -0.125787 0.96 
0.522267 -0.11858 0.905 
0.536547 -0.11216 0.856 
0.554223 -0.107836 0.823 
0.571702 -0.104036 0.794 
0.588778 -0.10063 0.768 
0.602617 -0.0970919 0.741 
0.615659 -0.0938162 0.716 
0.627277 -0.0906715 0.692 
0.648094 -0.0890991 0.68 
-0.698879 -0.106557 0.823 
-0.670569 -0.109665 0.847 
-0.633325 -0.110053 0.85 
-0.588817 -0.109147 0.843 
-0.548221 -0.108888 0.841 
-0.510232 -0.109147 0.843 
-0.467029 -0.108241 0.836 
-0.429087 -0.1085 0.838 
-0.387701 -0.107852 0.833 
-0.359345 -0.111089 0.858 
-0.326425 -0.113549 0.877 
-0.294339 -0.117045 0.904 
-0.257783 -0.119634 0.924 
-0.222151 -0.123778 0.956 
-0.180564 -0.125849 0.972 
-0.140407 -0.13064 1.009 
-0.0915266 -0.12805 0.989 
-0.0459802 -0.129604 1.001 
0.000673331 -0.128957 0.996 
0.0477592 -0.130769 1.01 
0.102629 -0.141516 1.093 
0.162286 -0.149543 1.155 
0.233709 -0.161714 1.249 
0.302911 -0.167799 1.296 
0.347058 -0.160289 1.238 
0.385145 -0.152521 1.178 
0.415023 -0.143846 1.111 
0.446219 -0.137502 1.062 
0.471611 -0.130381 1.007 
0.500525 -0.125849 0.972 
0.512137 -0.118081 0.912 
0.529972 -0.112254 0.867 
0.548673 -0.107982 0.834 
0.565002 -0.103839 0.802 
0.582855 -0.100472 0.776 
0.595891 -0.0967174 0.747 
0.609601 -0.0934806 0.722 
0.622762 -0.0905027 0.699 
0.637529 -0.0880426 0.68 
0.649541 -0.0854532 0.66 
-0.679693 -0.107709 0.842 
-0.64501 -0.108477 0.848 
-0.608341 -0.108989 0.852 
-0.56329 -0.107965 0.844 
-0.526434 -0.108477 0.848 
-0.482315 -0.107453 0.84 
-0.442107 -0.107198 0.838 
-0.401124 -0.106686 0.834 
-0.367897 -0.108349 0.847 
-0.338112 -0.111547 0.872 
-0.305996 -0.114745 0.897 
-0.268605 -0.116664 0.912 
-0.230558 -0.118966 0.93 
-0.195263 -0.124083 0.97 
-0.154692 -0.127921 1 
-0.107433 -0.127153 0.994 
-0.0606719 -0.126258 0.987 
-0.0148459 -0.127793 0.999 
0.0318448 -0.128305 1.003 
0.0817293 -0.133421 1.043 
0.143731 -0.145318 1.136 
0.211397 -0.156191 1.221 
0.290282 -0.168983 1.321 
0.337738 -0.162204 1.268 
0.37368 -0.152737 1.194 
0.407039 -0.144806 1.132 
0.440305 -0.138666 1.084 
0.465254 -0.130991 1.024 
0.491943 -0.125618 0.982 
0.50739 -0.118199 0.924 
0.526033 -0.112954 0.883 
0.541496 -0.107837 0.843 
0.561498 -0.104255 0.815 
0.578154 -0.100546 0.786 
0.58976 -0.0964523 0.754 
0.604185 -0.0932543 0.729 
0.61803 -0.0903121 0.706 
0.630652 -0.0874978 0.684 
0.645099 -0.0851953 0.666 
-0.692443 -0.104379 0.826 
-0.662614 -0.107665 0.852 
-0.627289 -0.108423 0.858 
-0.577714 -0.106654 0.844 
-0.540289 -0.107033 0.847 
-0.499627 -0.10678 0.845 
-0.457518 -0.106148 0.84 
-0.415875 -0.105517 0.835 
-0.37831 -0.105896 0.838 
-0.350181 -0.109308 0.865 
-0.317028 -0.111835 0.885 
-0.283568 -0.114994 0.91 
-0.245657 -0.117142 0.927 
-0.210312 -0.121692 0.963 
-0.169377 -0.124598 0.986 
-0.126423 -0.127631 1.01 
-0.0772259 -0.124219 0.983 
-0.0321109 -0.126999 1.005 
0.0147324 -0.126999 1.005 
0.0630462 -0.130032 1.029 
0.123113 -0.142163 1.125 
0.185068 -0.149871 1.186 
0.260005 -0.162129 1.283 
0.31831 -0.161371 1.277 
0.358896 -0.153283 1.213 
0.39694 -0.14646 1.159 
0.428394 -0.13913 1.101 
0.455748 -0.13218 1.046 
0.48145 -0.125735 0.995 
0.507669 -0.120933 0.957 
0.51765 -0.113351 0.897 
0.534511 -0.108297 0.857 
0.552336 -0.104127 0.824 
0.569235 -0.100336 0.794 
0.586392 -0.09705 0.768 
0.599505 -0.0935117 0.74 
0.612577 -0.0903525 0.715 
0.625127 -0.087446 0.692 
0.644081 -0.0856769 0.678 
-0.700542 -0.101848 0.816 
-0.676272 -0.104968 0.841 
-0.642375 -0.105842 0.848 
-0.607826 -0.106716 0.855 
-0.56266 -0.105717 0.847 
-0.525034 -0.106091 0.85 
-0.48256 -0.105467 0.845 
-0.440028 -0.104718 0.839 
-0.397099 -0.10372 0.831 
-0.367853 -0.106466 0.853 
-0.336556 -0.109212 0.875 
-0.303209 -0.111958 0.897 
-0.266062 -0.113955 0.913 
-0.228893 -0.116701 0.935 
-0.192645 -0.121319 0.972 
-0.151584 -0.124813 1 
-0.104344 -0.124065 0.994 
-0.0579551 -0.12394 0.993 
-0.0117534 -0.124813 1 
0.0349266 -0.125063 1.002 
0.0848888 -0.130056 1.042 
0.146354 -0.140914 1.129 
0.215367 -0.152522 1.222 
0.292159 -0.16363 1.311 
0.338983 -0.157015 1.258 
0.375178 -0.148154 1.187 
0.407293 -0.140166 1.123 
0.440809 -0.134424 1.077 
0.465021 -0.12731 1.02 
0.490956 -0.121943 0.977 
0.502997 -0.114329 0.916 
0.524842 -0.109961 0.881 
0.540854 -0.105093 0.842 
0.560809 -0.101598 0.814 
0.577419 -0.0979786 0.785 
0.588978 -0.0939845 0.753 
0.603356 -0.0908642 0.728 
0.61803 -0.0881183 0.706 
0.630652 -0.0853724 0.684 
0.645099 -0.0831258 0.666 
-0.692486 -0.101443 0.823 
-0.671092 -0.104278 0.846 
-0.638541 -0.105634 0.857 
-0.595104 -0.105017 0.852 
-0.552784 -0.104524 0.848 
-0.513864 -0.104648 0.849 
-0.471499 -0.104031 0.844 
-0.430111 -0.103538 0.84 
-0.38677 -0.102429 0.831 
-0.359345 -0.105757 0.858 
-0.326425 -0.108099 0.877 
-0.29499 -0.111673 0.906 
-0.25862 -0.114262 0.927 
-0.222151 -0.117836 0.956 
-0.181493 -0.120425 0.977 
-0.140825 -0.124739 1.012 
-0.0918968 -0.122397 0.993 
-0.0460721 -0.12363 1.003 
0.000680091 -0.123999 1.006 
0.0476173 -0.124123 1.007 
0.106413 -0.135216 1.097 
0.166162 -0.142612 1.157 
0.23721 -0.153705 1.247 
0.303859 -0.158142 1.283 
0.348921 -0.151733 1.231 
0.386495 -0.144337 1.171 
0.416592 -0.136325 1.106 
0.443012 -0.128067 1.039 
0.472521 -0.123137 0.999 
0.499859 -0.118576 0.962 
0.509593 -0.110934 0.9 
0.528868 -0.106373 0.863 
0.54799 -0.102429 0.831 
0.565542 -0.0987311 0.801 
0.579545 -0.09491 0.77 
0.595453 -0.0918285 0.745 
0.609877 -0.0888703 0.721 
0.622956 -0.0860353 0.698 
0.635768 -0.0834469 0.677 
0.648595 -0.0811049 0.658 
-0.682901 -0.101016 0.83 
-0.662843 -0.103937 0.854 
-0.626807 -0.104789 0.861 
-0.573147 -0.102842 0.845 
-0.536288 -0.103328 0.849 
-0.498471 -0.103694 0.852 
-0.452836 -0.102355 0.841 
-0.41167 -0.101868 0.837 
-0.375328 -0.102598 0.843 
-0.346001 -0.105641 0.868 
-0.314344 -0.108684 0.893 
-0.277912 -0.110753 0.91 
-0.241967 -0.113795 0.935 
-0.204964 -0.117568 0.966 
-0.164574 -0.120976 0.994 
-0.120622 -0.12341 1.014 
-0.0716233 -0.120489 0.99 
-0.0259424 -0.12268 1.008 
0.0210408 -0.12268 1.008 
0.0699136 -0.126088 1.036 
0.133125 -0.136433 1.121 
0.199431 -0.146778 1.206 
0.273873 -0.157244 1.292 
0.32737 -0.15408 1.266 
0.366846 -0.146291 1.202 
0.400004 -0.13838 1.137 
0.433968 -0.132051 1.085 
0.460931 -0.124749 1.025 
0.487365 -0.119515 0.982 
0.500697 -0.111604 0.917 
0.522104 -0.107223 0.881 
0.539516 -0.10272 0.844 
0.55828 -0.0990688 0.814 
0.575712 -0.095661 0.786 
0.588975 -0.0920098 0.756 
0.601919 -0.0887237 0.729 
0.616708 -0.0860462 0.707 
0.629446 -0.0833687 0.685 
0.643995 -0.081178 0.667 
-0.693784 -0.098525 0.82 
-0.671553 -0.100928 0.84 
-0.64294 -0.10261 0.854 
-0.60596 -0.103091 0.858 
-0.560028 -0.10225 0.851 
-0.520975 -0.10237 0.852 
-0.480133 -0.10213 0.85 
-0.434813 -0.100808 0.839 
-0.390173 -0.0997265 0.83 
-0.362497 -0.10285 0.856 
-0.330136 -0.105254 0.876 
-0.297231 -0.108137 0.9 
-0.261806 -0.110901 0.923 
-0.225659 -0.114385 0.952 
-0.185666 -0.117149 0.975 
-0.144535 -0.120753 1.005 
-0.0970112 -0.119912 0.998 
-0.0505953 -0.120152 1 
-0.00401687 -0.121114 1.008 
0.0427106 -0.120393 1.002 
0.100657 -0.128803 1.072 
0.161161 -0.137815 1.147 
0.232025 -0.148989 1.24 
0.301866 -0.154156 1.283 
0.347854 -0.148268 1.234 
0.383033 -0.140098 1.166 
0.415999 -0.133249 1.109 
0.442915 -0.124358 1.035 
0.473598 -0.119912 0.998 
0.500311 -0.115346 0.96 
0.509543 -0.107536 0.895 
0.529701 -0.103331 0.86 
0.547922 -0.0993661 0.827 
0.565195 -0.0957615 0.797 
0.57967 -0.0921569 0.767 
0.596163 -0.0892733 0.743 
0.608721 -0.0861493 0.717 
0.622438 -0.0835059 0.695 
0.635988 -0.0811029 0.675 
0.65064 -0.0790603 0.658 
-0.682901 -0.098437 0.83 
-0.662843 -0.101283 0.854 
-0.629603 -0.102351 0.863 
-0.57918 -0.100809 0.85 
-0.539561 -0.100809 0.85 
-0.502883 -0.101402 0.855 
-0.456533 -0.0999787 0.843 
-0.41526 -0.0995044 0.839 
-0.378396 -0.100097 0.844 
-0.348297 -0.102825 0.867 
-0.316408 -0.105671 0.891 
-0.281049 -0.108043 0.911 
-0.244872 -0.11089 0.935 
-0.207319 -0.114211 0.963 
-0.167663 -0.117887 0.994 
-0.124384 -0.120852 1.019 
-0.0753787 -0.11848 0.999 
-0.0291323 -0.119785 1.01 
0.0179619 -0.119903 1.011 
0.0664368 -0.122394 1.032 
0.124583 -0.131289 1.107 
0.191721 -0.141488 1.193 
0.262668 -0.150265 1.267 
0.320454 -0.149672 1.262 
0.361244 -0.142556 1.202 
0.395052 -0.134965 1.138 
0.429194 -0.129273 1.09 
0.456062 -0.122394 1.032 
0.48218 -0.117057 0.987 
0.501962 -0.111246 0.938 
0.513104 -0.104604 0.882 
0.535364 -0.101046 0.852 
0.552127 -0.0970138 0.818 
0.569328 -0.0935744 0.789 
0.586899 -0.0906094 0.764 
0.59888 -0.0871701 0.735 
0.612465 -0.0843237 0.711 
0.626536 -0.0818331 0.69 
0.639604 -0.0794612 0.67 
-0.696295 -0.0952747 0.814 
-0.675339 -0.0977326 0.835 
-0.651663 -0.100074 0.855 
-0.617536 -0.10101 0.863 
-0.568629 -0.0997224 0.852 
-0.530159 -0.0999565 0.854 
-0.491502 -0.100191 0.856 
-0.442635 -0.0982008 0.839 
-0.400162 -0.0973815 0.832 
-0.370069 -0.0997224 0.852 
-0.339275 -0.102414 0.875 
-0.304632 -0.104521 0.893 
-0.269194 -0.106979 0.914 
-0.233037 -0.110022 0.94 
-0.195062 -0.113417 0.969 
-0.154073 -0.116577 0.996 
-0.109378 -0.11845 1.012 
-0.0597975 -0.116811 0.998 
-0.0134268 -0.118098 1.009 
0.0333365 -0.117162 1.001 
0.0834297 -0.122195 1.044 
0.140568 -0.130037 1.111 
0.21242 -0.142327 1.216 
0.287024 -0.151807 1.297 
0.336225 -0.146892 1.255 
0.370503 -0.137879 1.178 
0.404826 -0.131208 1.121 
0.433835 -0.124536 1.064 
0.462074 -0.119035 1.017 
0.487434 -0.113885 0.973 
0.498289 -0.106511 0.91 
0.519908 -0.102414 0.875 
0.539546 -0.098552 0.842 
0.557482 -0.0949236 0.811 
0.573263 -0.0914122 0.781 
0.586247 -0.0879009 0.751 
0.602225 -0.0852088 0.728 
0.616933 -0.0826338 0.706 
0.63051 -0.0801759 0.685 
0.643097 -0.077835 0.665 
-0.692922 -0.0949339 0.822 
-0.670535 -0.0972438 0.842 
-0.644785 -0.0993226 0.86 
-0.6047 -0.0993226 0.86 
-0.559363 -0.0983987 0.852 
-0.520871 -0.0986297 0.854 
-0.481629 -0.0987451 0.855 
-0.435577 -0.0973592 0.843 
-0.392053 -0.0963198 0.834 
-0.362497 -0.0988606 0.856 
-0.330136 -0.10117 0.876 
-0.297562 -0.104058 0.901 
-0.26209 -0.106714 0.924 
-0.225422 -0.109832 0.951 
-0.185666 -0.112604 0.975 
-0.144679 -0.116184 1.006 
-0.0984692 -0.116993 1.013 
-0.0490907 -0.115607 1.001 
0.00226762 -0.117455 1.017 
0.0492307 -0.116415 1.008 
0.106048 -0.124269 1.076 
0.171077 -0.134663 1.166 
0.243802 -0.14448 1.251 
0.307424 -0.147021 1.273 
0.35149 -0.140899 1.22 
0.385928 -0.133162 1.153 
0.419841 -0.127156 1.101 
0.442059 -0.119303 1.033 
0.475022 -0.115607 1.001 
0.49979 -0.110756 0.959 
0.50872 -0.10348 0.896 
0.52898 -0.0994381 0.861 
0.544655 -0.0951649 0.824 
0.563956 -0.0920466 0.797 
0.577724 -0.0884664 0.766 
0.595009 -0.0858101 0.743 
0.607607 -0.0828073 0.717 
0.621358 -0.0802665 0.695 
0.634939 -0.0779567 0.675 
0.650605 -0.0761088 0.659 
-0.67856 -0.0946822 0.831 
-0.659075 -0.0975307 0.856 
-0.625687 -0.0985561 0.865 
-0.577925 -0.0973028 0.854 
-0.536859 -0.0970749 0.852 
-0.500648 -0.0977586 0.858 
-0.45314 -0.0961634 0.844 
-0.40858 -0.0952519 0.836 
-0.374477 -0.0965052 0.847 
-0.343699 -0.0990119 0.869 
-0.311569 -0.101746 0.893 
-0.275992 -0.104025 0.913 
-0.239828 -0.106874 0.938 
-0.201962 -0.110064 0.966 
-0.16181 -0.113482 0.996 
-0.118167 -0.116216 1.02 
-0.0696548 -0.114621 1.006 
-0.0213073 -0.115191 1.011 
0.0257136 -0.114735 1.007 
0.0765731 -0.118381 1.039 
0.13246 -0.125445 1.101 
0.202842 -0.137181 1.204 
0.275307 -0.14584 1.28 
0.327902 -0.142764 1.253 
0.364724 -0.134788 1.183 
0.399957 -0.127838 1.122 
0.432906 -0.122369 1.074 
0.458233 -0.116103 1.019 
0.48538 -0.111431 0.978 
0.495676 -0.104025 0.913 
0.51583 -0.0996955 0.875 
0.536257 -0.0960495 0.843 
0.553702 -0.0924035 0.811 
0.569623 -0.0889854 0.781 
0.586626 -0.0861369 0.756 
0.600477 -0.0831745 0.73 
0.614511 -0.080554 0.707 
0.629149 -0.0782752 0.687 
0.64096 -0.0758825 0.666 
-0.693354 -0.0922673 0.821 
-0.66945 -0.0942902 0.839 
-0.646121 -0.0966503 0.86 
-0.60815 -0.0969874 0.863 
-0.561345 -0.0958636 0.853 
-0.522809 -0.0960883 0.855 
-0.485781 -0.0966503 0.86 
-0.437923 -0.0949645 0.845 
-0.394874 -0.0944026 0.84 
-0.361167 -0.0962007 0.856 
-0.328399 -0.098336 0.875 
-0.296819 -0.101483 0.903 
-0.260936 -0.103955 0.925 
-0.223473 -0.106652 0.949 
-0.184528 -0.109799 0.977 
-0.1434 -0.113283 1.008 
-0.0976606 -0.114744 1.021 
-0.0491887 -0.112721 1.003 
-0.00247751 -0.114519 1.019 
0.0444882 -0.113171 1.007 
0.0964182 -0.119352 1.062 
0.15924 -0.128792 1.146 
0.229542 -0.139019 1.237 
0.298576 -0.144526 1.286 
0.34402 -0.138682 1.234 
0.377132 -0.130253 1.159 
0.412553 -0.124634 1.109 
0.436197 -0.117104 1.042 
0.470343 -0.11362 1.011 
0.492898 -0.108226 0.963 
0.504 -0.101146 0.9 
0.525324 -0.0973246 0.866 
0.542173 -0.0932788 0.83 
0.560564 -0.0900196 0.801 
0.574759 -0.0865357 0.77 
0.59003 -0.0836137 0.744 
0.605396 -0.0810289 0.721 
0.619504 -0.0785564 0.699 
0.633427 -0.0763088 0.679 
0.648424 -0.0743982 0.662 
-0.684191 -0.0919892 0.83 
-0.662614 -0.0944275 0.852 
-0.633137 -0.0959791 0.866 
-0.587297 -0.0950925 0.858 
-0.544116 -0.0945383 0.853 
-0.507905 -0.0952033 0.859 
-0.464054 -0.0944275 0.852 
-0.420856 -0.0936517 0.845 
-0.377109 -0.0938733 0.847 
-0.345603 -0.0960899 0.867 
-0.31364 -0.0987499 0.891 
-0.278829 -0.101188 0.913 
-0.240771 -0.103737 0.936 
-0.203252 -0.106951 0.965 
-0.163194 -0.110276 0.995 
-0.119986 -0.113269 1.022 
-0.0717842 -0.112382 1.014 
-0.0245455 -0.112493 1.015 
0.0227191 -0.112271 1.013 
0.0710399 -0.114044 1.029 
0.126056 -0.120805 1.09 
0.191789 -0.131001 1.182 
0.266605 -0.140422 1.267 
0.321291 -0.138538 1.25 
0.360728 -0.131666 1.188 
0.394035 -0.124684 1.125 
0.428613 -0.119697 1.08 
0.454117 -0.11349 1.024 
0.481753 -0.108946 0.983 
0.493759 -0.101964 0.92 
0.512142 -0.0973091 0.878 
0.533538 -0.0938733 0.847 
0.549339 -0.0899943 0.812 
0.564769 -0.0865585 0.781 
0.584237 -0.0841203 0.759 
0.597573 -0.0811278 0.732 
0.61098 -0.0784679 0.708 
0.626698 -0.0763621 0.689 
0.637777 -0.0739239 0.667 
-0.694585 -0.0887327 0.812 
-0.667251 -0.0910275 0.833 
-0.648039 -0.0938687 0.859 
-0.614371 -0.0948522 0.868 
-0.565318 -0.0934316 0.855 
-0.525466 -0.0934316 0.855 
-0.48959 -0.0941965 0.862 
-0.442113 -0.0926666 0.848 
-0.398254 -0.0928852 0.85 
-0.359764 -0.0938687 0.859 
-0.325308 -0.0955078 0.874 
-0.295316 -0.099114 0.907 
-0.258899 -0.101409 0.928 
-0.220292 -0.103594 0.948 
-0.181864 -0.106982 0.979 
-0.140686 -0.110479 1.011 
-0.0949507 -0.112118 1.026 
-0.0464855 -0.110588 1.012 
0.000690232 -0.111571 1.021 
0.047901 -0.110697 1.013 
0.0998121 -0.116161 1.063 
0.164648 -0.126652 1.159 
0.233763 -0.135394 1.239 
0.30163 -0.140093 1.282 
0.344753 -0.133645 1.223 
0.379091 -0.126105 1.154 
0.412623 -0.120204 1.1 
0.440278 -0.114085 1.044 
0.471611 -0.110042 1.007 
