# .PCD v.7 - Point Cloud Data file format
VERSION .7
FIELDS x y z
SIZE 4 4 4
TYPE F F F
COUNT 1 1 1
WIDTH 1809
HEIGHT 1
VIEWPOINT 0 0 0 1 0 0 0
POINTS 1809
DATA ascii
0.151307 -0.0367547 1.291 
0.232613 -0.0404273 1.42 
0.321315 -0.0434736 1.527 
0.41665 -0.0461498 1.621 
0.916877 -0.0850967 2.989 
1.05938 -0.0853529 2.998 
1.20111 -0.0854953 3.003 
1.37234 -0.0874882 3.073 
1.48796 -0.0858939 3.017 
1.675 -0.0883423 3.103 
1.8167 -0.0881999 3.098 
1.93072 -0.0868334 3.05 
2.16395 -0.0906483 3.184 
2.24627 -0.0880576 3.093 
2.04661 -0.0747906 2.627 
2.08236 -0.0718012 2.522 
2.25574 -0.0736233 2.586 
2.31746 -0.0718012 2.522 
2.36839 -0.0698368 2.453 
-0.465852 -0.0161229 0.599 
-0.450361 -0.0165804 0.616 
-0.42945 -0.0171995 0.639 
-0.411176 -0.0178724 0.664 
-0.390534 -0.0183569 0.682 
-0.371896 -0.0190298 0.707 
-0.346657 -0.0197835 0.735 
-0.322599 -0.0204295 0.759 
-0.299331 -0.0212908 0.791 
-0.272417 -0.0220983 0.821 
-0.243846 -0.0230134 0.855 
-0.206092 -0.0237132 0.881 
-0.168587 -0.0242247 0.9 
-0.133251 -0.0254897 0.947 
-0.0930632 -0.0266202 0.989 
-0.0492925 -0.0279391 1.038 
-0.00096365 -0.0295541 1.098 
0.0529584 -0.0311691 1.158 
0.113582 -0.033107 1.23 
0.18856 -0.0365254 1.357 
0.271665 -0.0394054 1.464 
0.362423 -0.0420163 1.561 
0.457485 -0.0441696 1.641 
0.981892 -0.0804528 2.989 
1.13171 -0.0812064 3.017 
1.27613 -0.0814487 3.026 
1.40828 -0.0809373 3.007 
1.568 -0.0819601 3.045 
1.75935 -0.0843287 3.133 
1.92362 -0.0851362 3.163 
1.99706 -0.0820947 3.05 
2.26267 -0.0868319 3.226 
2.36591 -0.0851362 3.163 
2.05809 -0.0690403 2.565 
2.15557 -0.0683404 2.539 
2.25869 -0.0678829 2.522 
2.35834 -0.0673714 2.503 
-0.474547 -0.0149386 0.589 
-0.454504 -0.0154712 0.61 
-0.437946 -0.0159024 0.627 
-0.417554 -0.0165618 0.653 
-0.400159 -0.0171198 0.675 
-0.380168 -0.0176524 0.696 
-0.359218 -0.0182357 0.719 
-0.333477 -0.0189966 0.749 
-0.309328 -0.0196814 0.776 
-0.283088 -0.0206705 0.815 
-0.254123 -0.0214314 0.845 
-0.222361 -0.0221923 0.875 
-0.185727 -0.0226995 0.895 
-0.148517 -0.0234097 0.923 
-0.110524 -0.0245256 0.967 
-0.0694456 -0.026022 1.026 
-0.0226561 -0.0272648 1.075 
0.0292119 -0.0290148 1.144 
0.0866463 -0.0304605 1.201 
0.152363 -0.0325402 1.283 
0.234985 -0.0360403 1.421 
0.322628 -0.0386019 1.522 
0.418134 -0.0410113 1.617 
0.92707 -0.0762653 3.007 
1.08188 -0.0769755 3.035 
1.2177 -0.0766204 3.021 
1.37335 -0.0774574 3.054 
1.49932 -0.0766204 3.021 
1.67922 -0.0784465 3.093 
1.84991 -0.0795878 3.138 
1.94274 -0.0774574 3.054 
2.17726 -0.0808813 3.189 
2.26317 -0.0787002 3.103 
2.0424 -0.0660949 2.606 
2.09661 -0.0640406 2.525 
2.24938 -0.0650551 2.565 
2.32645 -0.0638884 2.519 
2.34102 -0.0612 2.413 
-0.463991 -0.0142615 0.599 
-0.449175 -0.0146901 0.617 
-0.427465 -0.0152139 0.639 
-0.411995 -0.0157615 0.662 
-0.391502 -0.0161901 0.68 
-0.373035 -0.0167853 0.705 
-0.349791 -0.0174281 0.732 
-0.325591 -0.0179757 0.755 
-0.30117 -0.0186424 0.783 
-0.273359 -0.0195233 0.82 
-0.244888 -0.0203328 0.854 
-0.211086 -0.020928 0.879 
-0.1736 -0.0213566 0.897 
-0.136932 -0.0221899 0.932 
-0.0985073 -0.0233804 0.982 
-0.0552063 -0.0244756 1.028 
-0.00771647 -0.0259041 1.088 
0.0454852 -0.0274041 1.151 
0.104215 -0.0288088 1.21 
0.177604 -0.0318563 1.338 
0.260235 -0.0345468 1.451 
0.345943 -0.0364515 1.531 
0.443743 -0.0387609 1.628 
0.959955 -0.0712601 2.993 
1.13089 -0.0723791 3.04 
1.2705 -0.0722601 3.035 
1.40358 -0.0718315 3.017 
1.5611 -0.0726172 3.05 
1.7552 -0.0748315 3.143 
1.9265 -0.0758076 3.184 
1.99671 -0.0729506 3.064 
2.2708 -0.0774266 3.252 
2.37172 -0.0758076 3.184 
2.05012 -0.0610699 2.565 
2.1443 -0.0603556 2.535 
2.24817 -0.0599747 2.519 
2.35056 -0.0595937 2.503 
-0.476583 -0.0130638 0.587 
-0.459418 -0.0134422 0.604 
-0.444117 -0.0138428 0.622 
-0.422805 -0.0143324 0.644 
-0.406206 -0.014822 0.666 
-0.385303 -0.0152226 0.684 
-0.366339 -0.015779 0.709 
-0.345045 -0.0163354 0.734 
-0.320573 -0.0168472 0.757 
-0.297348 -0.0175594 0.789 
-0.268617 -0.0183606 0.825 
-0.240207 -0.0191618 0.861 
-0.206349 -0.0197627 0.888 
-0.16756 -0.0200742 0.902 
-0.130666 -0.0208977 0.939 
-0.0916191 -0.0220327 0.99 
-0.047542 -0.0230342 1.035 
0.000740935 -0.0243918 1.096 
0.0545211 -0.0256603 1.153 
0.117022 -0.0272849 1.226 
0.195315 -0.0302671 1.36 
0.278679 -0.0326039 1.465 
0.373015 -0.035052 1.575 
0.859842 -0.0671441 3.017 
0.997149 -0.0669215 3.007 
1.17935 -0.0674557 3.031 
1.3411 -0.0685017 3.078 
1.45949 -0.0673444 3.026 
1.63332 -0.0687242 3.088 
1.82618 -0.0706159 3.173 
1.94607 -0.0696144 3.128 
2.10859 -0.0701708 3.153 
2.28131 -0.070972 3.189 
2.48633 -0.0726189 3.263 
2.06701 -0.0563503 2.532 
2.21696 -0.0571737 2.569 
2.29395 -0.0561277 2.522 
2.36274 -0.0549927 2.471 
-0.469852 -0.0122139 0.59 
-0.455098 -0.0125659 0.607 
-0.439462 -0.0129385 0.625 
-0.422805 -0.0133318 0.644 
-0.406206 -0.0137872 0.666 
-0.38474 -0.0141392 0.683 
-0.365822 -0.0146567 0.708 
-0.345045 -0.015195 0.734 
-0.320149 -0.0156504 0.756 
-0.296971 -0.0163128 0.788 
-0.271141 -0.016996 0.821 
-0.242518 -0.0176998 0.855 
-0.20954 -0.0183002 0.884 
-0.171384 -0.0186314 0.9 
-0.133893 -0.0192732 0.931 
-0.0959419 -0.0204325 0.987 
-0.052012 -0.0212812 1.028 
-0.00433169 -0.0225026 1.087 
0.0490191 -0.0238068 1.15 
0.107529 -0.0249454 1.205 
0.188143 -0.0280299 1.354 
0.272068 -0.0301001 1.454 
0.36368 -0.0322117 1.556 
0.457511 -0.033785 1.632 
0.987805 -0.0622496 3.007 
1.17147 -0.0628293 3.035 
1.33154 -0.0637194 3.078 
1.45679 -0.0629328 3.04 
1.63424 -0.0643405 3.108 
1.82548 -0.0660173 3.189 
1.94564 -0.065065 3.143 
2.10878 -0.0655826 3.168 
2.29775 -0.0667833 3.226 
2.49289 -0.0680047 3.285 
2.06484 -0.0525613 2.539 
2.20554 -0.0530995 2.565 
2.2834 -0.0521473 2.519 
2.37031 -0.0514848 2.487 
-0.472827 -0.011259 0.588 
-0.457173 -0.0116036 0.606 
-0.441667 -0.0119483 0.624 
-0.423823 -0.0122738 0.641 
-0.408081 -0.0127142 0.664 
-0.387355 -0.0130589 0.682 
-0.367558 -0.0134993 0.705 
-0.346567 -0.013978 0.73 
-0.323245 -0.0144567 0.755 
-0.2979 -0.015012 0.784 
-0.272692 -0.015663 0.818 
-0.244315 -0.016314 0.852 
-0.211807 -0.0168884 0.882 
-0.173793 -0.0171948 0.898 
-0.136198 -0.0177501 0.927 
-0.0987079 -0.0188415 0.984 
-0.0549915 -0.0196074 1.024 
-0.00768101 -0.0207372 1.083 
0.0454061 -0.0220009 1.149 
0.105306 -0.0229966 1.201 
0.178474 -0.0254476 1.329 
0.26663 -0.0277453 1.449 
0.35331 -0.0293346 1.532 
0.450777 -0.0311345 1.626 
0.980088 -0.0576735 3.012 
1.18674 -0.0584011 3.05 
1.34764 -0.0592244 3.093 
1.47299 -0.0584777 3.054 
1.6439 -0.0595117 3.108 
1.83826 -0.0611584 3.194 
1.9523 -0.0600861 3.138 
2.13267 -0.0610626 3.189 
2.30777 -0.0617711 3.226 
2.50767 -0.0630157 3.291 
2.07273 -0.0486165 2.539 
2.20488 -0.0489229 2.555 
2.29122 -0.0482336 2.519 
2.35413 -0.0471421 2.462 
-0.473847 -0.0103278 0.587 
-0.456231 -0.0106621 0.606 
-0.440698 -0.0109788 0.624 
-0.423487 -0.0112955 0.642 
-0.407049 -0.0116826 0.664 
-0.386296 -0.0119993 0.682 
-0.365943 -0.0123863 0.704 
-0.345906 -0.0128614 0.731 
-0.321219 -0.0132484 0.753 
-0.2979 -0.0137939 0.784 
-0.272692 -0.0143921 0.818 
-0.244315 -0.0149903 0.852 
-0.212287 -0.0155533 0.884 
-0.173987 -0.0158172 0.899 
-0.136345 -0.0163274 0.928 
-0.0988082 -0.0173303 0.985 
-0.0549378 -0.0179989 1.023 
-0.00767392 -0.0190369 1.082 
0.0453666 -0.0201982 1.148 
0.103096 -0.0210603 1.197 
0.176729 -0.023154 1.316 
0.269067 -0.0255116 1.45 
0.357083 -0.0270599 1.538 
0.453303 -0.0286082 1.626 
0.986403 -0.0530818 3.017 
1.19975 -0.0538207 3.059 
1.35944 -0.0545069 3.098 
1.49656 -0.054243 3.083 
1.65622 -0.0547708 3.113 
1.85108 -0.0562839 3.199 
1.9683 -0.0553866 3.148 
2.15265 -0.0563719 3.204 
2.32139 -0.0568469 3.231 
2.52631 -0.0580961 3.302 
2.08949 -0.0447773 2.545 
2.20811 -0.0447773 2.545 
2.30297 -0.0443198 2.519 
2.32141 -0.0425076 2.416 
-0.471914 -0.00943184 0.588 
-0.453212 -0.00973661 0.607 
-0.43822 -0.0100414 0.626 
-0.421457 -0.0103462 0.645 
-0.404136 -0.010683 0.666 
-0.383178 -0.0109717 0.684 
-0.363622 -0.0113567 0.708 
-0.343231 -0.0117898 0.735 
-0.316959 -0.0120946 0.754 
-0.294897 -0.012656 0.789 
-0.268917 -0.0131853 0.822 
-0.240142 -0.0137307 0.856 
-0.208197 -0.0142761 0.89 
-0.169524 -0.0145167 0.905 
-0.131422 -0.0149819 0.934 
-0.0934395 -0.0159283 0.993 
-0.0444543 -0.0166501 1.038 
0.00413903 -0.0175484 1.094 
0.0581039 -0.0184947 1.153 
0.118345 -0.0195695 1.22 
0.233353 -0.0224247 1.398 
0.321576 -0.0241571 1.506 
0.422249 -0.025729 1.604 
0.94669 -0.0487633 3.04 
1.16605 -0.049453 3.083 
1.314 -0.0496134 3.093 
1.46524 -0.049854 3.108 
1.64377 -0.0508966 3.173 
1.80635 -0.0513137 3.199 
1.94262 -0.0509769 3.178 
2.14667 -0.0523403 3.263 
2.30651 -0.0525167 3.274 
2.48464 -0.0530621 3.308 
2.04753 -0.0407751 2.542 
2.16601 -0.0407751 2.542 
2.26652 -0.0404542 2.522 
2.36895 -0.0401976 2.506 
2.33367 -0.0376792 2.349 
-0.459594 -0.00873558 0.603 
-0.444368 -0.00899635 0.621 
-0.426127 -0.00922813 0.637 
-0.41075 -0.00956133 0.66 
-0.39035 -0.0098221 0.678 
-0.370919 -0.0101553 0.701 
-0.349343 -0.0104885 0.724 
-0.327366 -0.0108796 0.751 
-0.300537 -0.0111839 0.772 
-0.277576 -0.0117344 0.81 
-0.249 -0.0121835 0.841 
-0.21953 -0.0127484 0.88 
-0.182367 -0.0130237 0.899 
-0.144839 -0.0134293 0.927 
-0.107004 -0.0141392 0.976 
-0.0640331 -0.0147187 1.016 
-0.017744 -0.0156603 1.081 
0.0344837 -0.016544 1.142 
0.0911689 -0.0171959 1.187 
0.157109 -0.0184418 1.273 
0.288569 -0.0212812 1.469 
0.386473 -0.0228893 1.58 
0.906993 -0.0448803 3.098 
1.13751 -0.0452425 3.123 
1.27075 -0.0448079 3.093 
1.43779 -0.0455322 3.143 
1.58932 -0.0456771 3.153 
1.73078 -0.0455322 3.143 
1.91371 -0.0464159 3.204 
2.12615 -0.0478356 3.302 
2.26072 -0.04743 3.274 
2.38532 -0.0468795 3.236 
2.04516 -0.0375065 2.589 
2.11815 -0.0366807 2.532 
2.245 -0.0368256 2.542 
2.33931 -0.036449 2.516 
2.32477 -0.0344932 2.381 
-0.469056 -0.00761765 0.589 
-0.449974 -0.00787631 0.609 
-0.436126 -0.00814791 0.63 
-0.417092 -0.00835484 0.646 
-0.40076 -0.0086523 0.669 
-0.380074 -0.00889803 0.688 
-0.360651 -0.00922137 0.713 
-0.340276 -0.00958349 0.741 
-0.314815 -0.00986802 0.763 
-0.290597 -0.010269 0.794 
-0.264448 -0.0107087 0.828 
-0.234856 -0.0111355 0.861 
-0.201962 -0.0115493 0.893 
-0.164827 -0.0118727 0.918 
-0.125496 -0.0122089 0.944 
-0.0859845 -0.0128815 0.996 
-0.0412686 -0.0134376 1.039 
0.00756603 -0.0142006 1.098 
0.0656657 -0.0150025 1.16 
0.129023 -0.0161665 1.25 
0.232156 -0.0178219 1.378 
0.326689 -0.0195033 1.508 
0.420669 -0.0206672 1.598 
0.952607 -0.0395626 3.059 
1.18425 -0.0400024 3.093 
1.3413 -0.0403904 3.123 
1.50591 -0.0409077 3.163 
1.66954 -0.0413086 3.194 
1.84574 -0.0419294 3.242 
1.95743 -0.0411017 3.178 
2.19898 -0.0429253 3.319 
2.34942 -0.0428477 3.313 
2.53407 -0.043365 3.353 
2.06576 -0.032915 2.545 
2.16722 -0.0326563 2.525 
2.27948 -0.0325787 2.519 
2.37882 -0.032333 2.5 
-0.47687 -0.00664564 0.584 
-0.458889 -0.00678219 0.596 
-0.441474 -0.00706668 0.621 
-0.423822 -0.00726013 0.638 
-0.408291 -0.00752186 0.661 
-0.387761 -0.00772669 0.679 
-0.364904 -0.00798842 0.702 
-0.344486 -0.00828429 0.728 
-0.319939 -0.00853464 0.75 
-0.2979 -0.00892154 0.784 
-0.271692 -0.0092743 0.815 
-0.243454 -0.00966121 0.849 
-0.211807 -0.0100367 0.882 
-0.175148 -0.0102985 0.905 
-0.136786 -0.0105943 0.931 
-0.0993098 -0.0112657 0.99 
-0.0549915 -0.0116526 1.024 
-0.00767392 -0.0123126 1.082 
0.045169 -0.0130068 1.143 
0.102493 -0.0135416 1.19 
0.169507 -0.0145316 1.277 
0.278108 -0.0166369 1.462 
0.369226 -0.0177407 1.559 
0.462016 -0.0185486 1.63 
1.02548 -0.0350261 3.078 
1.25557 -0.0353106 3.103 
1.43179 -0.0361072 3.173 
1.58218 -0.0361641 3.178 
1.72758 -0.0361072 3.173 
1.90326 -0.036642 3.22 
2.10563 -0.0375752 3.302 
2.25201 -0.03745 3.291 
2.40541 -0.03745 3.291 
2.04666 -0.0295412 2.596 
2.11422 -0.0288129 2.532 
2.23841 -0.0288926 2.539 
2.32891 -0.0285512 2.509 
2.324 -0.0271288 2.384 
-0.469056 -0.00578742 0.589 
-0.453599 -0.00594463 0.605 
-0.437248 -0.00615097 0.626 
-0.420455 -0.00633767 0.645 
-0.402496 -0.00653418 0.665 
-0.382674 -0.0067307 0.685 
-0.361849 -0.00698617 0.711 
-0.34073 -0.00724164 0.737 
-0.314276 -0.00742833 0.756 
-0.28813 -0.00780171 0.794 
-0.261559 -0.00812597 0.827 
-0.23218 -0.00846005 0.861 
-0.196852 -0.00879412 0.895 
-0.160162 -0.00907907 0.924 
-0.120769 -0.00936402 0.953 
-0.0798748 -0.00979636 0.997 
-0.0335487 -0.0103171 1.05 
0.0161837 -0.0108477 1.104 
0.0714401 -0.0114569 1.166 
0.136576 -0.0124395 1.266 
0.204236 -0.0129898 1.322 
0.303248 -0.0145914 1.485 
0.396794 -0.0155445 1.582 
0.932562 -0.0304896 3.103 
1.18446 -0.0312855 3.184 
1.31361 -0.0308335 3.138 
1.48826 -0.0314329 3.199 
1.63992 -0.031482 3.204 
1.80434 -0.0317473 3.231 
1.94526 -0.0315901 3.215 
2.17722 -0.0328281 3.341 
2.31758 -0.032612 3.319 
2.44323 -0.0322287 3.28 
2.04532 -0.0251443 2.559 
2.1333 -0.0247808 2.522 
2.25353 -0.0248102 2.525 
2.34117 -0.0244958 2.493 
2.36373 -0.0235624 2.398 
-0.463167 -0.00489712 0.592 
-0.448082 -0.00503775 0.609 
-0.430335 -0.00523628 0.633 
-0.412862 -0.00539345 0.652 
-0.394204 -0.00555889 0.672 
-0.374762 -0.00574088 0.694 
-0.352025 -0.00593941 0.718 
-0.330538 -0.00616276 0.745 
-0.30574 -0.00636956 0.77 
-0.276548 -0.00667563 0.807 
-0.248112 -0.00693207 0.838 
-0.216303 -0.00726296 0.878 
-0.181172 -0.00750285 0.907 
-0.142725 -0.00770965 0.932 
-0.10461 -0.00812326 0.982 
-0.0609359 -0.00841279 1.017 
-0.0127407 -0.00896702 1.084 
0.0396323 -0.00940545 1.137 
0.0963757 -0.00978597 1.183 
0.16253 -0.0104974 1.269 
0.239322 -0.0113329 1.37 
0.342102 -0.0125241 1.514 
0.435293 -0.0132106 1.597 
0.987217 -0.0254617 3.078 
1.21414 -0.0257099 3.108 
1.38086 -0.0261235 3.158 
1.55806 -0.0266364 3.22 
1.71133 -0.026686 3.226 
1.89286 -0.0271327 3.28 
2.01206 -0.026686 3.226 
2.23616 -0.0275959 3.336 
2.41172 -0.0278275 3.364 
2.58226 -0.0279764 3.382 
2.08881 -0.0210857 2.549 
2.15393 -0.0205729 2.487 
2.29631 -0.0208128 2.516 
2.34643 -0.0202337 2.446 
-0.47324 -0.00392359 0.584 
-0.456712 -0.00401765 0.598 
-0.440763 -0.00416546 0.62 
-0.423822 -0.00428639 0.638 
-0.407264 -0.00444092 0.661 
-0.386706 -0.00456185 0.679 
-0.364952 -0.00470294 0.7 
-0.344668 -0.00487762 0.726 
-0.320248 -0.00502543 0.748 
-0.294149 -0.00528745 0.787 
-0.267281 -0.005489 0.817 
-0.23902 -0.00572415 0.852 
-0.202894 -0.00598617 0.891 
-0.166616 -0.00618101 0.92 
-0.126693 -0.00632881 0.942 
-0.0872683 -0.00667146 0.993 
-0.0424702 -0.00691332 1.029 
0.00584942 -0.00736346 1.096 
0.0600511 -0.00776657 1.156 
0.119255 -0.00812937 1.21 
0.187267 -0.00866685 1.29 
0.285507 -0.00984258 1.465 
0.377941 -0.0105144 1.565 
0.90946 -0.0209818 3.123 
1.06347 -0.0211498 3.148 
1.26367 -0.0209818 3.123 
1.453 -0.0216335 3.22 
1.58516 -0.0213917 3.184 
1.76188 -0.021741 3.236 
1.92572 -0.0218888 3.258 
2.12349 -0.0223726 3.33 
2.26364 -0.0222247 3.308 
2.45072 -0.0225271 3.353 
2.63422 -0.0227622 3.388 
2.10337 -0.0169239 2.519 
2.22607 -0.0169642 2.525 
2.32055 -0.0167962 2.5 
2.33277 -0.0160773 2.393 
-0.464352 -0.00304724 0.59 
-0.448699 -0.00312987 0.606 
-0.432601 -0.00326416 0.632 
-0.413987 -0.00335196 0.649 
-0.395563 -0.00345526 0.669 
-0.375818 -0.00356372 0.69 
-0.353887 -0.00369284 0.715 
-0.331769 -0.00382196 0.74 
-0.308124 -0.00396141 0.767 
-0.278573 -0.00414218 0.802 
-0.250213 -0.00429712 0.832 
-0.218532 -0.00452437 0.876 
-0.184599 -0.00469998 0.91 
-0.145777 -0.00481877 0.933 
-0.107004 -0.00504085 0.976 
-0.063781 -0.00522679 1.012 
-0.0177604 -0.00558832 1.082 
0.0341516 -0.0058414 1.131 
0.0904777 -0.00608414 1.178 
0.158212 -0.00653865 1.266 
0.229918 -0.00692084 1.34 
0.339301 -0.00780919 1.512 
0.431728 -0.00822754 1.593 
0.996798 -0.0161297 3.123 
1.2102 -0.0162588 3.148 
1.36986 -0.0164138 3.178 
1.54091 -0.0166617 3.226 
1.70491 -0.016796 3.252 
1.87875 -0.0169974 3.291 
2.01486 -0.0168528 3.263 
2.21874 -0.0172556 3.341 
2.39082 -0.0173744 3.364 
2.55216 -0.0174054 3.37 
2.06972 -0.0131444 2.545 
2.13331 -0.0128139 2.481 
2.2834 -0.0130102 2.519 
2.36459 -0.0128139 2.481 
-0.467796 -0.0021089 0.584 
-0.45191 -0.00218112 0.604 
-0.435998 -0.00226418 0.627 
-0.417802 -0.00232557 0.644 
-0.399828 -0.00239779 0.664 
-0.381101 -0.00247724 0.686 
-0.36134 -0.0025639 0.71 
-0.338418 -0.00264335 0.732 
-0.313445 -0.00272279 0.754 
-0.29085 -0.00284557 0.788 
-0.263473 -0.00295029 0.817 
-0.235876 -0.00308752 0.855 
-0.203819 -0.0032103 0.889 
-0.168228 -0.00332585 0.921 
-0.128157 -0.00340169 0.942 
-0.0885428 -0.00357502 0.99 
-0.0438119 -0.00369419 1.023 
0.00925508 -0.0039578 1.096 
0.0637534 -0.00418169 1.158 
0.123625 -0.00439114 1.216 
0.201609 -0.00471253 1.305 
0.308708 -0.00533725 1.478 
0.406112 -0.00570559 1.58 
0.960759 -0.0113678 3.148 
1.20187 -0.0117651 3.258 
1.31633 -0.0114401 3.168 
1.4931 -0.0116676 3.231 
1.62233 -0.0115159 3.189 
1.81818 -0.0118228 3.274 
1.97078 -0.0118228 3.274 
2.17073 -0.0120865 3.347 
2.3309 -0.0121081 3.353 
2.46568 -0.0120034 3.324 
2.05411 -0.00929866 2.575 
2.11334 -0.00903866 2.503 
2.24961 -0.00911811 2.525 
2.32229 -0.00894477 2.477 
2.36 -0.00865949 2.398 
-0.456111 -0.00122624 0.596 
-0.441986 -0.00126533 0.615 
-0.42609 -0.00130443 0.634 
-0.403156 -0.00135998 0.661 
-0.384176 -0.00140318 0.682 
-0.362722 -0.00144433 0.702 
-0.342694 -0.00149988 0.729 
-0.317608 -0.00154309 0.75 
-0.295087 -0.00161099 0.783 
-0.268169 -0.00167065 0.812 
-0.240816 -0.00174678 0.849 
-0.208829 -0.00181262 0.881 
-0.174621 -0.00188669 0.917 
-0.135187 -0.00193401 0.94 
-0.0957475 -0.00202659 0.985 
-0.0516072 -0.0020986 1.02 
0.000736878 -0.00224263 1.09 
0.0540956 -0.00235373 1.144 
0.111831 -0.00245043 1.191 
0.196192 -0.00266646 1.296 
0.307455 -0.00302857 1.472 
0.402635 -0.00324255 1.576 
0.960423 -0.00650773 3.163 
1.19979 -0.00674845 3.28 
1.30648 -0.00651802 3.168 
1.48811 -0.00667027 3.242 
1.60686 -0.00653859 3.178 
1.808 -0.00673611 3.274 
1.97378 -0.00678137 3.296 
2.1642 -0.00689865 3.353 
2.31218 -0.00687396 3.341 
2.47677 -0.00689865 3.353 
2.63776 -0.00691099 3.359 
2.10167 -0.00514981 2.503 
2.22986 -0.00517656 2.516 
2.31448 -0.00510455 2.481 
2.34686 -0.00492966 2.396 
-0.460408 -0.000298237 0.592 
-0.445974 -0.000307305 0.61 
-0.431232 -0.00031738 0.63 
-0.409505 -0.000331486 0.658 
-0.388623 -0.00034005 0.675 
-0.368273 -0.00035063 0.696 
-0.347412 -0.000362721 0.72 
-0.324315 -0.000374811 0.744 
-0.300537 -0.000388917 0.772 
-0.274835 -0.00040403 0.802 
-0.247224 -0.000420655 0.835 
-0.218283 -0.000440806 0.875 
-0.184801 -0.000458942 0.911 
-0.146246 -0.000471537 0.936 
-0.106456 -0.000489169 0.971 
-0.0635289 -0.000507809 1.008 
-0.0127172 -0.000545088 1.082 
0.0393883 -0.00056927 1.13 
0.0963757 -0.00059597 1.183 
0.177721 -0.000644333 1.279 
0.282873 -0.000725441 1.44 
0.377456 -0.000782368 1.553 
0.915284 -0.00158338 3.143 
1.08441 -0.00161713 3.21 
1.24139 -0.00157582 3.128 
1.43508 -0.00163023 3.236 
1.58346 -0.00162771 3.231 
1.76304 -0.00165491 3.285 
1.93599 -0.00167204 3.319 
2.12659 -0.00170076 3.376 
2.24877 -0.00167456 3.324 
2.46662 -0.00171839 3.411 
2.63022 -0.00172141 3.417 
2.07883 -0.001266 2.513 
2.14878 -0.00123879 2.459 
2.30113 -0.00125945 2.5 
2.33062 -0.00121411 2.41 
-0.466296 0.000609991 0.581 
-0.452067 0.000627839 0.598 
-0.438129 0.000649887 0.619 
-0.421839 0.000669835 0.638 
-0.397166 0.000696082 0.663 
-0.377936 0.00072233 0.688 
-0.357829 0.000749627 0.714 
-0.332731 0.000768525 0.732 
-0.309219 0.000795823 0.758 
-0.286174 0.000831519 0.792 
-0.257441 0.000858817 0.818 
-0.230843 0.000903962 0.861 
-0.198464 0.000940709 0.896 
-0.162122 0.000973255 0.927 
-0.122378 0.0010016 0.954 
-0.0806888 0.0010373 0.988 
-0.0333251 0.00109504 1.043 
0.0178017 0.00115279 1.098 
0.0732517 0.00122418 1.166 
0.150507 0.00131342 1.251 
0.220501 0.00138692 1.321 
0.346807 0.00158955 1.514 
0.440531 0.00167774 1.598 
1.03597 0.00335862 3.199 
1.22406 0.00337017 3.21 
1.37582 0.00337542 3.215 
1.54323 0.00341427 3.252 
1.71513 0.00345521 3.291 
1.86852 0.00345521 3.291 
2.04588 0.00349616 3.33 
2.20836 0.00350771 3.341 
2.38461 0.00353816 3.37 
2.54621 0.00354446 3.376 
2.06594 0.00268249 2.555 
2.11833 0.0026006 2.477 
2.26895 0.00264154 2.516 
2.3407 0.00259115 2.468 
2.40101 0.0025334 2.413 
-0.457794 0.00153871 0.591 
-0.444079 0.00158818 0.61 
-0.428593 0.00163765 0.629 
-0.406841 0.00171055 0.657 
-0.387671 0.00176262 0.677 
-0.365584 0.00180948 0.695 
-0.341754 0.0018928 0.727 
-0.317608 0.00195268 0.75 
-0.293957 0.00203079 0.78 
-0.267508 0.0021089 0.81 
-0.240249 0.00220523 0.847 
-0.208592 0.00229115 0.88 
-0.174811 0.00239008 0.918 
-0.136337 0.00246819 0.948 
-0.0951643 0.0025489 0.979 
-0.0514554 0.00264784 1.017 
0.000732822 0.00282228 1.084 
0.0537173 0.00295766 1.136 
0.112488 0.00311908 1.198 
0.193729 0.00336642 1.293 
0.312453 0.00383767 1.474 
0.408308 0.00411104 1.579 
0.979681 0.00835747 3.21 
1.15956 0.00858138 3.296 
1.31019 0.0083028 3.189 
1.49771 0.0085241 3.274 
1.61806 0.00835747 3.21 
1.81228 0.00856836 3.291 
2.00271 0.00872979 3.353 
2.18539 0.00883653 3.394 
2.29939 0.0086699 3.33 
2.50989 0.00886517 3.405 
2.62314 0.00871416 3.347 
2.09579 0.00649852 2.496 
2.20416 0.00647509 2.487 
2.30795 0.00644124 2.474 
2.34882 0.00624337 2.398 
-0.462235 0.00243199 0.585 
-0.448352 0.00250682 0.603 
-0.434881 0.00259412 0.624 
-0.415363 0.0026939 0.648 
-0.392896 0.00277704 0.668 
-0.373674 0.0028685 0.69 
-0.354382 0.00297659 0.716 
-0.329079 0.00305142 0.734 
-0.306517 0.00317198 0.763 
-0.283027 0.00331333 0.797 
-0.250297 0.0034422 0.828 
-0.222442 0.00361681 0.87 
-0.189627 0.00377063 0.907 
-0.15255 0.00390366 0.939 
-0.111563 0.00400343 0.963 
-0.0691009 0.00414894 0.998 
-0.0208102 0.00443163 1.066 
0.0302308 0.00463949 1.116 
0.086375 0.0048723 1.172 
0.160609 0.00521319 1.254 
0.231112 0.00550004 1.323 
0.348928 0.00628992 1.513 
0.44246 0.00663497 1.596 
1.04633 0.0134321 3.231 
1.2298 0.013299 3.199 
1.39745 0.0134778 3.242 
1.56671 0.0136358 3.28 
1.73112 0.0137272 3.302 
1.88161 0.0137023 3.296 
2.07043 0.0139393 3.353 
2.22273 0.0139143 3.347 
2.39934 0.0140349 3.376 
2.57866 0.0141554 3.405 
2.07123 0.0105677 2.542 
2.11563 0.0102102 2.456 
2.28459 0.0104596 2.516 
2.35031 0.0102352 2.462 
-0.469442 0.00328949 0.576 
-0.451051 0.00338658 0.593 
-0.438405 0.00350651 0.614 
-0.423802 0.00362644 0.635 
-0.403779 0.00375208 0.657 
-0.385083 0.00387201 0.678 
-0.363387 0.00398052 0.697 
-0.343718 0.00413471 0.724 
-0.319391 0.00426035 0.746 
-0.29454 0.00440884 0.772 
-0.263407 0.00462014 0.809 
-0.23658 0.00484287 0.848 
-0.204955 0.00503704 0.882 
-0.17109 0.00525976 0.921 
-0.132754 0.00544822 0.954 
-0.0906011 0.005591 0.979 
-0.046807 0.00581944 1.019 
0.00240363 0.00615638 1.078 
0.0553846 0.00647619 1.134 
0.115209 0.00689309 1.207 
0.183116 0.00736139 1.289 
0.284553 0.00814378 1.426 
0.379574 0.00880625 1.542 
0.935352 0.0181493 3.178 
1.1145 0.018669 3.269 
1.33247 0.018452 3.231 
1.51565 0.0188575 3.302 
1.63619 0.0184806 3.236 
1.82015 0.0188232 3.296 
2.02888 0.0193486 3.388 
2.19454 0.0194172 3.4 
2.30872 0.0190517 3.336 
2.52404 0.0195142 3.417 
2.58437 0.0187947 3.291 
2.09778 0.0142945 2.503 
2.17552 0.0140432 2.459 
2.30131 0.0141117 2.471 
2.34803 0.0137119 2.401 
-0.461326 0.00424979 0.585 
-0.447415 0.00438056 0.603 
-0.433636 0.00454038 0.625 
-0.41637 0.00470746 0.648 
-0.395105 0.00481643 0.663 
-0.376837 0.00498352 0.686 
-0.35743 0.00516513 0.711 
-0.332957 0.00530316 0.73 
-0.309578 0.00549204 0.756 
-0.283552 0.00577536 0.795 
-0.24939 0.0059933 0.825 
-0.221675 0.00629841 0.867 
-0.189209 0.00657447 0.905 
-0.153037 0.00684326 0.942 
-0.111563 0.00699581 0.963 
-0.0691009 0.00725007 0.998 
-0.0239642 0.00769322 1.059 
0.0265472 0.00804192 1.107 
0.0823803 0.00847779 1.167 
0.144861 0.00897905 1.236 
0.214594 0.00951663 1.31 
0.328738 0.0108678 1.496 
0.421906 0.0115071 1.584 
1.03134 0.0237044 3.263 
1.25432 0.0230506 3.173 
1.45171 0.0238642 3.285 
1.60482 0.0238642 3.285 
1.78202 0.0241911 3.33 
1.94363 0.024271 3.341 
2.13266 0.0246561 3.394 
2.25913 0.0243146 3.347 
2.49234 0.0250919 3.454 
2.6203 0.0247796 3.411 
2.08421 0.0183722 2.529 
2.11937 0.017682 2.434 
2.28419 0.0180889 2.49 
2.33181 0.0175731 2.419 
-0.464879 0.00508815 0.577 
-0.447239 0.00528215 0.599 
-0.431694 0.00551142 0.625 
-0.414996 0.00572306 0.649 
-0.393638 0.00585534 0.664 
-0.374729 0.00606698 0.688 
-0.355113 0.00628743 0.713 
-0.329554 0.00643734 0.73 
-0.306864 0.00668426 0.758 
-0.280551 0.00702817 0.797 
-0.246438 0.00730154 0.828 
-0.218387 0.0076719 0.87 
-0.18499 0.00798054 0.905 
-0.149436 0.00835091 0.947 
-0.107408 0.00851846 0.966 
-0.0648367 0.00885355 1.004 
-0.019154 0.00940029 1.066 
0.0318215 0.00979711 1.111 
0.0878949 0.0102998 1.168 
0.150744 0.0109082 1.237 
0.221711 0.0116049 1.316 
0.324231 0.013104 1.486 
0.418915 0.0139505 1.582 
1.02308 0.028827 3.269 
1.2646 0.0282097 3.199 
1.45657 0.0290651 3.296 
1.61313 0.029118 3.302 
1.78791 0.0294619 3.341 
1.94712 0.0295148 3.347 
2.13266 0.0299292 3.394 
2.2706 0.0296647 3.364 
2.49234 0.0304583 3.454 
2.61185 0.0299822 3.4 
2.09062 0.0223279 2.532 
2.11792 0.0214108 2.428 
2.27979 0.0218782 2.481 
2.32977 0.0212785 2.413 
-0.460538 0.00605722 0.584 
-0.446478 0.00625429 0.603 
-0.427125 0.0064721 0.624 
-0.411217 0.00675214 0.651 
-0.38965 0.00690772 0.666 
-0.37153 0.00715665 0.69 
-0.352649 0.00743669 0.717 
-0.327243 0.00762339 0.735 
-0.303748 0.00790343 0.762 
-0.277183 0.00827682 0.798 
-0.24375 0.00862947 0.832 
-0.214825 0.00904435 0.872 
-0.180972 0.00939699 0.906 
-0.145634 0.00986373 0.951 
-0.103438 0.0100712 0.971 
-0.0604566 0.0104653 1.009 
-0.0142119 0.0110773 1.068 
0.0370332 0.0115336 1.112 
0.0938984 0.012187 1.175 
0.156763 0.0128509 1.239 
0.229576 0.0137532 1.326 
0.329513 0.0154438 1.489 
0.422759 0.0163669 1.578 
1.03672 0.03402 3.28 
1.30436 0.0335637 3.236 
1.49476 0.0344764 3.324 
1.63034 0.0340719 3.285 
1.82037 0.0347772 3.353 
2.00083 0.0352024 3.394 
2.17366 0.035441 3.417 
2.29674 0.0348913 3.364 
2.5323 0.0360114 3.472 
2.58395 0.0345386 3.33 
2.09803 0.0261581 2.522 
2.12774 0.0251209 2.422 
2.27763 0.0255358 2.462 
2.33019 0.024872 2.398 
-0.456908 0.00696457 0.584 
-0.441588 0.00720308 0.604 
-0.420818 0.007537 0.632 
-0.404984 0.00779936 0.654 
-0.38538 0.00802595 0.673 
-0.365584 0.00828832 0.695 
-0.345175 0.00858646 0.72 
-0.321137 0.00884882 0.742 
-0.296593 0.00915889 0.768 
-0.266444 0.00957628 0.803 
-0.238263 0.0100175 0.84 
-0.207881 0.0104588 0.877 
-0.17424 0.010912 0.915 
-0.137632 0.0114128 0.957 
-0.0949699 0.0116513 0.977 
-0.0514554 0.0121284 1.017 
-0.00425597 0.0127366 1.068 
0.0494805 0.0133567 1.12 
0.109855 0.01443 1.21 
0.17491 0.0151813 1.273 
0.251541 0.0163023 1.367 
0.347314 0.01796 1.506 
0.436083 0.018759 1.573 
1.06892 0.0391757 3.285 
1.36628 0.0395096 3.313 
1.53355 0.0398435 3.341 
1.65844 0.0391161 3.28 
1.83562 0.0396408 3.324 
2.06061 0.0410361 3.441 
2.19776 0.0406068 3.405 
2.3364 0.0402609 3.376 
2.55137 0.0411911 3.454 
2.54981 0.0387225 3.247 
2.10355 0.0297664 2.496 
2.15941 0.0289554 2.428 
2.28662 0.0291343 2.443 
2.36512 0.028705 2.407 
-0.454186 0.00787192 0.584 
-0.438559 0.00815498 0.605 
-0.420152 0.00850544 0.631 
-0.404984 0.00881547 0.654 
-0.384808 0.0090581 0.672 
-0.365584 0.00936812 0.695 
-0.344696 0.00969162 0.719 
-0.321137 0.0100016 0.742 
-0.296593 0.0103521 0.768 
-0.271663 0.0107834 0.8 
-0.242578 0.0111609 0.828 
-0.213225 0.0117405 0.871 
-0.179366 0.0121988 0.905 
-0.144308 0.0128323 0.952 
-0.10235 0.0131423 0.975 
-0.0591224 0.0136545 1.013 
-0.0125409 0.0143824 1.067 
0.0404158 0.014962 1.11 
0.0979647 0.0159056 1.18 
0.160743 0.0167143 1.24 
0.236692 0.0181027 1.343 
0.329821 0.0199494 1.48 
0.423864 0.021203 1.573 
1.04019 0.0443604 3.291 
1.29227 0.0440639 3.269 
1.46187 0.0445896 3.308 
1.62974 0.044967 3.336 
1.80664 0.0455062 3.376 
1.97097 0.0456679 3.388 
2.12889 0.0456679 3.388 
2.30638 0.0460588 3.417 
2.49234 0.0465575 3.454 
2.59342 0.0455062 3.376 
2.10034 0.034224 2.539 
2.11382 0.0326065 2.419 
2.26063 0.0331052 2.456 
2.31902 0.0323234 2.398 
-0.459074 0.00873417 0.581 
-0.441996 0.00904986 0.602 
-0.423823 0.00935052 0.622 
-0.412605 0.00977144 0.65 
-0.389955 0.00996687 0.663 
-0.37205 0.0103277 0.687 
-0.352402 0.0107035 0.712 
-0.326598 0.0109891 0.731 
-0.303731 0.01141 0.759 
-0.280728 0.0119362 0.794 
-0.250473 0.0122669 0.816 
-0.223113 0.0128833 0.857 
-0.191503 0.0134696 0.896 
-0.156091 0.0140408 0.934 
-0.116413 0.0145219 0.966 
-0.0740482 0.0150631 1.002 
-0.0287911 0.0158598 1.055 
0.0228151 0.0164311 1.093 
0.0780116 0.0173781 1.156 
0.139081 0.0183252 1.219 
0.210362 0.0196782 1.309 
0.294595 0.0213619 1.421 
0.393584 0.0233011 1.55 
0.962916 0.0481657 3.204 
1.14419 0.0495487 3.296 
1.3997 0.0498945 3.319 
1.57313 0.0504958 3.359 
1.69159 0.0493834 3.285 
1.88289 0.0504056 3.353 
2.1006 0.0519239 3.454 
2.22951 0.0511873 3.405 
2.3805 0.051022 3.394 
2.60152 0.0522847 3.478 
2.0652 0.0384694 2.559 
2.10423 0.0370563 2.465 
2.19392 0.0366354 2.437 
2.29899 0.0365001 2.428 
2.40024 0.0363197 2.416 
-0.453408 0.00967002 0.583 
-0.436172 0.0100018 0.603 
-0.419741 0.0103833 0.626 
-0.408032 0.0108477 0.654 
-0.385631 0.0110799 0.668 
-0.365081 0.011478 0.692 
-0.344851 0.0118926 0.717 
-0.321856 0.0122907 0.741 
-0.297787 0.0127386 0.768 
-0.273589 0.0133025 0.802 
-0.242687 0.0136674 0.824 
-0.214444 0.0143475 0.865 
-0.179366 0.0150109 0.905 
-0.143853 0.0157407 0.949 
-0.10256 0.0162052 0.977 
-0.0591808 0.0168189 1.014 
-0.0125291 0.0176814 1.066 
0.0385169 0.0183283 1.105 
0.095561 0.0194562 1.173 
0.157535 0.0204016 1.23 
0.23478 0.0222925 1.344 
0.321546 0.0241004 1.453 
0.420348 0.0260245 1.569 
1.03319 0.0544872 3.285 
1.21917 0.0559966 3.376 
1.41048 0.0546696 3.296 
1.59922 0.0558971 3.37 
1.71774 0.0546696 3.296 
1.93041 0.0563947 3.4 
2.11838 0.0571908 3.448 
2.26653 0.0568757 3.429 
2.42211 0.0567762 3.423 
2.62766 0.0577879 3.484 
2.06991 0.0423789 2.555 
2.10161 0.0406871 2.453 
2.19607 0.0403222 2.431 
2.29798 0.0401231 2.419 
-0.472201 0.0104307 0.575 
-0.451597 0.0105758 0.583 
-0.438255 0.0109205 0.602 
-0.423142 0.0112652 0.621 
-0.411971 0.0117731 0.649 
-0.389367 0.0120089 0.662 
-0.370453 0.0124806 0.688 
-0.350682 0.0129341 0.713 
-0.325462 0.0132606 0.731 
-0.303349 0.0138048 0.761 
-0.279847 0.0144216 0.795 
-0.24951 0.0148207 0.817 
-0.221522 0.0155281 0.856 
-0.185161 0.0163082 0.899 
-0.149951 0.0170701 0.941 
-0.109811 0.0176687 0.974 
-0.0669256 0.018358 1.012 
-0.0207321 0.019265 1.062 
0.0297161 0.0199 1.097 
0.0854169 0.0210247 1.159 
0.146897 0.0221494 1.221 
0.221502 0.0240722 1.327 
0.302358 0.0256867 1.416 
0.405558 0.0282808 1.559 
0.999522 0.058811 3.242 
1.17796 0.0602078 3.319 
1.38731 0.0610241 3.364 
1.54182 0.0609334 3.359 
1.66096 0.059591 3.285 
1.84224 0.0605162 3.336 
2.07558 0.0628744 3.466 
2.18292 0.0613506 3.382 
2.37723 0.0623121 3.435 
2.592 0.0636544 3.509 
2.58829 0.0597906 3.296 
2.09849 0.0451694 2.49 
2.12562 0.0433554 2.39 
2.26697 0.0439359 2.422 
2.35136 0.0434098 2.393 
-0.459074 0.0114422 0.581 
-0.443147 0.0117376 0.596 
-0.426518 0.0120527 0.612 
-0.41425 0.0125451 0.637 
-0.395613 0.012939 0.657 
-0.376207 0.0134116 0.681 
-0.355087 0.0138252 0.702 
-0.33201 0.0142388 0.723 
-0.30993 0.0148493 0.754 
-0.283533 0.0153219 0.778 
-0.256169 0.0158734 0.806 
-0.229179 0.0166414 0.845 
-0.19743 0.017311 0.879 
-0.157121 0.0181776 0.923 
-0.119291 0.0190047 0.965 
-0.0729255 0.0198516 1.008 
-0.027152 0.0207772 1.055 
0.0226899 0.0214074 1.087 
0.0778767 0.0227269 1.154 
0.138511 0.0239085 1.214 
0.212396 0.0257795 1.309 
0.293669 0.0276898 1.406 
0.394715 0.0304273 1.545 
0.981207 0.0633163 3.215 
1.16167 0.0650296 3.302 
1.36641 0.0662507 3.364 
1.51279 0.0657977 3.341 
1.66003 0.0654629 3.324 
1.8368 0.0662507 3.364 
2.04338 0.067905 3.448 
2.14336 0.066034 3.353 
2.38126 0.0683776 3.472 
2.55188 0.068614 3.484 
2.5943 0.0655811 3.33 
2.09891 0.0494123 2.509 
2.10546 0.0469505 2.384 
2.25749 0.0478171 2.428 
2.32184 0.0468324 2.378 
-0.4595 0.0122599 0.577 
-0.443102 0.0125574 0.591 
-0.428915 0.0129611 0.61 
-0.414599 0.0134498 0.633 
-0.393746 0.0140022 0.659 
-0.375149 0.0144697 0.681 
-0.353997 0.0149159 0.702 
-0.331345 0.0153833 0.724 
-0.306089 0.016127 0.759 
-0.280342 0.0167007 0.786 
-0.252078 0.0172744 0.813 
-0.224195 0.0180818 0.851 
-0.191035 0.0187192 0.881 
-0.149473 0.0199303 0.938 
-0.110037 0.0207377 0.976 
-0.0668595 0.0214814 1.011 
-0.020654 0.0224801 1.058 
0.0296078 0.0232237 1.093 
0.0854906 0.0246473 1.16 
0.146777 0.0259222 1.22 
0.224912 0.0283657 1.335 
0.302407 0.0298743 1.406 
0.407195 0.0330614 1.556 
1.01458 0.069225 3.258 
1.20259 0.071371 3.359 
1.37932 0.0716047 3.37 
1.52591 0.071116 3.347 
1.66483 0.0703936 3.313 
1.83792 0.071116 3.347 
2.06481 0.0736445 3.466 
2.15378 0.0712435 3.353 
2.39618 0.0738995 3.478 
2.58625 0.0747069 3.516 
2.63124 0.0714772 3.364 
2.09915 0.0531192 2.5 
2.10755 0.050527 2.378 
2.25944 0.0514619 2.422 
2.32923 0.050527 2.378 
-0.4585 0.0131792 0.578 
-0.442759 0.0135212 0.593 
-0.42632 0.013886 0.609 
-0.412271 0.0145245 0.637 
-0.390833 0.0150717 0.661 
-0.372006 0.0155733 0.683 
-0.351128 0.016075 0.705 
-0.3282 0.0165766 0.727 
-0.30138 0.0173746 0.762 
-0.278423 0.0181955 0.798 
-0.246972 0.0186287 0.817 
-0.217213 0.0196092 0.86 
-0.179773 0.0205212 0.9 
-0.141929 0.0215701 0.946 
-0.101455 0.0223681 0.981 
-0.0574349 0.0230522 1.011 
-0.0108423 0.0242379 1.063 
0.0400517 0.0250815 1.1 
0.0972175 0.0267004 1.171 
0.160224 0.0281825 1.236 
0.237397 0.0307134 1.347 
0.318232 0.0325604 1.428 
0.421439 0.0356613 1.564 
1.0469 0.0751533 3.296 
1.26124 0.0786191 3.448 
1.39751 0.0769774 3.376 
1.54934 0.0767038 3.364 
1.67165 0.0751533 3.296 
1.86293 0.0767038 3.364 
2.08817 0.0793032 3.478 
2.18429 0.0769774 3.376 
2.41656 0.07944 3.484 
2.62632 0.0808993 3.548 
2.70278 0.0783227 3.435 
2.09524 0.056479 2.477 
2.11698 0.0540849 2.372 
2.26604 0.0550197 2.413 
2.34993 0.0543585 2.384 
-0.456366 0.0141503 0.581 
-0.442586 0.0145887 0.599 
-0.419856 0.0150758 0.619 
-0.405771 0.0158795 0.652 
-0.384017 0.0162448 0.667 
-0.36404 0.0167563 0.688 
-0.344035 0.0173651 0.713 
-0.318691 0.0179984 0.739 
-0.294631 0.018656 0.766 
-0.27042 0.019484 0.8 
-0.239543 0.0200198 0.822 
-0.208685 0.0211645 0.869 
-0.174954 0.022017 0.904 
-0.139283 0.0230886 0.948 
-0.0987079 0.0239654 0.984 
-0.0543471 0.0246473 1.012 
-0.00753207 0.0258651 1.062 
0.0435883 0.0268636 1.103 
0.101028 0.0285685 1.173 
0.165392 0.0303464 1.246 
0.241045 0.0327332 1.344 
0.326285 0.0351687 1.444 
0.426299 0.0380913 1.564 
1.06099 0.0805665 3.308 
1.27417 0.0841223 3.454 
1.40275 0.0822226 3.376 
1.55456 0.0819304 3.364 
1.67982 0.0804204 3.302 
1.88482 0.082661 3.394 
2.09719 0.084853 3.484 
2.19732 0.0825149 3.388 
2.43101 0.0851696 3.497 
2.64148 0.0867283 3.561 
2.74202 0.0847069 3.478 
2.09146 0.0601083 2.468 
2.12334 0.0578432 2.375 
2.26697 0.0586957 2.41 
2.35067 0.0579894 2.381 
-0.451726 0.0150789 0.582 
-0.437731 0.0155452 0.6 
-0.416388 0.0160893 0.621 
-0.400091 0.0168666 0.651 
-0.38054 0.0173588 0.67 
-0.359738 0.017877 0.69 
-0.339446 0.0185247 0.715 
-0.316823 0.0191725 0.74 
-0.292251 0.0198461 0.766 
-0.2676 0.0207011 0.799 
-0.237277 0.0213229 0.823 
-0.209793 0.0224888 0.868 
-0.175969 0.0233697 0.902 
-0.140459 0.0245097 0.946 
-0.100237 0.0254942 0.984 
-0.0558641 0.0261937 1.011 
-0.00915614 0.0274373 1.059 
0.0417607 0.0284996 1.1 
0.0988677 0.0302873 1.169 
0.163063 0.0322045 1.243 
0.238423 0.0347436 1.341 
0.321124 0.0370754 1.431 
0.423598 0.0404953 1.563 
1.07127 0.0857061 3.308 
1.28176 0.0896442 3.46 
1.408 0.0874678 3.376 
1.56257 0.0873124 3.37 
1.69363 0.0859911 3.319 
1.9029 0.0885301 3.417 
2.10683 0.0904474 3.491 
2.21038 0.0880897 3.4 
2.45804 0.091406 3.528 
2.66634 0.0929346 3.587 
2.77744 0.0910951 3.516 
2.08892 0.0636318 2.456 
2.13342 0.0616109 2.378 
2.26879 0.0622846 2.404 
2.35212 0.0615332 2.375 
-0.446784 0.0160655 0.585 
-0.430991 0.0165049 0.601 
-0.414566 0.0172189 0.627 
-0.395233 0.0179329 0.653 
-0.378204 0.018592 0.677 
-0.356378 0.0191138 0.696 
-0.334642 0.0197455 0.719 
-0.312856 0.0205144 0.747 
-0.286227 0.0211186 0.769 
-0.259826 0.021915 0.798 
-0.231378 0.0229036 0.834 
-0.201277 0.0239472 0.872 
-0.167264 0.0249359 0.908 
-0.131684 0.0262815 0.957 
-0.090081 0.0271878 0.99 
-0.0451794 0.0279567 1.018 
0.00238133 0.0293298 1.068 
0.0544566 0.0306206 1.115 
0.112345 0.0323232 1.177 
0.180417 0.0348772 1.27 
0.252064 0.0366898 1.336 
0.360444 0.0415231 1.512 
0.446878 0.043061 1.568 
1.11608 0.0911477 3.319 
1.32477 0.0950199 3.46 
1.44008 0.0920814 3.353 
1.61303 0.0930426 3.388 
1.77095 0.0930426 3.388 
1.98352 0.095679 3.484 
2.12373 0.0946904 3.448 
2.28445 0.0946904 3.448 
2.54373 0.0985076 3.587 
2.69581 0.0979584 3.567 
2.07667 0.069727 2.539 
2.07571 0.0659372 2.401 
2.19856 0.0662668 2.413 
2.28613 0.0655527 2.387 
-0.463267 0.0166842 0.575 
-0.441603 0.0170905 0.589 
-0.425161 0.0175837 0.606 
-0.409035 0.0183382 0.632 
-0.390241 0.0191506 0.66 
-0.370916 0.0197599 0.681 
-0.349634 0.0203693 0.702 
-0.328651 0.0211237 0.728 
-0.306459 0.0219652 0.757 
-0.280489 0.0227196 0.783 
-0.252095 0.023474 0.809 
-0.223397 0.0244606 0.843 
-0.19153 0.0254471 0.877 
-0.157352 0.0265787 0.916 
-0.120415 0.0279135 0.962 
-0.0784043 0.028958 0.998 
-0.0330375 0.0300026 1.034 
0.0158025 0.0312793 1.078 
0.0695408 0.0329332 1.135 
0.128916 0.0346742 1.195 
0.198211 0.0372276 1.283 
0.279152 0.039665 1.367 
0.391138 0.0444236 1.531 
1.02997 0.0954919 3.291 
1.22651 0.0989738 3.411 
1.37372 0.0981324 3.382 
1.52592 0.0977842 3.37 
1.69199 0.0983065 3.388 
1.88594 0.100222 3.454 
2.09494 0.102572 3.535 
2.1619 0.0981324 3.382 
2.41967 0.102369 3.528 
2.61268 0.1035 3.567 
2.73375 0.101817 3.509 
2.09983 0.072163 2.487 
2.11062 0.0687391 2.369 
2.25948 0.0699287 2.41 
2.32063 0.0684199 2.358 
-0.446162 0.0178222 0.583 
-0.427256 0.0183724 0.601 
-0.412635 0.0192589 0.63 
-0.394628 0.0199315 0.652 
-0.377646 0.0206652 0.676 
-0.355866 0.021246 0.695 
-0.334177 0.0219491 0.718 
-0.312437 0.022805 0.746 
-0.285482 0.023447 0.767 
-0.259826 0.0243947 0.798 
-0.231837 0.0254035 0.831 
-0.202167 0.0265957 0.87 
-0.168117 0.0276656 0.905 
-0.133171 0.0292553 0.957 
-0.0916191 0.0302641 0.99 
-0.0467151 0.0310894 1.017 
0.000722006 0.0326485 1.068 
0.0525351 0.033963 1.111 
0.109577 0.0356749 1.167 
0.178303 0.038793 1.269 
0.248679 0.0406272 1.329 
0.357106 0.0457935 1.498 
0.447163 0.0479639 1.569 
1.13842 0.101614 3.324 
1.33888 0.105191 3.441 
1.46353 0.102684 3.359 
1.63987 0.103937 3.4 
1.81369 0.104824 3.429 
2.01956 0.107269 3.509 
2.12587 0.104457 3.417 
2.32192 0.106138 3.472 
2.58462 0.110449 3.613 
2.69359 0.108064 3.535 
2.0902 0.0770969 2.522 
2.07907 0.0726032 2.375 
2.23863 0.0742234 2.428 
2.30337 0.0726949 2.378 
-0.451976 0.0186316 0.58 
-0.433485 0.0192098 0.598 
-0.417821 0.019788 0.616 
-0.403041 0.0207517 0.646 
-0.383322 0.02133 0.664 
-0.363517 0.0220046 0.685 
-0.34369 0.0228076 0.71 
-0.320221 0.0235144 0.732 
-0.296656 0.0243817 0.759 
-0.272294 0.0254096 0.791 
-0.242866 0.0262127 0.816 
-0.214371 0.0274334 0.854 
-0.179964 0.0287183 0.894 
-0.144791 0.0300675 0.936 
-0.105163 0.0312561 0.973 
-0.0604566 0.0324125 1.009 
-0.0139724 0.0337296 1.05 
0.0364337 0.035143 1.094 
0.0921403 0.0370383 1.153 
0.155245 0.0394154 1.227 
0.22923 0.0425314 1.324 
0.307862 0.0450049 1.401 
0.411784 0.0496628 1.546 
1.06932 0.106072 3.302 
1.28176 0.111147 3.46 
1.41551 0.109027 3.394 
1.58158 0.109573 3.411 
1.73751 0.10938 3.405 
1.95079 0.112528 3.503 
2.11045 0.112336 3.497 
2.20648 0.109027 3.394 
2.49915 0.115227 3.587 
2.6708 0.115419 3.593 
2.84933 0.115869 3.607 
2.07882 0.0778029 2.422 
2.16003 0.0766786 2.387 
2.26558 0.0764859 2.381 
-0.465294 0.0192633 0.572 
-0.442391 0.0196674 0.584 
-0.425635 0.020341 0.604 
-0.411656 0.0212166 0.63 
-0.395034 0.0219238 0.651 
-0.377576 0.0226984 0.674 
-0.355918 0.0233382 0.693 
-0.334358 0.0241128 0.716 
-0.313176 0.0250894 0.745 
-0.2863 0.0257967 0.766 
-0.260411 0.026807 0.796 
-0.230083 0.0280867 0.834 
-0.178974 0.0301747 0.896 
-0.143643 0.0315891 0.938 
-0.103758 0.0328015 0.974 
-0.0589473 0.0340139 1.01 
-0.0123763 0.035462 1.053 
0.0382032 0.0369101 1.096 
0.0936058 0.038695 1.149 
0.157279 0.0413555 1.228 
0.230937 0.0445211 1.322 
0.313998 0.047451 1.409 
0.421158 0.0523342 1.554 
1.07803 0.111572 3.313 
1.2916 0.116927 3.472 
1.42078 0.1143 3.394 
1.59247 0.115277 3.423 
1.75816 0.115681 3.435 
1.9635 0.118409 3.516 
2.11225 0.117567 3.491 
2.21892 0.114671 3.405 
2.52287 0.121675 3.613 
2.68159 0.121238 3.6 
2.86522 0.121911 3.62 
2.07198 0.0808587 2.401 
2.17662 0.0805893 2.393 
2.27668 0.0801852 2.381 
-0.459694 0.0202577 0.575 
-0.441174 0.0206452 0.586 
-0.425399 0.0213146 0.605 
-0.4123 0.0221249 0.628 
-0.395837 0.0228648 0.649 
-0.37798 0.0236399 0.671 
-0.356522 0.0243092 0.69 
-0.335643 0.0251548 0.714 
-0.31422 0.0261412 0.742 
-0.287927 0.0269163 0.764 
-0.261319 0.0280085 0.795 
-0.229807 0.0293472 0.833 
-0.177582 0.0315668 0.896 
-0.142641 0.0331522 0.941 
-0.102455 0.0343852 0.976 
-0.0590057 0.0356183 1.011 
-0.0123998 0.0371685 1.055 
0.0382032 0.0386129 1.096 
0.09328 0.0403393 1.145 
0.157023 0.0431929 1.226 
0.230239 0.0464342 1.318 
0.316861 0.0497459 1.412 
0.436576 0.0551714 1.566 
1.10426 0.117319 3.33 
1.32036 0.122991 3.491 
1.43677 0.119151 3.382 
1.61374 0.120595 3.423 
1.79867 0.122321 3.472 
1.98873 0.124083 3.522 
2.12233 0.122321 3.472 
2.24403 0.120172 3.411 
2.56435 0.12824 3.64 
2.70397 0.126831 3.6 
2.09055 0.088535 2.513 
2.08117 0.0834617 2.369 
2.2212 0.0845891 2.401 
2.29132 0.0830742 2.358 
-0.457808 0.0211878 0.576 
-0.439995 0.0218132 0.593 
-0.421395 0.0222914 0.606 
-0.409368 0.023211 0.631 
-0.392602 0.0239835 0.652 
-0.373941 0.0248295 0.675 
-0.352626 0.0255652 0.695 
-0.330369 0.0263745 0.717 
-0.309374 0.027478 0.747 
-0.28301 0.028324 0.77 
-0.254822 0.0292069 0.794 
-0.224676 0.0308254 0.838 
-0.193369 0.0321128 0.873 
-0.153083 0.0336946 0.916 
-0.109022 0.0355706 0.967 
-0.0666611 0.0370787 1.008 
-0.0204588 0.0385501 1.048 
0.029364 0.0398744 1.084 
0.0840167 0.0419343 1.14 
0.145574 0.0445092 1.21 
0.2207 0.0481876 1.31 
0.297675 0.0509097 1.384 
0.397513 0.0558756 1.519 
1.04759 0.123743 3.364 
1.23195 0.126575 3.441 
1.39517 0.126833 3.448 
1.53919 0.125472 3.411 
1.72257 0.127274 3.46 
1.91433 0.129334 3.516 
2.11604 0.131688 3.58 
2.22615 0.128415 3.491 
2.52312 0.13441 3.654 
2.68311 0.133895 3.64 
2.84259 0.133417 3.627 
2.08668 0.0897541 2.44 
2.13188 0.0869585 2.364 
2.24491 0.0870688 2.367 
2.30449 0.0851928 2.316 
-0.44734 0.0222745 0.581 
-0.431418 0.0229645 0.599 
-0.414377 0.023693 0.618 
-0.399921 0.0245747 0.641 
-0.38159 0.0253415 0.661 
-0.362455 0.0261849 0.683 
-0.342722 0.0271434 0.708 
-0.319784 0.0280252 0.731 
-0.295092 0.0289453 0.755 
-0.270229 0.0300954 0.785 
-0.241973 0.0311689 0.813 
-0.212046 0.0325874 0.85 
-0.17678 0.034466 0.899 
-0.135718 0.0365746 0.954 
-0.0942171 0.0377631 0.985 
-0.0500224 0.0391049 1.02 
-0.00259178 0.0408685 1.066 
0.0487294 0.042287 1.103 
0.104589 0.0441655 1.152 
0.173969 0.0479993 1.252 
0.245129 0.0506447 1.321 
0.331312 0.0547085 1.427 
0.437134 0.0601142 1.568 
1.10508 0.128969 3.364 
1.30464 0.13334 3.478 
1.43133 0.13012 3.394 
1.61762 0.13242 3.454 
1.80693 0.134529 3.509 
1.98116 0.135257 3.528 
2.1231 0.133838 3.491 
2.24522 0.131461 3.429 
2.59401 0.140854 3.674 
2.70429 0.137749 3.593 
2.97567 0.142733 3.723 
2.07457 0.0921649 2.404 
2.16024 0.0910531 2.375 
2.26808 0.0909381 2.372 
-0.463516 0.0228181 0.572 
-0.445256 0.0232569 0.583 
-0.429556 0.0238952 0.599 
-0.414825 0.0248526 0.623 
-0.398172 0.0256504 0.643 
-0.379081 0.0264084 0.662 
-0.360324 0.0273259 0.685 
-0.339902 0.0282833 0.709 
-0.317675 0.0292806 0.734 
-0.291959 0.0301582 0.756 
-0.266909 0.031355 0.786 
-0.239356 0.0325916 0.817 
-0.209897 0.0339878 0.852 
-0.178375 0.0359026 0.9 
-0.143096 0.0376579 0.944 
-0.10235 0.0388945 0.975 
-0.0591224 0.0404104 1.013 
-0.0124703 0.0423252 1.061 
0.0381335 0.0436416 1.094 
0.0925468 0.0453171 1.136 
0.155358 0.0483888 1.213 
0.233623 0.0524178 1.314 
0.314841 0.0559682 1.403 
0.415738 0.061194 1.534 
1.08857 0.135393 3.394 
1.27542 0.138504 3.472 
1.42442 0.137268 3.441 
1.59355 0.138026 3.46 
1.78627 0.140499 3.522 
1.95375 0.140738 3.528 
2.1302 0.141536 3.548 
2.27487 0.14026 3.516 
2.56291 0.1474 3.695 
2.71441 0.146283 3.667 
2.89084 0.146563 3.674 
2.09529 0.098094 2.459 
2.11374 0.0938255 2.352 
2.22621 0.0939452 2.355 
2.2834 0.0918309 2.302 
-0.44952 0.0239555 0.578 
-0.434277 0.0246186 0.594 
-0.416059 0.0253646 0.612 
-0.400395 0.0264008 0.637 
-0.384089 0.027354 0.66 
-0.362984 0.0282658 0.682 
-0.343337 0.029302 0.707 
-0.320481 0.0302552 0.73 
-0.29431 0.0312085 0.753 
-0.26954 0.0324518 0.783 
-0.241675 0.0336537 0.812 
-0.212865 0.0351458 0.848 
-0.182742 0.0370523 0.894 
-0.147384 0.0387101 0.934 
-0.107742 0.0401607 0.969 
-0.0652242 0.0418599 1.01 
-0.0189563 0.043725 1.055 
0.0310482 0.0449269 1.084 
0.0852611 0.0469577 1.133 
0.146967 0.0499833 1.206 
0.221375 0.053962 1.302 
0.299609 0.0573191 1.383 
0.393028 0.0618781 1.493 
1.07128 0.141868 3.423 
1.2506 0.144147 3.478 
1.42043 0.144935 3.497 
1.56396 0.143153 3.454 
1.75891 0.145971 3.522 
1.92307 0.145971 3.522 
2.13346 0.149204 3.6 
2.27632 0.147587 3.561 
2.59319 0.156705 3.781 
2.73207 0.154592 3.73 
2.84671 0.151442 3.654 
2.09862 0.102826 2.481 
2.09199 0.0971482 2.344 
2.20124 0.0971482 2.344 
2.26417 0.0952003 2.297 
-0.452328 0.0248105 0.577 
-0.437231 0.0254985 0.593 
-0.421333 0.0262295 0.61 
-0.402449 0.0272615 0.634 
-0.387014 0.0282935 0.658 
-0.36351 0.0292824 0.681 
-0.344435 0.0304004 0.707 
-0.321615 0.0313894 0.73 
-0.295468 0.0322494 0.75 
-0.271278 0.0335823 0.781 
-0.242695 0.0347003 0.807 
-0.214483 0.0362913 0.844 
-0.18469 0.0382693 0.89 
-0.148838 0.0397742 0.925 
-0.11041 0.0415372 0.966 
-0.0682949 0.0433862 1.009 
-0.0221924 0.0452781 1.053 
0.0276032 0.0464821 1.081 
0.0815962 0.0486321 1.131 
0.142744 0.051685 1.202 
0.215159 0.0554259 1.289 
0.293817 0.0591669 1.376 
0.384487 0.0635528 1.478 
1.07375 0.148261 3.448 
1.24735 0.149809 3.484 
1.42511 0.151443 3.522 
1.55859 0.148519 3.454 
1.75991 0.152002 3.535 
1.9176 0.151443 3.522 
2.13968 0.155657 3.62 
2.28291 0.153937 3.58 
2.61742 0.164472 3.825 
2.75843 0.162279 3.774 
2.83015 0.156517 3.64 
2.0973 0.10681 2.484 
2.08835 0.10079 2.344 
2.18916 0.100403 2.335 
2.2606 0.0987691 2.297 
-0.452439 0.0256624 0.576 
-0.437413 0.0263753 0.592 
-0.420896 0.0270881 0.608 
-0.401814 0.0282019 0.633 
-0.386426 0.0292712 0.657 
-0.362452 0.0303405 0.681 
-0.343337 0.0314989 0.707 
-0.320481 0.0325236 0.73 
-0.294695 0.0334592 0.751 
-0.270065 0.0347958 0.781 
-0.242039 0.0360432 0.809 
-0.213677 0.0376917 0.846 
-0.183513 0.0396966 0.891 
-0.148517 0.0415232 0.932 
-0.109022 0.0430826 0.967 
-0.0667934 0.0449984 1.01 
-0.0205955 0.0470033 1.055 
0.0293098 0.0482062 1.082 
0.0833534 0.0503893 1.131 
0.144732 0.0535971 1.203 
0.220015 0.0576514 1.294 
0.299176 0.0615275 1.381 
0.389606 0.0659382 1.48 
1.0974 0.154687 3.472 
1.27519 0.156648 3.516 
1.43621 0.156336 3.509 
1.5829 0.154687 3.472 
1.79247 0.15892 3.567 
1.93731 0.157182 3.528 
2.16073 0.161593 3.627 
2.32079 0.160969 3.613 
2.60494 0.168454 3.781 
2.7922 0.169123 3.796 
2.84712 0.162172 3.64 
2.09273 0.109422 2.456 
2.10656 0.104432 2.344 
2.2073 0.104031 2.335 
2.27547 0.102204 2.294 
-0.44952 0.0266496 0.578 
-0.433354 0.0273873 0.594 
-0.417277 0.0281711 0.611 
-0.397164 0.0292776 0.635 
-0.381459 0.0303842 0.659 
-0.357106 0.0316752 0.687 
-0.335495 0.0326895 0.709 
-0.312687 0.0337961 0.733 
-0.287978 0.0350871 0.761 
-0.261799 0.036378 0.789 
-0.233579 0.0377612 0.819 
-0.203995 0.0394211 0.855 
-0.173669 0.0420491 0.912 
-0.136481 0.0437551 0.949 
-0.0957475 0.0454149 0.985 
-0.0519108 0.0473053 1.026 
-0.00424402 0.0491034 1.065 
0.0468026 0.050625 1.098 
0.102086 0.0527459 1.144 
0.166275 0.0564344 1.224 
0.2392 0.0604456 1.311 
0.321151 0.0646413 1.402 
0.421234 0.0704508 1.528 
1.13909 0.160635 3.484 
