# .PCD v.7 - Point Cloud Data file format
VERSION .7
FIELDS x y z
SIZE 4 4 4
TYPE F F F
COUNT 1 1 1
WIDTH 1890
HEIGHT 1
VIEWPOINT 0 0 0 1 0 0 0
POINTS 1890
DATA ascii
-0.192076 0.139321 0.642 
-0.165435 0.142142 0.655 
-0.133061 0.143444 0.661 
-0.0972632 0.143661 0.662 
-0.0652034 0.141057 0.65 
-0.00906075 0.11979 0.552 
0.0166379 0.119573 0.551 
0.0422434 0.119356 0.55 
0.0678791 0.119356 0.55 
0.0931747 0.118922 0.548 
0.118717 0.118922 0.548 
0.14347 0.118271 0.545 
0.168563 0.118054 0.544 
0.193206 0.11762 0.542 
0.217662 0.117186 0.54 
0.242832 0.117186 0.54 
0.267009 0.116752 0.538 
0.291542 0.116535 0.537 
0.315982 0.116318 0.536 
0.340966 0.116318 0.536 
0.365949 0.116318 0.536 
0.390202 0.116101 0.535 
0.415139 0.116101 0.535 
0.439253 0.115884 0.534 
0.462404 0.11545 0.532 
0.486285 0.115233 0.531 
0.511035 0.115233 0.531 
-0.56229 0.149935 0.686 
-0.523358 0.147968 0.677 
-0.49035 0.147531 0.675 
-0.456169 0.146657 0.671 
-0.427426 0.147531 0.675 
-0.393618 0.146657 0.671 
-0.361802 0.146438 0.67 
-0.33008 0.14622 0.669 
-0.298898 0.14622 0.669 
-0.262911 0.146438 0.67 
-0.230644 0.145783 0.667 
-0.187251 0.141193 0.646 
-0.148488 0.139663 0.639 
-0.121102 0.144908 0.663 
-0.0846642 0.144253 0.66 
-0.0498865 0.138789 0.635 
0.00377613 0.119773 0.548 
0.0293186 0.119773 0.548 
0.0551613 0.120429 0.551 
0.0805502 0.119992 0.549 
0.105946 0.119773 0.548 
0.131488 0.119773 0.548 
0.156458 0.119336 0.546 
0.181241 0.118899 0.544 
0.205457 0.118243 0.541 
0.229821 0.117806 0.539 
0.254944 0.117806 0.539 
0.278508 0.117151 0.536 
0.304057 0.117369 0.537 
0.328474 0.117151 0.536 
0.353457 0.117151 0.536 
0.377734 0.116932 0.535 
0.401165 0.116495 0.533 
0.428467 0.116714 0.534 
0.451659 0.116276 0.532 
0.476456 0.116276 0.532 
0.50031 0.116058 0.531 
0.524072 0.115839 0.53 
-0.537032 0.14902 0.677 
-0.503984 0.14858 0.675 
-0.471822 0.14836 0.674 
-0.439753 0.14814 0.673 
-0.407777 0.147919 0.672 
-0.374775 0.147259 0.669 
-0.344619 0.147699 0.671 
-0.311943 0.147039 0.668 
-0.274585 0.145938 0.663 
-0.241477 0.144618 0.657 
-0.199432 0.140876 0.64 
-0.169765 0.144398 0.656 
-0.134706 0.145058 0.659 
-0.104147 0.145278 0.66 
-0.0698821 0.144398 0.656 
-0.0107565 0.121285 0.551 
0.0148987 0.121065 0.55 
0.0404607 0.120845 0.549 
0.0659294 0.120625 0.548 
0.0913049 0.120405 0.547 
0.117014 0.120625 0.548 
0.141516 0.119744 0.544 
0.166565 0.119524 0.543 
0.191168 0.119084 0.541 
0.215584 0.118644 0.539 
0.240707 0.118644 0.539 
0.265337 0.118424 0.538 
0.289874 0.118204 0.537 
0.31373 0.117763 0.535 
0.338667 0.117763 0.535 
0.362924 0.117543 0.534 
0.387814 0.117543 0.534 
0.414415 0.117323 0.533 
0.440915 0.117323 0.533 
0.46401 0.116883 0.531 
0.486919 0.116443 0.529 
0.512543 0.116663 0.53 
-0.556648 0.151402 0.683 
-0.520203 0.150072 0.677 
-0.487204 0.149629 0.675 
-0.452366 0.14852 0.67 
-0.42428 0.149629 0.675 
-0.389908 0.14852 0.67 
-0.358679 0.14852 0.67 
-0.325984 0.147855 0.667 
-0.294453 0.147634 0.666 
-0.26044 0.148299 0.669 
-0.228229 0.147634 0.666 
-0.186103 0.143865 0.649 
-0.149247 0.141427 0.638 
-0.124005 0.146747 0.662 
-0.0928676 0.146303 0.66 
-0.0572398 0.14187 0.64 
-0.0038937 0.121698 0.549 
0.0216954 0.121698 0.549 
0.0490796 0.12192 0.55 
0.0768573 0.121255 0.547 
0.104243 0.121476 0.548 
0.129549 0.121255 0.547 
0.154761 0.121033 0.546 
0.17922 0.120368 0.543 
0.203776 0.119925 0.541 
0.228146 0.119481 0.539 
0.253269 0.119481 0.539 
0.275809 0.118373 0.534 
0.301825 0.118816 0.536 
0.326199 0.118594 0.535 
0.351135 0.118594 0.535 
0.374666 0.118151 0.533 
0.401239 0.117929 0.532 
0.429297 0.118373 0.534 
0.452486 0.117929 0.532 
0.475488 0.117486 0.53 
0.500192 0.117486 0.53 
0.523905 0.117264 0.529 
-0.535189 0.150901 0.676 
-0.50219 0.150454 0.674 
-0.468679 0.149784 0.671 
-0.437404 0.149784 0.671 
-0.406128 0.149784 0.671 
-0.373177 0.149115 0.668 
-0.342553 0.149338 0.669 
-0.31044 0.148892 0.667 
-0.276838 0.147552 0.661 
-0.244912 0.146882 0.658 
-0.211553 0.146436 0.656 
-0.179957 0.146436 0.656 
-0.145208 0.14532 0.651 
-0.116629 0.147552 0.661 
-0.0853001 0.146659 0.657 
-0.0528463 0.141748 0.635 
-0.00133236 0.122328 0.548 
0.0242101 0.122328 0.548 
0.0498433 0.122551 0.549 
0.0750202 0.121881 0.546 
0.100837 0.122328 0.548 
0.125919 0.121881 0.546 
0.150813 0.121435 0.544 
0.175846 0.121212 0.543 
0.200414 0.120765 0.541 
0.227723 0.120095 0.538 
0.252799 0.120095 0.538 
0.275293 0.118979 0.533 
0.301825 0.119649 0.536 
0.326199 0.119426 0.535 
0.350479 0.119203 0.534 
0.374666 0.118979 0.533 
0.400413 0.118756 0.532 
0.426009 0.118979 0.533 
0.450006 0.118756 0.532 
0.473018 0.11831 0.53 
0.497721 0.11831 0.53 
0.520453 0.117863 0.528 
-0.536239 0.151951 0.676 
-0.503237 0.151501 0.674 
-0.467636 0.150827 0.671 
-0.435711 0.150602 0.67 
-0.404482 0.150602 0.67 
-0.372139 0.150153 0.668 
-0.341003 0.150153 0.668 
-0.30894 0.149703 0.666 
-0.275811 0.148579 0.661 
-0.243519 0.14768 0.657 
-0.211553 0.147455 0.656 
-0.1807 0.14723 0.655 
-0.146876 0.144983 0.645 
-0.11971 0.148579 0.661 
-0.0884969 0.147905 0.658 
-0.0560697 0.143409 0.638 
-0.00303519 0.123179 0.548 
0.0224662 0.122954 0.547 
0.0480497 0.123179 0.548 
0.0733235 0.12273 0.546 
0.0989537 0.122954 0.547 
0.123994 0.122505 0.545 
0.148849 0.122055 0.543 
0.173838 0.12183 0.542 
0.198733 0.121606 0.541 
0.224796 0.120706 0.537 
0.250291 0.120931 0.538 
0.272808 0.119807 0.533 
0.298769 0.120257 0.535 
0.3231 0.120032 0.534 
0.34799 0.120032 0.534 
0.371483 0.119583 0.532 
0.39628 0.119583 0.532 
0.421077 0.119583 0.532 
0.445035 0.119358 0.531 
0.468901 0.119133 0.53 
0.492673 0.118908 0.529 
0.51733 0.118908 0.529 
-0.54755 0.153227 0.677 
-0.513133 0.153001 0.676 
-0.478062 0.151869 0.671 
-0.441675 0.15119 0.668 
-0.412383 0.151869 0.671 
-0.379404 0.15119 0.668 
-0.348789 0.151417 0.669 
-0.316183 0.150738 0.666 
-0.283856 0.150059 0.663 
-0.253335 0.150285 0.664 
-0.222051 0.150059 0.663 
-0.183925 0.147569 0.652 
-0.14872 0.144853 0.64 
-0.122605 0.14938 0.66 
-0.091703 0.149153 0.659 
-0.0582342 0.144853 0.64 
-0.00473802 0.12403 0.548 
0.0207665 0.123804 0.547 
0.0462623 0.123804 0.547 
0.0714957 0.123351 0.545 
0.0970762 0.123578 0.546 
0.122301 0.123351 0.545 
0.146891 0.122672 0.542 
0.171836 0.122446 0.541 
0.196688 0.12222 0.54 
0.223128 0.121541 0.537 
0.248157 0.121541 0.537 
0.271661 0.120862 0.534 
0.297106 0.121088 0.535 
0.321441 0.120862 0.534 
0.345682 0.120635 0.533 
0.36983 0.120409 0.532 
0.393885 0.120183 0.531 
0.418635 0.120183 0.531 
0.443385 0.120183 0.531 
0.466372 0.11973 0.529 
0.490101 0.119504 0.528 
0.514711 0.119504 0.528 
-0.549654 0.154279 0.677 
-0.516568 0.153823 0.675 
-0.482232 0.152912 0.671 
-0.448268 0.152 0.667 
-0.419681 0.152912 0.671 
-0.38609 0.152 0.667 
-0.355001 0.152 0.667 
-0.32294 0.151545 0.665 
-0.291506 0.151317 0.664 
-0.261734 0.152 0.667 
-0.228916 0.150861 0.662 
-0.188789 0.146075 0.641 
-0.157423 0.14562 0.639 
-0.131434 0.149949 0.658 
-0.100765 0.149949 0.658 
-0.0691364 0.147898 0.649 
-0.0132764 0.12511 0.549 
0.0122678 0.124654 0.547 
0.0376946 0.124426 0.546 
0.0632595 0.124654 0.547 
0.0885931 0.124426 0.546 
0.114042 0.124426 0.546 
0.138214 0.123287 0.541 
0.16343 0.123287 0.541 
0.188646 0.123287 0.541 
0.212281 0.122375 0.537 
0.236869 0.122147 0.536 
0.261364 0.121919 0.535 
0.286835 0.122147 0.536 
0.311237 0.121919 0.535 
0.334917 0.121464 0.533 
0.359085 0.121236 0.532 
0.38316 0.121008 0.531 
0.408678 0.121236 0.532 
0.43429 0.121464 0.533 
0.456549 0.12078 0.53 
0.478528 0.120096 0.527 
0.504046 0.120324 0.528 
-0.564768 0.156019 0.68 
-0.52654 0.154413 0.673 
-0.493699 0.153954 0.671 
-0.460356 0.153266 0.668 
-0.430506 0.153725 0.67 
-0.396297 0.152578 0.665 
-0.3664 0.153037 0.667 
-0.334306 0.152578 0.665 
-0.302854 0.152348 0.664 
-0.270676 0.15166 0.661 
-0.238052 0.150513 0.656 
-0.199432 0.146842 0.64 
-0.173577 0.150283 0.655 
-0.143047 0.150283 0.655 
-0.113033 0.150972 0.658 
-0.0819875 0.150283 0.655 
-0.0485919 0.144777 0.631 
0.00206951 0.125504 0.547 
0.027515 0.125274 0.546 
0.0529642 0.125274 0.546 
0.0784134 0.125274 0.546 
0.103863 0.125274 0.546 
0.129683 0.124816 0.544 
0.154184 0.124127 0.541 
0.179401 0.124127 0.541 
0.20386 0.123668 0.539 
0.227709 0.12298 0.536 
0.25222 0.122751 0.535 
0.275603 0.122062 0.532 
0.301529 0.122521 0.534 
0.325807 0.122292 0.533 
0.349993 0.122062 0.532 
0.374085 0.121833 0.531 
0.398835 0.121833 0.531 
0.423585 0.121833 0.531 
0.447491 0.121603 0.53 
0.469522 0.120915 0.527 
0.495023 0.121144 0.528 
0.517665 0.120686 0.526 
-0.540689 0.155921 0.675 
-0.507718 0.155459 0.673 
-0.472811 0.154304 0.668 
-0.440353 0.153842 0.666 
-0.411154 0.154535 0.669 
-0.379404 0.154304 0.668 
-0.346704 0.153611 0.665 
-0.315233 0.15338 0.664 
-0.283428 0.152918 0.662 
-0.252572 0.152918 0.662 
-0.220711 0.152225 0.659 
-0.183643 0.150377 0.651 
-0.150003 0.147143 0.637 
-0.124278 0.151994 0.658 
-0.0936085 0.151994 0.658 
-0.0614085 0.148298 0.642 
-0.00727896 0.126354 0.547 
0.0182169 0.126354 0.547 
0.0435529 0.125892 0.545 
0.068829 0.125661 0.544 
0.094185 0.125661 0.544 
0.119321 0.12543 0.543 
0.144098 0.124968 0.541 
0.169001 0.124737 0.54 
0.193811 0.124506 0.539 
0.217715 0.123813 0.536 
0.241793 0.123351 0.534 
0.266683 0.123351 0.534 
0.292119 0.123582 0.535 
0.31587 0.12312 0.533 
0.340713 0.12312 0.533 
0.364185 0.122658 0.531 
0.38747 0.122196 0.529 
0.412906 0.122427 0.53 
0.437609 0.122427 0.53 
0.460568 0.121965 0.528 
0.483341 0.121503 0.526 
0.508823 0.121734 0.527 
-0.551407 0.156737 0.674 
-0.513507 0.156039 0.671 
-0.480794 0.155574 0.669 
-0.446924 0.154644 0.665 
-0.417179 0.155109 0.667 
-0.383774 0.154179 0.663 
-0.353936 0.154644 0.665 
-0.322455 0.154412 0.664 
-0.291067 0.154179 0.663 
-0.260556 0.154412 0.664 
-0.227532 0.153016 0.658 
-0.188789 0.149063 0.641 
-0.158664 0.148831 0.64 
-0.132255 0.152784 0.657 
-0.101632 0.152784 0.657 
-0.0700367 0.150691 0.648 
-0.0106784 0.127204 0.547 
0.0148174 0.127204 0.547 
0.0400922 0.126506 0.544 
0.0662934 0.126506 0.544 
0.0914809 0.126273 0.543 
0.116575 0.126041 0.542 
0.141315 0.125576 0.54 
0.166484 0.125576 0.54 
0.191299 0.125343 0.539 
0.214816 0.124413 0.535 
0.238856 0.123948 0.533 
0.264194 0.12418 0.534 
0.289625 0.124413 0.535 
0.313386 0.123948 0.533 
0.337594 0.123715 0.532 
0.36171 0.123483 0.531 
0.385004 0.123018 0.529 
0.410436 0.12325 0.53 
0.435139 0.12325 0.53 
0.458107 0.122785 0.528 
0.480889 0.12232 0.526 
0.506367 0.122553 0.527 
-0.554772 0.15755 0.673 
-0.521847 0.157082 0.671 
-0.488379 0.15638 0.668 
-0.455874 0.155912 0.666 
-0.425469 0.156146 0.667 
-0.388338 0.154975 0.662 
-0.358562 0.155443 0.664 
-0.327613 0.155443 0.664 
-0.296217 0.155209 0.663 
-0.264914 0.154975 0.662 
-0.23229 0.153805 0.657 
-0.193164 0.149591 0.639 
-0.165681 0.151698 0.648 
-0.137359 0.153805 0.657 
-0.106899 0.154039 0.658 
-0.075534 0.152634 0.652 
-0.0411364 0.149123 0.637 
0.00888462 0.128288 0.548 
0.0341129 0.127117 0.543 
0.0630282 0.127585 0.545 
0.0882686 0.127351 0.544 
0.113207 0.126883 0.542 
0.137703 0.126181 0.539 
0.162826 0.126181 0.539 
0.187949 0.126181 0.539 
0.211886 0.125478 0.536 
0.235102 0.124542 0.532 
0.260875 0.12501 0.534 
0.2863 0.125244 0.535 
0.309492 0.124542 0.532 
0.334288 0.124542 0.532 
0.35841 0.124308 0.531 
0.381717 0.12384 0.529 
0.407142 0.124074 0.53 
0.431845 0.124074 0.53 
0.454826 0.123606 0.528 
0.47762 0.123137 0.526 
0.502137 0.123137 0.526 
-0.557908 0.158596 0.673 
-0.52107 0.157889 0.67 
-0.487647 0.157182 0.667 
-0.455874 0.156946 0.666 
-0.424831 0.156946 0.666 
-0.389367 0.156004 0.662 
-0.359052 0.156239 0.663 
-0.328645 0.156475 0.664 
-0.297695 0.156475 0.664 
-0.265943 0.156004 0.662 
-0.232956 0.15459 0.656 
-0.195455 0.150819 0.64 
-0.165937 0.15294 0.649 
-0.137359 0.154825 0.657 
-0.106736 0.154825 0.657 
-0.075534 0.153647 0.652 
-0.0428451 0.14917 0.633 
0.0105874 0.129139 0.548 
0.0358002 0.127961 0.543 
0.0653279 0.127961 0.543 
0.0906372 0.127961 0.543 
0.11552 0.127489 0.541 
0.140215 0.127018 0.539 
0.165338 0.127018 0.539 
0.190108 0.126782 0.538 
0.216478 0.126075 0.535 
0.240061 0.125368 0.532 
0.264858 0.125368 0.532 
0.291288 0.126075 0.535 
0.314451 0.125368 0.532 
0.33861 0.125133 0.531 
0.362676 0.124897 0.53 
0.385186 0.12419 0.527 
0.412127 0.124662 0.529 
0.436784 0.124662 0.529 
0.459696 0.12419 0.527 
0.482422 0.123719 0.525 
0.507858 0.123955 0.526 
-0.549995 0.159167 0.671 
-0.515095 0.158693 0.669 
-0.482466 0.158218 0.667 
-0.450023 0.157744 0.665 
-0.419028 0.157744 0.665 
-0.382038 0.156558 0.66 
-0.352872 0.157269 0.663 
-0.321969 0.157269 0.663 
-0.291067 0.157269 0.663 
-0.259379 0.156795 0.661 
-0.226495 0.155372 0.655 
-0.190483 0.151814 0.64 
-0.155438 0.151576 0.639 
-0.128996 0.155609 0.656 
-0.0984201 0.155609 0.656 
-0.0653984 0.152288 0.642 
-0.00639384 0.129042 0.544 
0.0190667 0.129753 0.547 
0.0442367 0.128804 0.543 
0.0729207 0.128804 0.543 
0.0982301 0.128804 0.543 
0.123312 0.128567 0.542 
0.148026 0.128093 0.54 
0.172555 0.127618 0.538 
0.197631 0.127618 0.538 
0.221051 0.126669 0.534 
0.245481 0.126432 0.533 
0.26931 0.125958 0.531 
0.294614 0.126195 0.532 
0.31881 0.125958 0.531 
0.34356 0.125958 0.531 
0.367616 0.125721 0.53 
0.389359 0.124772 0.526 
0.41545 0.125246 0.528 
0.439226 0.125009 0.527 
0.46291 0.124772 0.526 
0.4865 0.124535 0.525 
0.510812 0.124297 0.524 
-0.544077 0.160926 0.674 
-0.508098 0.159493 0.668 
-0.475534 0.159016 0.666 
-0.442489 0.158299 0.663 
-0.412208 0.158538 0.664 
-0.378163 0.158538 0.664 
-0.346168 0.158061 0.662 
-0.315312 0.158061 0.662 
-0.284886 0.158299 0.663 
-0.252068 0.157106 0.658 
-0.219716 0.155912 0.653 
-0.186961 0.154002 0.645 
-0.153961 0.152092 0.637 
-0.1239 0.156628 0.656 
-0.0934663 0.156867 0.657 
-0.0589509 0.152092 0.637 
-0.00132264 0.129887 0.544 
0.0241217 0.130364 0.546 
0.0492986 0.129648 0.543 
0.078681 0.129409 0.542 
0.103752 0.12917 0.541 
0.129207 0.129409 0.542 
0.153329 0.128454 0.538 
0.178074 0.128215 0.537 
0.202726 0.127977 0.536 
0.226434 0.12726 0.533 
0.250806 0.127022 0.532 
0.275085 0.126783 0.531 
0.299835 0.126783 0.531 
0.323974 0.126544 0.53 
0.348677 0.126544 0.53 
0.372676 0.126305 0.529 
0.395831 0.125828 0.527 
0.420394 0.125828 0.527 
0.444958 0.125828 0.527 
0.46774 0.12535 0.525 
0.49221 0.12535 0.525 
0.514712 0.124873 0.523 
-0.537794 0.161973 0.674 
-0.501119 0.160291 0.667 
-0.468621 0.15981 0.665 
-0.438283 0.160051 0.666 
-0.404743 0.160291 0.667 
-0.372534 0.15981 0.665 
-0.339484 0.158849 0.661 
-0.310075 0.15957 0.664 
-0.277865 0.158849 0.661 
-0.24556 0.157888 0.657 
-0.209358 0.154523 0.643 
-0.181899 0.156686 0.652 
-0.141379 0.156686 0.652 
-0.11184 0.157888 0.657 
-0.0809698 0.157407 0.655 
-0.0455785 0.151399 0.63 
0.00460221 0.130972 0.545 
0.0298397 0.130251 0.542 
0.0552041 0.130492 0.543 
0.0802169 0.130011 0.541 
0.105433 0.130011 0.541 
0.130649 0.130011 0.541 
0.154713 0.12905 0.537 
0.179743 0.12905 0.537 
0.20401 0.128569 0.535 
0.228919 0.128088 0.533 
0.25281 0.127608 0.531 
0.27756 0.127608 0.531 
0.30231 0.127608 0.531 
0.325828 0.127127 0.529 
0.350485 0.127127 0.529 
0.374433 0.126887 0.528 
0.398287 0.126647 0.527 
0.422851 0.126647 0.527 
0.446565 0.126406 0.526 
0.470187 0.126166 0.525 
0.493715 0.125926 0.524 
0.51715 0.125685 0.523 
-0.53411 0.162536 0.672 
-0.498299 0.161085 0.666 
-0.464821 0.160602 0.664 
-0.434525 0.160843 0.665 
-0.404743 0.161327 0.667 
-0.370942 0.160602 0.664 
-0.334349 0.159876 0.661 
-0.305376 0.160843 0.665 
-0.272317 0.159634 0.66 
-0.239725 0.158425 0.655 
-0.203765 0.154313 0.638 
-0.178119 0.157941 0.653 
-0.137959 0.158425 0.655 
-0.107429 0.158425 0.655 
-0.074521 0.157699 0.652 
-0.0131313 0.131335 0.543 
0.0122678 0.132303 0.547 
0.0390305 0.130852 0.541 
0.0643655 0.131093 0.542 
0.0897936 0.131335 0.543 
0.114467 0.13061 0.54 
0.139119 0.130126 0.538 
0.163585 0.129642 0.536 
0.188569 0.129642 0.536 
0.213584 0.129158 0.534 
0.237135 0.128433 0.531 
0.261885 0.128433 0.531 
0.288254 0.129158 0.534 
0.310798 0.128191 0.53 
0.335502 0.128191 0.53 
0.359526 0.127949 0.529 
0.38273 0.127465 0.527 
0.407294 0.127465 0.527 
0.431857 0.127465 0.527 
0.454689 0.126982 0.525 
0.477334 0.126498 0.523 
0.501711 0.126498 0.523 
-0.554592 0.16285 0.669 
-0.522628 0.162607 0.668 
-0.489285 0.161877 0.665 
-0.456568 0.161633 0.664 
-0.425619 0.161633 0.664 
-0.394075 0.16139 0.663 
-0.361596 0.161146 0.662 
-0.32716 0.160903 0.661 
-0.29635 0.160903 0.661 
-0.264336 0.160173 0.658 
-0.232601 0.159442 0.655 
-0.196827 0.155304 0.638 
-0.170756 0.158712 0.652 
-0.128407 0.158956 0.653 
-0.09827 0.159442 0.655 
-0.0597524 0.154574 0.635 
-0.00384405 0.131936 0.542 
0.0215768 0.132909 0.546 
0.0492078 0.131936 0.542 
0.0743332 0.131692 0.541 
0.0995493 0.131692 0.541 
0.124766 0.131692 0.541 
0.148873 0.130718 0.537 
0.173579 0.130475 0.536 
0.198562 0.130475 0.536 
0.222294 0.129745 0.533 
0.24621 0.129258 0.531 
0.270761 0.128771 0.529 
0.298447 0.129014 0.53 
0.32254 0.128771 0.529 
0.347197 0.128771 0.529 
0.371151 0.128528 0.528 
0.393513 0.127797 0.525 
0.418779 0.128041 0.526 
0.442454 0.127797 0.525 
0.466035 0.127554 0.524 
0.489522 0.12731 0.523 
0.511934 0.126824 0.521 
-0.541418 0.164625 0.672 
-0.505542 0.163155 0.666 
-0.473074 0.162665 0.664 
-0.441459 0.16242 0.663 
-0.411176 0.162665 0.664 
-0.377936 0.161685 0.66 
-0.342046 0.161685 0.66 
-0.311755 0.16193 0.661 
-0.280521 0.161685 0.66 
-0.248244 0.160705 0.656 
-0.213354 0.15752 0.643 
-0.18481 0.158745 0.648 
-0.145321 0.1585 0.647 
-0.116766 0.160705 0.656 
-0.0859267 0.160215 0.654 
-0.0483609 0.153846 0.628 
0.00204681 0.132533 0.541 
0.0281035 0.132533 0.541 
0.0533197 0.132533 0.541 
0.0783907 0.132288 0.54 
0.10356 0.132288 0.54 
0.12873 0.132288 0.54 
0.152759 0.131308 0.536 
0.177742 0.131308 0.536 
0.201969 0.130818 0.534 
0.226009 0.130328 0.532 
0.250335 0.130083 0.531 
0.278385 0.130083 0.531 
0.301993 0.129593 0.529 
0.326032 0.129348 0.528 
0.350643 0.129348 0.528 
0.375253 0.129348 0.528 
0.396834 0.128368 0.524 
0.422866 0.128858 0.526 
0.446532 0.128613 0.525 
0.470105 0.128368 0.524 
0.493585 0.128123 0.523 
0.515982 0.127633 0.521 
-0.533561 0.165176 0.67 
-0.498584 0.163943 0.665 
-0.466181 0.16345 0.663 
-0.435279 0.16345 0.663 
-0.406206 0.16419 0.666 
-0.37291 0.163203 0.662 
-0.337433 0.162464 0.659 
-0.308113 0.163203 0.662 
-0.276 0.162464 0.659 
-0.244167 0.161724 0.656 
-0.206753 0.156547 0.635 
-0.180149 0.160985 0.653 
-0.1461 0.159259 0.646 
-0.117606 0.161478 0.655 
-0.0868099 0.160985 0.653 
-0.049258 0.154575 0.627 
0.00204681 0.133373 0.541 
0.0272126 0.133127 0.54 
0.0524792 0.133373 0.541 
0.0775517 0.133127 0.54 
0.102721 0.133127 0.54 
0.127891 0.133127 0.54 
0.151927 0.132141 0.536 
0.17691 0.132141 0.536 
0.20114 0.131647 0.534 
0.225183 0.131154 0.532 
0.24904 0.130661 0.53 
0.273227 0.130415 0.529 
0.301171 0.130415 0.529 
0.325212 0.130168 0.528 
0.349822 0.130168 0.528 
0.373723 0.129922 0.527 
0.39602 0.129182 0.524 
0.422048 0.129675 0.526 
0.444867 0.129182 0.524 
0.468396 0.128936 0.523 
0.49183 0.128689 0.522 
0.514183 0.128196 0.52 
-0.533804 0.165969 0.669 
-0.499617 0.164976 0.665 
-0.466507 0.164232 0.662 
-0.436309 0.16448 0.663 
-0.407241 0.165224 0.666 
-0.373374 0.163984 0.661 
-0.342046 0.163736 0.66 
-0.311755 0.163984 0.661 
-0.280096 0.163488 0.659 
-0.247487 0.162247 0.654 
-0.20774 0.157534 0.635 
-0.180886 0.161751 0.652 
-0.142965 0.161255 0.65 
-0.113362 0.162247 0.654 
-0.0813617 0.161255 0.65 
-0.0491795 0.155301 0.626 
0.00204681 0.134214 0.541 
0.0272126 0.133966 0.54 
0.0523821 0.133966 0.54 
0.0774081 0.133718 0.539 
0.102721 0.133966 0.54 
0.127891 0.133966 0.54 
0.151643 0.132725 0.535 
0.17658 0.132725 0.535 
0.20114 0.132477 0.534 
0.22476 0.131733 0.531 
0.24904 0.131485 0.53 
0.273227 0.131237 0.529 
0.297884 0.131237 0.529 
0.321931 0.130989 0.528 
0.346541 0.130989 0.528 
0.370448 0.130741 0.527 
0.392763 0.129996 0.524 
0.417983 0.130244 0.525 
0.441611 0.129996 0.524 
0.465145 0.129748 0.523 
0.488586 0.1295 0.522 
0.510952 0.129004 0.52 
-0.538196 0.166758 0.668 
-0.501683 0.166009 0.665 
-0.468564 0.16526 0.662 
-0.438369 0.16551 0.663 
-0.408081 0.16576 0.664 
-0.375428 0.165011 0.661 
-0.344097 0.164761 0.66 
-0.313809 0.165011 0.661 
-0.281715 0.164262 0.658 
-0.249138 0.163014 0.653 
-0.208398 0.158271 0.634 
-0.183078 0.162015 0.649 
-0.144316 0.161516 0.647 
-0.115041 0.162764 0.652 
-0.0843913 0.162265 0.65 
-0.051043 0.156024 0.625 
0.000365059 0.134805 0.54 
0.0255346 0.134805 0.54 
0.0506103 0.134555 0.539 
0.0757332 0.134555 0.539 
0.100856 0.134555 0.539 
0.126213 0.134805 0.54 
0.149981 0.133556 0.535 
0.174917 0.133556 0.535 
0.199107 0.133057 0.533 
0.22311 0.132558 0.531 
0.247393 0.132308 0.53 
0.271583 0.132059 0.529 
0.29568 0.131809 0.528 
0.319683 0.131559 0.527 
0.344247 0.131559 0.527 
0.368811 0.131559 0.527 
0.391881 0.13106 0.525 
0.416352 0.13106 0.525 
0.439143 0.130561 0.523 
0.462634 0.130311 0.522 
0.486032 0.130061 0.521 
0.509336 0.129812 0.52 
-0.540499 0.167545 0.667 
-0.506849 0.167043 0.665 
-0.473707 0.166289 0.662 
-0.442851 0.166289 0.662 
-0.411372 0.166038 0.661 
-0.379987 0.165787 0.66 
-0.349753 0.166038 0.661 
-0.318944 0.166038 0.661 
-0.286827 0.165284 0.658 
-0.254211 0.164028 0.653 
-0.224117 0.164279 0.654 
-0.186381 0.161516 0.643 
-0.146732 0.160763 0.64 
-0.11891 0.163526 0.651 
-0.0885669 0.163526 0.651 
-0.0538698 0.156744 0.624 
-0.0021519 0.135644 0.54 
0.0230177 0.135644 0.54 
0.0480088 0.135141 0.538 
0.0730851 0.135141 0.538 
0.0983439 0.135392 0.539 
0.123467 0.135392 0.539 
0.147763 0.134639 0.536 
0.172424 0.134388 0.535 
0.196622 0.133885 0.533 
0.220635 0.133383 0.531 
0.24446 0.13288 0.529 
0.268609 0.132629 0.528 
0.293219 0.132629 0.528 
0.317227 0.132378 0.527 
0.341791 0.132378 0.527 
0.366354 0.132378 0.527 
0.389434 0.131876 0.525 
0.413116 0.131625 0.524 
0.436705 0.131373 0.523 
0.461082 0.131373 0.523 
0.483603 0.130871 0.521 
0.506912 0.13062 0.52 
-0.540723 0.168328 0.666 
-0.508915 0.168076 0.665 
-0.475764 0.167318 0.662 
-0.444908 0.167318 0.662 
-0.412801 0.166812 0.66 
-0.381459 0.166559 0.659 
-0.351807 0.167065 0.661 
-0.320512 0.166812 0.66 
-0.288871 0.166307 0.658 
-0.256632 0.165296 0.654 
-0.226149 0.165296 0.654 
-0.18467 0.162768 0.644 
-0.144647 0.162768 0.644 
-0.115698 0.164285 0.65 
-0.0852698 0.164032 0.649 
-0.0490224 0.157713 0.624 
0.00204303 0.136483 0.54 
0.0271118 0.135977 0.538 
0.0522851 0.13623 0.539 
0.0772645 0.135977 0.538 
0.102531 0.13623 0.539 
0.127417 0.135977 0.538 
0.151643 0.135219 0.535 
0.17658 0.135219 0.535 
0.200763 0.134713 0.533 
0.224336 0.133955 0.53 
0.24857 0.133702 0.529 
0.273227 0.133702 0.529 
0.29732 0.13345 0.528 
0.321321 0.133197 0.527 
0.345228 0.132944 0.526 
0.369745 0.132944 0.526 
0.392763 0.132439 0.524 
0.417187 0.132439 0.524 
0.440768 0.132186 0.523 
0.463366 0.13168 0.521 
0.48765 0.13168 0.521 
0.509969 0.131175 0.519 
-0.52672 0.168855 0.664 
-0.496517 0.169109 0.665 
-0.462721 0.168092 0.661 
-0.431258 0.167837 0.66 
-0.399048 0.168092 0.661 
-0.367125 0.167583 0.659 
-0.335388 0.167075 0.657 
-0.304765 0.167075 0.657 
-0.273724 0.16682 0.656 
-0.242407 0.166312 0.654 
-0.196628 0.160463 0.631 
-0.171987 0.16504 0.649 
-0.137327 0.165803 0.652 
-0.106773 0.165549 0.651 
-0.0757252 0.164023 0.645 
-0.0130829 0.137576 0.541 
0.0121333 0.137576 0.541 
0.0370043 0.136304 0.536 
0.0622187 0.136813 0.538 
0.0874573 0.137067 0.539 
0.112371 0.136813 0.538 
0.136937 0.136304 0.536 
0.161618 0.13605 0.535 
0.186206 0.135796 0.534 
0.210305 0.135287 0.532 
0.233776 0.134524 0.529 
0.257944 0.13427 0.528 
0.282019 0.134016 0.527 
0.306001 0.133761 0.526 
0.330518 0.133761 0.526 
0.355035 0.133761 0.526 
0.378831 0.133507 0.525 
0.400996 0.132744 0.522 
0.426957 0.133253 0.524 
0.448796 0.13249 0.521 
0.472172 0.132236 0.52 
0.496409 0.132236 0.52 
-0.557279 0.170398 0.666 
-0.523866 0.16963 0.663 
-0.493707 0.169886 0.664 
-0.460667 0.169119 0.661 
-0.429208 0.168863 0.66 
-0.398445 0.168863 0.66 
-0.367125 0.168607 0.659 
-0.334367 0.168095 0.657 
-0.303744 0.168095 0.657 
-0.272705 0.167839 0.656 
-0.241391 0.167328 0.654 
-0.200231 0.161187 0.63 
-0.176291 0.166304 0.65 
-0.139139 0.16656 0.651 
-0.108462 0.166049 0.649 
-0.0778499 0.165281 0.646 
-0.0138977 0.138161 0.54 
0.0112719 0.138161 0.54 
0.0361715 0.137137 0.536 
0.0613828 0.137649 0.538 
0.0864591 0.137649 0.538 
0.111328 0.137393 0.537 
0.136104 0.137137 0.536 
0.160787 0.136881 0.535 
0.185029 0.13637 0.533 
0.209085 0.135858 0.531 
0.232954 0.135346 0.529 
0.257124 0.13509 0.528 
0.280667 0.134579 0.526 
0.305184 0.134579 0.526 
0.329701 0.134579 0.526 
0.353544 0.134323 0.525 
0.380551 0.134067 0.524 
0.404202 0.133811 0.523 
0.428579 0.133811 0.523 
0.451225 0.133299 0.521 
0.473683 0.132788 0.519 
0.498833 0.133043 0.52 
-0.554175 0.171433 0.666 
-0.520776 0.170661 0.663 
-0.489873 0.170661 0.663 
-0.457586 0.170146 0.661 
-0.426131 0.169888 0.66 
-0.393148 0.169373 0.658 
-0.355425 0.170403 0.662 
-0.322608 0.169373 0.658 
-0.291051 0.168859 0.656 
-0.260475 0.168859 0.656 
-0.228847 0.168086 0.653 
-0.190066 0.162681 0.632 
-0.158616 0.161651 0.628 
-0.134288 0.167829 0.652 
-0.103579 0.167314 0.65 
-0.0721551 0.16474 0.64 
-0.0113807 0.139 0.54 
0.0137888 0.139 0.54 
0.0386698 0.13797 0.536 
0.0638904 0.138485 0.538 
0.0888014 0.138227 0.537 
0.113619 0.13797 0.536 
0.138344 0.137712 0.535 
0.162975 0.137455 0.534 
0.187161 0.13694 0.532 
0.211161 0.136425 0.53 
0.234975 0.135911 0.528 
0.259585 0.135911 0.528 
0.283119 0.135396 0.526 
0.307636 0.135396 0.526 
0.332153 0.135396 0.526 
0.355991 0.135138 0.525 
0.385436 0.134881 0.524 
0.409078 0.134624 0.523 
0.432626 0.134366 0.522 
0.456081 0.134109 0.521 
0.478521 0.133594 0.519 
0.502712 0.133594 0.519 
-0.547353 0.17195 0.664 
-0.515626 0.171691 0.663 
-0.483992 0.171432 0.662 
-0.452451 0.171173 0.661 
-0.420366 0.170655 0.659 
-0.386426 0.170137 0.657 
-0.346148 0.170914 0.66 
-0.313474 0.169878 0.656 
-0.282466 0.169619 0.655 
-0.250398 0.168583 0.651 
-0.218702 0.167547 0.647 
-0.184805 0.165993 0.641 
-0.148859 0.162627 0.628 
-0.123206 0.167547 0.647 
-0.0933365 0.168065 0.649 
-0.0597824 0.16185 0.625 
-0.00298534 0.13958 0.539 
0.0220555 0.139062 0.537 
0.0469975 0.138803 0.536 
0.0721149 0.139062 0.537 
0.0971446 0.139062 0.537 
0.121719 0.138544 0.535 
0.146382 0.138285 0.534 
0.170951 0.138026 0.533 
0.19506 0.137508 0.531 
0.218568 0.136731 0.528 
0.242717 0.136472 0.527 
0.267788 0.136731 0.528 
0.290737 0.135954 0.525 
0.315808 0.136213 0.526 
0.339031 0.135695 0.524 
0.363455 0.135695 0.524 
0.392014 0.135436 0.523 
0.415595 0.135177 0.522 
0.439083 0.134918 0.521 
0.462477 0.134659 0.52 
0.486714 0.134659 0.52 
0.508987 0.134141 0.518 
-0.537257 0.172721 0.663 
-0.505591 0.17246 0.662 
-0.473301 0.171939 0.66 
-0.443209 0.1722 0.661 
-0.409904 0.171158 0.657 
-0.37826 0.171158 0.657 
-0.337935 0.170897 0.656 
-0.305405 0.170376 0.654 
-0.274922 0.170376 0.654 
-0.241022 0.170116 0.653 
-0.200571 0.163603 0.628 
-0.176483 0.168552 0.647 
-0.143749 0.166729 0.64 
-0.114986 0.168292 0.646 
-0.0847443 0.168031 0.645 
-0.0527308 0.16204 0.622 
0.000364383 0.140417 0.539 
0.0253455 0.139635 0.536 
0.0503286 0.139635 0.536 
0.0753117 0.139635 0.536 
0.100482 0.139896 0.537 
0.125044 0.139375 0.535 
0.149981 0.139375 0.535 
0.174263 0.138854 0.533 
0.19836 0.138333 0.531 
0.221849 0.137551 0.528 
0.245526 0.13703 0.526 
0.270556 0.137291 0.527 
0.294 0.13677 0.525 
0.31847 0.13677 0.525 
0.342287 0.136509 0.524 
0.366011 0.136249 0.523 
0.393697 0.135988 0.522 
0.418028 0.135988 0.522 
0.440663 0.135467 0.52 
0.464007 0.135207 0.519 
0.488198 0.135207 0.519 
0.511401 0.134946 0.518 
-0.533362 0.173489 0.662 
-0.501746 0.173227 0.661 
-0.469512 0.172703 0.659 
-0.438796 0.172703 0.659 
-0.406222 0.171916 0.656 
-0.376218 0.172178 0.657 
-0.336402 0.171654 0.655 
-0.304471 0.170868 0.652 
-0.274502 0.17113 0.653 
-0.242944 0.170344 0.65 
-0.203823 0.16484 0.629 
-0.176483 0.169558 0.647 
-0.142977 0.167985 0.641 
-0.113806 0.169034 0.645 
-0.0836123 0.168772 0.644 
-0.0516812 0.162744 0.621 
0.000364383 0.141254 0.539 
0.0252982 0.140206 0.535 
0.0503286 0.140468 0.536 
0.0753117 0.140468 0.536 
0.100295 0.140468 0.536 
0.125044 0.140206 0.535 
0.1497 0.139944 0.534 
0.174263 0.139682 0.533 
0.19836 0.139158 0.531 
0.221849 0.138372 0.528 
0.245526 0.137848 0.526 
0.270043 0.137848 0.526 
0.29344 0.137323 0.524 
0.31847 0.137585 0.525 
0.342287 0.137323 0.524 
0.366011 0.137061 0.523 
0.391264 0.136799 0.522 
0.414799 0.136537 0.521 
0.43824 0.136275 0.52 
0.461588 0.136013 0.519 
0.485778 0.136013 0.519 
0.508004 0.135489 0.517 
-0.533583 0.174254 0.661 
-0.502013 0.17399 0.66 
-0.470536 0.173726 0.659 
-0.43982 0.173726 0.659 
-0.407241 0.172936 0.656 
-0.376665 0.172936 0.656 
-0.340992 0.172936 0.656 
-0.308523 0.171881 0.652 
-0.278133 0.171881 0.652 
-0.246604 0.17109 0.649 
-0.207083 0.166081 0.63 
-0.178217 0.170299 0.646 
-0.140863 0.170036 0.645 
-0.110628 0.169772 0.644 
-0.0804854 0.169508 0.643 
-0.0487081 0.163445 0.62 
0.00287134 0.141828 0.538 
0.0277918 0.141037 0.535 
0.0528269 0.141301 0.536 
0.07781 0.141301 0.536 
0.102601 0.141037 0.535 
0.127299 0.140774 0.534 
0.152189 0.140774 0.534 
0.176416 0.140246 0.532 
0.200835 0.139983 0.531 
0.223885 0.138928 0.527 
0.247506 0.138401 0.525 
0.272494 0.138665 0.526 
0.295882 0.138138 0.524 
0.320306 0.138138 0.524 
0.344072 0.137874 0.523 
0.368556 0.13761 0.522 
0.392886 0.13761 0.522 
0.416417 0.137347 0.521 
0.43901 0.136819 0.519 
0.4632 0.136819 0.519 
0.486452 0.136556 0.518 
0.50961 0.136292 0.517 
-0.529699 0.175015 0.66 
-0.499692 0.175281 0.661 
-0.466755 0.174485 0.658 
-0.436085 0.174485 0.658 
-0.403567 0.17369 0.655 
-0.373038 0.17369 0.655 
-0.342508 0.17369 0.655 
-0.310549 0.172894 0.652 
-0.27973 0.172629 0.651 
-0.24862 0.172099 0.649 
-0.216351 0.170507 0.643 
-0.181668 0.170773 0.644 
-0.142977 0.169977 0.641 
-0.113629 0.170773 0.644 
-0.0803603 0.170242 0.642 
-0.0477448 0.164408 0.62 
0.000363707 0.142664 0.538 
0.0252509 0.141603 0.534 
0.0502347 0.141869 0.535 
0.0753117 0.142134 0.536 
0.100108 0.141869 0.535 
0.12481 0.141603 0.534 
0.14942 0.141338 0.533 
0.173936 0.141073 0.532 
0.197986 0.140543 0.53 
0.222248 0.139747 0.527 
0.245875 0.139217 0.525 
0.270345 0.139217 0.525 
0.293692 0.138686 0.523 
0.31807 0.138686 0.523 
0.342447 0.138686 0.523 
0.366231 0.138156 0.521 
0.390515 0.138156 0.521 
0.414002 0.137891 0.52 
0.43824 0.137891 0.52 
0.461588 0.137626 0.519 
0.484842 0.137361 0.518 
0.508004 0.137095 0.517 
-0.534826 0.176041 0.66 
-0.5033 0.175774 0.659 
-0.472584 0.175774 0.659 
-0.441868 0.175774 0.659 
-0.408656 0.174707 0.655 
-0.378126 0.174707 0.655 
-0.348127 0.174974 0.656 
-0.31513 0.17364 0.651 
-0.284787 0.17364 0.651 
-0.254053 0.173374 0.65 
-0.223412 0.173107 0.649 
-0.186433 0.168839 0.633 
-0.145649 0.168306 0.631 
-0.118632 0.171773 0.644 
-0.0853476 0.17124 0.642 
-0.0535245 0.165372 0.62 
-0.00381568 0.1435 0.538 
0.0211421 0.1427 0.535 
0.0460786 0.1427 0.535 
0.0710151 0.1427 0.535 
0.0959516 0.1427 0.535 
0.120436 0.142166 0.533 
0.144734 0.141633 0.531 
0.169484 0.141633 0.531 
0.193869 0.141366 0.53 
0.217335 0.140566 0.527 
0.240981 0.140033 0.525 
0.265451 0.140033 0.525 
0.288817 0.139499 0.523 
0.313194 0.139499 0.523 
0.336926 0.139232 0.522 
0.361256 0.139232 0.522 
0.384848 0.138966 0.521 
0.409132 0.138966 0.521 
0.432584 0.138699 0.52 
0.455943 0.138432 0.519 
0.478284 0.137899 0.517 
0.50141 0.137632 0.516 
-0.540979 0.177066 0.66 
-0.507395 0.176798 0.659 
-0.476679 0.176798 0.659 
-0.445963 0.176798 0.659 
-0.411709 0.175725 0.655 
-0.381179 0.175725 0.655 
-0.350114 0.175457 0.654 
-0.318165 0.174652 0.651 
-0.288263 0.17492 0.652 
-0.257478 0.174652 0.651 
-0.226437 0.174115 0.649 
-0.185511 0.171701 0.64 
-0.141425 0.172505 0.643 
-0.111455 0.172505 0.643 
-0.0792392 0.171969 0.641 
-0.0477448 0.166335 0.62 
0.000363031 0.144068 0.537 
0.0252509 0.143263 0.534 
0.0501408 0.143263 0.534 
0.0751712 0.143531 0.535 
0.100108 0.143531 0.535 
0.124577 0.142994 0.533 
0.14914 0.142726 0.532 
0.173609 0.142458 0.531 
0.197986 0.14219 0.53 
0.221009 0.141116 0.526 
0.244592 0.14058 0.524 
0.269016 0.14058 0.524 
0.29232 0.140043 0.522 
0.31665 0.140043 0.522 
0.340981 0.140043 0.522 
0.364612 0.139775 0.521 
0.388149 0.139507 0.52 
0.412387 0.139507 0.52 
0.436624 0.139507 0.52 
0.459089 0.13897 0.518 
0.4823 0.138702 0.517 
0.504439 0.138165 0.515 
-0.536064 0.177822 0.659 
-0.501514 0.177552 0.658 
-0.470844 0.177552 0.658 
-0.439506 0.177282 0.657 
-0.404984 0.176473 0.654 
-0.375073 0.176743 0.655 
-0.340939 0.175933 0.652 
-0.309597 0.175393 0.65 
-0.27887 0.175124 0.649 
-0.248237 0.174854 0.648 
-0.199294 0.168378 0.624 
-0.175392 0.173505 0.643 
-0.128638 0.173774 0.644 
-0.0983146 0.173235 0.642 
-0.0668994 0.169457 0.628 
-0.0374483 0.168647 0.625 
0.00952283 0.144632 0.536 
0.0343772 0.144092 0.534 
0.0593781 0.144362 0.535 
0.0839994 0.143823 0.533 
0.109047 0.144092 0.534 
0.133184 0.143283 0.531 
0.157637 0.143013 0.53 
0.18234 0.143013 0.53 
0.206263 0.142473 0.528 
0.229561 0.141664 0.525 
0.253064 0.141124 0.523 
0.277441 0.141124 0.523 
0.301241 0.140854 0.522 
0.324948 0.140585 0.521 
0.349232 0.140585 0.521 
0.372082 0.140045 0.519 
0.397079 0.140045 0.519 
0.42127 0.140045 0.519 
0.443744 0.139505 0.517 
0.468746 0.139775 0.518 
0.490987 0.139235 0.516 
-0.558046 0.17966 0.662 
-0.518893 0.178574 0.658 
-0.48674 0.178032 0.656 
-0.456859 0.178303 0.657 
-0.417554 0.177217 0.653 
-0.38771 0.177489 0.654 
-0.354108 0.176946 0.652 
-0.323222 0.176675 0.651 
-0.292878 0.176675 0.651 
-0.262938 0.176946 0.652 
-0.231835 0.176403 0.65 
-0.187507 0.170975 0.63 
-0.14985 0.169347 0.624 
-0.124249 0.174232 0.642 
-0.0943247 0.174232 0.642 
-0.0623946 0.168804 0.622 
-0.0121292 0.145465 0.536 
0.0128539 0.145465 0.536 
0.0376959 0.144922 0.534 
0.0627029 0.145193 0.535 
0.0873118 0.144651 0.533 
0.112366 0.144922 0.534 
0.136227 0.143836 0.53 
0.160627 0.143565 0.529 
0.185284 0.143565 0.529 
0.209147 0.143022 0.527 
0.23238 0.142208 0.524 
0.256314 0.141937 0.523 
0.280154 0.141665 0.522 
0.304485 0.141665 0.522 
0.327556 0.141123 0.52 
0.35247 0.141394 0.521 
0.375307 0.140851 0.519 
0.399498 0.140851 0.519 
0.422873 0.14058 0.518 
0.445291 0.140037 0.516 
0.470251 0.140308 0.517 
0.492436 0.139766 0.515 
-0.550208 0.180143 0.66 
-0.517871 0.179597 0.658 
-0.48498 0.178778 0.655 
-0.455144 0.179051 0.656 
-0.421612 0.178232 0.653 
-0.389742 0.178505 0.654 
-0.35816 0.177959 0.652 
-0.325755 0.177413 0.65 
-0.295458 0.177413 0.65 
-0.265977 0.177959 0.652 
-0.234865 0.177413 0.65 
-0.188562 0.171135 0.627 
-0.152269 0.169771 0.622 
-0.127241 0.17523 0.642 
-0.0971655 0.174957 0.641 
-0.0657137 0.170863 0.626 
-0.0112964 0.146298 0.536 
0.0136611 0.146025 0.535 
0.0384534 0.145479 0.533 
0.0634154 0.145752 0.534 
0.08814 0.145479 0.533 
0.112983 0.145479 0.533 
0.137051 0.14466 0.53 
0.161144 0.144114 0.528 
0.186106 0.144387 0.529 
0.209966 0.143841 0.527 
0.233194 0.143022 0.524 
0.256635 0.142476 0.522 
0.280427 0.142203 0.521 
0.305296 0.142476 0.522 
0.328364 0.141931 0.52 
0.352601 0.141931 0.52 
0.375389 0.141385 0.518 
0.400304 0.141658 0.519 
0.423677 0.141385 0.518 
0.446957 0.141112 0.517 
0.470143 0.140839 0.516 
0.493237 0.140566 0.515 
-0.53934 0.180619 0.658 
-0.50867 0.180619 0.658 
-0.475821 0.179796 0.655 
-0.445291 0.179796 0.655 
-0.410836 0.178972 0.652 
-0.380446 0.178972 0.652 
-0.348982 0.178423 0.65 
-0.318195 0.178149 0.649 
-0.287945 0.178149 0.649 
-0.257695 0.178149 0.649 
-0.226394 0.177325 0.646 
-0.188186 0.172659 0.629 
-0.154201 0.170737 0.622 
-0.129236 0.176227 0.642 
-0.0991573 0.175953 0.641 
-0.0668994 0.172384 0.628 
-0.0121292 0.14713 0.536 
0.0128299 0.146856 0.535 
0.0376253 0.146307 0.533 
0.0625857 0.146581 0.534 
0.0873118 0.146307 0.533 
0.112155 0.146307 0.533 
0.136227 0.145483 0.53 
0.160323 0.144934 0.528 
0.185284 0.145209 0.529 
0.209147 0.14466 0.527 
0.231937 0.143562 0.523 
0.255824 0.143287 0.522 
0.279618 0.143013 0.521 
0.303902 0.143013 0.521 
0.326926 0.142464 0.519 
0.351793 0.142738 0.52 
0.374584 0.142189 0.518 
0.398728 0.142189 0.518 
0.422873 0.142189 0.518 
0.445291 0.14164 0.516 
0.469342 0.14164 0.516 
0.49148 0.141091 0.514 
-0.547518 0.181641 0.658 
-0.516063 0.181365 0.657 
-0.482485 0.180261 0.653 
-0.451724 0.180537 0.654 
-0.417286 0.179709 0.651 
-0.388131 0.180261 0.653 
-0.356052 0.179433 0.65 
-0.325254 0.179157 0.649 
-0.294549 0.178881 0.648 
-0.265162 0.179433 0.65 
-0.234504 0.179157 0.649 
-0.192199 0.17198 0.623 
-0.167613 0.176672 0.64 
-0.131231 0.177225 0.642 
-0.101149 0.176948 0.641 
-0.0691797 0.174188 0.631 
-0.0121292 0.147963 0.536 
0.012806 0.147411 0.534 
0.0376253 0.147135 0.533 
0.0624685 0.147135 0.533 
0.0873118 0.147135 0.533 
0.112155 0.147135 0.533 
0.136227 0.146307 0.53 
0.160323 0.145755 0.528 
0.184934 0.145755 0.528 
0.20875 0.145203 0.526 
0.231937 0.144374 0.523 
0.255824 0.144098 0.522 
0.279081 0.143546 0.52 
0.303902 0.143822 0.521 
0.326926 0.14327 0.519 
0.351117 0.14327 0.519 
0.377803 0.142994 0.518 
0.401948 0.142994 0.518 
0.426092 0.142994 0.518 
0.448498 0.142442 0.516 
0.471633 0.142166 0.515 
0.494675 0.14189 0.514 
-0.543624 0.182386 0.657 
-0.51222 0.182108 0.656 
-0.479441 0.181276 0.653 
-0.443932 0.181276 0.653 
-0.411217 0.18072 0.651 
-0.380874 0.18072 0.651 
-0.349454 0.180165 0.649 
-0.319204 0.180165 0.649 
-0.288954 0.180165 0.649 
-0.258704 0.180165 0.649 
-0.227398 0.179332 0.646 
-0.189234 0.17378 0.626 
-0.156134 0.17267 0.622 
-0.125246 0.178222 0.642 
-0.0950252 0.177667 0.64 
-0.0570075 0.171004 0.616 
0.00202033 0.148241 0.534 
0.0268598 0.147963 0.533 
0.0517031 0.147963 0.533 
0.0762592 0.147408 0.531 
0.10139 0.147963 0.533 
0.125759 0.147408 0.531 
0.149376 0.146297 0.527 
0.174269 0.146575 0.528 
0.19888 0.146575 0.528 
0.222611 0.145465 0.524 
0.246092 0.144909 0.522 
0.270422 0.144909 0.522 
0.293624 0.144354 0.52 
0.31725 0.144077 0.519 
0.340782 0.143799 0.518 
0.364927 0.143799 0.518 
0.393095 0.143799 0.518 
0.416433 0.143521 0.517 
0.438827 0.142966 0.515 
0.46373 0.143244 0.516 
0.48589 0.142689 0.514 
0.509848 0.142689 0.514 
-0.520819 0.182569 0.654 
-0.487558 0.18229 0.653 
-0.452048 0.18229 0.653 
-0.417655 0.181453 0.65 
-0.38855 0.182011 0.652 
-0.356512 0.181174 0.649 
-0.325759 0.180894 0.648 
-0.295556 0.180894 0.648 
-0.266171 0.181453 0.65 
-0.234786 0.180615 0.647 
-0.19479 0.173636 0.622 
-0.17033 0.178382 0.639 
-0.133018 0.17894 0.641 
-0.103141 0.17894 0.641 
-0.0632592 0.173357 0.621 
-0.00543644 0.148791 0.533 
0.0219322 0.14907 0.534 
0.0468221 0.14907 0.534 
0.0713092 0.148233 0.531 
0.0966019 0.14907 0.534 
0.120582 0.147954 0.53 
0.144737 0.147395 0.528 
0.168706 0.146837 0.526 
0.193957 0.147395 0.528 
0.216912 0.146279 0.524 
0.240415 0.14572 0.522 
0.264238 0.145441 0.521 
0.287968 0.145162 0.52 
0.311005 0.144604 0.518 
0.336602 0.144883 0.519 
0.360098 0.144604 0.518 
0.385047 0.144604 0.518 
0.409191 0.144604 0.518 
0.432498 0.144325 0.517 
0.45483 0.143766 0.515 
0.477904 0.143487 0.514 
0.500885 0.143208 0.513 
-0.531792 0.183866 0.655 
-0.497703 0.183305 0.653 
-0.466966 0.183585 0.654 
-0.433813 0.182463 0.65 
-0.402896 0.182182 0.649 
-0.37322 0.182463 0.65 
-0.340335 0.18162 0.647 
-0.310658 0.181901 0.648 
-0.280454 0.181901 0.648 
-0.249478 0.18134 0.646 
-0.218689 0.180778 0.644 
-0.184352 0.178533 0.636 
-0.148889 0.174041 0.62 
-0.117711 0.179375 0.639 
-0.0879272 0.179375 0.639 
-0.0519678 0.172076 0.613 
0.00367277 0.149619 0.533 
0.0285161 0.149619 0.533 
0.0533593 0.149619 0.533 
0.0777625 0.148777 0.53 
0.102853 0.149339 0.532 
0.127169 0.148777 0.53 
0.150727 0.147654 0.526 
0.175577 0.147935 0.527 
0.20014 0.147935 0.527 
0.223425 0.147093 0.524 
0.24643 0.146251 0.521 
0.270714 0.146251 0.521 
0.294431 0.14597 0.52 
0.317443 0.145409 0.518 
0.341587 0.145409 0.518 
0.365025 0.145128 0.517 
0.38837 0.144847 0.516 
0.414025 0.144847 0.516 
0.437227 0.144567 0.515 
0.461231 0.144567 0.515 
0.483351 0.144005 0.513 
0.507262 0.144005 0.513 
-0.519227 0.184037 0.652 
-0.484785 0.184037 0.652 
-0.455092 0.184319 0.653 
-0.422054 0.18319 0.649 
-0.393011 0.183755 0.651 
-0.363225 0.184037 0.652 
-0.329772 0.182343 0.646 
-0.30059 0.182908 0.648 
-0.270804 0.18319 0.649 
-0.239071 0.182061 0.645 
-0.198655 0.175569 0.622 
-0.174573 0.18065 0.64 
-0.138777 0.18065 0.64 
-0.108776 0.180368 0.639 
-0.0788683 0.180085 0.638 
-0.0449273 0.175287 0.621 
0.00531899 0.150165 0.532 
0.0309422 0.150165 0.532 
0.0556341 0.149883 0.531 
0.0802328 0.149601 0.53 
0.105134 0.149883 0.531 
0.129395 0.149318 0.529 
0.152887 0.148189 0.525 
0.178033 0.148754 0.527 
0.201828 0.148189 0.525 
0.225436 0.147625 0.523 
0.248858 0.14706 0.521 
0.272618 0.146778 0.52 
0.296855 0.146778 0.52 
0.319858 0.146213 0.518 
0.343338 0.145931 0.517 
0.366724 0.145649 0.516 
0.390775 0.145649 0.516 
0.414022 0.145367 0.515 
0.438027 0.145367 0.515 
0.462031 0.145367 0.515 
0.483204 0.14452 0.512 
0.508059 0.144802 0.513 
-0.518214 0.18505 0.652 
-0.487076 0.184766 0.651 
-0.457434 0.18505 0.652 
-0.424424 0.183915 0.648 
-0.395437 0.184482 0.65 
-0.365702 0.184766 0.651 
-0.332268 0.183063 0.645 
-0.303142 0.183631 0.647 
-0.273829 0.184199 0.649 
-0.241702 0.182779 0.644 
-0.202846 0.176819 0.623 
-0.178551 0.181644 0.64 
-0.14398 0.178238 0.628 
-0.115363 0.180793 0.637 
-0.0859416 0.18136 0.639 
-0.0538726 0.173981 0.613 
-0.00376604 0.150708 0.531 
0.0235474 0.151276 0.533 
0.0483907 0.151276 0.533 
0.0776157 0.15014 0.529 
0.102659 0.150708 0.531 
0.126929 0.15014 0.529 
0.15044 0.149005 0.525 
0.175244 0.149289 0.526 
0.199381 0.149005 0.525 
0.223425 0.148721 0.524 
0.245957 0.147586 0.52 
0.269674 0.147302 0.519 
0.294431 0.147586 0.52 
0.31683 0.146734 0.517 
0.340928 0.146734 0.517 
0.365025 0.146734 0.517 
0.387618 0.146167 0.515 
0.411622 0.146167 0.515 
0.435626 0.146167 0.515 
0.458738 0.145883 0.514 
0.480817 0.145315 0.512 
0.504682 0.145315 0.512 
-0.521253 0.186063 0.652 
-0.49011 0.185778 0.651 
-0.461179 0.186348 0.653 
-0.426785 0.184636 0.647 
-0.397854 0.185207 0.649 
-0.367604 0.185207 0.649 
-0.335275 0.184065 0.645 
-0.305684 0.184351 0.646 
-0.276854 0.185207 0.649 
-0.243944 0.183209 0.642 
-0.207401 0.179214 0.628 
-0.180967 0.182068 0.638 
-0.140106 0.181782 0.637 
-0.110415 0.181782 0.637 
-0.0808508 0.182068 0.638 
-0.0483939 0.17579 0.616 
0.00118621 0.151818 0.532 
0.0259829 0.151818 0.532 
0.0507796 0.151818 0.532 
0.0817252 0.150962 0.529 
0.106583 0.151248 0.53 
0.130543 0.150391 0.527 
0.15393 0.14925 0.523 
0.178989 0.149821 0.525 
0.203072 0.149535 0.524 
0.226627 0.148965 0.522 
0.249996 0.148394 0.52 
0.273179 0.147823 0.518 
0.298471 0.148394 0.52 
0.320847 0.147538 0.517 
0.344277 0.147252 0.516 
0.367614 0.146967 0.515 
0.390858 0.146682 0.514 
0.414816 0.146682 0.514 
0.439627 0.146967 0.515 
0.461831 0.146396 0.513 
0.484795 0.146111 0.512 
0.509653 0.146396 0.513 
-0.516407 0.186789 0.651 
-0.486064 0.186789 0.651 
-0.456421 0.187076 0.652 
-0.422764 0.185641 0.647 
-0.393821 0.186215 0.649 
-0.363571 0.186215 0.649 
-0.329752 0.184781 0.644 
-0.301131 0.185641 0.647 
-0.271812 0.186215 0.649 
-0.239329 0.184494 0.643 
-0.200588 0.178468 0.622 
-0.176562 0.183633 0.64 
-0.133805 0.183633 0.64 
-0.103649 0.183059 0.638 
-0.0736804 0.182485 0.636 
-0.0421682 0.178755 0.623 
0.00776934 0.152071 0.53 
0.0324728 0.152071 0.53 
0.0628216 0.151784 0.529 
0.0874785 0.151784 0.529 
0.111923 0.151497 0.528 
0.136016 0.150923 0.526 
0.162365 0.150349 0.524 
0.186433 0.150062 0.523 
0.21081 0.150062 0.523 
0.233388 0.148915 0.519 
0.261611 0.148915 0.519 
0.285251 0.148628 0.518 
0.308201 0.148054 0.516 
0.332895 0.148341 0.517 
0.356302 0.148054 0.516 
0.380353 0.148054 0.516 
0.402837 0.14748 0.514 
0.427625 0.147767 0.515 
0.449875 0.147193 0.513 
0.472863 0.146906 0.512 
0.495757 0.146619 0.511 
-0.532198 0.188377 0.653 
-0.499456 0.187512 0.65 
-0.471325 0.188377 0.653 
-0.439538 0.187801 0.651 
-0.406052 0.186358 0.646 
-0.376523 0.186647 0.647 
-0.345296 0.18607 0.645 
-0.314743 0.185781 0.644 
-0.285611 0.186358 0.646 
-0.254314 0.185493 0.643 
-0.223995 0.185204 0.642 
-0.187887 0.181165 0.628 
-0.145235 0.1803 0.625 
-0.118147 0.183473 0.636 
-0.0886416 0.183762 0.637 
-0.0538726 0.176838 0.613 
-0.00294103 0.153183 0.531 
0.021809 0.153183 0.531 
0.0465591 0.153183 0.531 
0.0765035 0.152029 0.527 
0.103094 0.152606 0.529 
0.127027 0.151741 0.526 
0.155555 0.150875 0.523 
0.180276 0.151164 0.524 
0.204309 0.150875 0.523 
0.227812 0.150298 0.521 
0.252741 0.149721 0.519 
0.275865 0.149144 0.517 
0.300542 0.149433 0.518 
0.323433 0.148856 0.516 
0.347484 0.148856 0.516 
0.370815 0.148567 0.515 
0.394052 0.148279 0.514 
0.41801 0.148279 0.514 
0.441968 0.148279 0.514 
0.464112 0.147702 0.512 
0.487024 0.147413 0.511 
-0.54419 0.189682 0.654 
-0.51135 0.188812 0.651 
-0.481007 0.188812 0.651 
-0.450664 0.188812 0.651 
-0.417092 0.187362 0.646 
-0.38818 0.187942 0.648 
-0.357424 0.187652 0.647 
-0.324245 0.186492 0.643 
-0.294732 0.186782 0.644 
-0.265948 0.187652 0.647 
-0.233605 0.185912 0.641 
-0.194163 0.179821 0.62 
-0.169796 0.184751 0.637 
-0.128229 0.184751 0.637 
-0.0986932 0.185042 0.638 
-0.0662386 0.183011 0.631 
-0.0119934 0.153718 0.53 
0.0126381 0.152848 0.527 
0.0382369 0.153718 0.53 
0.0673688 0.152558 0.526 
0.0920605 0.152848 0.527 
0.116403 0.152558 0.526 
0.140384 0.151978 0.524 
0.168556 0.151688 0.523 
0.192933 0.151688 0.523 
0.216895 0.151398 0.522 
0.238915 0.149947 0.517 
0.263521 0.150237 0.518 
0.287665 0.150237 0.518 
0.310004 0.149367 0.515 
0.335305 0.149947 0.517 
0.358707 0.149657 0.516 
0.382017 0.149367 0.515 
0.404444 0.148787 0.513 
0.42919 0.149077 0.514 
0.451385 0.148497 0.512 
0.475249 0.148497 0.512 
0.498139 0.148207 0.511 
-0.527331 0.190115 0.652 
-0.495416 0.189532 0.65 
-0.467982 0.190698 0.654 
-0.432816 0.188657 0.647 
-0.402037 0.188365 0.646 
-0.371927 0.188365 0.646 
-0.340229 0.187491 0.643 
-0.309776 0.187199 0.642 
-0.281596 0.188365 0.646 
-0.248156 0.186616 0.64 
-0.218666 0.186908 0.641 
-0.184466 0.184575 0.633 
-0.145738 0.181659 0.623 
-0.115001 0.185158 0.635 
-0.0855381 0.18545 0.636 
-0.0510154 0.178743 0.613 
0.00283932 0.155125 0.532 
0.0283021 0.15425 0.529 
0.0529589 0.15425 0.529 
0.0773223 0.153667 0.527 
0.102079 0.153958 0.528 
0.12597 0.153083 0.525 
0.14958 0.152209 0.522 
0.174577 0.152792 0.524 
0.198621 0.1525 0.523 
0.222572 0.152209 0.522 
0.245011 0.151042 0.518 
0.268635 0.150751 0.517 
0.293299 0.151042 0.518 
0.315605 0.150168 0.515 
0.339609 0.150168 0.515 
0.364319 0.150459 0.516 
0.386865 0.149876 0.514 
0.409224 0.149293 0.512 
0.433934 0.149584 0.513 
0.456061 0.149001 0.511 
0.479878 0.149001 0.511 
0.503696 0.149001 0.511 
-0.514821 0.190249 0.649 
-0.486064 0.190835 0.651 
-0.455021 0.190542 0.65 
-0.419803 0.188783 0.644 
-0.391602 0.189662 0.647 
-0.361445 0.189662 0.647 
-0.32924 0.18849 0.643 
-0.299269 0.18849 0.643 
-0.270974 0.189662 0.647 
-0.238212 0.18761 0.64 
-0.199301 0.182041 0.621 
-0.174745 0.186731 0.637 
-0.139226 0.185558 0.633 
-0.106122 0.186145 0.635 
-0.0762833 0.185558 0.633 
-0.0144365 0.155072 0.529 
0.0101817 0.154485 0.527 
0.0348113 0.154778 0.528 
0.0594215 0.154778 0.528 
0.0837134 0.154192 0.526 
0.10823 0.154192 0.526 
0.132243 0.153606 0.524 
0.156069 0.15302 0.522 
0.180745 0.153313 0.523 
0.20473 0.15302 0.522 
0.227744 0.15214 0.519 
0.250964 0.151554 0.517 
0.274529 0.151261 0.516 
0.29858 0.151261 0.516 
0.324406 0.150968 0.515 
0.348411 0.150968 0.515 
0.372415 0.150968 0.515 
0.39488 0.150381 0.513 
0.418791 0.150381 0.513 
0.442702 0.150381 0.513 
0.464794 0.149795 0.511 
0.488612 0.149795 0.511 
-0.542343 0.192436 0.653 
-0.509555 0.191552 0.65 
-0.479258 0.191552 0.65 
-0.448962 0.191552 0.65 
-0.415085 0.190373 0.646 
-0.384974 0.190373 0.646 
-0.353766 0.189783 0.644 
-0.32224 0.188899 0.641 
