# .PCD v.7 - Point Cloud Data file format
VERSION .7
FIELDS x y z
SIZE 4 4 4
TYPE F F F
COUNT 1 1 1
WIDTH 1919
HEIGHT 1
VIEWPOINT 0 0 0 1 0 0 0
POINTS 1919
DATA ascii
8.49089 3.91801 8.766 
-0.408428 0.233673 0.521 
-0.393729 0.239504 0.534 
-0.378509 0.245783 0.548 
-0.36134 0.251613 0.561 
-0.341166 0.256098 0.571 
-0.323366 0.263275 0.587 
-0.30357 0.270002 0.602 
-0.281555 0.281663 0.628 
-0.256301 0.286149 0.638 
-0.228695 0.28884 0.644 
-0.205465 0.298707 0.666 
-0.178613 0.305883 0.682 
-0.150915 0.314405 0.701 
-0.118034 0.335485 0.748 
-0.084281 0.33997 0.758 
-0.0512752 0.356116 0.794 
-0.0149854 0.374056 0.834 
0.0246323 0.385718 0.86 
0.067953 0.405003 0.903 
0.113698 0.418459 0.933 
0.203737 0.457927 1.021 
0.258957 0.471831 1.052 
0.34351 0.520719 1.161 
0.421941 0.552563 1.232 
0.502711 0.579473 1.292 
3.61286 3.57865 7.979 
6.27341 5.51397 12.294 
8.95164 7.01378 15.638 
3.40883 2.41522 5.385 
3.98331 2.51927 5.617 
10.5322 6.17417 13.766 
8.13643 4.49585 10.024 
8.38908 4.38372 9.774 
7.86191 3.89664 8.688 
7.88149 3.715 8.283 
-0.41573 0.233582 0.519 
-0.399838 0.238533 0.53 
-0.38292 0.243484 0.541 
-0.367622 0.250235 0.556 
-0.348467 0.255185 0.567 
-0.329422 0.261036 0.58 
-0.311773 0.269137 0.598 
-0.288617 0.277238 0.616 
-0.268344 0.28624 0.636 
-0.23945 0.28714 0.638 
-0.214643 0.293891 0.653 
-0.189849 0.302892 0.673 
-0.163661 0.312793 0.695 
-0.129635 0.324945 0.722 
-0.099971 0.338447 0.752 
-0.0673373 0.351049 0.78 
-0.0320537 0.3632 0.807 
0.00591915 0.386604 0.859 
0.0465994 0.392004 0.871 
0.0920023 0.413607 0.919 
0.176017 0.445562 0.99 
0.234055 0.469415 1.043 
0.314419 0.516222 1.147 
0.381994 0.536024 1.191 
0.469098 0.57473 1.277 
3.94558 4.14958 9.22 
5.1467 4.83367 10.74 
4.25749 3.59105 7.979 
9.1217 6.98227 15.514 
3.44515 2.39073 5.312 
4.08572 2.54285 5.65 
10.2284 5.94442 13.208 
8.10508 4.44302 9.872 
8.52271 4.42096 9.823 
8.04986 3.9628 8.805 
8.09611 3.79223 8.426 
-0.40926 0.23484 0.52 
-0.394648 0.240711 0.533 
-0.378824 0.246582 0.546 
-0.361789 0.252453 0.559 
-0.34234 0.257421 0.57 
-0.324636 0.264647 0.586 
-0.304933 0.271421 0.601 
-0.284252 0.27955 0.619 
-0.26324 0.288131 0.638 
-0.233869 0.288583 0.639 
-0.209514 0.29626 0.656 
-0.18412 0.304841 0.675 
-0.15786 0.315228 0.698 
-0.125401 0.32968 0.73 
-0.0943795 0.340519 0.754 
-0.0617493 0.35497 0.786 
-0.0259763 0.367164 0.813 
0.0125922 0.387938 0.859 
0.0537945 0.396519 0.878 
0.0994651 0.41639 0.922 
0.184821 0.44981 0.996 
0.242157 0.471036 1.043 
0.319487 0.517552 1.146 
0.389823 0.541036 1.198 
0.47505 0.576714 1.277 
3.81977 4.03113 8.926 
5.41089 5.13262 11.365 
4.29217 3.6328 8.044 
3.33442 2.43873 5.4 
3.47123 2.3606 5.227 
9.66268 5.84617 12.945 
8.70929 4.95965 10.982 
8.28914 4.45835 9.872 
8.17142 4.1639 9.22 
7.41268 3.58854 7.946 
8.78455 4.03113 8.926 
-0.401668 0.23882 0.527 
-0.385692 0.244259 0.539 
-0.370603 0.251056 0.554 
-0.352249 0.256494 0.566 
-0.332777 0.261932 0.578 
-0.313773 0.26873 0.593 
-0.293853 0.27598 0.609 
-0.275929 0.286856 0.633 
-0.246814 0.28731 0.634 
-0.221033 0.292295 0.645 
-0.197483 0.302264 0.667 
-0.172131 0.312687 0.69 
-0.138902 0.322657 0.712 
-0.111803 0.341237 0.753 
-0.0777242 0.345769 0.763 
-0.043984 0.360723 0.796 
-0.00721943 0.378397 0.835 
0.0326493 0.389726 0.86 
0.0764554 0.409665 0.904 
0.122658 0.423714 0.935 
0.213046 0.462233 1.02 
0.294218 0.512535 1.131 
0.360125 0.532021 1.174 
0.439581 0.563743 1.244 
0.520362 0.589574 1.301 
3.91434 3.85149 8.499 
8.9587 7.98032 17.61 
9.16991 7.03048 15.514 
3.44275 2.3941 5.283 
4.13534 2.57491 5.682 
10.0188 5.82776 12.86 
8.1932 4.4968 9.923 
8.52575 4.42928 9.774 
7.91264 3.90224 8.611 
8.24159 3.86826 8.536 
-0.404308 0.23782 0.523 
-0.389374 0.243732 0.536 
-0.373733 0.250553 0.551 
-0.356262 0.256464 0.564 
-0.335824 0.261011 0.574 
-0.317685 0.268287 0.59 
-0.297563 0.275108 0.605 
-0.280049 0.286021 0.629 
-0.252724 0.288295 0.634 
-0.226341 0.292387 0.643 
-0.202174 0.301027 0.662 
-0.176493 0.310121 0.682 
-0.1481 0.317397 0.698 
-0.12219 0.338769 0.745 
-0.088757 0.343771 0.756 
-0.0558557 0.358777 0.789 
-0.0198299 0.372873 0.82 
0.0191979 0.389243 0.856 
0.0613056 0.403794 0.888 
0.107206 0.421529 0.927 
0.21421 0.462908 1.018 
0.305951 0.519294 1.142 
0.37239 0.538393 1.184 
0.453578 0.571133 1.256 
3.53173 3.76647 8.283 
6.12266 5.84774 12.86 
28.4867 23.391 51.44 
3.39815 2.43504 5.355 
3.94655 2.52508 5.553 
10.5848 6.30383 13.863 
7.91832 4.44447 9.774 
8.67718 4.60544 10.128 
7.91887 3.98611 8.766 
7.73752 3.70372 8.145 
-0.405999 0.23772 0.521 
-0.39124 0.243652 0.534 
-0.375788 0.250496 0.549 
-0.358255 0.256884 0.563 
-0.33791 0.261447 0.573 
-0.319349 0.268291 0.588 
-0.29939 0.275135 0.603 
-0.280731 0.284717 0.624 
-0.255679 0.28928 0.634 
-0.228625 0.292474 0.641 
-0.204639 0.301143 0.66 
-0.177827 0.309812 0.679 
-0.150269 0.318481 0.698 
-0.123807 0.334907 0.734 
-0.0920366 0.344033 0.754 
-0.0593069 0.358634 0.786 
-0.02345 0.370953 0.813 
0.0151548 0.389204 0.853 
0.0568447 0.402893 0.883 
0.102441 0.421144 0.923 
0.211793 0.462665 1.014 
0.305148 0.5197 1.139 
0.372076 0.539776 1.183 
0.452495 0.571715 1.253 
3.17101 3.44352 7.547 
6.43926 6.15107 13.481 
24.1883 20.2706 44.426 
3.36138 2.47758 5.43 
3.46071 2.37218 5.199 
4.2377 2.62314 5.749 
9.04704 5.24627 11.498 
8.27029 4.52764 9.923 
8.27078 4.28809 9.398 
7.70802 3.79531 8.318 
8.60864 4.03577 8.845 
-0.401775 0.240361 0.525 
-0.386648 0.246313 0.538 
-0.369742 0.253638 0.554 
-0.351991 0.25959 0.567 
-0.331878 0.264626 0.578 
-0.311404 0.271036 0.592 
-0.289116 0.28065 0.613 
-0.269045 0.289807 0.633 
-0.239541 0.289807 0.633 
-0.21435 0.295759 0.646 
-0.19137 0.307204 0.671 
-0.165582 0.317735 0.694 
-0.136882 0.326433 0.713 
-0.107718 0.342915 0.749 
-0.0748483 0.35253 0.77 
-0.0404256 0.365807 0.799 
-0.00333544 0.383204 0.837 
0.0365725 0.392819 0.858 
0.0810259 0.41571 0.908 
0.188294 0.456915 0.998 
0.261087 0.482554 1.054 
0.338469 0.526505 1.15 
0.417641 0.560843 1.225 
0.499541 0.590144 1.289 
3.59001 3.66768 8.011 
9.77904 8.77387 19.164 
36.8014 30.0039 65.535 
3.38264 2.45855 5.37 
3.75439 2.44527 5.341 
10.0773 6.1299 13.389 
8.1107 4.63691 10.128 
8.58277 4.63691 10.128 
8.09106 4.14337 9.05 
7.62961 3.71347 8.111 
8.81229 4.0866 8.926 
-0.399212 0.242096 0.527 
-0.383179 0.247608 0.539 
-0.366098 0.254958 0.555 
-0.348199 0.26093 0.568 
-0.328185 0.266902 0.581 
-0.307952 0.273793 0.596 
-0.284789 0.282981 0.616 
-0.26356 0.29125 0.634 
-0.235116 0.292628 0.637 
-0.209618 0.2986 0.65 
-0.185942 0.309625 0.674 
-0.160029 0.32065 0.698 
-0.130418 0.328001 0.714 
-0.10087 0.344538 0.75 
-0.0681976 0.356482 0.776 
-0.0331424 0.368886 0.803 
0.00450982 0.38818 0.845 
0.0451942 0.399664 0.87 
0.0904759 0.421715 0.918 
0.20291 0.463519 1.009 
0.296153 0.516807 1.125 
0.364083 0.539777 1.175 
0.442377 0.570096 1.241 
3.08874 3.45365 7.518 
4.28106 4.25574 9.264 
9.79568 8.63459 18.796 
37.1971 29.9326 65.158 
3.42113 2.44668 5.326 
4.02694 2.58036 5.617 
10.7594 6.46032 14.063 
7.89374 4.46751 9.725 
8.92466 4.77668 10.398 
8.07728 4.10047 8.926 
8.12223 3.92131 8.536 
-0.410892 0.239227 0.519 
-0.392427 0.244297 0.53 
-0.375955 0.252594 0.548 
-0.358725 0.258586 0.561 
-0.339098 0.263657 0.572 
-0.318436 0.271032 0.588 
-0.297149 0.28025 0.608 
-0.27721 0.289008 0.627 
-0.247986 0.289008 0.627 
-0.223995 0.295922 0.642 
-0.19921 0.303758 0.659 
-0.174118 0.313899 0.681 
-0.146767 0.323579 0.702 
-0.118588 0.339711 0.737 
-0.0864078 0.348469 0.756 
-0.0532687 0.362758 0.787 
-0.0172397 0.377047 0.818 
0.0216791 0.391337 0.849 
0.0640649 0.409313 0.888 
0.176659 0.454024 0.985 
0.260839 0.485368 1.053 
0.336997 0.527774 1.145 
0.417982 0.56511 1.226 
0.497991 0.592306 1.285 
3.55267 3.69258 8.011 
10.3078 9.48426 20.576 
23.8534 20.0227 43.439 
3.38097 2.46187 5.341 
3.96929 2.57434 5.585 
10.8497 6.57667 14.268 
7.96704 4.55038 9.872 
8.92315 4.81819 10.453 
8.14731 4.17149 9.05 
8.01237 3.90046 8.462 
-0.413311 0.240033 0.519 
-0.39333 0.244658 0.529 
-0.376119 0.252983 0.547 
-0.358956 0.258995 0.56 
-0.339987 0.264545 0.572 
-0.320994 0.27102 0.586 
-0.301198 0.277958 0.601 
-0.278792 0.288595 0.624 
-0.250908 0.289982 0.627 
-0.22628 0.295995 0.64 
-0.201667 0.303857 0.657 
-0.176251 0.313107 0.677 
-0.149612 0.323744 0.7 
-0.120864 0.337619 0.73 
-0.0896936 0.348719 0.754 
-0.0565752 0.361669 0.782 
-0.0209237 0.376006 0.813 
0.0176175 0.390343 0.844 
0.059656 0.408843 0.884 
0.171194 0.453242 0.98 
0.294837 0.517991 1.12 
0.362843 0.541578 1.171 
0.441307 0.572565 1.238 
0.523196 0.600314 1.298 
4.23788 4.28452 9.264 
10.2519 9.32014 20.152 
32.2848 26.5896 57.492 
3.43542 2.44982 5.297 
4.1237 2.62048 5.666 
9.43773 5.58043 12.066 
8.43787 4.70863 10.181 
8.47121 4.47553 9.677 
8.22983 4.1282 8.926 
9.05947 4.32569 9.353 
-0.401952 0.241768 0.521 
-0.386763 0.249192 0.537 
-0.368216 0.256617 0.553 
-0.35049 0.26265 0.566 
-0.331553 0.268682 0.579 
-0.310878 0.274251 0.591 
-0.29244 0.283068 0.61 
-0.272664 0.292349 0.63 
-0.242141 0.290957 0.627 
-0.218689 0.298845 0.644 
-0.194238 0.307662 0.663 
-0.169248 0.318799 0.687 
-0.141821 0.329472 0.71 
-0.113169 0.34293 0.739 
-0.080748 0.351746 0.758 
-0.0474545 0.367524 0.792 
-0.0109384 0.381445 0.822 
0.0282745 0.393975 0.849 
0.0716824 0.416249 0.897 
0.182354 0.459869 0.991 
0.321427 0.526228 1.134 
0.398047 0.559639 1.206 
0.473846 0.583769 1.258 
3.79529 4.01353 8.649 
9.33242 8.89297 19.164 
9.93379 8.63914 18.617 
3.3316 2.48496 5.355 
3.41334 2.36849 5.104 
11.2775 6.92449 14.922 
7.96195 4.60472 9.923 
8.97036 4.90311 10.566 
8.25737 4.2785 9.22 
8.18587 4.03163 8.688 
-0.412521 0.240715 0.517 
-0.396688 0.245836 0.528 
-0.380534 0.251424 0.54 
-0.363303 0.258873 0.556 
-0.344669 0.26446 0.568 
-0.326037 0.270979 0.582 
-0.3061 0.277497 0.596 
-0.286726 0.285878 0.614 
-0.264833 0.293327 0.63 
-0.236216 0.294259 0.632 
-0.21232 0.302174 0.649 
-0.187681 0.311486 0.669 
-0.162815 0.324057 0.696 
-0.133371 0.331507 0.712 
-0.104969 0.347337 0.746 
-0.0723615 0.358046 0.769 
-0.0380378 0.372945 0.801 
-0.000735463 0.390172 0.838 
0.03901 0.397156 0.853 
0.0839397 0.42323 0.909 
0.178732 0.460012 0.988 
0.325524 0.528921 1.136 
0.405792 0.5671 1.218 
0.479274 0.587586 1.262 
3.93318 4.23323 9.092 
9.09481 8.7514 18.796 
9.69133 8.50603 18.269 
3.39563 2.47326 5.312 
4.03567 2.61527 5.617 
10.4915 6.32051 13.575 
8.25692 4.69138 10.076 
8.8634 4.76494 10.234 
8.22146 4.19412 9.008 
9.28309 4.5056 9.677 
-0.404412 0.242919 0.52 
-0.389679 0.248992 0.533 
-0.374419 0.255533 0.547 
-0.357216 0.261606 0.56 
-0.338209 0.267211 0.572 
-0.319173 0.273752 0.586 
-0.299331 0.280759 0.601 
-0.280347 0.290102 0.621 
-0.253426 0.292438 0.626 
-0.228546 0.298044 0.638 
-0.204418 0.306452 0.656 
-0.178877 0.315328 0.675 
-0.152875 0.327007 0.7 
-0.12334 0.335416 0.718 
-0.0938788 0.350365 0.75 
-0.060728 0.361109 0.773 
-0.0245612 0.377459 0.808 
0.0136025 0.391941 0.839 
0.0550959 0.409693 0.877 
0.100132 0.427445 0.915 
0.164586 0.452204 0.968 
0.256496 0.486773 1.042 
0.347705 0.537693 1.151 
0.432563 0.576934 1.235 
0.512351 0.603094 1.291 
5.2777 5.37132 11.498 
9.65464 8.86563 18.978 
9.50145 7.60945 16.289 
3.45188 2.47451 5.297 
4.12961 2.63941 5.65 
9.59696 5.74318 12.294 
8.51056 4.80607 10.288 
8.62657 4.61173 9.872 
8.29144 4.20811 9.008 
9.31185 4.49821 9.629 
-0.401057 0.245134 0.523 
-0.38426 0.251695 0.537 
-0.368596 0.258257 0.551 
-0.349871 0.264819 0.565 
-0.33098 0.270912 0.578 
-0.310878 0.277006 0.591 
-0.291481 0.284974 0.608 
-0.271798 0.294348 0.628 
-0.241755 0.29341 0.626 
-0.219029 0.302316 0.645 
-0.193945 0.310284 0.662 
-0.168756 0.321064 0.685 
-0.141422 0.331844 0.708 
-0.11271 0.344968 0.736 
-0.080748 0.35528 0.758 
-0.0461657 0.370747 0.791 
-0.00966128 0.385277 0.822 
0.0294541 0.396057 0.845 
0.0731576 0.420898 0.898 
0.125429 0.437772 0.934 
0.178913 0.463551 0.989 
0.249465 0.484174 1.033 
0.329923 0.533857 1.139 
0.414848 0.575572 1.228 
0.488231 0.595257 1.27 
4.98967 5.14734 10.982 
9.41011 8.64342 18.441 
9.24614 7.50962 16.022 
3.4294 2.49633 5.326 
4.02714 2.61023 5.569 
10.3477 6.27551 13.389 
8.34296 4.7719 10.181 
8.9578 4.84783 10.343 
8.25979 4.24179 9.05 
9.42315 4.6041 9.823 
-0.402762 0.245006 0.521 
-0.386985 0.251589 0.535 
-0.370846 0.257703 0.548 
-0.351004 0.265227 0.564 
-0.332201 0.27134 0.577 
-0.312185 0.277454 0.59 
-0.292406 0.284978 0.606 
-0.272878 0.294383 0.626 
-0.24331 0.293913 0.625 
-0.220347 0.302377 0.643 
-0.196002 0.311312 0.662 
-0.170136 0.320717 0.682 
-0.143216 0.332004 0.706 
-0.114372 0.344231 0.732 
-0.0826648 0.354576 0.754 
-0.0483162 0.369625 0.786 
-0.0121561 0.384673 0.818 
0.0267649 0.396429 0.843 
0.0702104 0.421353 0.896 
0.11924 0.437812 0.931 
0.171019 0.460385 0.979 
0.22329 0.474493 1.009 
0.304351 0.528102 1.123 
0.372575 0.551615 1.173 
0.453214 0.582652 1.239 
4.231 4.66639 9.923 
8.62151 8.43318 17.933 
8.81814 7.66007 16.289 
3.3316 2.51824 5.355 
3.37789 2.37528 5.051 
11.6526 7.29562 15.514 
8.16379 4.81264 10.234 
9.22 5.13524 10.92 
8.40555 4.39834 9.353 
8.75737 4.35649 9.264 
-0.406028 0.245343 0.52 
-0.388023 0.251477 0.533 
-0.37102 0.258082 0.547 
-0.351004 0.266103 0.564 
-0.332201 0.272237 0.577 
-0.311656 0.277898 0.589 
-0.291923 0.285447 0.605 
-0.272442 0.294884 0.625 
-0.24331 0.294884 0.625 
-0.220347 0.303376 0.643 
-0.196002 0.312341 0.662 
-0.170136 0.321777 0.682 
-0.143013 0.332629 0.705 
-0.114372 0.345368 0.732 
-0.0826648 0.355748 0.754 
-0.0483162 0.370846 0.786 
-0.0121561 0.385944 0.818 
0.0267331 0.397267 0.842 
0.0702104 0.422745 0.896 
0.11924 0.439259 0.931 
0.170845 0.461434 0.978 
0.22329 0.47606 1.009 
0.300325 0.528903 1.121 
0.367358 0.551079 1.168 
0.447188 0.581747 1.233 
4.35466 4.85402 10.288 
8.39074 8.23457 17.453 
8.09331 6.93425 14.697 
3.32721 2.48599 5.269 
4.03261 2.68887 5.699 
11.3239 7.04041 14.922 
8.30277 4.85402 10.288 
9.08527 4.98519 10.566 
8.35765 4.35012 9.22 
9.13241 4.52092 9.582 
-0.402762 0.246624 0.521 
-0.38521 0.253725 0.536 
-0.368111 0.259879 0.549 
-0.345482 0.267453 0.565 
-0.32762 0.274553 0.58 
-0.307842 0.28118 0.594 
-0.287701 0.288754 0.61 
-0.266495 0.296801 0.627 
-0.23727 0.296801 0.627 
-0.215345 0.307216 0.649 
-0.189373 0.314316 0.664 
-0.165343 0.328044 0.693 
-0.136498 0.336564 0.711 
-0.107864 0.351239 0.742 
-0.0753533 0.361179 0.763 
-0.0415106 0.376801 0.796 
-0.00459156 0.392422 0.829 
0.0347055 0.399996 0.845 
0.0786507 0.424611 0.897 
0.128606 0.443072 0.936 
0.18309 0.471001 0.995 
0.234771 0.481888 1.018 
0.313075 0.531592 1.123 
0.384291 0.559047 1.181 
0.466948 0.591709 1.25 
4.6996 5.19852 10.982 
8.13706 8.11683 17.147 
8.39859 7.34382 15.514 
3.33258 2.54198 5.37 
3.39606 2.40944 5.09 
4.11681 2.64376 5.585 
8.31875 4.87001 10.288 
9.03602 5.0016 10.566 
8.44915 4.42741 9.353 
8.88509 4.42741 9.353 
-0.402796 0.246959 0.52 
-0.38426 0.255033 0.537 
-0.364119 0.262157 0.552 
-0.345747 0.267856 0.564 
-0.326719 0.275454 0.58 
-0.307435 0.282578 0.595 
-0.287694 0.290652 0.612 
-0.265521 0.297776 0.627 
-0.236673 0.298251 0.628 
-0.214667 0.308699 0.65 
-0.188341 0.315348 0.664 
-0.164503 0.329595 0.694 
-0.135393 0.337669 0.711 
-0.106711 0.352392 0.742 
-0.0742651 0.36284 0.764 
-0.0402739 0.378037 0.796 
-0.00330755 0.394185 0.83 
0.0360184 0.401308 0.845 
0.0798659 0.425055 0.895 
0.127152 0.444526 0.936 
0.181179 0.471597 0.993 
0.232502 0.482045 1.015 
0.308758 0.531912 1.12 
0.37772 0.556608 1.172 
0.460471 0.590327 1.243 
4.83847 5.42882 11.431 
7.91806 8.0029 16.851 
8.23326 7.14092 15.036 
3.34093 2.55033 5.37 
3.41334 2.424 5.104 
4.05321 2.62252 5.522 
8.20511 4.81 10.128 
8.81426 4.88599 10.288 
8.53045 4.48468 9.443 
8.80054 4.39967 9.264 
-0.400373 0.247767 0.52 
-0.381757 0.255867 0.537 
-0.363061 0.263491 0.553 
-0.343455 0.269685 0.566 
-0.321516 0.277308 0.582 
-0.302988 0.285408 0.599 
-0.283334 0.293985 0.617 
-0.255813 0.295414 0.62 
-0.231307 0.301132 0.632 
-0.208556 0.311138 0.653 
-0.182484 0.318762 0.669 
-0.157634 0.332103 0.697 
-0.128379 0.34068 0.715 
-0.0989075 0.354497 0.744 
-0.0663877 0.366409 0.769 
-0.0317359 0.380703 0.799 
0.00576066 0.398333 0.836 
0.0461179 0.410721 0.862 
0.0897999 0.427398 0.897 
0.137918 0.447886 0.94 
0.193525 0.476951 1.001 
0.246181 0.488863 1.026 
0.322945 0.536987 1.127 
0.399129 0.570817 1.198 
0.478894 0.600835 1.261 
5.21973 5.74915 12.066 
8.00613 7.96047 16.707 
8.25663 7.16428 15.036 
3.33948 2.54485 5.341 
3.43793 2.43812 5.117 
3.92171 2.57296 5.4 
9.57786 5.85778 12.294 
8.08024 4.54319 9.535 
8.48355 4.52127 9.489 
8.43481 4.27255 8.967 
-0.404441 0.248097 0.519 
-0.385432 0.255267 0.534 
-0.36932 0.261482 0.547 
-0.348013 0.268652 0.562 
-0.326156 0.276779 0.579 
-0.307435 0.284427 0.595 
-0.287224 0.292075 0.611 
-0.265097 0.299246 0.626 
-0.235919 0.299246 0.626 
-0.214337 0.310241 0.649 
-0.188058 0.316933 0.663 
-0.164266 0.331274 0.693 
-0.134099 0.3394 0.71 
-0.105274 0.353741 0.74 
-0.0730781 0.365214 0.764 
-0.0389881 0.380033 0.795 
-0.00200827 0.394852 0.826 
0.0374196 0.40489 0.847 
0.0808932 0.425923 0.891 
0.128881 0.448391 0.938 
0.182722 0.474682 0.993 
0.234541 0.486155 1.017 
0.309112 0.533002 1.115 
0.37857 0.558815 1.169 
0.4601 0.593712 1.242 
5.15218 5.84008 12.217 
7.82443 7.98642 16.707 
8.2608 7.35782 15.392 
3.35026 2.57418 5.385 
3.44945 2.46567 5.158 
3.96099 2.64684 5.537 
9.74645 6.02842 12.611 
7.8362 4.42846 9.264 
8.4688 4.53601 9.489 
8.42088 4.28648 8.967 
-0.401989 0.249383 0.52 
-0.382712 0.257056 0.536 
-0.366405 0.263291 0.549 
-0.344259 0.270005 0.563 
-0.322213 0.278158 0.58 
-0.30434 0.28679 0.598 
-0.283864 0.294464 0.614 
-0.258155 0.297821 0.621 
-0.232163 0.301657 0.629 
-0.209618 0.311728 0.65 
-0.184011 0.319881 0.667 
-0.159571 0.333789 0.696 
-0.130052 0.341463 0.712 
-0.100811 0.35537 0.741 
-0.0686878 0.368319 0.768 
-0.0340902 0.381748 0.796 
0.00313643 0.397574 0.829 
0.0431874 0.411002 0.857 
0.0865275 0.427787 0.892 
0.134997 0.450807 0.94 
0.189464 0.477664 0.996 
0.242045 0.490133 1.022 
0.316041 0.534734 1.115 
0.390126 0.566866 1.182 
0.474665 0.601876 1.255 
5.55976 6.20819 12.945 
7.95422 8.01238 16.707 
8.42269 7.44024 15.514 
3.3301 2.55426 5.326 
3.47421 2.47992 5.171 
3.92287 2.61852 5.46 
9.06461 5.54685 11.566 
7.61963 4.28075 8.926 
8.62624 4.59536 9.582 
8.6089 4.36036 9.092 
-0.397141 0.250191 0.52 
-0.383661 0.257408 0.535 
-0.367441 0.263663 0.548 
-0.349385 0.269436 0.56 
-0.32715 0.277134 0.576 
-0.308645 0.284832 0.592 
-0.288647 0.292531 0.608 
-0.268015 0.301191 0.626 
-0.238074 0.300229 0.624 
-0.216357 0.310814 0.646 
-0.19086 0.318512 0.662 
-0.166288 0.331022 0.688 
-0.137927 0.340163 0.707 
-0.109131 0.353635 0.735 
-0.077113 0.36422 0.757 
-0.0435972 0.379616 0.789 
-0.0070638 0.393088 0.817 
0.0320418 0.406079 0.844 
0.0744256 0.4234 0.88 
0.122658 0.449862 0.935 
0.173528 0.469589 0.976 
0.227098 0.48691 1.012 
0.300827 0.534061 1.11 
0.369081 0.55908 1.162 
0.450653 0.59276 1.232 
5.20631 6.02863 12.53 
7.81333 8.10762 16.851 
8.03703 7.46434 15.514 
3.34368 2.60535 5.415 
3.49912 2.53511 5.269 
3.95792 2.67945 5.569 
4.1819 2.65683 5.522 
7.59171 4.25565 8.845 
8.6709 4.61024 9.582 
8.69124 4.3947 9.134 
-0.394667 0.251481 0.521 
-0.381757 0.259204 0.537 
-0.364699 0.264997 0.549 
-0.345905 0.270306 0.56 
-0.32715 0.278029 0.576 
-0.308645 0.285752 0.592 
-0.288647 0.293475 0.608 
-0.268015 0.302164 0.626 
-0.237692 0.300716 0.623 
-0.216022 0.311335 0.645 
-0.190571 0.319058 0.661 
-0.165804 0.331125 0.686 
-0.137927 0.341262 0.707 
-0.108834 0.353812 0.733 
-0.0770112 0.364913 0.756 
-0.043542 0.380359 0.788 
-0.00704651 0.393392 0.815 
0.0320418 0.40739 0.844 
0.0740028 0.422353 0.875 
0.122789 0.451797 0.936 
0.177104 0.472553 0.979 
0.23047 0.488965 1.013 
0.303454 0.534337 1.107 
0.373013 0.561368 1.163 
0.453302 0.595639 1.234 
5.32838 6.16684 12.776 
7.81333 8.1338 16.851 
8.18347 7.6709 15.892 
27.5938 23.5881 48.868 
3.28943 2.49599 5.171 
3.5878 2.53653 5.255 
3.88452 2.5708 5.326 
7.90247 4.60245 9.535 
8.22697 4.53632 9.398 
8.08231 4.23126 8.766 
9.8773 4.91426 10.181 
-0.390356 0.254228 0.525 
-0.375642 0.261007 0.539 
-0.357906 0.267787 0.553 
-0.339938 0.274082 0.566 
-0.320758 0.280377 0.579 
-0.302904 0.289093 0.597 
-0.281989 0.296357 0.612 
-0.257191 0.300715 0.621 
-0.231186 0.304589 0.629 
-0.207966 0.31379 0.648 
-0.183523 0.323959 0.669 
-0.158034 0.336065 0.694 
-0.128946 0.344781 0.712 
-0.0992564 0.357372 0.738 
-0.0674067 0.371415 0.767 
-0.0327297 0.384005 0.793 
0.00441909 0.400953 0.828 
0.0444669 0.414512 0.856 
0.0877163 0.430977 0.89 
0.14553 0.456157 0.942 
0.199693 0.480854 0.993 
0.254647 0.497802 1.028 
0.3317 0.545742 1.127 
0.41389 0.587871 1.214 
0.495278 0.618863 1.278 
7.26937 8.02197 16.566 
7.90706 7.88784 16.289 
8.34423 7.5726 15.638 
31.6723 26.2934 54.298 
3.41634 2.5447 5.255 
3.71075 2.57908 5.326 
4.02515 2.62218 5.415 
7.39932 4.28313 8.845 
8.06682 4.42308 9.134 
8.1504 4.24488 8.766 
9.57356 4.73299 9.774 
-0.391307 0.254072 0.523 
-0.376752 0.260873 0.537 
-0.358323 0.267674 0.551 
-0.341093 0.274475 0.565 
-0.322 0.280791 0.578 
-0.304248 0.289535 0.596 
-0.28389 0.297308 0.612 
-0.259955 0.302652 0.623 
-0.232029 0.304109 0.626 
-0.209331 0.313825 0.646 
-0.184492 0.323055 0.665 
-0.159498 0.335686 0.691 
-0.13079 0.344916 0.71 
-0.101137 0.357061 0.735 
-0.069608 0.371635 0.765 
-0.035105 0.384265 0.791 
0.00183505 0.399811 0.823 
0.0415628 0.413413 0.851 
0.0843781 0.429445 0.884 
0.156767 0.460536 0.948 
0.211764 0.485311 0.999 
0.271257 0.509601 1.049 
0.348535 0.55478 1.142 
0.43004 0.591215 1.217 
0.514363 0.624735 1.286 
8.64761 9.30981 19.164 
8.10952 7.91315 16.289 
8.94335 7.9797 16.426 
38.8378 31.8367 65.535 
3.51117 2.58055 5.312 
3.85288 2.64516 5.445 
4.16474 2.68257 5.522 
7.24879 4.20166 8.649 
7.89699 4.33622 8.926 
8.1277 4.23955 8.727 
9.70408 4.82056 9.923 
-0.392119 0.254884 0.523 
-0.377586 0.261707 0.537 
-0.357046 0.269505 0.553 
-0.338459 0.275353 0.565 
-0.319859 0.282176 0.579 
-0.30147 0.290461 0.596 
-0.281038 0.298259 0.612 
-0.256226 0.302645 0.621 
-0.230575 0.307031 0.63 
-0.20664 0.315316 0.647 
-0.182484 0.326038 0.669 
-0.156956 0.338221 0.694 
-0.12766 0.346506 0.711 
-0.097844 0.35869 0.736 
-0.066215 0.373798 0.767 
-0.0314579 0.385982 0.792 
0.00570553 0.403526 0.828 
0.0457434 0.416685 0.855 
0.0893994 0.435204 0.893 
0.161695 0.46347 0.951 
0.217287 0.488813 1.003 
0.281148 0.520491 1.068 
0.355097 0.558504 1.146 
0.439761 0.59603 1.223 
0.521949 0.626246 1.285 
8.45863 9.07301 18.617 
8.51532 8.28399 16.998 
9.73032 8.66022 17.77 
3.20166 2.52691 5.185 
3.53697 2.59563 5.326 
3.88046 2.66093 5.46 
4.22961 2.72185 5.585 
7.08808 4.10642 8.426 
7.85282 4.31062 8.845 
8.26508 4.31062 8.845 
9.44649 4.6927 9.629 
-0.391307 0.255697 0.523 
-0.376752 0.262542 0.537 
-0.356611 0.269386 0.551 
-0.338459 0.276231 0.565 
-0.319306 0.282587 0.578 
-0.30147 0.291387 0.596 
-0.278185 0.299209 0.612 
-0.252923 0.303121 0.62 
-0.228722 0.309476 0.633 
-0.203939 0.31681 0.648 
-0.179902 0.328055 0.671 
-0.154164 0.340277 0.696 
-0.124871 0.349078 0.714 
-0.0945417 0.360323 0.737 
-0.0627217 0.375479 0.768 
-0.0279066 0.389168 0.796 
0.00959952 0.406279 0.831 
0.0499031 0.41948 0.858 
0.0942951 0.440014 0.9 
0.166652 0.466415 0.954 
0.222847 0.492327 1.007 
0.291484 0.531928 1.088 
0.36264 0.563707 1.153 
0.449922 0.601352 1.23 
5.60146 6.59092 13.481 
7.59075 8.03074 16.426 
9.43876 9.01588 18.441 
36.8014 32.0403 65.535 
3.18202 2.47581 5.064 
3.5949 2.6039 5.326 
3.93984 2.66942 5.46 
4.40328 2.8024 5.732 
6.85422 3.93275 8.044 
8.05865 4.38401 8.967 
8.75737 4.52921 9.264 
-0.40294 0.252095 0.514 
-0.385293 0.258471 0.527 
-0.370996 0.265828 0.542 
-0.354026 0.272204 0.555 
-0.335253 0.27809 0.567 
-0.317539 0.285937 0.583 
-0.297836 0.293294 0.598 
-0.275279 0.301141 0.614 
-0.248267 0.303103 0.618 
-0.225854 0.311931 0.636 
-0.20022 0.318307 0.649 
-0.176517 0.330569 0.674 
-0.150484 0.34283 0.699 
-0.12094 0.351658 0.717 
-0.0903277 0.362939 0.74 
-0.0580997 0.377653 0.77 
-0.0231904 0.394328 0.804 
0.014835 0.409532 0.835 
0.0554928 0.422775 0.862 
0.100665 0.444845 0.907 
0.172354 0.47133 0.961 
0.228219 0.495363 1.01 
0.299281 0.538523 1.098 
0.369929 0.568441 1.159 
0.457507 0.605716 1.235 
5.76265 6.75165 13.766 
7.39336 7.79436 15.892 
8.96293 8.40988 17.147 
37.3105 32.1422 65.535 
3.22136 2.48368 5.064 
3.65607 2.6264 5.355 
3.93849 2.64847 5.4 
12.8748 7.79436 15.892 
7.00355 3.99478 8.145 
7.98146 4.31848 8.805 
8.87127 4.56518 9.308 
-0.400545 0.252894 0.514 
-0.384474 0.25929 0.527 
-0.368139 0.267654 0.544 
-0.350975 0.274051 0.557 
-0.332015 0.279955 0.569 
-0.314084 0.287827 0.585 
-0.294171 0.295207 0.6 
-0.273748 0.303571 0.617 
-0.245386 0.304063 0.618 
-0.222889 0.312919 0.636 
-0.197499 0.319808 0.65 
-0.173376 0.331616 0.674 
-0.147647 0.3449 0.701 
-0.11809 0.354248 0.72 
-0.0873481 0.366057 0.744 
-0.0545815 0.379341 0.771 
-0.0195397 0.397545 0.808 
0.0187942 0.412306 0.838 
0.0595796 0.424606 0.863 
0.105471 0.448715 0.912 
0.169972 0.470363 0.956 
0.226201 0.495948 1.008 
0.296491 0.538261 1.094 
0.367493 0.569258 1.157 
0.449922 0.605174 1.23 
5.78172 6.82076 13.863 
7.36867 7.81905 15.892 
9.49265 8.98856 18.269 
37.4123 32.244 65.535 
3.23752 2.49794 5.077 
3.59803 2.55797 5.199 
3.97501 2.6421 5.37 
13.1543 7.88301 16.022 
7.61246 4.29379 8.727 
7.84372 4.19981 8.536 
9.67826 4.93192 10.024 
-0.393199 0.255667 0.518 
-0.378548 0.264551 0.536 
-0.357224 0.270474 0.548 
-0.339885 0.277877 0.563 
-0.320886 0.284294 0.576 
-0.303738 0.293671 0.595 
-0.282963 0.301075 0.61 
-0.260372 0.307985 0.624 
-0.232029 0.308972 0.626 
-0.208359 0.317363 0.643 
-0.18366 0.32674 0.662 
-0.158575 0.339079 0.687 
-0.130238 0.348951 0.707 
-0.100586 0.360796 0.731 
-0.0692441 0.375603 0.761 
-0.0348388 0.387449 0.785 
0.00183059 0.405217 0.821 
0.041514 0.419531 0.85 
0.0843781 0.436312 0.884 
0.143454 0.462964 0.938 
0.196354 0.485668 0.984 
0.251572 0.504424 1.022 
0.32907 0.554767 1.124 
0.404538 0.58833 1.192 
0.481713 0.61597 1.248 
7.77009 8.77066 17.77 
7.94804 8.1073 16.426 
9.61535 8.69169 17.61 
3.08715 2.46141 4.987 
3.55523 2.63613 5.341 
3.94688 2.66525 5.4 
14.8034 8.93304 18.099 
7.84152 4.40556 8.926 
8.03739 4.2881 8.688 
-0.400577 0.253501 0.512 
-0.386277 0.259937 0.525 
-0.368631 0.267859 0.541 
-0.346648 0.275781 0.557 
-0.328746 0.282713 0.571 
-0.310598 0.290635 0.587 
-0.28951 0.297071 0.6 
-0.270698 0.307469 0.621 
-0.240196 0.305488 0.617 
-0.218291 0.315391 0.637 
-0.193338 0.323313 0.653 
-0.168639 0.3347 0.676 
-0.14281 0.348564 0.704 
-0.113122 0.358466 0.724 
-0.082007 0.370349 0.748 
-0.0489072 0.384212 0.776 
-0.0132957 0.401046 0.81 
0.0254551 0.417385 0.843 
0.0664373 0.428278 0.865 
0.113049 0.453529 0.916 
0.167958 0.471848 0.953 
0.223966 0.497595 1.005 
0.292636 0.537699 1.086 
0.364431 0.570872 1.153 
0.446554 0.607016 1.226 
5.92846 7.06436 14.268 
7.46552 7.99865 16.155 
9.70239 9.21763 18.617 
3.11001 2.46272 4.974 
3.60791 2.65879 5.37 
3.94428 2.66622 5.385 
15.4026 9.30626 18.796 
7.91933 4.43973 8.967 
8.18667 4.35952 8.805 
-0.398947 0.25529 0.514 
-0.383744 0.26125 0.526 
-0.361858 0.271183 0.546 
-0.342425 0.278137 0.56 
-0.324231 0.28509 0.574 
-0.306805 0.29403 0.592 
-0.2844 0.299494 0.603 
-0.26522 0.309924 0.624 
-0.234621 0.307937 0.62 
-0.212691 0.318367 0.641 
-0.187662 0.326811 0.658 
-0.161896 0.339227 0.683 
-0.13406 0.349658 0.704 
-0.104554 0.361081 0.727 
-0.073293 0.374491 0.754 
-0.0395149 0.387901 0.781 
-0.00325176 0.405285 0.816 
0.0360184 0.419688 0.845 
0.0780812 0.434589 0.875 
0.126408 0.456939 0.92 
0.177754 0.479786 0.966 
0.233157 0.502136 1.011 
0.304953 0.54634 1.1 
0.378246 0.580114 1.168 
0.456396 0.611901 1.232 
6.39036 7.52608 15.153 
7.44274 7.89312 15.892 
9.77259 9.42585 18.978 
3.07858 2.45158 4.936 
3.61968 2.68203 5.4 
3.93592 2.67458 5.385 
15.8298 9.6126 19.354 
8.12845 4.57932 9.22 
8.24724 4.41294 8.885 
-0.399765 0.25559 0.513 
-0.384646 0.261569 0.525 
-0.370466 0.269042 0.54 
-0.348617 0.277014 0.556 
-0.330247 0.283491 0.569 
-0.312266 0.291462 0.585 
-0.291333 0.297939 0.598 
-0.27139 0.306907 0.616 
-0.243072 0.307406 0.617 
-0.219871 0.315377 0.633 
-0.196081 0.324844 0.652 
-0.171282 0.335805 0.674 
-0.144639 0.347264 0.697 
-0.116174 0.359719 0.722 
-0.0852648 0.371677 0.746 
-0.052118 0.383634 0.77 
-0.017029 0.402567 0.808 
0.0214237 0.418012 0.839 
0.0622613 0.429969 0.863 
0.108067 0.453386 0.91 
0.156105 0.470326 0.944 
0.209856 0.493244 0.99 
0.267378 0.515166 1.034 
0.345177 0.563494 1.131 
0.423576 0.599865 1.204 
0.50081 0.626271 1.257 
9.41935 10.4722 21.019 
8.63479 8.69555 17.453 
9.36491 8.61882 17.299 
3.28646 2.54295 5.104 
3.50414 2.47818 4.974 
4.13283 2.73576 5.491 
8.0521 4.61557 9.264 
8.17436 4.44717 8.926 
-0.399795 0.255388 0.511 
-0.38383 0.262385 0.525 
-0.369627 0.269881 0.54 
-0.35275 0.276378 0.553 
-0.33407 0.282376 0.565 
-0.315905 0.289872 0.58 
-0.29684 0.297869 0.596 
-0.276284 0.305865 0.612 
-0.250592 0.309364 0.619 
-0.225681 0.314861 0.63 
-0.202548 0.324857 0.65 
-0.176492 0.332854 0.666 
-0.150691 0.344848 0.69 
-0.122481 0.356343 0.713 
-0.0921264 0.367838 0.736 
-0.0601781 0.382832 0.766 
-0.0255609 0.399824 0.8 
0.0121378 0.413818 0.828 
0.0523854 0.427312 0.855 
0.0978469 0.453301 0.907 
0.143985 0.465795 0.932 
0.196676 0.488785 0.978 
0.252417 0.509276 1.019 
0.331405 0.562752 1.126 
0.406872 0.593739 1.188 
0.482478 0.619727 1.24 
9.12511 10.3929 20.795 
8.10996 8.34983 16.707 
9.28558 8.72266 17.453 
3.3202 2.57087 5.144 
3.5104 2.47941 4.961 
4.16123 2.75179 5.506 
8.64723 4.88485 9.774 
8.27485 4.44055 8.885 
-0.395614 0.259691 0.518 
-0.380075 0.265707 0.53 
-0.363418 0.271723 0.542 
-0.346648 0.279243 0.557 
-0.323666 0.287264 0.573 
-0.306287 0.296288 0.591 
-0.2844 0.302304 0.603 
-0.263827 0.312331 0.623 
-0.234035 0.311328 0.621 
-0.211365 0.320854 0.64 
-0.186356 0.329376 0.657 
-0.161659 0.34191 0.682 
-0.133489 0.351435 0.701 
-0.104554 0.36447 0.727 
-0.0730986 0.377003 0.752 
-0.0394643 0.39104 0.78 
-0.00324379 0.408086 0.814 
0.0360184 0.423627 0.845 
0.0786166 0.441675 0.881 
0.124707 0.460224 0.918 
0.175523 0.482283 0.962 
0.230899 0.505344 1.008 
0.301866 0.54896 1.095 
0.376431 0.585558 1.168 
0.453006 0.615638 1.228 
6.84413 8.16623 16.289 
7.73266 8.30509 16.566 
9.04079 8.82849 17.61 
3.10879 2.45603 4.899 
3.45577 2.4811 4.949 
4.03356 2.71472 5.415 
8.9915 5.10408 10.181 
8.29917 4.47491 8.926 
-0.398896 0.25949 0.516 
-0.38211 0.264519 0.526 
-0.367111 0.271559 0.54 
-0.350806 0.2786 0.554 
-0.327902 0.28564 0.568 
-0.309686 0.295195 0.587 
-0.288097 0.30123 0.599 
-0.267903 0.311287 0.619 
-0.238279 0.310282 0.617 
-0.215972 0.319836 0.636 
-0.191602 0.328888 0.654 
-0.166785 0.340455 0.677 
-0.138825 0.349507 0.695 
-0.110872 0.36409 0.724 
-0.0796827 0.37616 0.748 
-0.0465558 0.390743 0.777 
-0.0106989 0.404321 0.804 
0.0279747 0.422425 0.84 
0.069285 0.436003 0.867 
0.11501 0.457125 0.909 
0.164477 0.477743 0.95 
0.219525 0.502385 0.999 
0.28693 0.538592 1.071 
0.361382 0.577818 1.149 
0.439133 0.611511 1.216 
0.51946 0.640679 1.274 
9.4446 10.3474 20.576 
8.52022 8.47416 16.851 
3.32156 2.60043 5.171 
3.52312 2.52047 5.012 
4.08129 2.73822 5.445 
9.13395 5.17371 10.288 
8.19126 4.40831 8.766 
-0.394765 0.261805 0.519 
-0.378428 0.267354 0.53 
-0.361378 0.274416 0.544 
-0.344052 0.280974 0.557 
-0.325514 0.287531 0.57 
-0.308386 0.296611 0.588 
-0.286236 0.30216 0.599 
-0.267373 0.312753 0.62 
-0.23732 0.31124 0.617 
-0.215322 0.321329 0.637 
-0.190586 0.329904 0.654 
-0.165733 0.341507 0.677 
-0.137547 0.350082 0.694 
-0.109747 0.365215 0.724 
-0.0785205 0.377322 0.748 
-0.0454069 0.392455 0.778 
-0.00943796 0.405066 0.803 
0.0292798 0.423731 0.84 
0.070795 0.438359 0.869 
0.116294 0.458033 0.908 
0.166128 0.479723 0.951 
0.221519 0.504946 1.001 
0.286394 0.539248 1.069 
0.364431 0.581621 1.153 
0.441385 0.613905 1.217 
0.521849 0.643162 1.275 
9.21655 9.96019 19.745 
3.56977 2.76989 5.491 
3.60959 2.56761 5.09 
4.12646 2.75425 5.46 
9.36435 5.32993 10.566 
8.17764 4.42193 8.766 
-0.396377 0.262611 0.519 
-0.375017 0.268683 0.531 
-0.355521 0.277285 0.548 
-0.337204 0.283357 0.56 
-0.319991 0.291453 0.576 
-0.300778 0.299043 0.591 
-0.281553 0.308151 0.609 
-0.258155 0.314223 0.621 
-0.230318 0.315741 0.624 
-0.208005 0.326367 0.645 
-0.181804 0.333451 0.659 
-0.15659 0.345594 0.683 
-0.128591 0.35622 0.704 
-0.0993147 0.369376 0.73 
-0.0673462 0.381014 0.753 
-0.0335335 0.396194 0.783 
0.00309481 0.413904 0.818 
0.0426835 0.428578 0.847 
0.0866246 0.451853 0.893 
0.132412 0.466527 0.922 
0.183757 0.488791 0.966 
0.238256 0.509031 1.006 
0.313774 0.560136 1.107 
0.386495 0.59252 1.171 
0.464052 0.623386 1.232 
10.8024 12.6807 25.061 
8.92304 9.33105 18.441 
3.69709 2.85027 5.633 
3.71724 2.62358 5.185 
4.21622 2.7941 5.522 
9.14961 5.17835 10.234 
8.24574 4.43555 8.766 
-0.389926 0.263418 0.519 
-0.370633 0.270523 0.533 
-0.352113 0.280167 0.552 
-0.332888 0.28575 0.563 
-0.315361 0.293871 0.579 
-0.296342 0.301991 0.595 
-0.276735 0.311127 0.613 
-0.250187 0.313665 0.618 
-0.225322 0.319248 0.629 
-0.202548 0.329907 0.65 
-0.175697 0.336505 0.663 
-0.149817 0.348178 0.686 
-0.122481 0.361882 0.713 
-0.0921264 0.373556 0.736 
-0.0597853 0.386244 0.761 
-0.0252734 0.401471 0.791 
0.0121378 0.42025 0.828 
0.0522015 0.432431 0.852 
0.0964445 0.453748 0.894 
0.144294 0.47405 0.934 
0.194263 0.490292 0.966 
0.24994 0.512116 1.009 
0.330817 0.570485 1.124 
0.405502 0.600937 1.184 
0.480533 0.626822 1.235 
22.3831 25.4388 50.121 
8.69652 8.70293 17.147 
3.75812 2.89252 5.699 
3.80391 2.68138 5.283 
4.29394 2.84278 5.601 
9.31238 5.27749 10.398 
8.29611 4.46896 8.805 
-0.389175 0.263715 0.518 
-0.371591 0.270842 0.532 
-0.35467 0.278988 0.548 
-0.336334 0.285097 0.56 
-0.319096 0.293243 0.576 
-0.299859 0.300879 0.591 
-0.280606 0.310043 0.609 
-0.256362 0.315134 0.619 
-0.229348 0.31768 0.624 
-0.207324 0.32888 0.646 
-0.18078 0.335498 0.659 
-0.155529 0.347717 0.683 
-0.127678 0.358917 0.705 
-0.0981805 0.371645 0.73 
-0.0660884 0.382845 0.752 
-0.0323582 0.399136 0.784 
0.00437106 0.416955 0.819 
0.0439994 0.43121 0.847 
0.0877163 0.453101 0.89 
0.134426 0.471429 0.926 
0.185066 0.491284 0.965 
0.249692 0.513175 1.008 
0.330228 0.571213 1.122 
0.40516 0.602268 1.183 
0.480143 0.628232 1.234 
25.6748 29.2693 57.492 
9.37911 9.30079 18.269 
3.76045 2.91003 5.716 
3.68238 2.66108 5.227 
4.07848 2.76442 5.43 
9.78798 5.62252 11.044 
8.03305 4.38388 8.611 
-0.399805 0.260434 0.51 
-0.377605 0.270648 0.53 
-0.361557 0.277286 0.543 
-0.343679 0.283414 0.555 
-0.324682 0.289542 0.567 
-0.307722 0.298734 0.585 
-0.287167 0.305883 0.599 
-0.26747 0.315585 0.618 
-0.237893 0.314564 0.616 
-0.215633 0.324266 0.635 
-0.191602 0.333969 0.654 
-0.166046 0.344182 0.674 
-0.138026 0.352863 0.691 
-0.110719 0.369204 0.723 
-0.0792566 0.379928 0.744 
-0.0466756 0.397801 0.779 
-0.0105658 0.405461 0.794 
0.0277083 0.424866 0.832 
0.0692051 0.442228 0.866 
0.113998 0.460101 0.901 
0.163785 0.48308 0.946 
0.233727 0.510656 1 
0.308372 0.561721 1.1 
0.390467 0.598489 1.172 
0.465982 0.626575 1.227 
16.4954 19.1961 37.591 
9.03712 9.50688 18.617 
3.65168 2.86835 5.617 
3.689 2.69779 5.283 
4.04474 2.77286 5.43 
9.80842 5.67134 11.106 
8.1504 4.47641 8.766 
-0.399811 0.260715 0.509 
-0.379561 0.269934 0.527 
-0.363755 0.276593 0.54 
-0.346736 0.283252 0.553 
-0.327345 0.288886 0.564 
-0.311733 0.29913 0.584 
-0.290845 0.305789 0.597 
-0.270509 0.314497 0.614 
-0.242284 0.315009 0.615 
-0.219871 0.324229 0.633 
-0.19578 0.333448 0.651 
-0.170265 0.34318 0.67 
-0.142771 0.3524 0.688 
-0.115531 0.367766 0.718 
-0.0846934 0.379547 0.741 
-0.0523888 0.39645 0.774 
-0.0166707 0.405158 0.791 
0.0211429 0.424109 0.828 
0.061612 0.437427 0.854 
0.106049 0.457403 0.893 
0.155609 0.481989 0.941 
0.225733 0.511697 0.999 
0.29492 0.554211 1.082 
0.382529 0.599285 1.17 
0.455368 0.624383 1.219 
13.8626 16.4138 32.045 
9.58928 10.2165 19.946 
3.69369 2.98874 5.835 
3.89565 2.93598 5.732 
4.06734 2.8443 5.553 
9.8959 5.82126 11.365 
8.41848 4.70055 9.177 
9.01588 4.7907 9.353 
-0.381556 0.268698 0.523 
-0.36674 0.275891 0.537 
-0.350619 0.283083 0.551 
-0.332013 0.289249 0.563 
-0.315004 0.297983 0.58 
-0.295418 0.305689 0.595 
-0.275783 0.314937 0.613 
-0.248017 0.315964 0.615 
-0.224345 0.323157 0.629 
-0.201228 0.333432 0.649 
-0.174667 0.340625 0.663 
-0.148535 0.351928 0.685 
-0.121203 0.365799 0.712 
-0.0911065 0.378643 0.737 
-0.0586029 0.390974 0.761 
-0.0239228 0.404332 0.787 
0.0146573 0.423855 0.825 
0.0545915 0.435671 0.848 
0.0982236 0.45468 0.885 
0.149284 0.48191 0.938 
0.197737 0.493726 0.961 
0.27483 0.536369 1.044 
0.346421 0.574387 1.118 
0.442282 0.618571 1.204 
14.0936 16.7379 32.579 
7.97061 8.09896 15.764 
3.78216 2.95362 5.749 
3.97303 2.82878 5.506 
4.34029 2.90276 5.65 
8.93333 5.07187 9.872 
8.61131 4.64956 9.05 
-0.386701 0.267449 0.519 
-0.369805 0.274664 0.533 
-0.354022 0.281878 0.547 
-0.335734 0.288062 0.559 
-0.31965 0.297338 0.577 
-0.299859 0.304552 0.591 
-0.279685 0.312797 0.607 
-0.254706 0.31692 0.615 
-0.224964 0.323619 0.628 
-0.201614 0.33341 0.647 
-0.175432 0.34114 0.662 
-0.14938 0.352477 0.684 
-0.11899 0.366906 0.712 
-0.0890574 0.380819 0.739 
-0.0565338 0.394217 0.765 
-0.0215319 0.406585 0.789 
0.0172 0.424621 0.824 
0.0571591 0.436473 0.847 
0.101088 0.456571 0.886 
0.152361 0.483882 0.939 
0.200514 0.494704 0.96 
0.27483 0.537991 1.044 
0.345801 0.575094 1.116 
0.440812 0.61838 1.2 
14.3839 17.073 33.131 
3.74019 3.05222 5.923 
3.8275 2.8059 5.445 
4.0588 2.79044 5.415 
9.62491 5.59634 10.86 
8.25134 4.55798 8.845 
-0.395031 0.264121 0.511 
-0.377924 0.272391 0.527 
-0.362077 0.27911 0.54 
-0.345018 0.285829 0.553 
-0.32617 0.292032 0.565 
-0.308857 0.300819 0.582 
-0.28899 0.308572 0.597 
-0.268163 0.316842 0.613 
-0.240764 0.318392 0.616 
-0.210041 0.33028 0.639 
-0.185335 0.339584 0.657 
-0.159422 0.349921 0.677 
-0.127678 0.364394 0.705 
-0.0909829 0.380417 0.736 
-0.0585259 0.392822 0.76 
-0.0238924 0.40626 0.786 
0.0133269 0.424868 0.822 
0.0529599 0.435722 0.843 
0.0964108 0.455363 0.881 
0.149125 0.484308 0.937 
0.197531 0.496196 0.96 
0.264744 0.532377 1.03 
0.338258 0.575794 1.114 
0.425378 0.611458 1.183 
0.50367 0.640919 1.24 
10.3067 11.2259 21.719 
11.3619 11.1029 21.481 
3.93026 2.84589 5.506 
4.14051 2.81436 5.445 
9.44445 5.43179 10.509 
8.36128 4.57172 8.845 
-0.391722 0.266988 0.515 
-0.376667 0.275283 0.531 
-0.356962 0.282541 0.545 
-0.337643 0.287725 0.555 
-0.321324 0.296539 0.572 
-0.302905 0.304833 0.588 
-0.282526 0.31261 0.603 
-0.260749 0.320386 0.618 
-0.231944 0.320386 0.618 
-0.200679 0.333865 0.644 
-0.175432 0.343197 0.662 
-0.149162 0.354084 0.683 
-0.115672 0.369118 0.712 
-0.0779957 0.385189 0.743 
-0.0452318 0.401779 0.775 
-0.00929692 0.410074 0.791 
0.0286872 0.426663 0.823 
0.0701433 0.446363 0.861 
0.115398 0.4671 0.901 
0.168194 0.490429 0.946 
0.232174 0.518424 1 
0.303317 0.564045 1.088 
0.387801 0.603446 1.164 
0.459525 0.627293 1.21 
11.3369 13.1607 25.386 
7.65137 8.04283 15.514 
3.85588 2.86274 5.522 
4.04474 2.81504 5.43 
9.50035 5.53781 10.682 
8.27882 4.58546 8.845 
-0.392559 0.267269 0.514 
-0.376781 0.275588 0.53 
-0.359026 0.282348 0.543 
-0.339863 0.287548 0.553 
-0.322607 0.295347 0.568 
-0.304474 0.303667 0.584 
-0.284849 0.311987 0.6 
-0.264162 0.320826 0.617 
-0.234444 0.320826 0.617 
-0.204404 0.332786 0.64 
-0.176194 0.343705 0.661 
-0.149162 0.355145 0.683 
-0.108534 0.372304 0.716 
-0.0692233 0.388943 0.748 
-0.0344837 0.404023 0.777 
0.00179938 0.419622 0.807 
0.0404884 0.431062 0.829 
0.0834236 0.454461 0.874 
0.130554 0.47786 0.919 
0.179615 0.495019 0.952 
0.249006 0.529337 1.018 
0.320044 0.571456 1.099 
0.400022 0.607334 1.168 
0.473529 0.632813 1.217 
8.7667 9.96486 19.164 
6.72375 6.91467 13.298 
4.11568 2.97219 5.716 
4.22111 2.863 5.506 
9.16499 5.26634 10.128 
8.34108 4.55813 8.766 
-0.385895 0.270675 0.519 
-0.368148 0.277976 0.533 
-0.349561 0.285799 0.548 
-0.332296 0.293101 0.562 
-0.315361 0.301967 0.579 
-0.294848 0.308747 0.592 
-0.274478 0.317091 0.608 
-0.247211 0.319699 0.613 
-0.21756 0.329608 0.632 
-0.191674 0.335866 0.644 
-0.165357 0.347862 0.667 
-0.137427 0.358814 0.688 
-0.0993481 0.376546 0.722 
-0.0593139 0.393756 0.755 
-0.0250178 0.408359 0.783 
0.0120351 0.428177 0.821 
0.05116 0.435479 0.835 
0.0947184 0.457905 0.878 
0.144294 0.48711 0.934 
0.192654 0.499627 0.958 
0.267571 0.542914 1.041 
0.337955 0.580465 1.113 
0.41885 0.6128 1.175 
0.494174 0.639398 1.226 
8.91558 9.99463 19.164 
7.75585 7.90277 15.153 
4.13051 2.99828 5.749 
4.15441 2.83192 5.43 
9.01031 5.17516 9.923 
8.40555 4.59209 8.805 
-0.380175 0.272004 0.52 
-0.363402 0.280897 0.537 
-0.344626 0.28822 0.551 
-0.326469 0.29502 0.564 
-0.308696 0.303389 0.58 
-0.289918 0.312282 0.597 
-0.267799 0.319082 0.61 
-0.240764 0.322221 0.616 
-0.215937 0.331113 0.633 
-0.189672 0.336867 0.644 
-0.16511 0.348375 0.666 
-0.138294 0.35936 0.687 
-0.106161 0.374006 0.715 
-0.0692233 0.391268 0.748 
-0.035645 0.405914 0.776 
0.00054218 0.419514 0.802 
0.0389639 0.431022 0.824 
0.0833281 0.456653 0.873 
0.13027 0.479669 0.917 
0.179426 0.497454 0.951 
0.245601 0.531978 1.017 
0.324047 0.575917 1.101 
0.398995 0.609394 1.165 
0.471583 0.633979 1.212 
8.19515 9.46732 18.099 
6.06329 6.35078 12.141 
3.89604 2.88011 5.506 
4.02823 2.7938 5.341 
9.32854 5.43904 10.398 
8.19937 4.54456 8.688 
-0.383476 0.272288 0.519 
-0.365521 0.280157 0.534 
-0.346564 0.288551 0.55 
-0.328514 0.295372 0.563 
-0.310863 0.303766 0.579 
-0.290358 0.312685 0.596 
-0.268747 0.32003 0.61 
-0.242284 0.322653 0.615 
-0.218482 0.329998 0.629 
-0.193073 0.336818 0.642 
-0.168232 0.347311 0.662 
-0.142149 0.359378 0.685 
-0.11014 0.373543 0.712 
-0.0735757 0.390856 0.745 
-0.0403112 0.405546 0.773 
-0.00439217 0.416039 0.793 
0.0337198 0.430729 0.821 
0.0758449 0.453813 0.865 
0.121132 0.473224 0.902 
0.171315 0.496833 0.947 
0.237399 0.529361 1.009 
0.306688 0.567659 1.082 
0.379692 0.600712 1.145 
0.455376 0.631665 1.204 
9.42249 11.147 21.247 
7.09642 7.59677 14.48 
4.12158 3.01615 5.749 
4.07802 2.8021 5.341 
9.16499 5.31354 10.128 
8.22975 4.5376 8.649 
-0.380175 0.27362 0.52 
-0.365521 0.280987 0.534 
-0.34571 0.289406 0.55 
-0.327639 0.296246 0.563 
-0.309963 0.304666 0.579 
-0.288063 0.314137 0.597 
-0.265903 0.320977 0.61 
-0.239807 0.324135 0.616 
-0.216235 0.332028 0.631 
-0.189785 0.337289 0.641 
-0.165396 0.348866 0.663 
-0.139362 0.361494 0.687 
-0.106013 0.375702 0.714 
-0.0756869 0.390961 0.743 
-0.0426026 0.405694 0.771 
-0.00682171 0.415166 0.789 
0.0311687 0.432004 0.821 
0.0728187 0.453052 0.861 
0.117542 0.471469 0.896 
0.189083 0.502514 0.955 
0.261962 0.546188 1.038 
0.332693 0.582495 1.107 
0.405466 0.614593 1.168 
0.478414 0.639324 1.215 
8.44243 9.61301 18.269 
9.25846 9.18364 17.453 
3.97859 2.78724 5.297 
9.21321 5.38505 10.234 
8.26329 4.59208 8.727 
-0.384282 0.2739 0.519 
-0.368417 0.280233 0.531 
-0.351473 0.288677 0.547 
-0.332854 0.295538 0.56 
-0.315517 0.303982 0.576 
-0.292514 0.311898 0.591 
-0.272091 0.321397 0.609 
-0.245706 0.324036 0.614 
-0.221684 0.330897 0.627 
-0.196142 0.33723 0.639 
-0.171565 0.347785 0.659 
-0.145978 0.360451 0.683 
-0.11645 0.3747 0.71 
-0.0865263 0.388949 0.737 
-0.0538027 0.401087 0.76 
-0.0190077 0.414809 0.786 
0.018413 0.43328 0.821 
0.0606741 0.443835 0.841 
0.106353 0.466528 0.884 
0.19856 0.509275 0.965 
0.263574 0.547801 1.038 
0.332392 0.583687 1.106 
0.405119 0.61588 1.167 
0.478808 0.641739 1.216 
8.55597 9.6414 18.269 
4.02091 2.97279 5.633 
4.00667 2.78069 5.269 
9.04022 5.26321 9.973 
8.24319 4.56448 8.649 
-0.383476 0.274707 0.519 
-0.367592 0.281058 0.531 
-0.352527 0.288998 0.546 
-0.332854 0.296408 0.56 
-0.315517 0.304877 0.576 
-0.291595 0.312816 0.591 
-0.272091 0.322344 0.609 
-0.245306 0.324461 0.613 
-0.221684 0.331871 0.627 
-0.195835 0.337693 0.638 
-0.171305 0.348279 0.658 
-0.144917 0.361512 0.683 
-0.11645 0.375803 0.71 
-0.0864089 0.389565 0.736 
-0.053732 0.401739 0.759 
-0.0189835 0.4155 0.785 
0.018413 0.434555 0.821 
0.0592968 0.444612 0.84 
0.103255 0.466313 0.881 
0.202812 0.51395 0.971 
0.265515 0.546767 1.033 
0.33674 0.586994 1.109 
0.409796 0.619281 1.17 
0.484174 0.645746 1.22 
8.18232 9.15636 17.299 
4.07088 2.99901 5.666 
4.04194 2.79629 5.283 
8.81701 5.12204 9.677 
-0.401391 0.269143 0.507 
-0.381791 0.276044 0.52 
-0.366492 0.282945 0.533 
-0.350623 0.290377 0.547 
-0.330834 0.297809 0.561 
-0.312832 0.305772 0.576 
-0.288022 0.315858 0.595 
-0.264008 0.323821 0.61 
-0.23712 0.325944 0.614 
-0.214274 0.334969 0.631 
-0.187793 0.340277 0.641 
-0.162843 0.350894 0.661 
-0.134415 0.365758 0.689 
-0.105716 0.377968 0.712 
-0.0756869 0.394424 0.743 
-0.0426579 0.409819 0.772 
-0.00680442 0.417782 0.787 
0.0312066 0.436362 0.822 
0.0743287 0.458127 0.863 
0.11827 0.472991 0.891 
0.225733 0.530323 0.999 
0.310336 0.574914 1.083 
0.381138 0.607297 1.144 
0.458006 0.640209 1.206 
8.47522 10.0745 18.978 
3.73401 2.81989 5.312 
3.92838 2.7822 5.241 
8.72316 5.18856 9.774 
8.01613 4.53137 8.536 
-0.391795 0.273125 0.513 
-0.374243 0.278449 0.523 
-0.357219 0.286968 0.539 
-0.338873 0.292824 0.55 
-0.321407 0.30294 0.569 
-0.302659 0.310926 0.584 
-0.281583 0.318912 0.599 
-0.259483 0.32743 0.615 
-0.231193 0.327963 0.616 
-0.208069 0.337014 0.633 
-0.183361 0.346065 0.65 
-0.157773 0.356713 0.67 
-0.129812 0.368958 0.693 
-0.100466 0.380139 0.714 
-0.0702914 0.397708 0.747 
-0.0368981 0.41368 0.777 
-0.00069597 0.422199 0.793 
0.0377294 0.439236 0.825 
0.0803384 0.463194 0.87 
0.179992 0.507917 0.954 
0.263716 0.54625 1.026 
0.336436 0.589907 1.108 
0.408746 0.621319 1.167 
0.485364 0.651134 1.223 
13.7664 14.0635 26.415 
4.02786 2.89097 5.43 
6.20794 4.01808 7.547 
8.76872 5.20375 9.774 
8.16256 4.60479 8.649 
-0.390998 0.273922 0.513 
-0.37078 0.28033 0.525 
-0.356204 0.288339 0.54 
-0.337164 0.293679 0.55 
-0.318988 0.304892 0.571 
-0.299542 0.312367 0.585 
-0.280652 0.321978 0.603 
-0.257572 0.328386 0.615 
-0.229279 0.32892 0.616 
-0.206428 0.338531 0.634 
-0.181899 0.348143 0.652 
-0.156389 0.359356 0.673 
-0.129107 0.371103 0.695 
-0.0994957 0.381782 0.715 
-0.0692233 0.399403 0.748 
-0.0357369 0.415422 0.778 
0.000537448 0.424499 0.795 
0.041726 0.44212 0.828 
0.0844905 0.46508 0.871 
0.188778 0.513136 0.961 
0.28051 0.555853 1.041 
0.351789 0.594299 1.113 
0.426877 0.628472 1.177 
0.505886 0.659976 1.236 
3.9217 2.93999 5.506 
3.96661 2.79101 5.227 
6.02286 3.85146 7.213 
8.5518 5.11641 9.582 
8.08656 4.59794 8.611 
-0.394237 0.273648 0.511 
-0.378393 0.279539 0.522 
-0.359395 0.287036 0.536 
-0.342522 0.293998 0.549 
-0.324414 0.302566 0.565 
-0.305993 0.310598 0.58 
-0.286173 0.318631 0.595 
-0.264956 0.326664 0.61 
-0.236523 0.326664 0.61 
-0.214914 0.337374 0.63 
-0.188789 0.343265 0.641 
-0.163374 0.352904 0.659 
-0.138093 0.367363 0.686 
-0.109986 0.380751 0.711 
-0.0766344 0.396816 0.741 
-0.0437437 0.412346 0.77 
-0.00800677 0.420379 0.785 
0.0298931 0.439658 0.821 
0.071398 0.460543 0.86 
0.114724 0.47393 0.885 
0.23326 0.534444 0.998 
0.31515 0.58264 1.088 
0.385366 0.6137 1.146 
0.460988 0.64476 1.204 
11.694 12.462 23.271 
4.05028 2.99942 5.601 
4.08889 2.84465 5.312 
6.15827 3.89158 7.267 
8.63863 5.15647 9.629 
8.19937 4.65255 8.688 
-0.395857 0.273368 0.509 
-0.380906 0.279813 0.521 
-0.358562 0.287869 0.536 
-0.340816 0.294851 0.549 
-0.324414 0.303444 0.565 
-0.305092 0.3115 0.58 
-0.285728 0.320093 0.596 
-0.264008 0.327612 0.61 
-0.235189 0.327075 0.609 
-0.213935 0.338353 0.63 
-0.186961 0.346409 0.645 
-0.160789 0.355002 0.661 
-0.135092 0.368966 0.687 
-0.106672 0.381856 0.711 
-0.071165 0.399579 0.744 
-0.0380072 0.416228 0.775 
-0.00191831 0.423747 0.789 
0.0364477 0.443081 0.825 
0.0787143 0.465638 0.867 
0.181664 0.5129 0.955 
0.250435 0.542976 1.011 
0.323164 0.589701 1.098 
0.39173 0.617092 1.149 
0.46815 0.648779 1.208 
11.1278 11.9299 22.213 
4.04739 2.99953 5.585 
4.15345 2.89211 5.385 
6.18115 3.91738 7.294 
