# .PCD v.7 - Point Cloud Data file format
VERSION .7
FIELDS x y z
SIZE 4 4 4
TYPE F F F
COUNT 1 1 1
WIDTH 1823
HEIGHT 1
VIEWPOINT 0 0 0 1 0 0 0
POINTS 1823
DATA ascii
0.176933 -0.341355 1.232 
0.340626 -0.480446 1.734 
0.400546 -0.456618 1.648 
0.44318 -0.423923 1.53 
0.476147 -0.388734 1.403 
0.526487 -0.377929 1.364 
0.550265 -0.352438 1.272 
0.597573 -0.345511 1.247 
0.615208 -0.324176 1.17 
0.639976 -0.309768 1.118 
0.66361 -0.297023 1.072 
0.682957 -0.284278 1.026 
0.69659 -0.270978 0.978 
0.723203 -0.264051 0.953 
0.736209 -0.253245 0.914 
0.745579 -0.24244 0.875 
0.759402 -0.234127 0.845 
0.770429 -0.225815 0.815 
0.785602 -0.219442 0.792 
-0.583275 -0.201405 0.731 
-0.546949 -0.200579 0.728 
-0.515835 -0.201681 0.732 
-0.490272 -0.205262 0.745 
-0.466554 -0.210222 0.763 
-0.441157 -0.215181 0.781 
-0.413565 -0.219865 0.798 
-0.384388 -0.224549 0.815 
-0.35227 -0.230886 0.838 
-0.320312 -0.236121 0.857 
-0.285929 -0.240805 0.874 
-0.242947 -0.2386 0.866 
-0.203284 -0.239427 0.869 
-0.162405 -0.238876 0.867 
-0.122276 -0.239427 0.869 
-0.0840297 -0.246039 0.893 
-0.0446387 -0.258989 0.94 
-0.000887295 -0.278551 1.011 
0.0510692 -0.297562 1.08 
0.109671 -0.321807 1.168 
0.181201 -0.340267 1.235 
0.348105 -0.476925 1.731 
0.404264 -0.449649 1.632 
0.442037 -0.411627 1.494 
0.484269 -0.384351 1.395 
0.531177 -0.371677 1.349 
0.557504 -0.348808 1.266 
0.601903 -0.340543 1.236 
0.619495 -0.319879 1.161 
0.643439 -0.305552 1.109 
0.665043 -0.292327 1.061 
0.688233 -0.281582 1.022 
0.698427 -0.267254 0.97 
0.724473 -0.260366 0.945 
0.73599 -0.249346 0.905 
0.748937 -0.239978 0.871 
0.761434 -0.231437 0.84 
0.771995 -0.223171 0.81 
-0.622025 -0.203283 0.742 
-0.579524 -0.200543 0.732 
-0.542425 -0.199448 0.728 
-0.511985 -0.200817 0.733 
-0.486294 -0.204379 0.746 
-0.456471 -0.208762 0.762 
-0.43366 -0.215064 0.785 
-0.40567 -0.219721 0.802 
-0.375176 -0.223831 0.817 
-0.345281 -0.230132 0.84 
-0.313417 -0.235611 0.86 
-0.277464 -0.239173 0.873 
-0.235688 -0.238077 0.869 
-0.194734 -0.237529 0.867 
-0.154501 -0.237803 0.868 
-0.114043 -0.237803 0.868 
-0.0762986 -0.24657 0.9 
-0.0365629 -0.26246 0.958 
0.00863864 -0.280268 1.023 
0.0606152 -0.301637 1.101 
0.121798 -0.32328 1.18 
0.190559 -0.341362 1.246 
0.353483 -0.474236 1.731 
0.406576 -0.4441 1.621 
0.440491 -0.405744 1.481 
0.481654 -0.383553 1.4 
0.52972 -0.371498 1.356 
0.552696 -0.346294 1.264 
0.598547 -0.338896 1.237 
0.617478 -0.318897 1.164 
0.641147 -0.304377 1.111 
0.663617 -0.2915 1.064 
0.685728 -0.280268 1.023 
0.697564 -0.266569 0.973 
0.723828 -0.25972 0.948 
0.734798 -0.248488 0.907 
0.747944 -0.239173 0.873 
0.759727 -0.230406 0.841 
0.770428 -0.222187 0.811 
-0.622864 -0.202403 0.743 
-0.580315 -0.199679 0.733 
-0.542425 -0.198316 0.728 
-0.511985 -0.199679 0.733 
-0.486294 -0.20322 0.746 
-0.457054 -0.207306 0.761 
-0.434879 -0.213844 0.785 
-0.406408 -0.218203 0.801 
-0.376446 -0.222561 0.817 
-0.347477 -0.228554 0.839 
-0.315721 -0.234003 0.859 
-0.280818 -0.238361 0.875 
-0.237584 -0.237271 0.871 
-0.196308 -0.236454 0.868 
-0.156209 -0.236999 0.87 
-0.115392 -0.236454 0.868 
-0.0776105 -0.244899 0.899 
-0.0378527 -0.259609 0.953 
0.00701477 -0.277316 1.018 
0.0585301 -0.29802 1.094 
0.125784 -0.322264 1.183 
0.279948 -0.474543 1.742 
0.35824 -0.470729 1.728 
0.409835 -0.439674 1.614 
0.440285 -0.399085 1.465 
0.484269 -0.380016 1.395 
0.531571 -0.367757 1.35 
0.558587 -0.34433 1.264 
0.60187 -0.335613 1.232 
0.621298 -0.316271 1.161 
0.642835 -0.301016 1.105 
0.664806 -0.288213 1.058 
0.689146 -0.278133 1.021 
0.699213 -0.263968 0.969 
0.722869 -0.25634 0.941 
0.734952 -0.245716 0.902 
0.749429 -0.236999 0.87 
0.760923 -0.228282 0.838 
0.772298 -0.220382 0.809 
-0.625251 -0.200165 0.739 
-0.583041 -0.199081 0.735 
-0.544302 -0.197456 0.729 
-0.513824 -0.198811 0.734 
-0.488106 -0.202332 0.747 
-0.457054 -0.206124 0.761 
-0.434879 -0.212624 0.785 
-0.405901 -0.216687 0.8 
-0.376906 -0.221563 0.818 
-0.347477 -0.227251 0.839 
-0.315721 -0.232668 0.859 
-0.281781 -0.237814 0.878 
-0.239485 -0.23646 0.873 
-0.198112 -0.235647 0.87 
-0.157742 -0.235918 0.871 
-0.116875 -0.235377 0.869 
-0.0788315 -0.242961 0.897 
-0.039127 -0.256774 0.948 
0.00540645 -0.27438 1.013 
0.0582626 -0.294966 1.089 
0.11653 -0.31528 1.164 
0.180908 -0.333969 1.233 
0.34761 -0.471836 1.742 
0.401728 -0.442042 1.632 
0.436516 -0.403851 1.491 
0.476486 -0.380286 1.404 
0.527259 -0.369993 1.366 
0.545506 -0.341553 1.261 
0.593739 -0.335594 1.239 
0.613105 -0.315822 1.166 
0.638258 -0.302008 1.115 
0.661753 -0.289548 1.069 
0.681625 -0.27736 1.024 
0.69659 -0.2649 0.978 
0.720927 -0.257316 0.95 
0.732987 -0.246482 0.91 
0.745579 -0.237002 0.875 
0.759402 -0.228876 0.845 
0.768538 -0.220208 0.813 
0.783618 -0.213979 0.79 
-0.591371 -0.19767 0.734 
-0.5564 -0.197401 0.733 
-0.522947 -0.19767 0.734 
-0.495393 -0.200363 0.744 
-0.466513 -0.204941 0.761 
-0.443504 -0.210866 0.783 
-0.414805 -0.214906 0.798 
-0.385654 -0.219484 0.815 
-0.355772 -0.224601 0.834 
-0.325638 -0.230795 0.857 
-0.293361 -0.236989 0.88 
-0.250623 -0.235373 0.874 
-0.209165 -0.234565 0.871 
-0.168568 -0.234565 0.871 
-0.12797 -0.234565 0.871 
-0.0886766 -0.238066 0.884 
-0.0498898 -0.250185 0.929 
-0.00709235 -0.269305 1 
0.0416519 -0.283848 1.054 
0.0981862 -0.307008 1.14 
0.160614 -0.325859 1.21 
0.330075 -0.475055 1.764 
0.387286 -0.446239 1.657 
0.432281 -0.415269 1.542 
0.460997 -0.379721 1.41 
0.513643 -0.370295 1.375 
0.540654 -0.341479 1.268 
0.586985 -0.334208 1.241 
0.607937 -0.315087 1.17 
0.63416 -0.301622 1.12 
0.659399 -0.289773 1.076 
0.67724 -0.276577 1.027 
0.696161 -0.265535 0.986 
0.716528 -0.256379 0.952 
0.730529 -0.246145 0.914 
0.741833 -0.236181 0.877 
0.757721 -0.22864 0.849 
0.766303 -0.219753 0.816 
0.779694 -0.213021 0.791 
-0.601312 -0.196798 0.735 
-0.569368 -0.197601 0.738 
-0.53207 -0.19653 0.734 
-0.501249 -0.197869 0.739 
-0.475738 -0.202153 0.755 
-0.451634 -0.20724 0.774 
-0.424148 -0.211524 0.79 
-0.396641 -0.216611 0.809 
-0.366519 -0.221966 0.829 
-0.336976 -0.228124 0.852 
-0.303544 -0.232944 0.87 
-0.266923 -0.236425 0.883 
-0.222953 -0.233479 0.872 
-0.182937 -0.234283 0.875 
-0.142153 -0.234283 0.875 
-0.101253 -0.234015 0.874 
-0.0630079 -0.243654 0.91 
-0.022086 -0.261326 0.976 
0.0249644 -0.27873 1.041 
0.079839 -0.302827 1.131 
0.139822 -0.319428 1.193 
0.299927 -0.472314 1.764 
0.370233 -0.457588 1.709 
0.419353 -0.426528 1.593 
0.446195 -0.385562 1.44 
0.493352 -0.370568 1.384 
0.540528 -0.359055 1.341 
0.574108 -0.336028 1.255 
0.608913 -0.323444 1.208 
0.6291 -0.304166 1.136 
0.651429 -0.290511 1.085 
0.673533 -0.27873 1.041 
0.695697 -0.268555 1.003 
0.709137 -0.256506 0.958 
0.724676 -0.246599 0.921 
0.738434 -0.237228 0.886 
0.755089 -0.229731 0.858 
0.763574 -0.220627 0.824 
0.777649 -0.213934 0.799 
-0.617922 -0.198051 0.744 
-0.574732 -0.19672 0.739 
-0.5359 -0.195123 0.733 
-0.505158 -0.196454 0.738 
-0.4765 -0.19885 0.747 
-0.454099 -0.20444 0.768 
-0.429196 -0.209764 0.788 
-0.400436 -0.214023 0.804 
-0.372441 -0.219613 0.825 
-0.34087 -0.224139 0.842 
-0.309863 -0.230261 0.865 
-0.277024 -0.23665 0.889 
-0.231347 -0.232391 0.873 
-0.19153 -0.233456 0.877 
-0.150653 -0.233456 0.877 
-0.108899 -0.231592 0.87 
-0.0710981 -0.240909 0.905 
-0.0308009 -0.256615 0.964 
0.0150549 -0.273385 1.027 
0.0678252 -0.294681 1.107 
0.126867 -0.313049 1.176 
0.194657 -0.33541 1.26 
0.359484 -0.461587 1.734 
0.407804 -0.427514 1.606 
0.439684 -0.389448 1.463 
0.484963 -0.371879 1.397 
0.535902 -0.362296 1.361 
0.567507 -0.335942 1.262 
0.604492 -0.324229 1.218 
0.623803 -0.305862 1.149 
0.644345 -0.290954 1.093 
0.666664 -0.278976 1.048 
0.692981 -0.270191 1.015 
0.701635 -0.256083 0.962 
0.720867 -0.247298 0.929 
0.735378 -0.237981 0.894 
0.750973 -0.229995 0.864 
0.761023 -0.221211 0.831 
0.774733 -0.214289 0.805 
-0.625484 -0.196366 0.742 
-0.578959 -0.195837 0.74 
-0.540053 -0.194249 0.734 
-0.508597 -0.195308 0.738 
-0.479982 -0.197689 0.747 
-0.456487 -0.202718 0.766 
-0.432868 -0.20854 0.788 
-0.403178 -0.212245 0.802 
-0.37583 -0.218067 0.824 
-0.343156 -0.221772 0.838 
-0.313169 -0.228388 0.863 
-0.280535 -0.23474 0.887 
-0.235956 -0.231564 0.875 
-0.196064 -0.232622 0.879 
-0.155093 -0.232622 0.879 
-0.113214 -0.23077 0.872 
-0.0749835 -0.238445 0.901 
-0.0348914 -0.252206 0.953 
0.0101681 -0.269143 1.017 
0.0612503 -0.286345 1.082 
0.119837 -0.307252 1.161 
0.187136 -0.330541 1.249 
0.351322 -0.462334 1.747 
0.400796 -0.428195 1.618 
0.435006 -0.391144 1.478 
0.478667 -0.371561 1.404 
0.531319 -0.362827 1.371 
0.559029 -0.334775 1.265 
0.596984 -0.323395 1.222 
0.619882 -0.305664 1.155 
0.641052 -0.290844 1.099 
0.663301 -0.27867 1.053 
0.688026 -0.269143 1.017 
0.698549 -0.255646 0.966 
0.722022 -0.248236 0.938 
0.732271 -0.237386 0.897 
0.746466 -0.228917 0.865 
0.760406 -0.221243 0.836 
0.770687 -0.213303 0.806 
-0.628095 -0.19495 0.741 
-0.585135 -0.195213 0.742 
-0.543474 -0.193109 0.734 
-0.512037 -0.194161 0.738 
-0.483464 -0.196529 0.747 
-0.458856 -0.201001 0.764 
-0.436541 -0.207315 0.788 
-0.405901 -0.210473 0.8 
-0.378289 -0.215997 0.821 
-0.34582 -0.219681 0.835 
-0.316824 -0.226784 0.862 
-0.283386 -0.232309 0.883 
-0.241131 -0.231257 0.879 
-0.200389 -0.23152 0.88 
-0.159372 -0.23152 0.88 
-0.117413 -0.229678 0.873 
-0.0786558 -0.235466 0.895 
-0.0387556 -0.247042 0.939 
0.00537976 -0.265195 1.008 
0.0554798 -0.280981 1.068 
0.112947 -0.301502 1.146 
0.178702 -0.323865 1.231 
0.344751 -0.461724 1.755 
0.395685 -0.428312 1.628 
0.433331 -0.393584 1.496 
0.473468 -0.370432 1.408 
0.525312 -0.36096 1.372 
0.552241 -0.334651 1.272 
0.590857 -0.323338 1.229 
0.614083 -0.305448 1.161 
0.63827 -0.291768 1.109 
0.658853 -0.278613 1.059 
0.680795 -0.267826 1.018 
0.697483 -0.256513 0.975 
0.720831 -0.248884 0.946 
0.729346 -0.237308 0.902 
0.742312 -0.228363 0.868 
0.760225 -0.221785 0.843 
0.766322 -0.212577 0.808 
0.786073 -0.207842 0.79 
-0.595603 -0.194845 0.745 
-0.553711 -0.192753 0.737 
-0.520064 -0.193014 0.738 
-0.49093 -0.195107 0.746 
-0.462928 -0.198507 0.759 
-0.442761 -0.205568 0.786 
-0.412842 -0.208968 0.799 
-0.383122 -0.213153 0.815 
-0.35318 -0.218122 0.834 
-0.323729 -0.22466 0.859 
-0.290296 -0.229891 0.879 
-0.250176 -0.230676 0.882 
-0.207407 -0.228845 0.875 
-0.167385 -0.229891 0.879 
-0.125839 -0.228845 0.875 
-0.0862214 -0.231983 0.887 
-0.047003 -0.242968 0.929 
-0.00396507 -0.260229 0.995 
0.0448418 -0.275137 1.052 
0.104902 -0.297106 1.136 
0.168133 -0.31646 1.21 
0.334605 -0.460044 1.759 
0.387462 -0.427875 1.636 
0.432821 -0.399367 1.527 
0.467028 -0.370075 1.415 
0.516785 -0.358829 1.372 
0.548329 -0.336337 1.286 
0.582728 -0.322214 1.232 
0.60378 -0.303906 1.162 
0.633594 -0.29266 1.119 
0.654497 -0.279322 1.068 
0.675261 -0.267814 1.024 
0.697573 -0.258399 0.988 
0.713517 -0.247937 0.948 
0.724934 -0.237214 0.907 
0.740142 -0.228845 0.875 
0.756828 -0.221783 0.848 
0.763486 -0.21263 0.813 
0.778709 -0.206614 0.79 
-0.606702 -0.193168 0.743 
-0.572071 -0.193168 0.743 
-0.535269 -0.192388 0.74 
-0.500778 -0.192388 0.74 
-0.473848 -0.195507 0.752 
-0.451634 -0.201227 0.774 
-0.424148 -0.205387 0.79 
-0.39517 -0.209547 0.806 
-0.367363 -0.215266 0.828 
-0.336711 -0.220466 0.848 
-0.303494 -0.225146 0.866 
-0.270422 -0.231385 0.89 
-0.224051 -0.226445 0.871 
-0.18556 -0.229045 0.881 
-0.144496 -0.229045 0.881 
-0.10308 -0.228265 0.878 
-0.0643509 -0.236325 0.909 
-0.0233122 -0.250624 0.964 
0.0231003 -0.267783 1.03 
0.0801533 -0.288841 1.111 
0.1412 -0.30912 1.189 
0.210511 -0.330959 1.273 
0.368072 -0.435472 1.675 
0.418443 -0.408434 1.571 
0.45067 -0.374376 1.44 
0.498371 -0.360337 1.386 
0.539821 -0.345518 1.329 
0.570209 -0.326279 1.255 
0.597645 -0.31016 1.193 
0.624778 -0.296641 1.141 
0.646468 -0.282862 1.088 
0.666422 -0.270383 1.04 
0.691526 -0.261543 1.006 
0.704651 -0.249584 0.96 
0.718172 -0.239185 0.92 
0.7321 -0.230085 0.885 
0.749757 -0.223066 0.858 
0.758453 -0.214226 0.824 
0.772683 -0.207727 0.799 
-0.621068 -0.19253 0.745 
-0.58713 -0.192789 0.746 
-0.547176 -0.190979 0.739 
-0.512037 -0.190721 0.738 
-0.482817 -0.192789 0.746 
-0.459457 -0.197699 0.765 
-0.436541 -0.203643 0.788 
-0.405901 -0.206744 0.8 
-0.377828 -0.211912 0.82 
-0.346234 -0.216047 0.836 
-0.317559 -0.223283 0.864 
-0.283065 -0.227935 0.882 
-0.241406 -0.227418 0.88 
-0.2013 -0.228452 0.884 
-0.160096 -0.228452 0.884 
-0.117951 -0.226643 0.877 
-0.0783921 -0.230519 0.892 
-0.0385492 -0.241373 0.934 
0.00536909 -0.25998 1.006 
0.0551681 -0.274452 1.062 
0.11275 -0.295644 1.144 
0.177976 -0.316835 1.226 
0.347012 -0.449409 1.739 
0.399062 -0.41633 1.611 
0.435301 -0.382217 1.479 
0.47969 -0.36361 1.407 
0.528994 -0.352756 1.365 
0.554846 -0.330273 1.278 
0.589414 -0.316835 1.226 
0.612174 -0.298228 1.154 
0.637107 -0.285306 1.104 
0.655509 -0.27161 1.051 
0.679025 -0.261789 1.013 
0.697564 -0.251452 0.973 
0.719246 -0.243441 0.942 
0.726697 -0.231811 0.897 
0.740234 -0.223283 0.864 
0.758824 -0.217081 0.84 
0.764728 -0.208036 0.805 
-0.639531 -0.1924 0.749 
-0.600326 -0.192143 0.748 
-0.562438 -0.191116 0.744 
-0.526341 -0.190602 0.742 
-0.493744 -0.191373 0.745 
-0.468262 -0.195226 0.76 
-0.444228 -0.200363 0.78 
-0.416239 -0.204473 0.796 
-0.387234 -0.20884 0.813 
-0.357934 -0.213978 0.833 
-0.327918 -0.219886 0.856 
-0.294076 -0.22451 0.874 
-0.256527 -0.227335 0.885 
-0.213331 -0.22528 0.877 
-0.173831 -0.227078 0.884 
-0.131727 -0.225537 0.878 
-0.0914235 -0.227078 0.884 
-0.0522084 -0.236069 0.919 
-0.0100161 -0.252252 0.982 
0.0380855 -0.268692 1.046 
0.0933985 -0.288985 1.125 
0.155039 -0.307224 1.196 
0.322017 -0.449533 1.75 
0.37914 -0.422304 1.644 
0.428598 -0.39713 1.546 
0.462445 -0.366819 1.428 
0.508259 -0.352434 1.372 
0.544265 -0.335223 1.305 
0.573098 -0.317499 1.236 
0.595777 -0.299004 1.164 
0.629369 -0.289499 1.127 
0.64862 -0.275371 1.072 
0.671216 -0.264582 1.03 
0.693389 -0.255078 0.993 
0.708388 -0.244289 0.951 
0.721054 -0.234014 0.911 
0.735859 -0.225537 0.878 
0.75378 -0.218858 0.852 
0.760895 -0.209868 0.817 
0.770616 -0.202418 0.788 
-0.608192 -0.189449 0.742 
-0.576699 -0.19047 0.746 
-0.540475 -0.18996 0.744 
-0.502131 -0.189449 0.742 
-0.474478 -0.192258 0.753 
-0.45105 -0.197364 0.773 
-0.424148 -0.201705 0.79 
-0.39419 -0.205279 0.804 
-0.366032 -0.210641 0.825 
-0.335917 -0.216003 0.846 
-0.303494 -0.221109 0.866 
-0.26951 -0.226471 0.887 
-0.225852 -0.224173 0.878 
-0.184609 -0.22545 0.883 
-0.143615 -0.225705 0.884 
-0.102179 -0.225194 0.882 
-0.0628694 -0.231833 0.908 
-0.0217918 -0.245875 0.963 
0.0246766 -0.262727 1.029 
0.0773683 -0.279833 1.096 
0.138298 -0.30128 1.18 
0.206567 -0.321961 1.261 
0.37038 -0.424346 1.662 
0.419014 -0.397026 1.555 
0.454512 -0.367153 1.438 
0.501953 -0.353366 1.384 
0.536992 -0.334983 1.312 
0.569879 -0.319153 1.25 
0.595621 -0.30077 1.178 
0.625126 -0.289025 1.132 
0.647348 -0.276003 1.081 
0.667397 -0.264003 1.034 
0.689986 -0.254556 0.997 
0.705432 -0.243833 0.955 
0.718534 -0.23362 0.915 
0.731234 -0.224428 0.879 
0.750242 -0.218045 0.854 
0.758593 -0.209364 0.82 
0.768634 -0.20196 0.791 
-0.609344 -0.188296 0.742 
-0.578633 -0.189565 0.747 
-0.543087 -0.189311 0.746 
-0.505117 -0.18855 0.743 
-0.476184 -0.190834 0.752 
-0.452279 -0.195656 0.771 
-0.426063 -0.200223 0.789 
-0.395701 -0.203522 0.802 
-0.368149 -0.209105 0.824 
-0.336945 -0.213673 0.842 
-0.306185 -0.219764 0.866 
-0.271652 -0.224585 0.885 
-0.229101 -0.223316 0.88 
-0.188938 -0.224331 0.884 
-0.148236 -0.225093 0.887 
-0.106531 -0.224331 0.884 
-0.0667321 -0.229153 0.903 
-0.0261167 -0.242857 0.957 
0.0197452 -0.259352 1.022 
0.0715345 -0.275339 1.085 
0.131448 -0.296402 1.168 
0.199894 -0.318733 1.256 
0.363084 -0.425316 1.676 
0.411719 -0.396894 1.564 
0.449913 -0.368472 1.452 
0.499055 -0.355276 1.4 
0.534079 -0.336243 1.325 
0.567507 -0.320256 1.262 
0.596055 -0.304776 1.201 
0.620397 -0.28752 1.133 
0.645874 -0.275846 1.087 
0.6645 -0.263158 1.037 
0.686714 -0.253515 0.999 
0.703917 -0.243364 0.959 
0.71505 -0.232452 0.916 
0.727964 -0.223316 0.88 
0.747135 -0.216972 0.855 
0.756612 -0.208598 0.822 
0.765914 -0.200985 0.792 
-0.612803 -0.187143 0.742 
-0.583673 -0.188909 0.749 
-0.546564 -0.188152 0.746 
-0.509734 -0.187396 0.743 
-0.47894 -0.188909 0.749 
-0.455885 -0.193953 0.769 
-0.429874 -0.198493 0.787 
-0.399187 -0.20152 0.799 
-0.372364 -0.207321 0.822 
-0.341365 -0.211861 0.84 
-0.311567 -0.218418 0.866 
-0.2759 -0.222201 0.881 
-0.235103 -0.222454 0.882 
-0.194652 -0.22321 0.885 
-0.154095 -0.224219 0.889 
-0.112279 -0.223462 0.886 
-0.0718633 -0.226237 0.897 
-0.0316621 -0.238343 0.945 
0.0132889 -0.255746 1.014 
0.0638958 -0.26987 1.07 
0.122488 -0.290552 1.152 
0.1901 -0.313503 1.243 
0.354562 -0.424982 1.685 
0.404569 -0.396986 1.574 
0.445141 -0.369747 1.466 
0.493857 -0.355623 1.41 
0.5314 -0.337716 1.339 
0.562325 -0.319809 1.268 
0.592512 -0.304928 1.209 
0.612526 -0.287021 1.138 
0.641005 -0.276428 1.096 
0.657359 -0.262556 1.041 
0.680113 -0.252972 1.003 
0.6986 -0.243135 0.964 
0.713452 -0.233299 0.925 
0.724668 -0.223462 0.886 
0.741758 -0.2164 0.858 
0.755327 -0.209086 0.829 
0.761404 -0.200511 0.795 
-0.621902 -0.186993 0.746 
-0.590279 -0.187996 0.75 
-0.552359 -0.186993 0.746 
-0.515506 -0.186241 0.743 
-0.484111 -0.187495 0.748 
-0.458856 -0.191505 0.764 
-0.435433 -0.19702 0.786 
-0.403646 -0.200028 0.798 
-0.376554 -0.205542 0.82 
-0.34576 -0.210054 0.838 
-0.316583 -0.216822 0.865 
-0.280417 -0.220081 0.878 
-0.241675 -0.222086 0.886 
-0.201283 -0.223089 0.89 
-0.15962 -0.222838 0.889 
-0.117652 -0.221835 0.885 
-0.0770062 -0.22359 0.892 
-0.0370583 -0.233867 0.933 
0.0069183 -0.251664 1.004 
0.0563901 -0.264197 1.054 
0.114227 -0.286005 1.141 
0.179147 -0.306057 1.221 
0.339828 -0.426876 1.703 
0.39582 -0.403063 1.608 
0.435052 -0.372483 1.486 
0.47988 -0.354435 1.414 
0.520312 -0.337891 1.348 
0.553726 -0.320846 1.28 
0.584155 -0.305556 1.219 
0.60364 -0.287759 1.148 
0.631962 -0.27673 1.104 
0.646896 -0.261941 1.045 
0.670975 -0.252667 1.008 
0.695878 -0.244896 0.977 
0.710302 -0.234619 0.936 
0.718489 -0.22359 0.892 
0.737059 -0.216822 0.865 
0.753111 -0.210054 0.838 
0.755304 -0.200278 0.799 
0.760804 -0.192257 0.767 
-0.602734 -0.18708 0.751 
-0.565461 -0.186332 0.748 
-0.531306 -0.186582 0.749 
-0.49507 -0.186083 0.747 
-0.468262 -0.189322 0.76 
-0.44195 -0.193307 0.776 
-0.415716 -0.198041 0.795 
-0.386758 -0.202275 0.812 
-0.357934 -0.207507 0.833 
-0.326769 -0.212489 0.853 
-0.292058 -0.216225 0.868 
-0.258267 -0.221955 0.891 
-0.217467 -0.222702 0.894 
-0.17501 -0.221706 0.89 
-0.132327 -0.219713 0.882 
-0.0921475 -0.221955 0.891 
-0.0516971 -0.226688 0.91 
-0.0100161 -0.244624 0.982 
0.0378306 -0.258823 1.039 
0.0926513 -0.278004 1.116 
0.154002 -0.29594 1.188 
0.317785 -0.430209 1.727 
0.37937 -0.409782 1.645 
0.426935 -0.383626 1.54 
0.462121 -0.355476 1.427 
0.506407 -0.34053 1.367 
0.539677 -0.322345 1.294 
0.572171 -0.307399 1.234 
0.599581 -0.292701 1.175 
0.622049 -0.278253 1.117 
0.643334 -0.265549 1.066 
0.668316 -0.256083 1.028 
0.686969 -0.24562 0.986 
0.70468 -0.236154 0.948 
0.716479 -0.225941 0.907 
0.732821 -0.218218 0.876 
0.749807 -0.211492 0.849 
0.754977 -0.202275 0.812 
0.753769 -0.192311 0.772 
-0.610651 -0.184428 0.745 
-0.579791 -0.185665 0.75 
-0.544833 -0.185665 0.75 
-0.507156 -0.184675 0.746 
-0.477451 -0.186656 0.754 
-0.451693 -0.190617 0.77 
-0.426063 -0.19532 0.789 
-0.394221 -0.197796 0.799 
-0.367255 -0.203489 0.822 
-0.335745 -0.207698 0.839 
-0.305831 -0.214134 0.865 
-0.270732 -0.218343 0.882 
-0.232485 -0.221066 0.893 
-0.189793 -0.219828 0.888 
-0.148905 -0.220571 0.891 
-0.107375 -0.220571 0.891 
-0.0665104 -0.222799 0.9 
-0.0261167 -0.236909 0.957 
0.01961 -0.251267 1.015 
0.0708752 -0.26612 1.075 
0.130435 -0.286915 1.159 
0.197347 -0.306967 1.24 
0.352457 -0.414653 1.675 
0.402256 -0.387422 1.565 
0.444837 -0.362666 1.465 
0.494207 -0.349299 1.411 
0.528622 -0.329742 1.332 
0.560551 -0.312908 1.264 
0.589081 -0.29756 1.202 
0.609685 -0.281221 1.136 
0.638135 -0.270824 1.094 
0.655112 -0.257456 1.04 
0.676525 -0.247554 1 
0.695656 -0.238147 0.962 
0.709706 -0.228245 0.922 
0.721659 -0.218838 0.884 
0.739562 -0.212154 0.857 
0.75313 -0.204975 0.828 
0.754432 -0.19532 0.789 
-0.62924 -0.184992 0.752 
-0.594189 -0.184992 0.752 
-0.557651 -0.1845 0.75 
-0.520603 -0.183762 0.747 
-0.487736 -0.1845 0.75 
-0.460626 -0.187698 0.763 
-0.436204 -0.192618 0.783 
-0.406345 -0.195816 0.796 
-0.379912 -0.201474 0.819 
-0.348415 -0.20541 0.835 
-0.319132 -0.211806 0.861 
-0.283861 -0.215496 0.876 
-0.247192 -0.219186 0.891 
-0.206585 -0.22017 0.895 
-0.164132 -0.219186 0.891 
-0.122327 -0.218694 0.889 
-0.0813458 -0.219924 0.894 
-0.0408745 -0.226566 0.921 
0.00221856 -0.24477 0.995 
0.050989 -0.256824 1.044 
0.108432 -0.279456 1.136 
0.171041 -0.296184 1.204 
0.328858 -0.418446 1.701 
0.387987 -0.397782 1.617 
0.431548 -0.370476 1.506 
0.472425 -0.348828 1.418 
0.511934 -0.331608 1.348 
0.54705 -0.315618 1.283 
0.576579 -0.299874 1.219 
0.601182 -0.284622 1.157 
0.624534 -0.271338 1.103 
0.640797 -0.256578 1.043 
0.667598 -0.24846 1.01 
0.689909 -0.23985 0.975 
0.705186 -0.23001 0.935 
0.715132 -0.219678 0.893 
0.734722 -0.213282 0.867 
0.7501 -0.206394 0.839 
0.74811 -0.195324 0.794 
0.754465 -0.187698 0.763 
-0.605944 -0.184557 0.755 
-0.567729 -0.183579 0.751 
-0.533434 -0.183824 0.752 
-0.496395 -0.18309 0.749 
-0.468262 -0.185779 0.76 
-0.44195 -0.189691 0.776 
-0.415716 -0.194335 0.795 
-0.387234 -0.198735 0.813 
-0.358363 -0.203868 0.834 
-0.326386 -0.208268 0.852 
-0.292394 -0.212424 0.869 
-0.259426 -0.21878 0.895 
-0.21844 -0.219513 0.898 
-0.175404 -0.218046 0.892 
-0.133227 -0.217069 0.888 
-0.0925612 -0.21878 0.895 
-0.0516403 -0.222202 0.909 
-0.00995491 -0.23858 0.976 
0.0376486 -0.252758 1.034 
0.0916551 -0.269869 1.104 
0.154002 -0.290403 1.188 
0.222769 -0.30898 1.264 
0.376585 -0.40187 1.644 
0.42344 -0.37547 1.536 
0.460226 -0.34907 1.428 
0.50502 -0.334647 1.369 
0.536836 -0.315825 1.292 
0.568867 -0.300914 1.231 
0.599282 -0.287958 1.178 
0.616981 -0.27158 1.111 
0.638334 -0.257891 1.055 
0.66861 -0.250802 1.026 
0.683613 -0.239313 0.979 
0.702429 -0.230513 0.943 
0.714722 -0.220735 0.903 
0.731668 -0.213402 0.873 
0.746702 -0.206313 0.844 
0.746306 -0.195557 0.8 
0.750291 -0.187246 0.766 
-0.606746 -0.183627 0.756 
-0.568485 -0.182655 0.752 
-0.534144 -0.182898 0.753 
-0.497058 -0.18217 0.75 
-0.468262 -0.184599 0.76 
-0.44195 -0.188485 0.776 
-0.415716 -0.1931 0.795 
-0.387234 -0.197472 0.813 
-0.358363 -0.202573 0.834 
-0.326386 -0.206945 0.852 
-0.292394 -0.211074 0.869 
-0.260006 -0.217875 0.897 
-0.218683 -0.218361 0.899 
-0.175404 -0.21666 0.892 
-0.133677 -0.216418 0.891 
-0.092768 -0.217875 0.897 
-0.0516403 -0.22079 0.909 
-0.00993451 -0.236578 0.974 
0.0375757 -0.250665 1.032 
0.0935395 -0.26864 1.106 
0.155848 -0.288557 1.188 
0.225266 -0.307745 1.267 
0.375898 -0.398587 1.641 
0.422612 -0.372355 1.533 
0.460226 -0.346851 1.428 
0.504652 -0.332277 1.368 
0.53642 -0.313575 1.291 
0.567943 -0.298515 1.229 
0.597756 -0.285399 1.175 
0.615315 -0.269125 1.108 
0.63927 -0.257952 1.062 
0.667367 -0.249937 1.029 
0.682656 -0.238521 0.982 
0.70024 -0.229291 0.944 
0.71507 -0.220304 0.907 
0.72979 -0.212288 0.874 
0.744961 -0.205244 0.845 
0.744749 -0.194557 0.801 
0.748887 -0.186299 0.767 
-0.608725 -0.182694 0.757 
-0.569654 -0.181487 0.752 
-0.536025 -0.18197 0.754 
-0.498887 -0.181246 0.751 
-0.469442 -0.183418 0.76 
-0.443156 -0.187279 0.776 
-0.416427 -0.191623 0.794 
-0.388019 -0.195967 0.812 
-0.359228 -0.201036 0.833 
-0.327325 -0.20538 0.851 
-0.293406 -0.209482 0.868 
-0.261399 -0.216481 0.897 
-0.220324 -0.217205 0.9 
-0.17679 -0.215275 0.892 
-0.135365 -0.215516 0.893 
-0.0942666 -0.216723 0.898 
-0.0529942 -0.219136 0.908 
-0.0113773 -0.233616 0.968 
0.0358678 -0.248338 1.029 
0.0887993 -0.26306 1.09 
0.154002 -0.286711 1.188 
0.223122 -0.305535 1.266 
0.370493 -0.398451 1.651 
0.416551 -0.370938 1.537 
0.455158 -0.345839 1.433 
0.501553 -0.332324 1.377 
0.532046 -0.312534 1.295 
0.562672 -0.296847 1.23 
0.594799 -0.28478 1.18 
0.612353 -0.268369 1.112 
0.638501 -0.257992 1.069 
0.663859 -0.248821 1.031 
0.67946 -0.237478 0.984 
0.698789 -0.22879 0.948 
0.713193 -0.219619 0.91 
0.727377 -0.211413 0.876 
0.742776 -0.204414 0.847 
0.749007 -0.195726 0.811 
0.746061 -0.18559 0.769 
-0.610333 -0.181997 0.759 
-0.570411 -0.180558 0.753 
-0.536025 -0.180798 0.754 
-0.499552 -0.180319 0.752 
-0.469442 -0.182237 0.76 
-0.443156 -0.186074 0.776 
-0.416427 -0.19039 0.794 
-0.386446 -0.195185 0.814 
-0.357068 -0.199981 0.834 
-0.325444 -0.204537 0.853 
-0.291714 -0.208853 0.871 
-0.2589 -0.215327 0.898 
-0.217528 -0.215807 0.9 
-0.174018 -0.213889 0.892 
-0.13259 -0.214128 0.893 
-0.09168 -0.215807 0.9 
-0.050228 -0.217965 0.909 
-0.00839529 -0.232832 0.971 
0.0391791 -0.247459 1.032 
0.0929475 -0.263524 1.099 
0.157959 -0.285345 1.19 
0.227773 -0.304528 1.27 
0.372894 -0.393008 1.639 
0.419682 -0.367112 1.531 
0.458007 -0.342414 1.428 
0.503261 -0.328506 1.37 
0.534001 -0.309323 1.29 
0.564191 -0.293737 1.225 
0.594916 -0.281268 1.173 
0.611379 -0.264723 1.104 
0.63822 -0.254892 1.063 
0.665122 -0.246499 1.028 
0.67905 -0.23475 0.979 
0.698033 -0.226118 0.943 
0.713661 -0.217485 0.907 
0.728432 -0.209573 0.874 
0.742768 -0.202379 0.844 
0.744114 -0.192548 0.803 
0.747477 -0.184155 0.768 
-0.612318 -0.181056 0.76 
-0.57234 -0.179627 0.754 
-0.538621 -0.180103 0.756 
-0.501386 -0.179389 0.753 
-0.470623 -0.181056 0.76 
-0.444361 -0.184868 0.776 
-0.417134 -0.188918 0.793 
-0.385654 -0.194159 0.815 
-0.355772 -0.198685 0.834 
-0.324878 -0.203688 0.855 
-0.290694 -0.207738 0.872 
-0.258079 -0.214409 0.9 
-0.216129 -0.214409 0.9 
-0.171246 -0.212503 0.892 
-0.130106 -0.213217 0.895 
-0.0889821 -0.214647 0.901 
-0.0474556 -0.216791 0.91 
-0.00538913 -0.2318 0.973 
0.0424681 -0.246332 1.034 
0.0970639 -0.263723 1.107 
0.159942 -0.283734 1.191 
0.229927 -0.302793 1.271 
0.373837 -0.388794 1.632 
0.420683 -0.363542 1.526 
0.459259 -0.33948 1.425 
0.503545 -0.325186 1.365 
0.535589 -0.307081 1.289 
0.563784 -0.290643 1.22 
0.593686 -0.278017 1.167 
0.610317 -0.261817 1.099 
0.638066 -0.252526 1.06 
0.664773 -0.244188 1.025 
0.678485 -0.232514 0.976 
0.697273 -0.223938 0.94 
0.713493 -0.2156 0.905 
0.728955 -0.207976 0.873 
0.743198 -0.200829 0.843 
0.740101 -0.189633 0.796 
0.747911 -0.182486 0.766 
-0.610759 -0.180112 0.761 
-0.571509 -0.178929 0.756 
-0.535562 -0.178692 0.755 
-0.500372 -0.178692 0.755 
-0.468878 -0.180112 0.761 
-0.443089 -0.184136 0.778 
-0.41467 -0.187686 0.793 
-0.384062 -0.193366 0.817 
-0.352333 -0.196916 0.832 
-0.322598 -0.202597 0.856 
-0.288645 -0.206857 0.874 
-0.255282 -0.21301 0.9 
-0.213333 -0.21301 0.9 
-0.170051 -0.211354 0.893 
-0.129003 -0.2123 0.897 
-0.0877766 -0.21372 0.903 
-0.0460923 -0.215614 0.911 
-0.00386943 -0.229814 0.971 
0.0440746 -0.244725 1.034 
0.0989623 -0.262476 1.109 
0.161928 -0.28212 1.192 
0.232084 -0.301055 1.272 
0.376586 -0.383892 1.622 
0.422079 -0.358331 1.514 
0.461735 -0.335846 1.419 
0.50481 -0.321172 1.357 
0.538339 -0.304368 1.286 
0.564318 -0.287091 1.213 
0.592194 -0.273837 1.157 
0.610381 -0.258689 1.093 
0.638334 -0.249695 1.055 
0.665351 -0.241648 1.021 
0.678725 -0.230051 0.972 
0.695725 -0.221057 0.934 
0.713931 -0.213484 0.902 
0.729154 -0.20591 0.87 
0.743163 -0.19881 0.84 
0.738543 -0.187686 0.793 
0.748123 -0.181059 0.765 
-0.615114 -0.179165 0.762 
-0.575033 -0.177754 0.756 
-0.540509 -0.177989 0.757 
-0.503891 -0.177519 0.755 
-0.471804 -0.178695 0.76 
-0.445567 -0.182457 0.776 
-0.415902 -0.186454 0.793 
-0.385496 -0.190921 0.812 
-0.355345 -0.195859 0.833 
-0.324878 -0.201031 0.855 
-0.291027 -0.205264 0.873 
-0.258079 -0.211612 0.9 
-0.21637 -0.211847 0.901 
-0.171438 -0.209966 0.893 
-0.130397 -0.210907 0.897 
-0.0893771 -0.212788 0.905 
-0.0474556 -0.213963 0.91 
-0.00534482 -0.226895 0.965 
0.0422627 -0.241943 1.029 
0.0965378 -0.258872 1.101 
0.159942 -0.280033 1.191 
0.229746 -0.298608 1.27 
0.375657 -0.380431 1.618 
0.421522 -0.355508 1.512 
0.460759 -0.332936 1.416 
0.504438 -0.318829 1.356 
0.538339 -0.30237 1.286 
0.562457 -0.284266 1.209 
0.590658 -0.271334 1.154 
0.609823 -0.256756 1.092 
0.638939 -0.248291 1.056 
0.664048 -0.239592 1.019 
0.678836 -0.228071 0.97 
0.693443 -0.218431 0.929 
0.713746 -0.211612 0.9 
0.729666 -0.204323 0.869 
0.743582 -0.197269 0.839 
0.73791 -0.185983 0.791 
0.747353 -0.1794 0.763 
-0.620663 -0.178215 0.763 
-0.581265 -0.177047 0.758 
-0.546655 -0.17728 0.759 
-0.508583 -0.176346 0.755 
-0.4759 -0.17728 0.759 
-0.449809 -0.181017 0.775 
-0.419598 -0.185222 0.793 
-0.387657 -0.188258 0.806 
-0.360948 -0.194097 0.831 
-0.329582 -0.198535 0.85 
-0.296786 -0.203207 0.87 
-0.263892 -0.209279 0.896 
-0.224608 -0.211615 0.906 
-0.18097 -0.20998 0.899 
-0.138758 -0.209513 0.897 
-0.0979217 -0.211615 0.906 
-0.0556927 -0.211615 0.906 
-0.0141177 -0.221892 0.95 
0.0320988 -0.23614 1.011 
0.0843152 -0.251322 1.076 
0.14809 -0.276781 1.185 
0.215333 -0.293131 1.255 
0.362265 -0.382355 1.637 
0.411507 -0.358765 1.536 
0.450076 -0.33424 1.431 
0.494747 -0.319992 1.37 
0.52843 -0.302708 1.296 
0.556124 -0.285891 1.224 
0.590131 -0.275146 1.178 
0.60397 -0.257629 1.103 
0.636961 -0.250388 1.072 
0.652966 -0.238009 1.019 
0.674195 -0.227031 0.972 
0.693592 -0.218856 0.937 
0.712087 -0.211382 0.905 
0.728432 -0.204141 0.874 
0.741008 -0.196667 0.842 
0.737936 -0.185689 0.795 
0.745746 -0.178682 0.765 
-0.626224 -0.177261 0.764 
-0.587522 -0.176333 0.76 
-0.552098 -0.176333 0.76 
-0.512595 -0.174941 0.754 
-0.479984 -0.175869 0.758 
-0.451634 -0.179581 0.774 
-0.425759 -0.18399 0.793 
-0.392229 -0.185614 0.8 
-0.36692 -0.191878 0.827 
-0.335917 -0.196286 0.846 
-0.303494 -0.200927 0.866 
-0.271333 -0.207191 0.893 
-0.233826 -0.210904 0.909 
-0.189351 -0.208583 0.899 
-0.141861 -0.208583 0.899 
-0.100848 -0.21044 0.907 
-0.0585726 -0.21044 0.907 
-0.0170158 -0.21972 0.947 
0.0287568 -0.232945 1.004 
0.0806707 -0.248722 1.072 
0.143554 -0.273316 1.178 
0.209749 -0.288861 1.245 
0.357451 -0.382828 1.65 
0.405927 -0.35777 1.542 
0.446195 -0.334105 1.44 
0.489787 -0.318792 1.374 
0.524808 -0.302086 1.302 
0.555365 -0.286541 1.235 
0.587122 -0.274476 1.183 
0.599915 -0.256379 1.105 
0.633733 -0.249418 1.075 
0.648524 -0.235961 1.017 
0.668555 -0.226681 0.977 
0.690704 -0.219256 0.945 
0.705983 -0.210672 0.908 
0.72523 -0.204175 0.88 
0.736642 -0.196286 0.846 
0.740298 -0.187238 0.807 
0.745138 -0.179349 0.773 
-0.642145 -0.176535 0.766 
-0.604858 -0.176074 0.764 
-0.567013 -0.175383 0.761 
-0.527351 -0.174 0.755 
-0.49542 -0.175152 0.76 
-0.464233 -0.176765 0.767 
-0.439097 -0.181144 0.786 
-0.407582 -0.183449 0.796 
-0.380719 -0.188519 0.818 
-0.347199 -0.191054 0.829 
-0.319353 -0.197738 0.858 
-0.285548 -0.202116 0.877 
-0.252761 -0.2088 0.906 
-0.211694 -0.209952 0.911 
-0.162852 -0.20903 0.907 
-0.120311 -0.208569 0.905 
-0.0785602 -0.209722 0.91 
-0.0365023 -0.211796 0.919 
0.00667713 -0.223319 0.969 
0.0555341 -0.239221 1.038 
0.112425 -0.25881 1.123 
0.175773 -0.276095 1.198 
0.247852 -0.295454 1.282 
0.382047 -0.364593 1.582 
0.426397 -0.341086 1.48 
0.468603 -0.322649 1.4 
0.509834 -0.30813 1.337 
0.544764 -0.29338 1.273 
0.56566 -0.274712 1.192 
0.590472 -0.261115 1.133 
0.615461 -0.249822 1.084 
0.641411 -0.240604 1.044 
0.666937 -0.232538 1.009 
0.682833 -0.222397 0.965 
0.689347 -0.210644 0.914 
0.715132 -0.205804 0.893 
0.733027 -0.199351 0.865 
0.745629 -0.192207 0.834 
0.736529 -0.180453 0.783 
0.750318 -0.175152 0.76 
-0.623478 -0.175116 0.765 
-0.584748 -0.1742 0.761 
-0.548555 -0.173971 0.76 
-0.511781 -0.173514 0.758 
-0.477708 -0.173971 0.76 
-0.451013 -0.177405 0.775 
-0.423991 -0.181297 0.792 
-0.392452 -0.183815 0.803 
-0.366961 -0.189995 0.83 
-0.334998 -0.193887 0.847 
-0.302148 -0.198236 0.866 
-0.269643 -0.204188 0.892 
-0.233436 -0.208995 0.913 
-0.188218 -0.207621 0.907 
-0.142492 -0.206706 0.903 
-0.101293 -0.208537 0.911 
-0.0585726 -0.207621 0.907 
-0.0169439 -0.215862 0.943 
0.0286136 -0.228681 0.999 
0.0806707 -0.245391 1.072 
0.145138 -0.269198 1.176 
0.211343 -0.284535 1.243 
0.357085 -0.371978 1.625 
0.408588 -0.351148 1.534 
0.44754 -0.327341 1.43 
0.49082 -0.312462 1.365 
0.526823 -0.296896 1.297 
0.554222 -0.280186 1.224 
0.585804 -0.268511 1.173 
0.601164 -0.25203 1.101 
0.635296 -0.245391 1.072 
0.647547 -0.231886 1.013 
0.667329 -0.222729 0.973 
0.689975 -0.215633 0.942 
0.706615 -0.207621 0.907 
0.725771 -0.201212 0.879 
0.737084 -0.193429 0.845 
0.737283 -0.183357 0.801 
0.743671 -0.176032 0.769 
-0.642628 -0.174609 0.768 
-0.605251 -0.174155 0.766 
-0.567317 -0.173473 0.763 
-0.526178 -0.171654 0.755 
-0.494889 -0.173018 0.761 
-0.464852 -0.175064 0.77 
-0.437876 -0.178702 0.786 
-0.406855 -0.181203 0.797 
-0.38084 -0.186659 0.821 
-0.345911 -0.188478 0.829 
-0.31802 -0.195072 0.858 
-0.285157 -0.200073 0.88 
-0.251908 -0.206439 0.908 
-0.211894 -0.208713 0.918 
-0.167632 -0.206894 0.91 
-0.124667 -0.205985 0.906 
-0.0829837 -0.207349 0.912 
-0.0406526 -0.208258 0.916 
0.00214052 -0.218262 0.96 
0.0498656 -0.232131 1.021 
0.106809 -0.254411 1.119 
0.171188 -0.271008 1.192 
0.243107 -0.290561 1.278 
0.38256 -0.355585 1.564 
0.42954 -0.33535 1.475 
0.469913 -0.316252 1.391 
0.511297 -0.302384 1.33 
0.545702 -0.287833 1.266 
0.567931 -0.270326 1.189 
0.592419 -0.256912 1.13 
0.617687 -0.245999 1.082 
0.639098 -0.235314 1.035 
0.666752 -0.228266 1.004 
0.683699 -0.218717 0.962 
0.690673 -0.207349 0.912 
0.716299 -0.202574 0.891 
0.732312 -0.195754 0.861 
0.741044 -0.187796 0.826 
0.737075 -0.177565 0.781 
0.75268 -0.172791 0.76 
-0.625108 -0.17319 0.767 
-0.586285 -0.172287 0.763 
-0.550721 -0.172287 0.763 
-0.514482 -0.172061 0.762 
-0.478336 -0.171836 0.761 
-0.450431 -0.174771 0.774 
-0.423991 -0.178836 0.792 
-0.392941 -0.181545 0.804 
-0.366961 -0.187416 0.83 
-0.334998 -0.191255 0.847 
-0.302148 -0.195545 0.866 
-0.268737 -0.200738 0.889 
-0.234203 -0.206835 0.916 
-0.189463 -0.206158 0.913 
-0.146103 -0.205029 0.908 
-0.104352 -0.206158 0.913 
-0.061594 -0.20548 0.91 
-0.0197477 -0.211577 0.937 
0.0253817 -0.224448 0.994 
0.0771232 -0.241383 1.069 
0.135975 -0.258544 1.145 
0.207727 -0.278414 1.233 
0.353789 -0.363542 1.61 
0.407789 -0.345704 1.531 
0.447227 -0.322672 1.429 
0.490101 -0.307769 1.363 
0.526823 -0.292866 1.297 
0.553769 -0.276156 1.223 
0.582807 -0.263511 1.167 
0.601164 -0.248608 1.101 
0.634703 -0.241834 1.071 
0.646908 -0.228512 1.012 
0.667329 -0.219706 0.973 
0.689243 -0.21248 0.941 
0.705836 -0.204577 0.906 
0.72412 -0.198029 0.877 
0.736212 -0.190577 0.844 
0.7342 -0.180416 0.799 
0.743442 -0.173868 0.77 
-0.647891 -0.172672 0.77 
-0.611206 -0.172447 0.769 
-0.57237 -0.17155 0.765 
-0.530399 -0.169532 0.756 
-0.499746 -0.171102 0.763 
-0.467833 -0.172447 0.769 
-0.438169 -0.174914 0.78 
-0.40954 -0.178278 0.795 
-0.384198 -0.183884 0.82 
-0.350619 -0.186351 0.831 
-0.321269 -0.191957 0.856 
-0.287892 -0.197339 0.88 
-0.253888 -0.202945 0.905 
-0.215683 -0.206757 0.922 
-0.17046 -0.204066 0.91 
-0.127482 -0.203169 0.906 
-0.0859117 -0.204739 0.913 
-0.0433565 -0.204739 0.913 
-0.000836392 -0.213709 0.953 
0.0463729 -0.227388 1.014 
0.10287 -0.249813 1.114 
0.170614 -0.266408 1.188 
0.242536 -0.285917 1.275 
0.376734 -0.349828 1.56 
0.426973 -0.332337 1.482 
0.467264 -0.313051 1.396 
0.509453 -0.299596 1.336 
0.54134 -0.283675 1.265 
0.566135 -0.267529 1.193 
0.590993 -0.254298 1.134 
0.614893 -0.242861 1.083 
0.639568 -0.233443 1.041 
0.664954 -0.225594 1.006 
0.68071 -0.215727 0.962 
0.690856 -0.205412 0.916 
0.71353 -0.199806 0.891 
0.731332 -0.193527 0.863 
0.736689 -0.184781 0.824 
0.736529 -0.175587 0.783 
0.749331 -0.170205 0.759 
-0.627933 -0.171253 0.769 
-0.58901 -0.170362 0.765 
-0.554076 -0.170584 0.766 
-0.517019 -0.170139 0.764 
-0.481409 -0.170139 0.764 
-0.45105 -0.172143 0.773 
-0.425222 -0.176375 0.792 
-0.39419 -0.179047 0.804 
-0.367363 -0.184392 0.828 
-0.336314 -0.188623 0.847 
-0.303494 -0.192854 0.866 
-0.26951 -0.197531 0.887 
-0.235884 -0.204211 0.917 
-0.193353 -0.204434 0.918 
-0.14958 -0.203098 0.912 
-0.107189 -0.203321 0.913 
-0.0646341 -0.203321 0.913 
-0.0225384 -0.207552 0.932 
0.0220911 -0.219355 0.985 
0.0756035 -0.238506 1.071 
0.133141 -0.252982 1.136 
0.202408 -0.272579 1.224 
0.351811 -0.356535 1.601 
0.406457 -0.339833 1.526 
0.448479 -0.319122 1.433 
0.489382 -0.303088 1.361 
0.526417 -0.288613 1.296 
0.554222 -0.272579 1.224 
0.579811 -0.258549 1.161 
0.601164 -0.245187 1.101 
0.633518 -0.238061 1.069 
0.646269 -0.225145 1.011 
0.667329 -0.216682 0.973 
0.687778 -0.209111 0.939 
0.705056 -0.201539 0.905 
0.722468 -0.194858 0.875 
0.735339 -0.187732 0.843 
0.732362 -0.177488 0.797 
0.742477 -0.171253 0.769 
-0.646812 -0.170942 0.773 
-0.603658 -0.169615 0.767 
-0.567168 -0.169394 0.766 
-0.527301 -0.168067 0.76 
-0.492525 -0.168289 0.761 
-0.463661 -0.170721 0.772 
-0.433217 -0.172933 0.782 
-0.405394 -0.176692 0.799 
-0.379671 -0.182221 0.824 
-0.345406 -0.184432 0.834 
-0.316089 -0.190182 0.86 
-0.283065 -0.195047 0.882 
-0.24991 -0.20146 0.911 
-0.210408 -0.204335 0.924 
-0.165891 -0.202566 0.916 
-0.122389 -0.201239 0.91 
-0.0800619 -0.20146 0.911 
-0.0377237 -0.202123 0.914 
0.00510757 -0.211632 0.957 
0.0528824 -0.225122 1.018 
0.110582 -0.248121 1.122 
0.171734 -0.26161 1.183 
0.244517 -0.281955 1.275 
0.37697 -0.34299 1.551 
0.429276 -0.327732 1.482 
0.469097 -0.308492 1.395 
0.509231 -0.294118 1.33 
0.540729 -0.278417 1.259 
0.569417 -0.264485 1.196 
0.592755 -0.250774 1.134 
0.616006 -0.239275 1.082 
0.638721 -0.229324 1.037 
0.663867 -0.221584 1.002 
0.680786 -0.212296 0.96 
0.69379 -0.203008 0.918 
0.712507 -0.196374 0.888 
0.730975 -0.190403 0.861 
0.7317 -0.180673 0.817 
0.736804 -0.172933 0.782 
0.75051 -0.167846 0.759 
-0.628016 -0.17018 0.775 
-0.586547 -0.168643 0.768 
-0.551467 -0.168863 0.769 
-0.50923 -0.167545 0.763 
-0.475529 -0.168204 0.766 
-0.444419 -0.169961 0.774 
-0.419421 -0.174572 0.795 
-0.390543 -0.178305 0.812 
-0.361816 -0.182917 0.833 
-0.330745 -0.187308 0.853 
-0.295094 -0.190822 0.869 
-0.261914 -0.196311 0.894 
-0.227389 -0.202679 0.923 
-0.182969 -0.201142 0.916 
-0.138896 -0.199166 0.907 
-0.0976859 -0.201362 0.917 
-0.0547045 -0.200484 0.913 
-0.012482 -0.205973 0.938 
0.0334365 -0.220466 1.004 
0.0874143 -0.235618 1.073 
0.148698 -0.254941 1.161 
0.215914 -0.27141 1.236 
0.353663 -0.34607 1.576 
0.41086 -0.332895 1.516 
0.454523 -0.31423 1.431 
0.493904 -0.297761 1.356 
0.527938 -0.28217 1.285 
0.558097 -0.267897 1.22 
0.578669 -0.252087 1.148 
0.606847 -0.241986 1.102 
0.634917 -0.233422 1.063 
0.651906 -0.221784 1.01 
0.6713 -0.213 0.97 
0.690659 -0.205315 0.935 
0.70754 -0.197849 0.901 
0.723747 -0.191041 0.87 
0.734429 -0.183575 0.836 
0.73269 -0.173913 0.792 
0.740454 -0.167326 0.762 
-0.646077 -0.168976 0.775 
-0.596508 -0.167232 0.767 
-0.561489 -0.16745 0.768 
-0.521433 -0.167232 0.767 
-0.483783 -0.166578 0.764 
-0.452866 -0.168322 0.772 
-0.427143 -0.172465 0.791 
-0.395701 -0.174863 0.802 
-0.368596 -0.179878 0.825 
-0.338546 -0.184457 0.846 
-0.305831 -0.188599 0.865 
-0.271652 -0.19296 0.885 
-0.238994 -0.200155 0.918 
-0.197488 -0.201463 0.924 
-0.152247 -0.198629 0.911 
-0.110267 -0.199501 0.915 
-0.0676189 -0.199501 0.915 
-0.025298 -0.202118 0.927 
0.0186826 -0.210839 0.967 
0.0717356 -0.23177 1.063 
0.129041 -0.246597 1.131 
0.197306 -0.265129 1.216 
0.269232 -0.281046 1.289 
0.394031 -0.334246 1.533 
0.445141 -0.319638 1.466 
0.479847 -0.298707 1.37 
0.517907 -0.284534 1.305 
0.545916 -0.2684 1.231 
0.58075 -0.25837 1.185 
0.597341 -0.242672 1.113 
0.625886 -0.233951 1.073 
0.636844 -0.220432 1.011 
0.666377 -0.214764 0.985 
0.683363 -0.206042 0.945 
0.700469 -0.198411 0.91 
0.715944 -0.191216 0.877 
0.727481 -0.183803 0.843 
0.725842 -0.173991 0.798 
0.739133 -0.16854 0.773 
-0.661379 -0.167989 0.776 
-0.617975 -0.167989 0.776 
-0.577307 -0.16669 0.77 
-0.538818 -0.166257 0.768 
-0.49542 -0.164525 0.76 
-0.466049 -0.16669 0.77 
-0.434628 -0.168422 0.778 
-0.408606 -0.172751 0.798 
-0.383977 -0.178596 0.825 
-0.349712 -0.180761 0.835 
-0.319725 -0.185957 0.859 
-0.28685 -0.190719 0.881 
-0.25304 -0.196348 0.907 
-0.214715 -0.200028 0.924 
-0.170161 -0.198296 0.916 
-0.12677 -0.197214 0.911 
-0.0846783 -0.19808 0.915 
-0.0418461 -0.197214 0.911 
0.000641557 -0.20544 0.949 
0.0496703 -0.220161 1.017 
0.109695 -0.240943 1.113 
0.170572 -0.254364 1.175 
0.245725 -0.275147 1.271 
0.373353 -0.334679 1.546 
0.42755 -0.321257 1.484 
0.469607 -0.303722 1.403 
0.507546 -0.288135 1.331 
0.539011 -0.271683 1.255 
0.571797 -0.259993 1.201 
0.594517 -0.245489 1.134 
0.615974 -0.233582 1.079 
0.639715 -0.224274 1.036 
0.662768 -0.216047 0.998 
0.680857 -0.207388 0.958 
0.695974 -0.198945 0.919 
0.709063 -0.190936 0.882 
0.726359 -0.184874 0.854 
0.724895 -0.174916 0.808 
0.736131 -0.168855 0.78 
0.750699 -0.164092 0.758 
-0.624808 -0.166998 0.777 
-0.585562 -0.166138 0.773 
-0.549532 -0.166138 0.773 
-0.504866 -0.163344 0.76 
-0.473766 -0.164849 0.767 
-0.442014 -0.166353 0.774 
-0.418524 -0.171512 0.798 
-0.388497 -0.174735 0.813 
-0.358365 -0.178604 0.831 
-0.328479 -0.183547 0.854 
-0.294082 -0.186986 0.87 
-0.261108 -0.192574 0.896 
-0.22571 -0.198162 0.922 
-0.181943 -0.197303 0.918 
-0.137335 -0.194724 0.906 
-0.0963661 -0.197303 0.918 
-0.0534028 -0.196658 0.915 
-0.0110012 -0.201171 0.936 
0.0367747 -0.217076 1.01 
0.0905794 -0.230187 1.071 
0.152568 -0.24996 1.163 
0.223957 -0.266079 1.238 
0.358614 -0.334211 1.555 
0.416123 -0.322605 1.501 
0.461473 -0.306271 1.425 
0.50085 -0.290581 1.352 
0.532478 -0.273387 1.272 
0.565714 -0.261351 1.216 
0.585264 -0.245016 1.14 
0.61432 -0.235775 1.097 
0.63876 -0.226318 1.053 
0.655833 -0.215786 1.004 
0.677436 -0.208049 0.968 
0.691204 -0.199022 0.926 
0.708195 -0.19193 0.893 
0.722948 -0.185052 0.861 
0.724084 -0.175595 0.817 
0.733245 -0.168932 0.786 
0.742455 -0.162914 0.758 
-0.645398 -0.166431 0.78 
-0.602796 -0.164724 0.772 
-0.566812 -0.164724 0.772 
-0.530142 -0.164511 0.771 
-0.487795 -0.162377 0.761 
-0.458863 -0.164724 0.772 
-0.429453 -0.167284 0.784 
-0.400929 -0.170698 0.8 
-0.374096 -0.175606 0.823 
-0.34267 -0.179233 0.84 
-0.311828 -0.184141 0.863 
-0.278213 -0.188622 0.884 
-0.245589 -0.19545 0.916 
-0.204223 -0.19673 0.922 
-0.160199 -0.19545 0.916 
-0.117632 -0.195663 0.917 
-0.0748903 -0.195663 0.917 
-0.0322188 -0.19609 0.919 
0.0110204 -0.203558 0.954 
0.0632913 -0.220414 1.033 
0.122675 -0.239191 1.121 
0.183976 -0.251567 1.179 
0.2664 -0.274184 1.285 
0.389861 -0.325607 1.526 
0.444373 -0.313872 1.471 
0.478067 -0.292534 1.371 
0.515089 -0.278025 1.303 
0.544004 -0.262662 1.231 
0.580374 -0.253487 1.188 
0.598823 -0.238764 1.119 
0.623055 -0.228523 1.071 
0.637158 -0.21636 1.014 
0.665522 -0.210386 0.986 
0.67973 -0.200997 0.942 
0.698929 -0.193743 0.908 
0.714312 -0.186701 0.875 
0.72144 -0.17838 0.836 
0.724023 -0.169845 0.796 
0.738176 -0.164724 0.772 
-0.663936 -0.165007 0.779 
-0.626015 -0.164584 0.777 
-0.587522 -0.163948 0.774 
-0.552158 -0.16416 0.775 
-0.504715 -0.160559 0.758 
-0.474958 -0.162465 0.767 
-0.444361 -0.164372 0.776 
-0.42029 -0.169244 0.799 
-0.387363 -0.17115 0.808 
-0.358791 -0.175598 0.829 
-0.329806 -0.180894 0.854 
-0.293396 -0.183012 0.864 
-0.262793 -0.190002 0.897 
-0.226403 -0.194662 0.919 
-0.184567 -0.195721 0.924 
-0.139202 -0.192544 0.909 
-0.0978989 -0.194662 0.919 
-0.055064 -0.194662 0.919 
-0.0124288 -0.197839 0.934 
0.0368111 -0.214149 1.011 
0.0920711 -0.226435 1.069 
0.154508 -0.246558 1.164 
0.2267 -0.260961 1.232 
0.359869 -0.32832 1.55 
0.416225 -0.316246 1.493 
0.461735 -0.300572 1.419 
0.501462 -0.285532 1.348 
0.531641 -0.269011 1.27 
0.565249 -0.25736 1.215 
0.585264 -0.241474 1.14 
0.61432 -0.232366 1.097 
0.638154 -0.222834 1.052 
0.653873 -0.212031 1.001 
0.679535 -0.205677 0.971 
0.690458 -0.195933 0.925 
0.706608 -0.188731 0.891 
0.721269 -0.181953 0.859 
0.719653 -0.171997 0.812 
0.731379 -0.166066 0.784 
0.741476 -0.160347 0.757 
-0.648652 -0.164217 0.781 
-0.609114 -0.163376 0.777 
-0.571423 -0.162956 0.775 
-0.53461 -0.162746 0.774 
-0.490804 -0.160222 0.762 
-0.460664 -0.162115 0.771 
-0.430788 -0.164428 0.782 
-0.403415 -0.168213 0.8 
-0.376195 -0.172838 0.822 
-0.344458 -0.176203 0.838 
-0.314146 -0.181249 0.862 
-0.281277 -0.186085 0.885 
-0.246473 -0.192183 0.914 
-0.205655 -0.193865 0.922 
-0.161798 -0.192814 0.917 
-0.119187 -0.193024 0.918 
-0.0766479 -0.193655 0.921 
-0.0336832 -0.193444 0.92 
0.00951819 -0.200173 0.952 
0.0613878 -0.216153 1.028 
0.117597 -0.232554 1.106 
0.17863 -0.24559 1.168 
0.259397 -0.26914 1.28 
0.382497 -0.320655 1.525 
0.437517 -0.309301 1.471 
0.474085 -0.289746 1.378 
0.510648 -0.273766 1.302 
0.540617 -0.259047 1.232 
0.577067 -0.249165 1.185 
0.598287 -0.235077 1.118 
0.62131 -0.224564 1.068 
0.639044 -0.21384 1.017 
0.663497 -0.206691 0.983 
0.676844 -0.197229 0.938 
0.698287 -0.191131 0.909 
0.711323 -0.183562 0.873 
0.717557 -0.175151 0.833 
0.722786 -0.167371 0.796 
0.736977 -0.162325 0.772 
-0.669281 -0.163004 0.781 
-0.631257 -0.162587 0.779 
-0.592657 -0.16196 0.776 
-0.557204 -0.162169 0.777 
-0.508248 -0.158204 0.758 
-0.479157 -0.160291 0.768 
-0.448556 -0.162169 0.777 
-0.422953 -0.166343 0.797 
-0.389193 -0.167804 0.804 
-0.360905 -0.172187 0.825 
-0.331832 -0.177196 0.849 
-0.295358 -0.179075 0.858 
-0.266676 -0.187006 0.896 
-0.228511 -0.19118 0.916 
-0.18825 -0.193685 0.928 
-0.142652 -0.190554 0.913 
-0.100974 -0.192224 0.921 
-0.0581088 -0.192432 0.922 
-0.0152818 -0.194311 0.931 
0.0335031 -0.209964 1.006 
0.0847883 -0.221443 1.061 
0.145882 -0.240645 1.153 
0.210012 -0.253168 1.213 
0.288524 -0.274039 1.313 
0.408505 -0.316407 1.516 
0.454512 -0.300128 1.438 
0.492523 -0.283431 1.358 
0.525532 -0.267986 1.284 
0.554378 -0.253794 1.216 
0.581189 -0.240645 1.153 
0.608007 -0.229792 1.101 
0.632975 -0.220609 1.057 
0.648679 -0.209756 1.005 
0.673376 -0.203077 0.973 
0.684749 -0.193476 0.927 
0.702828 -0.186797 0.895 
0.717092 -0.17991 0.862 
0.718616 -0.170726 0.818 
0.727139 -0.164048 0.786 
0.741425 -0.159247 0.763 
-0.656396 -0.162205 0.783 
-0.616734 -0.161376 0.779 
-0.579679 -0.161169 0.778 
-0.544115 -0.161376 0.779 
-0.498141 -0.158683 0.766 
-0.461862 -0.159719 0.771 
-0.43145 -0.161791 0.781 
-0.404658 -0.165727 0.8 
-0.376554 -0.16987 0.82 
-0.344935 -0.173184 0.836 
-0.315119 -0.178363 0.861 
-0.282972 -0.183542 0.886 
-0.248767 -0.188928 0.912 
-0.209199 -0.191621 0.925 
-0.165546 -0.191 0.922 
-0.122039 -0.190171 0.918 
-0.0798551 -0.191621 0.925 
-0.0366214 -0.191 0.922 
0.0065462 -0.1968 0.95 
0.0564311 -0.212337 1.025 
0.110815 -0.225803 1.09 
0.172592 -0.241132 1.164 
0.245361 -0.260812 1.259 
0.376768 -0.315088 1.521 
0.432063 -0.304108 1.468 
0.470144 -0.285671 1.379 
0.506129 -0.270549 1.306 
0.538348 -0.256876 1.24 
0.568261 -0.244861 1.182 
0.595931 -0.234089 1.13 
0.614735 -0.221867 1.071 
0.639211 -0.213373 1.03 
0.659864 -0.20488 0.989 
0.675981 -0.196179 0.947 
0.695788 -0.18955 0.915 
0.706155 -0.181264 0.875 
0.717061 -0.174013 0.84 
0.718403 -0.165312 0.798 
0.734767 -0.160755 0.776 
0.747093 -0.155783 0.752 
-0.640581 -0.160988 0.783 
-0.601771 -0.160372 0.78 
-0.563965 -0.15996 0.778 
-0.517528 -0.156876 0.763 
-0.474384 -0.157904 0.768 
-0.444298 -0.15996 0.778 
-0.418524 -0.164072 0.798 
-0.386108 -0.166129 0.808 
-0.355778 -0.169624 0.825 
-0.32771 -0.175175 0.852 
-0.291378 -0.177231 0.862 
-0.262274 -0.185044 0.9 
-0.224241 -0.188334 0.916 
-0.184123 -0.191007 0.929 
-0.139761 -0.189567 0.922 
-0.096891 -0.189773 0.923 
-0.0539864 -0.190184 0.925 
-0.0109777 -0.192035 0.934 
0.0366291 -0.206838 1.006 
0.0881682 -0.218352 1.062 
0.150113 -0.23809 1.158 
0.211666 -0.246931 1.201 
0.29461 -0.271809 1.322 
0.41049 -0.309641 1.506 
0.453874 -0.29237 1.422 
0.495645 -0.278594 1.355 
0.524986 -0.261735 1.273 
0.556321 -0.249193 1.212 
0.580453 -0.236034 1.148 
0.608007 -0.226371 1.101 
0.631179 -0.216707 1.054 
0.648946 -0.206221 1.003 
0.674888 -0.200053 0.973 
0.683969 -0.189979 0.924 
0.703432 -0.183811 0.894 
0.716764 -0.17682 0.86 
0.715486 -0.167157 0.813 
