# .PCD v.7 - Point Cloud Data file format
VERSION .7
FIELDS x y z
SIZE 4 4 4
TYPE F F F
COUNT 1 1 1
WIDTH 1890
HEIGHT 1
VIEWPOINT 0 0 0 1 0 0 0
POINTS 1890
DATA ascii
0.238535 0.115477 0.536 
0.263518 0.115477 0.536 
0.287425 0.115046 0.534 
0.31173 0.11483 0.533 
0.335941 0.114615 0.532 
0.360738 0.114615 0.532 
0.385535 0.114615 0.532 
0.40956 0.1144 0.531 
0.433492 0.114184 0.53 
0.458196 0.114184 0.53 
0.481988 0.113969 0.529 
0.504729 0.113538 0.527 
-0.560615 0.146472 0.675 
-0.527585 0.146038 0.673 
-0.494005 0.145387 0.67 
-0.462085 0.14517 0.669 
-0.433479 0.146038 0.673 
-0.399123 0.144953 0.668 
-0.366335 0.144302 0.665 
-0.334835 0.144085 0.664 
-0.30297 0.143651 0.662 
-0.272936 0.144085 0.664 
-0.2398 0.142783 0.658 
-0.201783 0.138443 0.638 
-0.171322 0.13866 0.639 
-0.14619 0.143217 0.66 
-0.109274 0.143217 0.66 
-0.0700568 0.13866 0.639 
-0.0166882 0.11913 0.549 
0.0088684 0.118696 0.547 
0.0342386 0.118262 0.545 
0.0598601 0.118696 0.547 
0.0848878 0.118045 0.544 
0.113609 0.118913 0.548 
0.137374 0.117394 0.541 
0.16289 0.117612 0.542 
0.187459 0.117178 0.54 
0.211841 0.116744 0.538 
0.236036 0.11631 0.536 
0.260533 0.116093 0.535 
0.284936 0.115876 0.534 
0.309245 0.115659 0.533 
0.334089 0.115659 0.533 
0.358258 0.115442 0.532 
0.382335 0.115225 0.531 
0.406318 0.115008 0.53 
0.431022 0.115008 0.53 
0.454866 0.114791 0.529 
0.478616 0.114574 0.528 
0.503226 0.114574 0.528 
-0.562713 0.147521 0.675 
-0.52889 0.146865 0.672 
-0.496087 0.146428 0.67 
-0.464164 0.146209 0.669 
-0.434276 0.146646 0.671 
-0.400598 0.145772 0.667 
-0.368401 0.145335 0.665 
-0.336898 0.145117 0.664 
-0.305488 0.144898 0.663 
-0.274585 0.144898 0.663 
-0.24111 0.143368 0.656 
-0.203765 0.139434 0.638 
-0.172315 0.139653 0.639 
-0.144944 0.144024 0.659 
-0.108085 0.144024 0.659 
-0.0643797 0.138123 0.632 
-0.0124008 0.119765 0.548 
0.0130937 0.119328 0.546 
0.0385429 0.119328 0.546 
0.063875 0.119109 0.545 
0.0891138 0.118891 0.544 
0.116587 0.119328 0.546 
0.140476 0.118016 0.54 
0.166259 0.118454 0.542 
0.190108 0.117579 0.538 
0.214784 0.117361 0.537 
0.239368 0.117142 0.536 
0.263857 0.116924 0.535 
0.288254 0.116705 0.534 
0.312558 0.116487 0.533 
0.336135 0.11605 0.531 
0.360885 0.11605 0.531 
0.385635 0.11605 0.531 
0.409612 0.115831 0.53 
0.433496 0.115612 0.529 
0.458153 0.115612 0.529 
0.481897 0.115394 0.528 
0.504589 0.114957 0.526 
-0.558518 0.148569 0.675 
-0.523932 0.147689 0.671 
-0.491188 0.147249 0.669 
-0.460006 0.147249 0.669 
-0.425936 0.147689 0.671 
-0.392308 0.146809 0.667 
-0.359594 0.146148 0.664 
-0.32914 0.146368 0.665 
-0.295454 0.145048 0.659 
-0.266746 0.146148 0.664 
-0.233311 0.144607 0.657 
-0.195068 0.141306 0.642 
-0.162357 0.139765 0.635 
-0.135112 0.144387 0.656 
-0.0985701 0.144607 0.657 
-0.0622183 0.138665 0.63 
-0.0106979 0.120616 0.548 
0.0147633 0.119956 0.545 
0.0402396 0.120176 0.546 
0.0664152 0.119956 0.545 
0.0914809 0.119516 0.543 
0.121009 0.119516 0.543 
0.145779 0.119076 0.541 
0.170995 0.119076 0.541 
0.195123 0.118415 0.538 
0.219381 0.117975 0.536 
0.24482 0.118195 0.537 
0.268845 0.117755 0.535 
0.292683 0.117315 0.533 
0.316931 0.117095 0.532 
0.341085 0.116875 0.531 
0.365835 0.116875 0.531 
0.390585 0.116875 0.531 
0.413771 0.116434 0.529 
0.437599 0.116214 0.528 
0.462209 0.116214 0.528 
0.486819 0.116214 0.528 
0.508524 0.115554 0.525 
-0.557469 0.149618 0.675 
-0.522111 0.14851 0.67 
-0.490149 0.148288 0.669 
-0.458967 0.148288 0.669 
-0.42426 0.14851 0.67 
-0.390685 0.147623 0.666 
-0.358562 0.14718 0.664 
-0.3286 0.147623 0.666 
-0.29443 0.146072 0.659 
-0.264514 0.146515 0.661 
-0.23229 0.145628 0.657 
-0.195068 0.142303 0.642 
-0.163087 0.14053 0.634 
-0.133888 0.145185 0.655 
-0.103358 0.145185 0.655 
-0.0699471 0.141417 0.638 
-0.0140521 0.121024 0.546 
0.0113762 0.120803 0.545 
0.0367788 0.120803 0.545 
0.0637578 0.120581 0.544 
0.08895 0.120359 0.543 
0.11616 0.120581 0.544 
0.140476 0.119694 0.54 
0.165952 0.119916 0.541 
0.190108 0.119251 0.538 
0.214384 0.118808 0.536 
0.239814 0.119029 0.537 
0.263364 0.118365 0.534 
0.287714 0.118143 0.533 
0.312558 0.118143 0.533 
0.336135 0.1177 0.531 
0.360205 0.117478 0.53 
0.384909 0.117478 0.53 
0.408839 0.117256 0.529 
0.432677 0.117035 0.528 
0.457287 0.117035 0.528 
0.480985 0.116813 0.527 
0.50363 0.11637 0.525 
-0.562496 0.15089 0.676 
-0.526274 0.149551 0.67 
-0.494307 0.149328 0.669 
-0.463124 0.149328 0.669 
-0.428183 0.149104 0.668 
-0.396453 0.148881 0.667 
-0.36372 0.148212 0.664 
-0.331769 0.147765 0.662 
-0.300458 0.147542 0.661 
-0.269649 0.147542 0.661 
-0.23392 0.145756 0.653 
-0.197818 0.142408 0.638 
-0.16729 0.141738 0.635 
-0.13715 0.146426 0.656 
-0.106574 0.146426 0.656 
-0.0746072 0.143747 0.644 
-0.0174453 0.121873 0.546 
0.00798922 0.121649 0.545 
0.0333306 0.121426 0.544 
0.0586866 0.121426 0.544 
0.0838881 0.121203 0.543 
0.1096 0.121649 0.545 
0.133764 0.120533 0.54 
0.159228 0.120757 0.541 
0.183762 0.12031 0.539 
0.20811 0.119864 0.537 
0.232271 0.119417 0.535 
0.256727 0.119194 0.534 
0.280562 0.118748 0.532 
0.305359 0.118748 0.532 
0.329535 0.118525 0.531 
0.354285 0.118525 0.531 
0.377607 0.118078 0.529 
0.401504 0.117855 0.528 
0.426921 0.118078 0.529 
0.449871 0.117632 0.527 
0.474434 0.117632 0.527 
0.498051 0.117409 0.526 
-0.573641 0.15239 0.678 
-0.536443 0.150816 0.671 
-0.503661 0.150367 0.669 
-0.471773 0.150142 0.668 
-0.439978 0.149917 0.667 
-0.408275 0.149693 0.666 
-0.377233 0.149693 0.666 
-0.345151 0.149243 0.664 
-0.313255 0.148794 0.662 
-0.281546 0.148344 0.66 
-0.248123 0.146771 0.653 
-0.209384 0.143175 0.637 
-0.182796 0.145647 0.648 
-0.149254 0.146321 0.651 
-0.120006 0.14767 0.657 
-0.0891111 0.14722 0.655 
-0.0554545 0.141826 0.631 
-0.000479192 0.122721 0.546 
0.0248786 0.122271 0.544 
0.0500499 0.121822 0.542 
0.0753127 0.121822 0.542 
0.100575 0.121822 0.542 
0.125374 0.121372 0.54 
0.150543 0.121372 0.54 
0.175388 0.121148 0.539 
0.199767 0.120698 0.537 
0.223122 0.119799 0.533 
0.248896 0.120249 0.535 
0.272297 0.119574 0.532 
0.297093 0.119574 0.532 
0.321285 0.11935 0.531 
0.346035 0.11935 0.531 
0.370087 0.119125 0.53 
0.394045 0.1189 0.529 
0.417119 0.118451 0.527 
0.441683 0.118451 0.527 
0.465362 0.118226 0.526 
0.489879 0.118226 0.526 
0.51244 0.117776 0.524 
-0.543971 0.151633 0.67 
-0.511211 0.15118 0.668 
-0.480794 0.151406 0.669 
-0.445526 0.150727 0.666 
-0.415106 0.150954 0.667 
-0.38229 0.150275 0.664 
-0.35187 0.150501 0.665 
-0.319909 0.150048 0.663 
-0.286391 0.148691 0.657 
-0.253821 0.147559 0.652 
-0.218364 0.146201 0.646 
-0.18942 0.147106 0.65 
-0.155681 0.144843 0.64 
-0.128603 0.148012 0.654 
-0.0943432 0.148464 0.656 
-0.0600694 0.142127 0.628 
-0.000479192 0.123569 0.546 
0.0248786 0.123117 0.544 
0.0507981 0.122438 0.541 
0.0761548 0.122664 0.542 
0.101418 0.122664 0.542 
0.126213 0.122211 0.54 
0.151102 0.121985 0.539 
0.176225 0.121985 0.539 
0.200227 0.121306 0.536 
0.22395 0.120627 0.533 
0.24926 0.120854 0.534 
0.273123 0.120401 0.532 
0.29736 0.120175 0.531 
0.321503 0.119948 0.53 
0.346207 0.119948 0.53 
0.37021 0.119722 0.529 
0.394121 0.119496 0.528 
0.417938 0.119269 0.527 
0.441662 0.119043 0.526 
0.466179 0.119043 0.526 
0.490696 0.119043 0.526 
0.513254 0.11859 0.524 
-0.543159 0.152446 0.669 
-0.510446 0.15199 0.667 
-0.480076 0.152218 0.668 
-0.447596 0.151762 0.666 
-0.416553 0.151762 0.666 
-0.384353 0.151306 0.664 
-0.353404 0.151306 0.664 
-0.321969 0.151079 0.663 
-0.288432 0.149711 0.657 
-0.255847 0.148572 0.652 
-0.226841 0.149483 0.656 
-0.193572 0.147433 0.647 
-0.158411 0.144698 0.635 
-0.13287 0.149256 0.655 
-0.102028 0.1488 0.653 
-0.0698375 0.145154 0.637 
-0.00639384 0.123962 0.544 
0.0214978 0.123962 0.544 
0.0465954 0.123278 0.541 
0.0718115 0.123278 0.541 
0.0970277 0.123278 0.541 
0.122018 0.12305 0.54 
0.146915 0.122823 0.539 
0.172038 0.122823 0.539 
0.196063 0.122139 0.536 
0.219809 0.121455 0.533 
0.245112 0.121683 0.534 
0.26899 0.121227 0.532 
0.293235 0.121 0.531 
0.317985 0.121 0.531 
0.342089 0.120772 0.53 
0.365409 0.120316 0.528 
0.390019 0.120316 0.528 
0.413844 0.120088 0.527 
0.437576 0.11986 0.526 
0.461214 0.119632 0.525 
0.485685 0.119632 0.525 
0.508212 0.119177 0.523 
-0.549995 0.153944 0.671 
-0.515628 0.153026 0.667 
-0.484539 0.153026 0.667 
-0.453449 0.153026 0.667 
-0.421727 0.152797 0.666 
-0.388925 0.152109 0.663 
-0.357482 0.151879 0.662 
-0.326626 0.151879 0.662 
-0.292961 0.150962 0.658 
-0.259899 0.149585 0.652 
-0.230566 0.150273 0.655 
-0.191857 0.148667 0.648 
-0.156684 0.145914 0.636 
-0.130635 0.150044 0.654 
-0.0998459 0.149585 0.652 
-0.0663435 0.144996 0.632 
-0.00469479 0.124578 0.543 
0.0206526 0.124807 0.544 
0.0457548 0.124119 0.541 
0.070971 0.124119 0.541 
0.0961872 0.124119 0.541 
0.121179 0.123889 0.54 
0.145806 0.123431 0.538 
0.170883 0.123431 0.538 
0.196063 0.122972 0.536 
0.219809 0.122283 0.533 
0.244653 0.122283 0.533 
0.26899 0.122054 0.532 
0.293235 0.121825 0.531 
0.317386 0.121595 0.53 
0.342089 0.121595 0.53 
0.365409 0.121136 0.528 
0.390019 0.121136 0.528 
0.413059 0.120677 0.526 
0.437576 0.120677 0.526 
0.461214 0.120448 0.525 
0.485685 0.120448 0.525 
0.508212 0.119989 0.523 
-0.541309 0.154294 0.668 
-0.500368 0.153832 0.666 
-0.468621 0.153601 0.665 
-0.438283 0.153832 0.666 
-0.406018 0.15337 0.664 
-0.375633 0.153601 0.665 
-0.343083 0.152908 0.662 
-0.309788 0.152215 0.659 
-0.279072 0.152215 0.659 
-0.245718 0.150598 0.652 
-0.203473 0.14644 0.634 
-0.170967 0.14644 0.634 
-0.144418 0.150598 0.652 
-0.114028 0.150598 0.652 
-0.0835097 0.150367 0.651 
-0.0173175 0.12519 0.542 
0.00794525 0.12519 0.542 
0.0331468 0.124959 0.541 
0.0583629 0.124959 0.541 
0.0835791 0.124959 0.541 
0.108795 0.124959 0.541 
0.133268 0.124266 0.538 
0.15805 0.124035 0.537 
0.188086 0.124035 0.537 
0.212356 0.123112 0.533 
0.2372 0.123112 0.533 
0.261551 0.122881 0.532 
0.28581 0.12265 0.531 
0.309975 0.122419 0.53 
0.334047 0.122188 0.529 
0.357348 0.121726 0.527 
0.381911 0.121726 0.527 
0.405704 0.121495 0.526 
0.430221 0.121495 0.526 
0.453009 0.121033 0.524 
0.477432 0.121033 0.524 
0.500898 0.120802 0.523 
-0.558124 0.156262 0.672 
-0.515115 0.154634 0.665 
-0.484847 0.154866 0.666 
-0.453804 0.154866 0.666 
-0.421492 0.154401 0.664 
-0.389367 0.153936 0.662 
-0.357428 0.153471 0.66 
-0.326133 0.153704 0.661 
-0.293983 0.153006 0.658 
-0.260912 0.151611 0.652 
-0.23123 0.152076 0.654 
-0.194978 0.149983 0.645 
-0.160131 0.147425 0.634 
-0.135112 0.152541 0.656 
-0.103898 0.151611 0.652 
-0.0723806 0.149286 0.642 
-0.0156334 0.126032 0.542 
0.00961166 0.1258 0.541 
0.0348278 0.1258 0.541 
0.059933 0.125567 0.54 
0.0851026 0.125567 0.54 
0.110476 0.1258 0.541 
0.13494 0.125102 0.538 
0.159719 0.12487 0.537 
0.185583 0.12487 0.537 
0.213185 0.12394 0.533 
0.237581 0.123707 0.532 
0.261885 0.123475 0.531 
0.286095 0.123242 0.53 
0.310798 0.123242 0.53 
0.334869 0.12301 0.529 
0.357487 0.122312 0.526 
0.382004 0.122312 0.526 
0.405748 0.122079 0.525 
0.430218 0.122079 0.525 
0.453823 0.121847 0.524 
0.478247 0.121847 0.524 
0.501711 0.121614 0.523 
-0.544198 0.156603 0.669 
-0.509182 0.155433 0.664 
-0.478953 0.155667 0.665 
-0.447283 0.155433 0.664 
-0.415707 0.155199 0.663 
-0.383196 0.154965 0.662 
-0.351807 0.154731 0.661 
-0.316474 0.154028 0.658 
-0.284501 0.153326 0.655 
-0.252421 0.15239 0.651 
-0.218349 0.150517 0.643 
-0.188546 0.151454 0.647 
-0.154686 0.149815 0.64 
-0.127587 0.153092 0.654 
-0.09651 0.152156 0.65 
-0.0607535 0.146304 0.625 
-0.00888019 0.12664 0.541 
0.0163964 0.127109 0.543 
0.0415521 0.12664 0.541 
0.0665215 0.126172 0.539 
0.0918145 0.126406 0.54 
0.116551 0.125938 0.538 
0.141364 0.125704 0.537 
0.166703 0.125938 0.538 
0.191067 0.12547 0.536 
0.21857 0.124534 0.532 
0.24291 0.1243 0.531 
0.267156 0.124065 0.53 
0.291308 0.123831 0.529 
0.315368 0.123597 0.528 
0.339978 0.123597 0.528 
0.363207 0.123129 0.526 
0.387724 0.123129 0.526 
0.410674 0.122661 0.524 
0.435098 0.122661 0.524 
0.459522 0.122661 0.524 
0.483022 0.122427 0.523 
0.506429 0.122193 0.522 
-0.54108 0.157643 0.669 
-0.505325 0.156229 0.663 
-0.474422 0.156229 0.663 
-0.44352 0.156229 0.663 
-0.411995 0.155993 0.662 
-0.375534 0.156229 0.663 
-0.343072 0.155522 0.66 
-0.310889 0.154815 0.657 
-0.27984 0.15458 0.656 
-0.248123 0.153873 0.653 
-0.207412 0.148689 0.631 
-0.181668 0.151752 0.644 
-0.152122 0.152223 0.646 
-0.121119 0.153637 0.652 
-0.0908681 0.153873 0.653 
-0.055103 0.147746 0.627 
-0.00551804 0.127481 0.541 
0.0198074 0.128188 0.544 
0.0448313 0.127245 0.54 
0.0697416 0.126774 0.538 
0.0953466 0.127481 0.541 
0.119894 0.126774 0.538 
0.144701 0.126538 0.537 
0.169415 0.126303 0.536 
0.196622 0.125596 0.533 
0.22105 0.12536 0.532 
0.244923 0.124889 0.53 
0.269117 0.124653 0.529 
0.293774 0.124653 0.529 
0.317829 0.124418 0.528 
0.342439 0.124418 0.528 
0.366354 0.124182 0.527 
0.390176 0.123946 0.526 
0.414745 0.123475 0.524 
0.43833 0.123239 0.523 
0.462707 0.123239 0.523 
0.487085 0.123239 0.523 
0.509506 0.122768 0.521 
-0.537158 0.158445 0.668 
-0.502235 0.157259 0.663 
-0.46991 0.156785 0.661 
-0.440429 0.157259 0.663 
-0.402923 0.157496 0.664 
-0.370293 0.156785 0.661 
-0.33897 0.156548 0.66 
-0.30774 0.15631 0.659 
-0.277024 0.15631 0.659 
-0.244439 0.155124 0.654 
-0.205126 0.149432 0.63 
-0.17883 0.152041 0.641 
-0.149483 0.15465 0.652 
-0.119093 0.15465 0.652 
-0.088703 0.15465 0.652 
-0.053409 0.149432 0.63 
-0.00299088 0.128084 0.54 
0.0223019 0.128796 0.543 
0.0472606 0.127847 0.539 
0.0722492 0.12761 0.538 
0.0978683 0.128321 0.541 
0.122402 0.12761 0.538 
0.146656 0.126898 0.535 
0.171592 0.126898 0.535 
0.195794 0.126424 0.533 
0.220224 0.126187 0.532 
0.243639 0.125475 0.529 
0.268295 0.125475 0.529 
0.292398 0.125238 0.528 
0.316408 0.125001 0.527 
0.340972 0.125001 0.527 
0.364842 0.124764 0.526 
0.388619 0.124526 0.525 
0.414745 0.124289 0.524 
0.437492 0.123815 0.522 
0.461823 0.123815 0.522 
0.486153 0.123815 0.522 
0.509506 0.123578 0.521 
-0.537962 0.159722 0.669 
-0.501477 0.15805 0.662 
-0.465097 0.157573 0.66 
-0.434144 0.159005 0.666 
-0.393914 0.157812 0.661 
-0.362005 0.157334 0.659 
-0.331792 0.157573 0.66 
-0.300117 0.157095 0.658 
-0.268628 0.156618 0.656 
-0.236672 0.156379 0.655 
-0.198234 0.151127 0.633 
-0.167217 0.150649 0.631 
-0.143047 0.156379 0.655 
-0.111658 0.155185 0.65 
-0.0813617 0.155185 0.65 
-0.0206096 0.128923 0.54 
0.00623796 0.128923 0.54 
0.0314075 0.128923 0.54 
0.0564723 0.128685 0.539 
0.0814439 0.128446 0.538 
0.106718 0.128685 0.539 
0.131352 0.128207 0.537 
0.155799 0.12773 0.535 
0.181074 0.127968 0.536 
0.204519 0.127013 0.532 
0.228454 0.126536 0.53 
0.252202 0.126058 0.528 
0.276288 0.12582 0.527 
0.301422 0.126058 0.528 
0.325415 0.12582 0.527 
0.349314 0.125581 0.526 
0.373121 0.125342 0.525 
0.396834 0.125103 0.524 
0.422062 0.125342 0.525 
0.44398 0.124626 0.522 
0.467414 0.124387 0.521 
0.491698 0.124387 0.521 
0.516972 0.124626 0.522 
-0.527272 0.16004 0.666 
-0.493994 0.159319 0.663 
-0.44867 0.159319 0.663 
-0.415877 0.158598 0.66 
-0.383196 0.159079 0.662 
-0.350211 0.158118 0.658 
-0.315512 0.157637 0.656 
-0.284501 0.157397 0.655 
-0.251409 0.156436 0.651 
-0.214333 0.153071 0.637 
-0.18754 0.155474 0.647 
-0.154951 0.153071 0.637 
-0.128603 0.157157 0.654 
-0.0973699 0.155955 0.649 
-0.0578403 0.150188 0.625 
-0.00802479 0.129762 0.54 
0.0189273 0.130483 0.543 
0.0438294 0.129282 0.538 
0.0687776 0.129041 0.537 
0.0943314 0.129762 0.54 
0.118837 0.129041 0.537 
0.146382 0.12832 0.534 
0.173761 0.12832 0.534 
0.198279 0.12808 0.533 
0.22311 0.1276 0.531 
0.246459 0.126879 0.528 
0.27107 0.126879 0.528 
0.29512 0.126638 0.527 
0.319077 0.126398 0.526 
0.343594 0.126398 0.526 
0.368111 0.126398 0.526 
0.393577 0.125917 0.524 
0.417203 0.125677 0.523 
0.439892 0.125197 0.521 
0.463285 0.124956 0.52 
0.48846 0.125197 0.521 
0.512744 0.125197 0.521 
-0.532208 0.161317 0.667 
-0.496612 0.159866 0.661 
-0.454164 0.160107 0.662 
-0.422669 0.159866 0.661 
-0.391267 0.159624 0.66 
-0.359412 0.15914 0.658 
-0.323139 0.158898 0.657 
-0.29207 0.158656 0.656 
-0.260298 0.157931 0.653 
-0.228497 0.157689 0.652 
-0.195068 0.15527 0.642 
-0.160354 0.15261 0.631 
-0.135923 0.158415 0.655 
-0.104267 0.156722 0.648 
-0.0648445 0.151643 0.627 
-0.0138977 0.130601 0.54 
0.0112719 0.130601 0.54 
0.0363065 0.130118 0.538 
0.0613828 0.130118 0.538 
0.0862984 0.129876 0.537 
0.111121 0.129634 0.536 
0.136104 0.129634 0.536 
0.169612 0.12915 0.534 
0.193774 0.128666 0.532 
0.21816 0.128425 0.531 
0.241537 0.127699 0.528 
0.266147 0.127699 0.528 
0.290207 0.127457 0.527 
0.314173 0.127215 0.526 
0.33869 0.127215 0.526 
0.362517 0.126973 0.525 
0.385513 0.12649 0.523 
0.409107 0.126248 0.522 
0.433437 0.126248 0.522 
0.456891 0.126006 0.521 
0.481175 0.126006 0.521 
0.503518 0.125522 0.519 
-0.545825 0.163327 0.671 
-0.507648 0.161136 0.662 
-0.468394 0.159676 0.656 
-0.439765 0.161136 0.662 
-0.407674 0.160649 0.66 
-0.370094 0.159919 0.657 
-0.334361 0.160406 0.659 
-0.302723 0.159919 0.657 
-0.271686 0.159676 0.656 
-0.239359 0.159189 0.654 
-0.199596 0.15286 0.628 
-0.16793 0.153347 0.63 
-0.143625 0.158945 0.653 
-0.112495 0.157972 0.649 
-0.0822448 0.157972 0.649 
-0.0206096 0.13144 0.54 
0.00455154 0.131197 0.539 
0.0296745 0.131197 0.539 
0.0546958 0.130953 0.538 
0.0796238 0.13071 0.537 
0.104848 0.130953 0.538 
0.129683 0.13071 0.537 
0.160787 0.130223 0.535 
0.184682 0.129493 0.532 
0.209085 0.12925 0.531 
0.232514 0.128519 0.528 
0.256637 0.128276 0.527 
0.2812 0.128276 0.527 
0.305764 0.128276 0.527 
0.329074 0.127789 0.525 
0.353544 0.127789 0.525 
0.376575 0.127302 0.523 
0.400952 0.127302 0.523 
0.425329 0.127302 0.523 
0.447987 0.126816 0.521 
0.470458 0.126329 0.519 
0.494648 0.126329 0.519 
-0.554175 0.163144 0.666 
-0.519991 0.162165 0.662 
-0.488396 0.16192 0.661 
-0.456894 0.161675 0.66 
-0.426777 0.16192 0.661 
-0.395967 0.16192 0.661 
-0.35172 0.16094 0.657 
-0.316582 0.160205 0.654 
-0.286099 0.160205 0.654 
-0.252654 0.15898 0.649 
-0.221718 0.15849 0.647 
-0.188254 0.158245 0.646 
-0.153692 0.156775 0.64 
-0.126184 0.159715 0.652 
-0.0952063 0.158735 0.648 
-0.0595911 0.152611 0.623 
-0.00970277 0.132279 0.54 
0.0154954 0.132524 0.541 
0.0404106 0.131544 0.537 
0.0653185 0.131299 0.536 
0.0904701 0.131544 0.537 
0.115285 0.131299 0.536 
0.139744 0.130809 0.534 
0.164634 0.130809 0.534 
0.188459 0.130075 0.531 
0.21321 0.130075 0.531 
0.236167 0.129095 0.527 
0.260731 0.129095 0.527 
0.285294 0.129095 0.527 
0.30927 0.12885 0.526 
0.333152 0.128605 0.525 
0.356942 0.12836 0.524 
0.380638 0.128115 0.523 
0.40424 0.12787 0.522 
0.428571 0.12787 0.522 
0.452034 0.127625 0.521 
0.474489 0.127135 0.519 
0.497719 0.12689 0.518 
-0.550435 0.164919 0.669 
-0.513819 0.163193 0.662 
-0.480045 0.162207 0.658 
-0.450741 0.1627 0.66 
-0.419342 0.162454 0.659 
-0.389216 0.1627 0.66 
-0.34405 0.161714 0.656 
-0.31204 0.160974 0.653 
-0.280589 0.160974 0.653 
-0.24862 0.159988 0.649 
-0.208377 0.154812 0.628 
-0.179388 0.158509 0.643 
-0.148242 0.160481 0.651 
-0.117899 0.160481 0.651 
-0.0872865 0.159988 0.649 
-0.0548393 0.153826 0.624 
-0.00466021 0.132872 0.539 
0.0205387 0.133365 0.541 
0.045332 0.132132 0.536 
0.0701839 0.131886 0.535 
0.095476 0.132379 0.537 
0.120281 0.132132 0.536 
0.144451 0.131393 0.533 
0.169295 0.131393 0.533 
0.193045 0.130653 0.53 
0.217749 0.130653 0.53 
0.24108 0.129914 0.527 
0.265643 0.129914 0.527 
0.289656 0.129667 0.526 
0.313576 0.129421 0.525 
0.337403 0.129174 0.524 
0.361826 0.129174 0.524 
0.384776 0.128681 0.522 
0.408323 0.128434 0.521 
0.431776 0.128188 0.52 
0.456014 0.128188 0.52 
0.480251 0.128188 0.52 
0.503518 0.127941 0.519 
-0.544198 0.165958 0.669 
-0.505854 0.163974 0.661 
-0.471452 0.162733 0.656 
-0.443563 0.163725 0.66 
-0.410924 0.162981 0.657 
-0.382038 0.163725 0.66 
-0.345069 0.162733 0.656 
-0.312575 0.161741 0.652 
-0.281753 0.161493 0.651 
-0.250251 0.160749 0.648 
-0.203498 0.155043 0.625 
-0.158142 0.156283 0.63 
-0.13307 0.161493 0.651 
-0.102096 0.160501 0.647 
-0.0709384 0.158268 0.638 
-0.0172217 0.133709 0.539 
0.00788661 0.133461 0.538 
0.0328404 0.132965 0.536 
0.0579314 0.133213 0.537 
0.0826522 0.132717 0.535 
0.107589 0.132717 0.535 
0.132525 0.132717 0.535 
0.156873 0.132221 0.533 
0.181034 0.131725 0.531 
0.205009 0.131228 0.529 
0.228798 0.130732 0.527 
0.253362 0.130732 0.527 
0.277398 0.130484 0.526 
0.301915 0.130484 0.526 
0.326819 0.129988 0.524 
0.351243 0.129988 0.524 
0.37495 0.12974 0.523 
0.398563 0.129492 0.522 
0.422894 0.129492 0.522 
0.445511 0.128996 0.52 
0.467942 0.1285 0.518 
0.492086 0.1285 0.518 
-0.55521 0.166249 0.666 
-0.51842 0.164751 0.66 
-0.485894 0.164501 0.659 
-0.455178 0.164501 0.659 
-0.424462 0.164501 0.659 
-0.394343 0.164751 0.66 
-0.361377 0.163752 0.656 
-0.3308 0.163752 0.656 
-0.299309 0.163253 0.654 
-0.268003 0.162754 0.652 
-0.23652 0.162005 0.649 
-0.188672 0.160757 0.644 
-0.143753 0.162005 0.649 
-0.113153 0.161506 0.647 
-0.0829966 0.161506 0.647 
-0.0509613 0.155764 0.624 
-0.00297981 0.134297 0.538 
0.0221376 0.134547 0.539 
0.0469098 0.133548 0.535 
0.0718463 0.133548 0.535 
0.0967828 0.133548 0.535 
0.121719 0.133548 0.535 
0.145833 0.132799 0.532 
0.17063 0.132799 0.532 
0.194325 0.13205 0.529 
0.218568 0.131801 0.528 
0.242257 0.131301 0.526 
0.266774 0.131301 0.526 
0.290737 0.131052 0.525 
0.316235 0.130802 0.524 
0.341473 0.130802 0.524 
0.365897 0.130802 0.524 
0.388831 0.130303 0.522 
0.41237 0.130053 0.521 
0.435816 0.129804 0.52 
0.458284 0.129304 0.518 
0.483359 0.129554 0.519 
0.506572 0.129304 0.518 
-0.534745 0.167032 0.665 
-0.499962 0.165776 0.66 
-0.464934 0.164269 0.654 
-0.437772 0.165525 0.659 
-0.407056 0.165525 0.659 
-0.374626 0.164772 0.656 
-0.343526 0.16452 0.655 
-0.311084 0.163516 0.651 
-0.28031 0.163265 0.65 
-0.249244 0.162762 0.648 
-0.203172 0.156734 0.624 
-0.169079 0.157488 0.627 
-0.138712 0.163013 0.649 
-0.108127 0.162511 0.647 
-0.0776089 0.161758 0.644 
-0.0214088 0.135384 0.539 
0.00369344 0.13463 0.536 
0.0319479 0.134379 0.535 
0.0569908 0.13463 0.536 
0.0826522 0.134379 0.535 
0.107388 0.134128 0.534 
0.132277 0.134128 0.534 
0.156579 0.133626 0.532 
0.181034 0.133375 0.531 
0.205009 0.132872 0.529 
0.22793 0.131868 0.525 
0.252881 0.132119 0.526 
0.276871 0.131868 0.525 
0.301341 0.131868 0.525 
0.32782 0.131365 0.523 
0.352198 0.131365 0.523 
0.375855 0.131114 0.522 
0.399419 0.130863 0.521 
0.423703 0.130863 0.521 
0.447127 0.130612 0.52 
0.468645 0.129858 0.517 
0.492742 0.129858 0.517 
-0.55314 0.168318 0.666 
-0.517394 0.166802 0.66 
-0.485157 0.166296 0.658 
-0.455178 0.166549 0.659 
-0.423818 0.166296 0.658 
-0.393148 0.166296 0.658 
-0.360826 0.165538 0.655 
-0.329792 0.165285 0.654 
-0.298393 0.16478 0.652 
-0.267592 0.164527 0.651 
-0.235791 0.163516 0.647 
-0.19621 0.160736 0.636 
-0.155452 0.159473 0.631 
-0.129637 0.164022 0.649 
-0.0990802 0.163516 0.647 
-0.0660286 0.158967 0.629 
-0.015518 0.135969 0.538 
0.0128779 0.135716 0.537 
0.0376253 0.134705 0.533 
0.0650747 0.134958 0.534 
0.0897962 0.134705 0.533 
0.114639 0.134705 0.533 
0.139221 0.134452 0.532 
0.164018 0.134452 0.532 
0.18704 0.133189 0.527 
0.212005 0.133441 0.528 
0.235271 0.132683 0.525 
0.259741 0.132683 0.525 
0.28367 0.13243 0.524 
0.309722 0.13243 0.524 
0.333508 0.132178 0.523 
0.357886 0.132178 0.523 
0.380801 0.131672 0.521 
0.405085 0.131672 0.521 
0.427721 0.131167 0.519 
0.451911 0.131167 0.519 
0.475185 0.130914 0.518 
0.497401 0.130409 0.516 
-0.546111 0.169099 0.665 
-0.511242 0.167827 0.66 
-0.477567 0.16681 0.656 
-0.448353 0.167319 0.658 
-0.416414 0.16681 0.656 
-0.386426 0.167064 0.657 
-0.355261 0.16681 0.656 
-0.3232 0.166047 0.653 
-0.292315 0.165793 0.652 
-0.26072 0.16503 0.649 
-0.229405 0.164267 0.646 
-0.194844 0.162233 0.638 
-0.160514 0.158673 0.624 
-0.132457 0.164776 0.648 
-0.102096 0.164522 0.647 
-0.0711608 0.162742 0.64 
-0.0163539 0.136805 0.538 
0.00867385 0.136042 0.535 
0.0376253 0.135533 0.533 
0.0642451 0.135787 0.534 
0.0889681 0.135533 0.533 
0.113811 0.135533 0.533 
0.138394 0.135279 0.532 
0.162884 0.135025 0.531 
0.186221 0.134007 0.527 
0.211185 0.134262 0.528 
0.234455 0.133499 0.525 
0.258926 0.133499 0.525 
0.282856 0.133245 0.524 
0.30728 0.133245 0.524 
0.331071 0.13299 0.523 
0.354768 0.132736 0.522 
0.378373 0.132482 0.521 
0.402657 0.132482 0.521 
0.425302 0.131973 0.519 
0.450358 0.132227 0.52 
0.471858 0.131465 0.517 
0.494996 0.13121 0.516 
-0.551679 0.16962 0.663 
-0.516849 0.168341 0.658 
-0.48544 0.168085 0.657 
-0.454817 0.168085 0.657 
-0.424194 0.168085 0.657 
-0.385405 0.168085 0.657 
-0.351667 0.167573 0.655 
-0.319666 0.166806 0.652 
-0.288833 0.16655 0.651 
-0.257298 0.165783 0.648 
-0.225693 0.164759 0.644 
-0.192773 0.163992 0.641 
-0.158575 0.159642 0.624 
-0.134471 0.165783 0.648 
-0.104106 0.165527 0.647 
-0.073378 0.164248 0.642 
-0.0180256 0.13764 0.538 
0.00699831 0.136617 0.534 
0.0343128 0.136361 0.533 
0.0592671 0.136617 0.534 
0.0848275 0.136361 0.533 
0.109465 0.136105 0.532 
0.134262 0.136105 0.532 
0.159058 0.136105 0.532 
0.182818 0.135338 0.529 
0.206691 0.134826 0.527 
0.229938 0.134059 0.524 
0.254847 0.134315 0.525 
0.278786 0.134059 0.524 
0.303209 0.134059 0.524 
0.327008 0.133803 0.523 
0.350713 0.133547 0.522 
0.375044 0.133547 0.522 
0.397844 0.133035 0.52 
0.42127 0.13278 0.519 
0.445461 0.13278 0.519 
0.466937 0.132012 0.516 
0.490987 0.132012 0.516 
-0.555989 0.170393 0.662 
-0.51958 0.168591 0.655 
-0.492037 0.169621 0.659 
-0.457121 0.168076 0.653 
-0.428645 0.168848 0.656 
-0.397654 0.169106 0.657 
-0.362307 0.168334 0.654 
-0.330809 0.167819 0.652 
-0.299498 0.167304 0.65 
-0.268787 0.167047 0.649 
-0.237802 0.166532 0.647 
-0.19896 0.161127 0.626 
-0.167301 0.160612 0.624 
-0.142867 0.166017 0.645 
-0.112979 0.166275 0.646 
-0.0824835 0.165502 0.643 
-0.0479759 0.160355 0.623 
0.00202411 0.137704 0.535 
0.0269102 0.137447 0.534 
0.0517031 0.137189 0.533 
0.07669 0.137447 0.534 
0.101009 0.136675 0.531 
0.125996 0.136932 0.532 
0.151049 0.136417 0.53 
0.175753 0.136417 0.53 
0.199322 0.135645 0.527 
0.223425 0.134873 0.524 
0.247849 0.134873 0.524 
0.272272 0.134873 0.524 
0.29613 0.134615 0.523 
0.319894 0.134358 0.522 
0.344225 0.134358 0.522 
0.36785 0.134101 0.521 
0.390628 0.133586 0.519 
0.415618 0.133843 0.52 
0.43901 0.133586 0.519 
0.460523 0.132814 0.516 
0.484574 0.132814 0.516 
0.508625 0.132814 0.516 
-0.524884 0.16935 0.654 
-0.498937 0.170903 0.66 
-0.463208 0.169091 0.653 
-0.434097 0.169609 0.655 
-0.403567 0.169609 0.655 
-0.364238 0.168832 0.652 
-0.333336 0.168573 0.651 
-0.301597 0.167796 0.648 
-0.271812 0.168055 0.649 
-0.240818 0.167537 0.647 
-0.199933 0.162099 0.626 
-0.171027 0.162358 0.627 
-0.145421 0.166501 0.643 
-0.11599 0.167278 0.646 
-0.0854805 0.166501 0.643 
-0.0499117 0.161323 0.623 
0.0011929 0.138535 0.535 
0.0260806 0.138276 0.534 
0.050875 0.138018 0.533 
0.0757183 0.138018 0.533 
0.100184 0.1375 0.531 
0.124934 0.1375 0.531 
0.149121 0.136982 0.529 
0.174106 0.137241 0.53 
0.197309 0.136205 0.526 
0.220983 0.135687 0.524 
0.245751 0.135428 0.523 
0.270644 0.135687 0.524 
0.293942 0.135169 0.522 
0.318272 0.135169 0.522 
0.342603 0.135169 0.522 
0.364825 0.134392 0.519 
0.389015 0.134392 0.519 
0.414002 0.134651 0.52 
0.436554 0.134133 0.518 
0.45892 0.133615 0.516 
0.48297 0.133615 0.516 
0.507021 0.133615 0.516 
-0.529757 0.170626 0.655 
-0.502276 0.171668 0.659 
-0.465237 0.170105 0.653 
-0.435467 0.170366 0.654 
-0.404984 0.170366 0.654 
-0.364691 0.169584 0.651 
-0.333834 0.169324 0.65 
-0.302136 0.168542 0.647 
-0.2724 0.168803 0.648 
-0.241823 0.168542 0.647 
-0.200584 0.162811 0.625 
-0.17255 0.163853 0.629 
-0.146193 0.16724 0.642 
-0.116812 0.168021 0.645 
-0.086345 0.16724 0.642 
-0.0489438 0.16229 0.623 
-0.00295765 0.139106 0.534 
0.0235474 0.138846 0.533 
0.0482999 0.138585 0.532 
0.0730966 0.138585 0.532 
0.0978932 0.138585 0.532 
0.122459 0.138325 0.531 
0.146655 0.137804 0.529 
0.171312 0.137804 0.529 
0.196492 0.137022 0.526 
0.220168 0.136501 0.524 
0.244125 0.136241 0.523 
0.269016 0.136501 0.524 
0.29232 0.13598 0.522 
0.316044 0.13572 0.521 
0.340981 0.13598 0.522 
0.363212 0.135199 0.519 
0.387403 0.135199 0.519 
0.412387 0.135459 0.52 
0.434945 0.134938 0.518 
0.457316 0.134417 0.516 
0.481367 0.134417 0.516 
0.504439 0.134157 0.515 
-0.523067 0.17112 0.653 
-0.496402 0.17243 0.658 
-0.461486 0.170858 0.652 
-0.432418 0.171382 0.654 
-0.399292 0.17112 0.653 
-0.357611 0.170596 0.651 
-0.326765 0.170334 0.65 
-0.296012 0.170072 0.649 
-0.265762 0.170072 0.649 
-0.23406 0.169024 0.645 
-0.195284 0.165879 0.633 
-0.16 0.162996 0.622 
-0.136274 0.169548 0.647 
-0.105789 0.169024 0.645 
-0.0751382 0.167713 0.64 
-0.0187914 0.14046 0.536 
0.00615709 0.139674 0.533 
0.0310004 0.139674 0.533 
0.0557389 0.139412 0.532 
0.0805356 0.139412 0.532 
0.104936 0.138888 0.53 
0.129395 0.138626 0.529 
0.154343 0.138888 0.53 
0.178371 0.138363 0.528 
0.201828 0.137577 0.525 
0.225005 0.136791 0.522 
0.249813 0.137053 0.523 
0.273666 0.136791 0.522 
0.297426 0.136529 0.521 
0.32171 0.136529 0.521 
0.34533 0.136267 0.52 
0.369567 0.136267 0.52 
0.39229 0.135743 0.518 
0.417238 0.136005 0.519 
0.440578 0.135743 0.518 
0.461134 0.134695 0.514 
0.486035 0.134957 0.515 
0.51103 0.135219 0.516 
-0.520023 0.172135 0.653 
-0.491836 0.172925 0.656 
-0.457744 0.171607 0.651 
-0.42937 0.172398 0.654 
-0.392602 0.171871 0.652 
-0.354032 0.171344 0.65 
-0.323237 0.17108 0.649 
-0.292536 0.170816 0.648 
-0.262332 0.170816 0.648 
-0.230338 0.169498 0.643 
-0.193164 0.168444 0.639 
-0.149185 0.169235 0.642 
-0.119447 0.169498 0.643 
-0.0893374 0.169235 0.642 
-0.052646 0.163699 0.621 
-0.00460833 0.140502 0.533 
0.020235 0.140502 0.533 
0.0449937 0.140238 0.532 
0.0696592 0.139975 0.531 
0.0942314 0.139711 0.53 
0.118935 0.139711 0.53 
0.142825 0.13892 0.527 
0.168024 0.139447 0.529 
0.191224 0.138393 0.525 
0.215284 0.138129 0.524 
0.238793 0.137602 0.522 
0.263627 0.137866 0.523 
0.289331 0.137339 0.521 
0.313013 0.137075 0.52 
0.337899 0.137339 0.521 
0.360098 0.136548 0.518 
0.384984 0.136811 0.519 
0.409174 0.136811 0.519 
0.431695 0.136284 0.517 
0.454911 0.136021 0.516 
0.478034 0.135757 0.515 
0.502038 0.135757 0.515 
-0.537077 0.173414 0.654 
-0.508143 0.173945 0.656 
-0.476111 0.173414 0.654 
-0.444946 0.173149 0.653 
-0.41451 0.173149 0.653 
-0.382897 0.172619 0.651 
-0.352012 0.172354 0.65 
-0.32122 0.172088 0.649 
-0.290074 0.171558 0.647 
-0.259917 0.171558 0.647 
-0.227984 0.170232 0.642 
-0.192472 0.169702 0.64 
-0.145421 0.170497 0.643 
-0.11563 0.170763 0.644 
-0.0850817 0.169702 0.64 
-0.0480529 0.165459 0.624 
-0.002124 0.14133 0.533 
0.0226767 0.141065 0.532 
0.0473841 0.1408 0.531 
0.0721342 0.1408 0.531 
0.0967018 0.140534 0.53 
0.121405 0.140534 0.53 
0.145282 0.139739 0.527 
0.17049 0.140269 0.529 
0.193671 0.139209 0.525 
0.218123 0.138678 0.523 
0.241573 0.138148 0.521 
0.266877 0.138678 0.523 
0.292008 0.137883 0.52 
0.316245 0.137883 0.52 
0.340482 0.137883 0.52 
0.362616 0.137087 0.517 
0.386713 0.137087 0.517 
0.4124 0.137618 0.519 
0.434067 0.136822 0.516 
0.45723 0.136557 0.515 
0.4803 0.136292 0.514 
0.505239 0.136557 0.515 
-0.531997 0.17443 0.654 
-0.503047 0.174964 0.656 
-0.47031 0.174164 0.653 
-0.438526 0.17363 0.651 
-0.408183 0.17363 0.651 
-0.377259 0.173363 0.65 
-0.345895 0.17283 0.648 
-0.315204 0.172563 0.647 
-0.285488 0.17283 0.648 
-0.254891 0.172563 0.647 
-0.218542 0.168563 0.632 
-0.190081 0.17123 0.642 
-0.149185 0.17123 0.642 
-0.119261 0.17123 0.642 
-0.0890591 0.170696 0.64 
-0.0517644 0.165896 0.622 
-0.00294657 0.141891 0.532 
0.0218501 0.141891 0.532 
0.0465591 0.141625 0.531 
0.0713092 0.141625 0.531 
0.0958783 0.141358 0.53 
0.120354 0.141091 0.529 
0.144189 0.140291 0.526 
0.169347 0.140824 0.528 
0.192855 0.140024 0.525 
0.216498 0.139491 0.523 
0.239954 0.138957 0.521 
0.264745 0.139224 0.522 
0.287968 0.138691 0.52 
0.311605 0.138424 0.519 
0.336443 0.138691 0.52 
0.359293 0.138157 0.518 
0.383437 0.138157 0.518 
0.407581 0.138157 0.518 
0.430058 0.137624 0.516 
0.454109 0.137624 0.516 
0.476307 0.13709 0.514 
0.501238 0.137357 0.515 
-0.538093 0.175446 0.654 
-0.506351 0.175715 0.655 
-0.474368 0.175178 0.653 
-0.443252 0.17491 0.652 
-0.399871 0.174105 0.649 
-0.369051 0.173837 0.648 
-0.337279 0.173032 0.645 
-0.307692 0.1733 0.646 
-0.278011 0.173569 0.647 
-0.247471 0.1733 0.646 
-0.207353 0.166862 0.622 
-0.173672 0.167935 0.626 
-0.140645 0.172764 0.644 
-0.110456 0.172495 0.643 
-0.0799848 0.171422 0.639 
-0.023788 0.143791 0.536 
0.00201276 0.142718 0.532 
0.026759 0.14245 0.531 
0.0514121 0.142181 0.53 
0.0761156 0.142181 0.53 
0.100819 0.142181 0.53 
0.125049 0.141645 0.528 
0.149376 0.141377 0.527 
0.173939 0.141377 0.527 
0.196996 0.140303 0.523 
0.22095 0.140035 0.522 
0.244341 0.139499 0.52 
0.268578 0.139499 0.52 
0.292253 0.13923 0.519 
0.316443 0.13923 0.519 
0.340634 0.13923 0.519 
0.363419 0.138694 0.517 
0.386767 0.138426 0.516 
0.411614 0.138694 0.517 
0.434026 0.138157 0.515 
0.457141 0.137889 0.514 
0.480163 0.137621 0.513 
0.505056 0.137889 0.514 
-0.531183 0.176193 0.653 
-0.499227 0.176732 0.655 
-0.46179 0.175653 0.651 
-0.430784 0.175383 0.65 
-0.382309 0.175383 0.65 
-0.350387 0.174574 0.647 
-0.320231 0.174574 0.647 
-0.289625 0.174304 0.646 
-0.259917 0.174574 0.647 
-0.227274 0.172685 0.64 
-0.191777 0.172955 0.641 
-0.153212 0.172145 0.638 
-0.123861 0.172685 0.64 
-0.0940309 0.172685 0.64 
-0.0569149 0.16594 0.615 
-0.00873246 0.143544 0.532 
0.0160038 0.143005 0.53 
0.0407841 0.143275 0.531 
0.0654107 0.143005 0.53 
0.0899442 0.142735 0.529 
0.114601 0.142735 0.529 
0.138468 0.141926 0.526 
0.163295 0.142195 0.527 
0.187146 0.141656 0.525 
0.21081 0.141116 0.523 
0.233838 0.140307 0.52 
0.258572 0.140576 0.521 
0.282856 0.140576 0.521 
0.305961 0.140037 0.519 
0.33257 0.140037 0.519 
0.356074 0.139767 0.518 
0.379484 0.139497 0.517 
0.403581 0.139497 0.517 
0.426852 0.139227 0.516 
0.450029 0.138958 0.515 
0.473113 0.138688 0.514 
0.49707 0.138688 0.514 
-0.542158 0.177479 0.654 
-0.509642 0.177479 0.654 
-0.471616 0.176936 0.652 
-0.439873 0.176393 0.65 
-0.394829 0.176122 0.649 
-0.362894 0.175308 0.646 
-0.332783 0.175308 0.646 
-0.302205 0.175036 0.645 
-0.272985 0.175579 0.647 
-0.241702 0.174765 0.644 
-0.20316 0.168523 0.621 
-0.169664 0.168795 0.622 
-0.145195 0.174222 0.642 
-0.115271 0.174222 0.642 
-0.0850817 0.173679 0.64 
-0.0246208 0.145456 0.536 
0.000359651 0.144371 0.532 
0.025109 0.1441 0.531 
0.0496713 0.143557 0.529 
0.0744687 0.143828 0.53 
0.098985 0.143557 0.529 
0.123408 0.143285 0.528 
0.147177 0.142471 0.525 
0.172302 0.143014 0.527 
0.194997 0.141657 0.522 
0.218908 0.141386 0.521 
0.242258 0.140843 0.519 
0.269674 0.140843 0.519 
0.293299 0.140572 0.518 
0.319053 0.140572 0.518 
0.343197 0.140572 0.518 
0.365923 0.140029 0.516 
0.389218 0.139758 0.515 
0.414025 0.140029 0.516 
0.436377 0.139486 0.514 
0.45944 0.139215 0.513 
0.482408 0.138944 0.512 
0.507262 0.139215 0.513 
-0.523279 0.177949 0.652 
-0.483298 0.177403 0.65 
-0.453698 0.177676 0.651 
-0.422704 0.177403 0.65 
-0.38818 0.176857 0.648 
-0.356319 0.176038 0.645 
-0.326761 0.176311 0.646 
-0.295273 0.175493 0.643 
-0.266953 0.176584 0.647 
-0.234967 0.17522 0.642 
-0.198655 0.169761 0.622 
-0.164998 0.168942 0.619 
-0.13921 0.17522 0.642 
-0.108946 0.174674 0.64 
-0.0788683 0.174128 0.638 
-0.0194411 0.144925 0.531 
0.00530899 0.144925 0.531 
0.0300024 0.144652 0.53 
0.0544995 0.144106 0.528 
0.0792595 0.144379 0.529 
0.103916 0.144379 0.529 
0.128087 0.143833 0.527 
0.152071 0.143287 0.525 
0.176542 0.143287 0.525 
0.199481 0.142195 0.521 
0.223335 0.141922 0.52 
0.247096 0.14165 0.519 
0.272094 0.14165 0.519 
0.295713 0.141377 0.518 
0.320662 0.141377 0.518 
0.344141 0.141104 0.517 
0.367526 0.140831 0.516 
0.390059 0.140285 0.514 
0.414822 0.140558 0.515 
0.437123 0.140012 0.513 
0.460135 0.139739 0.512 
0.483999 0.139739 0.512 
0.507864 0.139739 0.512 
-0.52024 0.178962 0.652 
-0.481546 0.178138 0.649 
-0.452687 0.178687 0.651 
-0.421694 0.178413 0.65 
-0.389591 0.177589 0.647 
-0.357768 0.176766 0.644 
-0.328769 0.177315 0.646 
-0.296809 0.176217 0.642 
-0.268964 0.177589 0.647 
-0.236962 0.176217 0.642 
-0.200265 0.170453 0.621 
-0.170904 0.171002 0.623 
-0.143973 0.175943 0.641 
-0.114274 0.176217 0.642 
-0.083956 0.175394 0.639 
-0.0211308 0.146024 0.532 
0.00365898 0.14575 0.531 
0.0283556 0.145475 0.53 
0.0528588 0.144926 0.528 
0.0776157 0.145201 0.529 
0.103916 0.145201 0.529 
0.128087 0.144652 0.527 
0.152071 0.144103 0.525 
0.176542 0.144103 0.525 
0.199481 0.143005 0.521 
0.223335 0.14273 0.52 
0.247096 0.142456 0.519 
0.271287 0.142456 0.519 
0.294909 0.142181 0.518 
0.319053 0.142181 0.518 
0.342534 0.141907 0.517 
0.365214 0.141358 0.515 
0.389218 0.141358 0.515 
0.413222 0.141358 0.515 
0.435528 0.140809 0.513 
0.458544 0.140534 0.512 
0.481466 0.14026 0.511 
0.505284 0.14026 0.511 
-0.520453 0.179699 0.651 
-0.489357 0.179423 0.65 
-0.45906 0.179423 0.65 
-0.428104 0.179147 0.649 
-0.396628 0.178595 0.647 
-0.365338 0.178043 0.645 
-0.332268 0.178043 0.645 
-0.301268 0.177491 0.643 
-0.272985 0.178595 0.647 
-0.241327 0.177491 0.643 
-0.202833 0.171142 0.62 
-0.177301 0.174454 0.632 
-0.148953 0.176938 0.641 
-0.119075 0.176938 0.641 
-0.08892 0.176386 0.639 
-0.0210911 0.146575 0.531 
0.00365898 0.146575 0.531 
0.0283556 0.146299 0.53 
0.0527587 0.14547 0.527 
0.077469 0.145747 0.528 
0.102273 0.146023 0.529 
0.12645 0.14547 0.527 
0.150154 0.144642 0.524 
0.17491 0.144918 0.525 
0.197482 0.143538 0.52 
0.221719 0.143538 0.52 
0.245011 0.142986 0.518 
0.269155 0.142986 0.518 
0.292733 0.14271 0.517 
0.31683 0.14271 0.517 
0.340928 0.14271 0.517 
0.363613 0.142158 0.515 
0.387618 0.142158 0.515 
0.410823 0.141882 0.514 
0.433934 0.141606 0.513 
0.456953 0.14133 0.512 
0.479878 0.141054 0.511 
0.502711 0.140778 0.51 
-0.52551 0.18071 0.651 
-0.495928 0.180988 0.652 
-0.46411 0.180433 0.65 
-0.433813 0.180433 0.65 
-0.401654 0.1796 0.647 
-0.370923 0.179322 0.646 
-0.33923 0.17849 0.643 
-0.30926 0.17849 0.643 
-0.279724 0.178767 0.644 
-0.249707 0.178767 0.644 
-0.206686 0.172105 0.62 
-0.182662 0.176824 0.637 
-0.151466 0.177379 0.639 
-0.121682 0.177379 0.639 
-0.0918984 0.177379 0.639 
-0.0236549 0.147955 0.533 
0.00118398 0.1474 0.531 
0.0258852 0.147122 0.53 
0.0503023 0.146289 0.527 
0.075008 0.146567 0.528 
0.0998069 0.146844 0.529 
0.123758 0.146012 0.526 
0.147429 0.145179 0.523 
0.172463 0.145734 0.525 
0.195058 0.144346 0.52 
0.218874 0.144069 0.519 
0.242596 0.143791 0.518 
0.266226 0.143513 0.517 
0.290323 0.143513 0.517 
0.313812 0.143236 0.516 
0.337863 0.143236 0.516 
0.361213 0.142958 0.515 
0.385217 0.142958 0.515 
0.407632 0.142403 0.513 
0.431543 0.142403 0.513 
0.454567 0.142125 0.512 
0.477497 0.141848 0.511 
0.500333 0.14157 0.51 
-0.529556 0.181722 0.651 
-0.49998 0.182001 0.652 
-0.466709 0.180884 0.648 
-0.437179 0.181163 0.649 
-0.405048 0.180326 0.646 
-0.373777 0.179768 0.644 
-0.343226 0.179489 0.643 
-0.313256 0.179489 0.643 
-0.283285 0.179489 0.643 
-0.253709 0.179768 0.644 
-0.208949 0.173347 0.621 
-0.184932 0.178093 0.638 
-0.152762 0.175301 0.628 
-0.124466 0.178093 0.638 
-0.0950252 0.178651 0.64 
-0.054312 0.17251 0.618 
0.00118175 0.147946 0.53 
0.0258852 0.147946 0.53 
0.0503023 0.147108 0.527 
0.075008 0.147387 0.528 
0.0996182 0.147387 0.528 
0.123758 0.146829 0.526 
0.147429 0.145991 0.523 
0.172135 0.146271 0.524 
0.195058 0.145154 0.52 
0.218874 0.144875 0.519 
0.242128 0.144317 0.517 
0.266226 0.144317 0.517 
0.290323 0.144317 0.517 
0.313204 0.143758 0.515 
0.342009 0.143758 0.515 
0.365303 0.143479 0.514 
0.389261 0.143479 0.514 
0.412414 0.1432 0.513 
0.435475 0.142921 0.512 
0.458442 0.142642 0.511 
0.481316 0.142363 0.51 
0.504097 0.142083 0.509 
-0.521674 0.182452 0.65 
-0.490621 0.182172 0.649 
-0.46108 0.182452 0.65 
-0.430784 0.182452 0.65 
-0.398022 0.18133 0.646 
-0.366773 0.180768 0.644 
-0.336233 0.180488 0.643 
-0.300799 0.180207 0.642 
-0.271297 0.180488 0.643 
-0.240951 0.180207 0.642 
-0.198336 0.174312 0.621 
-0.166922 0.173751 0.619 
-0.142085 0.178803 0.637 
-0.112571 0.179084 0.638 
-0.0828333 0.179084 0.638 
-0.0152584 0.148488 0.529 
0.0118642 0.148488 0.529 
0.036452 0.148208 0.528 
0.0610622 0.148208 0.528 
0.0856724 0.148208 0.528 
0.110492 0.148488 0.529 
0.133871 0.147085 0.524 
0.158295 0.147085 0.524 
0.182021 0.146523 0.522 
0.205166 0.145681 0.519 
0.228473 0.14512 0.517 
0.25257 0.14512 0.517 
0.277203 0.145401 0.518 
0.300184 0.144839 0.516 
0.328407 0.144559 0.515 
0.352411 0.144559 0.515 
0.374223 0.143716 0.512 
0.398865 0.143997 0.513 
0.421952 0.143716 0.512 
0.444946 0.143436 0.511 
0.468763 0.143436 0.511 
0.491617 0.143155 0.51 
-0.539671 0.183745 0.651 
-0.51011 0.184027 0.652 
-0.475305 0.182333 0.646 
-0.445884 0.182616 0.647 
-0.415085 0.182333 0.646 
-0.384379 0.182051 0.645 
-0.352667 0.181204 0.642 
-0.317252 0.181487 0.643 
-0.286835 0.181204 0.642 
-0.257711 0.181769 0.644 
-0.221765 0.177817 0.63 
-0.192257 0.179511 0.636 
-0.155585 0.173866 0.616 
-0.131198 0.179793 0.637 
-0.101508 0.179793 0.637 
-0.0623424 0.172737 0.612 
-0.00865039 0.148746 0.527 
0.0159434 0.149028 0.528 
0.0405537 0.149028 0.528 
0.0651639 0.149028 0.528 
0.0899442 0.14931 0.529 
0.114168 0.148746 0.527 
0.137678 0.147617 0.523 
0.162365 0.147899 0.524 
0.186076 0.147334 0.522 
0.209198 0.146488 0.519 
0.232039 0.145641 0.516 
0.256586 0.145923 0.517 
0.280684 0.145923 0.517 
0.303603 0.145359 0.515 
0.330007 0.145359 0.515 
0.354012 0.145359 0.515 
0.37508 0.14423 0.511 
0.400459 0.144794 0.513 
0.423543 0.144512 0.512 
0.446533 0.14423 0.511 
0.470351 0.14423 0.511 
0.492235 0.143665 0.509 
-0.536822 0.184472 0.65 
-0.508084 0.18504 0.652 
-0.473298 0.183337 0.646 
-0.443874 0.183621 0.647 
-0.412438 0.183053 0.645 
-0.381782 0.182769 0.644 
-0.34958 0.181634 0.64 
-0.317252 0.182486 0.643 
-0.286835 0.182202 0.642 
-0.257311 0.182486 0.643 
-0.223098 0.17908 0.631 
-0.192941 0.180215 0.635 
-0.157244 0.174539 0.615 
-0.133178 0.180783 0.637 
-0.103325 0.180499 0.636 
-0.0670966 0.173688 0.612 
-0.0144092 0.149848 0.528 
0.0102204 0.150132 0.529 
0.0347453 0.149564 0.527 
0.059309 0.149564 0.527 
0.0840317 0.149848 0.528 
0.108642 0.149848 0.528 
0.132243 0.148713 0.524 
0.156069 0.148145 0.522 
0.180399 0.148145 0.522 
0.203161 0.14701 0.518 
0.226427 0.146443 0.516 
0.250478 0.146443 0.516 
0.274529 0.146443 0.516 
0.298002 0.146159 0.515 
0.320755 0.145591 0.513 
0.345338 0.145875 0.514 
0.367859 0.145307 0.512 
0.391723 0.145307 0.512 
0.415588 0.145307 0.512 
0.439452 0.145307 0.512 
0.461507 0.14474 0.51 
0.484327 0.144456 0.509 
-0.542705 0.185768 0.651 
-0.511575 0.185482 0.65 
-0.477576 0.184055 0.645 
-0.448206 0.184341 0.646 
-0.418096 0.184341 0.646 
-0.386784 0.18377 0.644 
-0.355659 0.183199 0.642 
-0.325228 0.182914 0.641 
-0.29489 0.182629 0.64 
-0.26506 0.182629 0.64 
-0.228458 0.181202 0.635 
-0.193928 0.181202 0.635 
-0.158199 0.175495 0.615 
-0.133957 0.181487 0.636 
-0.104149 0.181202 0.635 
-0.0701778 0.175209 0.614 
-0.0185109 0.150669 0.528 
0.00611089 0.150954 0.529 
0.0306514 0.150383 0.527 
0.055215 0.150383 0.527 
0.0797787 0.150383 0.527 
0.104144 0.150098 0.526 
0.128172 0.149527 0.524 
0.152013 0.148956 0.522 
0.176006 0.148671 0.521 
0.199137 0.147815 0.518 
0.222419 0.147244 0.516 
0.245992 0.146959 0.515 
0.269996 0.146959 0.515 
0.294001 0.146959 0.515 
0.316153 0.146103 0.512 
0.341345 0.146674 0.514 
0.363882 0.146103 0.512 
0.388503 0.146388 0.513 
0.411611 0.146103 0.512 
0.434624 0.145818 0.511 
0.456648 0.145247 0.509 
0.479429 0.144961 0.508 
0.503107 0.144961 0.508 
-0.516624 0.186492 0.65 
-0.482586 0.185057 0.645 
-0.44921 0.185344 0.646 
-0.419099 0.185344 0.646 
-0.387183 0.184484 0.643 
-0.356657 0.184197 0.642 
-0.325715 0.183623 0.64 
-0.295885 0.183623 0.64 
-0.265638 0.183336 0.639 
-0.229445 0.182188 0.635 
-0.194608 0.181901 0.634 
-0.15985 0.176163 0.614 
-0.134945 0.182475 0.636 
-0.105135 0.182188 0.635 
-0.0733965 0.177024 0.617 
-0.0226126 0.151489 0.528 
0.00200141 0.151776 0.529 
0.0265071 0.150915 0.526 
0.0509271 0.150628 0.525 
0.0755411 0.150915 0.526 
0.100058 0.150915 0.526 
0.124101 0.150341 0.524 
0.147958 0.149767 0.522 
0.171959 0.149481 0.521 
0.195113 0.14862 0.518 
0.218834 0.148333 0.517 
0.241991 0.147759 0.515 
0.265479 0.147472 0.514 
0.29 0.147759 0.515 
0.311566 0.146611 0.511 
0.337352 0.147472 0.514 
0.359904 0.146898 0.512 
0.383019 0.146611 0.511 
0.407633 0.146898 0.512 
0.430655 0.146611 0.511 
0.452694 0.146038 0.509 
0.476419 0.146038 0.509 
0.499161 0.145751 0.508 
-0.520871 0.187213 0.649 
-0.488353 0.186348 0.646 
-0.455232 0.186348 0.646 
-0.426438 0.186925 0.648 
-0.393788 0.185771 0.644 
-0.362642 0.185194 0.642 
-0.333236 0.185483 0.643 
-0.302794 0.185194 0.642 
-0.271595 0.184329 0.639 
-0.241811 0.184329 0.639 
-0.19961 0.177694 0.616 
-0.164888 0.177406 0.615 
-0.137693 0.183175 0.635 
-0.107925 0.182886 0.634 
-0.0731586 0.177406 0.615 
-0.0225698 0.152021 0.527 
0.00199763 0.152309 0.528 
0.0265071 0.151732 0.526 
0.0509271 0.151444 0.525 
0.0753975 0.151444 0.525 
0.0998679 0.151444 0.525 
0.123865 0.150867 0.523 
0.147958 0.150578 0.522 
0.171959 0.15029 0.521 
0.195113 0.149425 0.518 
0.218834 0.149136 0.517 
0.241991 0.148559 0.515 
0.265479 0.148271 0.514 
0.289437 0.148271 0.514 
0.310956 0.147117 0.51 
0.337352 0.148271 0.514 
0.359904 0.147694 0.512 
0.38227 0.147117 0.51 
0.407633 0.147694 0.512 
0.430655 0.147405 0.511 
0.452694 0.146828 0.509 
0.476419 0.146828 0.509 
0.499161 0.14654 0.508 
-0.522888 0.188222 0.649 
-0.491119 0.187642 0.647 
-0.46025 0.187352 0.646 
-0.432137 0.188222 0.649 
-0.39941 0.187062 0.645 
-0.367056 0.185902 0.641 
-0.337705 0.186192 0.642 
-0.307781 0.186192 0.642 
-0.277425 0.185902 0.641 
-0.246775 0.185322 0.639 
-0.204064 0.178361 0.615 
-0.177437 0.182421 0.629 
-0.146572 0.184162 0.635 
-0.117343 0.184742 0.637 
-0.0869639 0.183291 0.632 
-0.0529202 0.177781 0.613 
-0.00536504 0.15255 0.526 
0.0191156 0.15226 0.525 
0.043669 0.15255 0.526 
0.0677971 0.15168 0.523 
0.0941581 0.15226 0.525 
0.118403 0.15197 0.524 
0.141736 0.150809 0.52 
0.166612 0.151389 0.522 
0.190211 0.150809 0.52 
0.213211 0.149939 0.517 
0.235931 0.149069 0.514 
0.259384 0.148779 0.513 
0.283847 0.149069 0.514 
0.305409 0.147909 0.51 
0.331117 0.148779 0.513 
0.354336 0.148489 0.512 
0.374507 0.147039 0.507 
0.401279 0.148199 0.511 
0.424265 0.147909 0.51 
0.447158 0.147619 0.509 
0.470883 0.147619 0.509 
0.493636 0.147329 0.508 
-0.529318 0.188647 0.647 
-0.501476 0.189522 0.65 
-0.466272 0.188355 0.646 
-0.436162 0.188355 0.646 
-0.404166 0.187481 0.643 
-0.37245 0.186606 0.64 
-0.342084 0.186314 0.639 
-0.314255 0.187481 0.643 
-0.284284 0.187481 0.643 
-0.252732 0.186314 0.639 
-0.207886 0.179317 0.615 
-0.181229 0.184273 0.632 
-0.150044 0.184565 0.633 
-0.121682 0.186314 0.639 
-0.090052 0.184565 0.633 
-0.0556864 0.178442 0.612 
-0.00781674 0.153367 0.526 
0.0166685 0.153075 0.525 
0.0412173 0.153367 0.526 
0.0654844 0.152784 0.524 
0.0899082 0.152784 0.524 
0.114332 0.152784 0.524 
0.137697 0.151617 0.52 
0.162557 0.152201 0.522 
0.186529 0.151909 0.521 
0.209195 0.150743 0.517 
0.231938 0.149868 0.514 
0.255398 0.149576 0.513 
0.279309 0.149576 0.513 
0.302038 0.148993 0.511 
0.326494 0.149285 0.512 
0.354336 0.149285 0.512 
0.374507 0.147827 0.507 
0.400494 0.148702 0.51 
0.423434 0.14841 0.509 
0.447158 0.14841 0.509 
0.469958 0.148119 0.508 
0.493636 0.148119 0.508 
-0.528313 0.189652 0.647 
-0.499696 0.190238 0.649 
-0.464265 0.189359 0.646 
-0.434155 0.189359 0.646 
-0.402793 0.188773 0.644 
-0.369882 0.187307 0.639 
-0.340098 0.187307 0.639 
-0.312257 0.18848 0.643 
-0.281408 0.187893 0.641 
-0.249363 0.187014 0.638 
-0.211095 0.180565 0.616 
-0.185449 0.185548 0.633 
-0.152518 0.18379 0.627 
-0.125654 0.187307 0.639 
-0.0938374 0.185255 0.632 
-0.0591982 0.178513 0.609 
-0.0110435 0.153598 0.524 
0.0158528 0.153891 0.525 
0.0403232 0.153891 0.525 
0.0645468 0.153305 0.523 
0.089094 0.153598 0.524 
0.113518 0.153598 0.524 
