# .PCD v.7 - Point Cloud Data file format
VERSION .7
FIELDS x y z
SIZE 4 4 4
TYPE F F F
COUNT 1 1 1
WIDTH 1749
HEIGHT 1
VIEWPOINT 0 0 0 1 0 0 0
POINTS 1749
DATA ascii
-0.315705 -0.0664602 0.609 
-0.291425 -0.0664602 0.609 
-0.2689 -0.0668968 0.613 
-0.246056 -0.0673333 0.617 
-0.221458 -0.0673333 0.617 
-0.197497 -0.0675515 0.619 
-0.174215 -0.0680972 0.624 
-0.150056 -0.0684246 0.627 
-0.125657 -0.068752 0.63 
-0.10054 -0.068752 0.63 
-0.075902 -0.0691885 0.634 
-0.0506257 -0.0691885 0.634 
-0.0255094 -0.069625 0.638 
-7.38821e-05 -0.0698433 0.64 
0.0254018 -0.0697341 0.639 
0.0512755 -0.0702798 0.644 
0.07707 -0.0703889 0.645 
0.103263 -0.0707163 0.648 
0.128898 -0.0706072 0.647 
0.155171 -0.0708255 0.649 
0.181603 -0.0710437 0.651 
0.208513 -0.0713711 0.654 
0.234228 -0.071262 0.653 
0.261856 -0.0716985 0.657 
0.288927 -0.0719168 0.659 
0.316156 -0.072135 0.661 
0.335773 -0.0707163 0.648 
0.348214 -0.0680972 0.624 
0.352763 -0.0643868 0.59 
0.353963 -0.0605672 0.555 
0.357116 -0.0575116 0.527 
0.365211 -0.0555472 0.509 
0.366185 -0.0526007 0.482 
0.385402 -0.0526007 0.482 
0.404618 -0.0526007 0.482 
0.426472 -0.0529281 0.485 
0.445808 -0.0529281 0.485 
0.466103 -0.0530372 0.486 
-0.485892 -0.0637506 0.597 
-0.463639 -0.0639642 0.599 
-0.441227 -0.0641778 0.601 
-0.435318 -0.0669542 0.627 
-0.405909 -0.0669542 0.627 
-0.376052 -0.0660999 0.619 
-0.344562 -0.0648185 0.607 
-0.321418 -0.065032 0.609 
-0.297138 -0.065032 0.609 
-0.273754 -0.0652456 0.611 
-0.251436 -0.0657795 0.616 
-0.227246 -0.0658863 0.617 
-0.202976 -0.0659931 0.618 
-0.178914 -0.0662067 0.62 
-0.155937 -0.0669542 0.627 
-0.131775 -0.0673813 0.631 
-0.10645 -0.0672745 0.63 
-0.0817202 -0.0675949 0.633 
-0.0566623 -0.0678084 0.635 
-0.0314449 -0.068022 0.637 
-0.00607752 -0.0683424 0.64 
0.0194076 -0.0682356 0.639 
0.0452344 -0.0687695 0.644 
0.0709093 -0.0687695 0.644 
0.0970342 -0.0690899 0.647 
0.122829 -0.0690899 0.647 
0.148853 -0.0691966 0.648 
0.175496 -0.069517 0.651 
0.202069 -0.0697306 0.653 
0.228103 -0.0697306 0.653 
0.255693 -0.0701577 0.657 
0.282745 -0.0703713 0.659 
0.309487 -0.0704781 0.66 
0.33122 -0.069517 0.651 
0.34675 -0.0674881 0.632 
0.352525 -0.0639642 0.599 
0.353156 -0.0600131 0.562 
0.356182 -0.0569164 0.533 
0.364685 -0.0549943 0.515 
0.365021 -0.0521111 0.488 
0.37975 -0.0514703 0.482 
0.398966 -0.0514703 0.482 
0.419918 -0.0516839 0.484 
0.440121 -0.0517907 0.485 
0.459457 -0.0517907 0.485 
0.478793 -0.0517907 0.485 
-0.469258 -0.0625594 0.599 
-0.446865 -0.0627683 0.601 
-0.436274 -0.0647527 0.62 
-0.411791 -0.0654837 0.627 
-0.383092 -0.0648571 0.621 
-0.349679 -0.0632905 0.606 
-0.32713 -0.0636038 0.609 
-0.302851 -0.0636038 0.609 
-0.279029 -0.0637083 0.61 
-0.256797 -0.0642305 0.615 
-0.233034 -0.0644393 0.617 
-0.208773 -0.0645438 0.618 
-0.18473 -0.0647527 0.62 
-0.161819 -0.0654837 0.627 
-0.13704 -0.0655882 0.628 
-0.11236 -0.0657971 0.63 
-0.0875197 -0.0660059 0.632 
-0.062619 -0.0663193 0.635 
-0.0373617 -0.0664237 0.636 
-0.0120812 -0.0668415 0.64 
0.0134133 -0.066737 0.639 
0.0391932 -0.0672592 0.644 
0.0647674 -0.0671548 0.643 
0.0909649 -0.0675725 0.647 
0.116759 -0.0675725 0.647 
0.142774 -0.067677 0.648 
0.169129 -0.0678859 0.65 
0.195643 -0.0680947 0.652 
0.222317 -0.0683036 0.654 
0.24953 -0.0686169 0.657 
0.276143 -0.0687214 0.658 
0.302836 -0.0688258 0.659 
0.328609 -0.0687214 0.658 
0.347293 -0.0672592 0.644 
0.352118 -0.0634994 0.608 
0.352836 -0.0595307 0.57 
0.355794 -0.0563975 0.54 
0.360553 -0.0538909 0.516 
0.364962 -0.0512799 0.491 
0.376706 -0.0502355 0.481 
0.396705 -0.05034 0.482 
0.417647 -0.0505489 0.484 
0.437846 -0.0506533 0.485 
0.457182 -0.0506533 0.485 
0.476518 -0.0506533 0.485 
-0.47128 -0.0610526 0.598 
-0.448935 -0.0612568 0.6 
-0.437057 -0.0629924 0.617 
-0.414732 -0.0640133 0.627 
-0.387248 -0.0636049 0.623 
-0.353103 -0.0619714 0.607 
-0.329987 -0.0621756 0.609 
-0.306209 -0.0622777 0.61 
-0.28189 -0.0622777 0.61 
-0.259259 -0.0626861 0.614 
-0.235928 -0.0629924 0.617 
-0.211672 -0.0630945 0.618 
-0.187941 -0.0634008 0.621 
-0.16476 -0.0640133 0.627 
-0.139763 -0.0640133 0.627 
-0.115314 -0.0643196 0.63 
-0.0903409 -0.0644217 0.631 
-0.0654941 -0.064728 0.634 
-0.0402813 -0.0648301 0.635 
-0.0150594 -0.0652385 0.639 
0.0104162 -0.0652385 0.639 
0.0361165 -0.0656468 0.643 
0.0618476 -0.0657489 0.644 
0.0879302 -0.0660552 0.647 
0.113725 -0.0660552 0.647 
0.139735 -0.0661573 0.648 
0.16608 -0.0663615 0.65 
0.19229 -0.0664636 0.651 
0.21925 -0.0667699 0.654 
0.246074 -0.0669741 0.656 
0.273057 -0.0671783 0.658 
0.299745 -0.0672804 0.659 
0.325523 -0.0671783 0.658 
0.345876 -0.0660552 0.647 
0.351564 -0.0624819 0.612 
0.353234 -0.0587044 0.575 
0.355224 -0.0554374 0.543 
0.360215 -0.0529871 0.519 
0.364026 -0.0506389 0.496 
0.37142 -0.0490054 0.48 
0.392184 -0.0492096 0.482 
0.412254 -0.0493117 0.483 
0.433297 -0.0495159 0.485 
0.452633 -0.0495159 0.485 
0.472942 -0.049618 0.486 
-0.478292 -0.0596502 0.598 
-0.455971 -0.0598497 0.6 
-0.437811 -0.0606477 0.608 
-0.427175 -0.0626426 0.628 
-0.393723 -0.0622436 0.624 
-0.359979 -0.0607474 0.609 
-0.3357 -0.0607474 0.609 
-0.311931 -0.0608472 0.61 
-0.28714 -0.0607474 0.609 
-0.264587 -0.0611464 0.613 
-0.241324 -0.0614457 0.616 
-0.216765 -0.0614457 0.616 
-0.193766 -0.0619444 0.621 
-0.170369 -0.0624431 0.626 
-0.145644 -0.0625429 0.627 
-0.121032 -0.0627424 0.629 
-0.0961075 -0.0628421 0.63 
-0.0713288 -0.0631414 0.633 
-0.046238 -0.0633409 0.635 
-0.0210207 -0.0636401 0.638 
0.00442193 -0.0637399 0.639 
0.0300379 -0.0640391 0.642 
0.0558064 -0.0642386 0.644 
0.0816079 -0.0643384 0.645 
0.107822 -0.0646376 0.648 
0.133656 -0.0646376 0.648 
0.159737 -0.0647374 0.649 
0.185897 -0.0648371 0.65 
0.212463 -0.0650366 0.652 
0.239554 -0.0653359 0.655 
0.266884 -0.0656351 0.658 
0.293563 -0.0657349 0.659 
0.319836 -0.0657349 0.659 
0.340332 -0.0646376 0.648 
0.349779 -0.0617449 0.619 
0.352679 -0.0581539 0.583 
0.355286 -0.0547624 0.549 
0.358624 -0.0520692 0.522 
0.363158 -0.0496752 0.498 
0.369168 -0.0478797 0.48 
0.389923 -0.0480792 0.482 
0.409988 -0.048179 0.483 
0.430133 -0.0482787 0.484 
0.450358 -0.0483785 0.485 
0.470662 -0.0484782 0.486 
-0.480292 -0.0581503 0.597 
-0.458785 -0.0584426 0.6 
-0.437763 -0.0588322 0.604 
-0.429436 -0.0610725 0.627 
-0.39665 -0.0607803 0.624 
-0.365219 -0.0597088 0.613 
-0.338 -0.0592218 0.608 
-0.314792 -0.0594166 0.61 
-0.289997 -0.0593192 0.609 
-0.267026 -0.0596114 0.612 
-0.244213 -0.060001 0.616 
-0.218941 -0.0598062 0.614 
-0.196362 -0.0603906 0.62 
-0.173029 -0.0608777 0.625 
-0.148585 -0.0610725 0.627 
-0.123982 -0.0612673 0.629 
-0.0989052 -0.0612673 0.629 
-0.0741804 -0.0615595 0.632 
-0.0492164 -0.0618517 0.635 
-0.0239755 -0.0620465 0.637 
0.0014248 -0.0622413 0.639 
0.0269425 -0.0623387 0.64 
0.0527858 -0.0627283 0.644 
0.0784608 -0.0627283 0.644 
0.104783 -0.063118 0.648 
0.130617 -0.063118 0.648 
0.156693 -0.0632154 0.649 
0.18313 -0.0634102 0.651 
0.209405 -0.0635076 0.652 
0.236482 -0.0637998 0.655 
0.263798 -0.064092 0.658 
0.290472 -0.0641894 0.659 
0.317226 -0.0642868 0.66 
0.337292 -0.063118 0.648 
0.34889 -0.0603906 0.62 
0.351915 -0.0568841 0.584 
0.355286 -0.0534749 0.549 
0.358624 -0.050845 0.522 
0.364171 -0.0487995 0.501 
0.368043 -0.046754 0.48 
0.387986 -0.0468515 0.481 
0.408855 -0.0470463 0.483 
0.428998 -0.0471437 0.484 
0.44922 -0.0472411 0.485 
0.469522 -0.0473385 0.486 
-0.484492 -0.0567503 0.597 
-0.463006 -0.0570355 0.6 
-0.439817 -0.0571305 0.601 
-0.430387 -0.0591268 0.622 
-0.401683 -0.0594119 0.625 
-0.372546 -0.0587465 0.618 
-0.342278 -0.0577959 0.608 
-0.318561 -0.057891 0.609 
-0.294282 -0.057891 0.609 
-0.270889 -0.0580811 0.611 
-0.248143 -0.0584613 0.615 
-0.223625 -0.0584613 0.615 
-0.200724 -0.0589366 0.62 
-0.176858 -0.0592218 0.623 
-0.152752 -0.059507 0.626 
-0.128407 -0.0597922 0.629 
-0.103331 -0.0597922 0.629 
-0.0786268 -0.0600773 0.632 
-0.0536839 -0.0603625 0.635 
-0.0284572 -0.0605526 0.637 
-0.0030709 -0.0607428 0.639 
0.0224047 -0.0607428 0.639 
0.048255 -0.0612181 0.644 
0.0739299 -0.0612181 0.644 
0.100069 -0.0615032 0.647 
0.126058 -0.0615983 0.648 
0.152127 -0.0616934 0.649 
0.180076 -0.0618835 0.651 
0.206347 -0.0619785 0.652 
0.233053 -0.0621687 0.654 
0.260316 -0.0624538 0.657 
0.286945 -0.0625489 0.658 
0.31413 -0.062739 0.66 
0.334769 -0.0616934 0.649 
0.348418 -0.0596021 0.627 
0.351975 -0.0561799 0.591 
0.353344 -0.0524726 0.552 
0.356312 -0.049811 0.524 
0.364965 -0.048195 0.507 
0.366917 -0.0456284 0.48 
0.386858 -0.0457234 0.481 
0.407723 -0.0459135 0.483 
0.427863 -0.0460086 0.484 
0.448083 -0.0461037 0.485 
0.468383 -0.0461987 0.486 
-0.485892 -0.0553502 0.597 
-0.463639 -0.0555356 0.599 
-0.441227 -0.0557211 0.601 
-0.431152 -0.0575753 0.621 
-0.403149 -0.0579462 0.625 
-0.373995 -0.0572972 0.618 
-0.343138 -0.0562773 0.607 
-0.319989 -0.0564628 0.609 
-0.29571 -0.0564628 0.609 
-0.272322 -0.0566482 0.611 
-0.249586 -0.0570191 0.615 
-0.225067 -0.0570191 0.615 
-0.201852 -0.0573899 0.619 
-0.178319 -0.0577608 0.623 
-0.15422 -0.0580389 0.626 
-0.129676 -0.0582243 0.628 
-0.104806 -0.0583171 0.629 
-0.0799822 -0.0585025 0.631 
-0.0550862 -0.0587806 0.634 
-0.029951 -0.0590588 0.637 
-0.00456231 -0.0591515 0.638 
0.0209061 -0.0592442 0.639 
0.0467447 -0.0597078 0.644 
0.0724196 -0.0597078 0.644 
0.0985515 -0.0599859 0.647 
0.124538 -0.0600786 0.648 
0.150373 -0.0600786 0.648 
0.177023 -0.0603568 0.651 
0.203289 -0.0604495 0.652 
0.229986 -0.0606349 0.654 
0.257234 -0.060913 0.657 
0.283859 -0.0610058 0.658 
0.311034 -0.0611912 0.66 
0.333258 -0.0604495 0.652 
0.34713 -0.0584098 0.63 
0.351182 -0.0548866 0.592 
0.352626 -0.0516417 0.557 
0.35588 -0.0488602 0.527 
0.364733 -0.0472841 0.51 
0.365055 -0.0446881 0.482 
0.383474 -0.0445954 0.481 
0.404325 -0.0447808 0.483 
0.424458 -0.0448735 0.484 
0.444671 -0.0449663 0.485 
0.464007 -0.0449663 0.485 
-0.488693 -0.0539501 0.597 
-0.466449 -0.0541309 0.599 
-0.443307 -0.0542212 0.6 
-0.431968 -0.0558479 0.618 
-0.40885 -0.0566612 0.627 
-0.38018 -0.056119 0.621 
-0.346836 -0.0547635 0.606 
-0.324274 -0.0550346 0.609 
-0.299994 -0.0550346 0.609 
-0.27662 -0.0552153 0.611 
-0.2535 -0.0554864 0.614 
-0.229767 -0.0556672 0.616 
-0.206207 -0.0559383 0.619 
-0.182995 -0.0563901 0.624 
-0.158371 -0.0564805 0.625 
-0.134094 -0.0567516 0.628 
-0.109231 -0.0568419 0.629 
-0.0844216 -0.0570227 0.631 
-0.0594528 -0.0572034 0.633 
-0.0344327 -0.0575649 0.637 
-0.00905097 -0.0576553 0.638 
0.017881 -0.0576553 0.638 
0.0437241 -0.0581975 0.644 
0.0692913 -0.0581071 0.643 
0.0953692 -0.0583782 0.646 
0.121499 -0.0585589 0.648 
0.147333 -0.0585589 0.648 
0.173702 -0.0587397 0.65 
0.200231 -0.0589204 0.652 
0.226571 -0.0590108 0.653 
0.253766 -0.0592819 0.656 
0.280772 -0.0594626 0.658 
0.307939 -0.0596434 0.66 
0.331719 -0.0591915 0.655 
0.347453 -0.0574745 0.636 
0.351707 -0.0542212 0.6 
0.35309 -0.050968 0.564 
0.354177 -0.0478954 0.53 
0.363269 -0.0463592 0.513 
0.363915 -0.0438288 0.485 
0.3793 -0.043377 0.48 
0.400096 -0.0435577 0.482 
0.421053 -0.0437385 0.484 
0.441258 -0.0438288 0.485 
0.460594 -0.0438288 0.485 
0.48092 -0.0439192 0.486 
-0.466449 -0.0527261 0.599 
-0.443307 -0.0528141 0.6 
-0.431968 -0.0543986 0.618 
-0.41032 -0.0551908 0.627 
-0.381636 -0.0546626 0.621 
-0.347683 -0.0532543 0.605 
-0.325167 -0.0535183 0.608 
-0.301423 -0.0536064 0.609 
-0.278053 -0.0537824 0.611 
-0.254939 -0.0540465 0.614 
-0.231211 -0.0542225 0.616 
-0.207659 -0.0544866 0.619 
-0.184459 -0.0549267 0.624 
-0.159837 -0.0550147 0.625 
-0.135351 -0.0551908 0.627 
-0.110706 -0.0553668 0.629 
-0.0857653 -0.0554549 0.63 
-0.0608411 -0.0556309 0.632 
-0.0359265 -0.056071 0.637 
-0.0105472 -0.056159 0.638 
0.0163848 -0.056159 0.638 
0.0421482 -0.0565992 0.643 
0.0677833 -0.0565992 0.643 
0.093709 -0.0567752 0.645 
0.119979 -0.0570393 0.648 
0.145814 -0.0570393 0.648 
0.172178 -0.0572153 0.65 
0.198702 -0.0573914 0.652 
0.224695 -0.0573914 0.652 
0.252227 -0.0577435 0.656 
0.279229 -0.0579195 0.658 
0.306391 -0.0580956 0.66 
0.330687 -0.0577435 0.656 
0.347049 -0.056159 0.638 
0.350883 -0.0529022 0.601 
0.353014 -0.0498213 0.566 
0.354266 -0.0468285 0.532 
0.363477 -0.0453321 0.515 
0.363131 -0.0428675 0.487 
0.377048 -0.0422513 0.48 
0.397836 -0.0424274 0.482 
0.418783 -0.0426034 0.484 
0.438984 -0.0426914 0.485 
0.45832 -0.0426914 0.485 
0.47864 -0.0427795 0.486 
-0.47128 -0.0512357 0.598 
-0.448935 -0.051407 0.6 
-0.436348 -0.0527779 0.616 
-0.416866 -0.053806 0.628 
-0.389333 -0.0534633 0.624 
-0.353358 -0.0518354 0.605 
-0.330871 -0.0520925 0.608 
-0.307135 -0.0521781 0.609 
-0.28332 -0.0522638 0.61 
-0.260699 -0.0526065 0.614 
-0.236605 -0.0526922 0.615 
-0.213121 -0.0529493 0.618 
-0.190312 -0.0534633 0.624 
-0.1657 -0.053549 0.625 
-0.141233 -0.0537204 0.627 
-0.116607 -0.0538917 0.629 
-0.0916751 -0.0539774 0.63 
-0.0665584 -0.0539774 0.63 
-0.0417705 -0.0544058 0.635 
-0.0165062 -0.0545771 0.637 
0.00890367 -0.0546628 0.638 
0.0345547 -0.0550055 0.642 
0.0602436 -0.0550912 0.643 
0.0861458 -0.0552626 0.645 
0.112381 -0.0555196 0.648 
0.138429 -0.0556053 0.649 
0.164303 -0.0556053 0.649 
0.190763 -0.0557766 0.651 
0.21705 -0.0558623 0.652 
0.24379 -0.0560337 0.654 
0.271514 -0.0563764 0.658 
0.298199 -0.0564621 0.659 
0.32398 -0.0563764 0.658 
0.344358 -0.0554339 0.647 
0.351846 -0.0526922 0.615 
0.352497 -0.0493508 0.576 
0.35395 -0.0465234 0.543 
0.358998 -0.0444671 0.519 
0.364326 -0.0426678 0.498 
0.370294 -0.0411256 0.48 
0.390242 -0.0412113 0.481 
0.411121 -0.0413827 0.483 
0.431268 -0.0414683 0.484 
0.451495 -0.041554 0.485 
0.472773 -0.0417254 0.487 
-0.478892 -0.0497499 0.597 
-0.457378 -0.0499999 0.6 
-0.437792 -0.0504999 0.606 
-0.429331 -0.0524166 0.629 
-0.399577 -0.0519999 0.624 
-0.368694 -0.0511666 0.614 
-0.340852 -0.0506666 0.608 
-0.316612 -0.0506666 0.608 
-0.292853 -0.0507499 0.609 
-0.270338 -0.0510833 0.613 
-0.246701 -0.0512499 0.615 
-0.222544 -0.0513333 0.616 
-0.19927 -0.0516666 0.62 
-0.175679 -0.0519999 0.624 
-0.150801 -0.0519999 0.624 
-0.126731 -0.0523333 0.628 
-0.101855 -0.0524166 0.629 
-0.0770226 -0.0525833 0.631 
-0.0520304 -0.0527499 0.633 
-0.0269633 -0.0530833 0.637 
-0.00156987 -0.0531666 0.638 
0.0239407 -0.0533333 0.64 
0.0497653 -0.0536666 0.644 
0.0754402 -0.0536666 0.644 
0.101429 -0.0538333 0.646 
0.127971 -0.0541666 0.65 
0.153649 -0.0540833 0.649 
0.1798 -0.0541666 0.65 
0.206663 -0.0544166 0.653 
0.232341 -0.0543333 0.652 
0.260316 -0.0547499 0.657 
0.286945 -0.0548333 0.658 
0.31413 -0.0549999 0.66 
0.334769 -0.0540833 0.649 
0.348418 -0.0522499 0.627 
0.351379 -0.0491666 0.59 
0.353297 -0.0463333 0.556 
0.35588 -0.0439166 0.527 
0.364017 -0.0424166 0.509 
0.364679 -0.0402499 0.483 
0.381551 -0.04 0.48 
0.403192 -0.0402499 0.483 
0.423323 -0.0403333 0.484 
0.443533 -0.0404166 0.485 
0.463824 -0.0404999 0.486 
0.484194 -0.0405833 0.487 
-0.466449 -0.0485118 0.599 
-0.443307 -0.0485928 0.6 
-0.431968 -0.0500506 0.618 
-0.411791 -0.0507795 0.627 
-0.383092 -0.0502936 0.621 
-0.348525 -0.0489168 0.604 
-0.326056 -0.0491598 0.607 
-0.302851 -0.0493217 0.609 
-0.279029 -0.0494027 0.61 
-0.256379 -0.0497267 0.614 
-0.232656 -0.0498886 0.616 
-0.208773 -0.0500506 0.618 
-0.185922 -0.0505365 0.624 
-0.161045 -0.0505365 0.624 
-0.13704 -0.0508605 0.628 
-0.112181 -0.0509415 0.629 
-0.0872428 -0.0510225 0.63 
-0.0623232 -0.0511845 0.632 
-0.0373029 -0.0514274 0.635 
-0.0120245 -0.0515894 0.637 
0.0133923 -0.0516704 0.638 
0.0390715 -0.0519943 0.642 
0.0646667 -0.0519943 0.642 
0.0905431 -0.0521563 0.644 
0.11694 -0.0524803 0.648 
0.142774 -0.0524803 0.648 
0.169129 -0.0526422 0.65 
0.195643 -0.0528042 0.652 
0.221297 -0.0527232 0.651 
0.248771 -0.0530472 0.655 
0.276143 -0.0532901 0.658 
0.303295 -0.0534521 0.66 
0.32811 -0.0532092 0.657 
0.345675 -0.0519133 0.641 
0.351539 -0.0491598 0.607 
0.352836 -0.0461632 0.57 
0.354416 -0.0434096 0.536 
0.361763 -0.0417898 0.516 
0.363476 -0.0396032 0.489 
0.375923 -0.0388743 0.48 
0.396705 -0.0390362 0.482 
0.417647 -0.0391982 0.484 
0.437846 -0.0392792 0.485 
0.457182 -0.0392792 0.485 
0.477501 -0.0393602 0.486 
-0.475487 -0.0470284 0.598 
-0.453157 -0.0471857 0.6 
-0.437105 -0.0480508 0.611 
-0.430309 -0.0500955 0.637 
-0.396014 -0.0489945 0.623 
-0.363431 -0.0479722 0.61 
-0.338 -0.0478149 0.608 
-0.31376 -0.0478149 0.608 
-0.289997 -0.0478935 0.609 
-0.268335 -0.0483654 0.615 
-0.24342 -0.0482867 0.614 
-0.220011 -0.0485227 0.617 
-0.196362 -0.0487586 0.62 
-0.173029 -0.0491518 0.625 
-0.148111 -0.0491518 0.625 
-0.122312 -0.0493877 0.628 
-0.0974301 -0.0494664 0.629 
-0.0725832 -0.0496237 0.631 
-0.0475017 -0.0497023 0.632 
-0.0224817 -0.0500955 0.637 
0.00291421 -0.0500955 0.637 
0.0284879 -0.0504101 0.641 
0.0542118 -0.0505674 0.643 
0.0800953 -0.0507247 0.645 
0.105974 -0.0508033 0.646 
0.132544 -0.0511179 0.65 
0.158215 -0.0510392 0.649 
0.184373 -0.0511179 0.65 
0.211257 -0.0513538 0.653 
0.236928 -0.0512752 0.652 
0.264938 -0.0516684 0.657 
0.292017 -0.0518257 0.659 
0.31829 -0.0518257 0.659 
0.338812 -0.0509606 0.648 
0.349779 -0.0486799 0.619 
0.352832 -0.0456915 0.581 
0.353992 -0.0430177 0.547 
0.35725 -0.0408943 0.52 
0.364898 -0.0394787 0.502 
0.368043 -0.0377486 0.48 
0.387179 -0.0377486 0.48 
0.408855 -0.0379845 0.483 
0.428998 -0.0380632 0.484 
0.44922 -0.0381418 0.485 
0.469522 -0.0382204 0.486 
-0.483681 -0.0454734 0.596 
-0.462235 -0.0457023 0.599 
-0.440549 -0.0459312 0.602 
-0.431771 -0.0476098 0.624 
-0.40885 -0.0478387 0.627 
-0.378955 -0.0472283 0.619 
-0.346264 -0.0461601 0.605 
-0.323209 -0.0463127 0.607 
-0.299994 -0.0464653 0.609 
-0.27662 -0.0466179 0.611 
-0.253087 -0.0467705 0.613 
-0.23014 -0.0470757 0.617 
-0.205874 -0.047152 0.618 
-0.182995 -0.0476098 0.624 
-0.158118 -0.0476098 0.624 
-0.134094 -0.047915 0.628 
-0.109231 -0.0479913 0.629 
-0.0844216 -0.0481439 0.631 
-0.0593589 -0.0482202 0.632 
-0.0343786 -0.0485253 0.636 
-0.00903678 -0.0486016 0.637 
0.0164104 -0.0487542 0.639 
0.0421482 -0.0490594 0.643 
0.0676779 -0.0489831 0.642 
0.0935637 -0.0491357 0.644 
0.119979 -0.0494409 0.648 
0.145814 -0.0494409 0.648 
0.172178 -0.0495935 0.65 
0.199006 -0.0498224 0.653 
0.224351 -0.0496698 0.651 
0.251843 -0.049975 0.655 
0.278805 -0.0501276 0.657 
0.306391 -0.0503565 0.66 
0.329175 -0.0498224 0.653 
0.34636 -0.0483727 0.634 
0.351182 -0.0451682 0.592 
0.353259 -0.0425741 0.558 
0.35599 -0.0403615 0.529 
0.362824 -0.0388355 0.509 
0.365425 -0.0366992 0.481 
0.383802 -0.0366229 0.48 
0.405457 -0.0368518 0.483 
0.425593 -0.0369281 0.484 
0.445808 -0.0370044 0.485 
0.466103 -0.0370807 0.486 
-0.487874 -0.0440757 0.596 
-0.466449 -0.0442976 0.599 
-0.444046 -0.0444455 0.601 
-0.431968 -0.0457027 0.618 
-0.41392 -0.0464422 0.628 
-0.383929 -0.0458506 0.62 
-0.350521 -0.0447413 0.605 
-0.32748 -0.0448892 0.607 
-0.304279 -0.0450371 0.609 
-0.280459 -0.0451111 0.61 
-0.257819 -0.0454069 0.614 
-0.234101 -0.0455548 0.616 
-0.210222 -0.0457027 0.618 
-0.186485 -0.0459245 0.621 
-0.162508 -0.0461464 0.624 
-0.138292 -0.0463682 0.627 
-0.113656 -0.0465162 0.629 
-0.0887202 -0.0465901 0.63 
-0.0637044 -0.0466641 0.631 
-0.038731 -0.0468859 0.634 
-0.0135184 -0.0471078 0.637 
0.0118961 -0.0471817 0.638 
0.0375659 -0.0474775 0.642 
0.0630627 -0.0474036 0.641 
0.0890328 -0.0476254 0.644 
0.115242 -0.0478473 0.647 
0.141255 -0.0479212 0.648 
0.167605 -0.0480692 0.65 
0.193817 -0.0481431 0.651 
0.219771 -0.0481431 0.651 
0.246857 -0.048365 0.654 
0.274183 -0.0485868 0.657 
0.301747 -0.0488087 0.66 
0.326569 -0.0485868 0.657 
0.345675 -0.0474036 0.641 
0.350637 -0.0445934 0.603 
0.351687 -0.0418571 0.566 
0.354416 -0.0396386 0.536 
0.361062 -0.0380856 0.515 
0.363131 -0.0360149 0.487 
0.376263 -0.0354233 0.479 
0.397836 -0.0356451 0.482 
0.418783 -0.035793 0.484 
0.438079 -0.035793 0.484 
0.45832 -0.035867 0.485 
0.479625 -0.0360149 0.487 
-0.470663 -0.0428928 0.599 
-0.447528 -0.0429644 0.6 
-0.43561 -0.0441817 0.617 
-0.421669 -0.0453275 0.633 
-0.388918 -0.0444682 0.621 
-0.35595 -0.0434657 0.607 
-0.33175 -0.0434657 0.607 
-0.308057 -0.0435373 0.608 
-0.284284 -0.0436089 0.609 
-0.262566 -0.0440385 0.615 
-0.238047 -0.0440385 0.615 
-0.21457 -0.0442534 0.618 
-0.190239 -0.044325 0.619 
-0.166898 -0.044683 0.624 
-0.142476 -0.0448262 0.626 
-0.117894 -0.0449694 0.628 
-0.0930047 -0.045041 0.629 
-0.0681438 -0.0451843 0.631 
-0.0431234 -0.0453275 0.633 
-0.018 -0.0456139 0.637 
0.00740745 -0.0456855 0.638 
0.0329976 -0.0459003 0.641 
0.0586443 -0.0459719 0.642 
0.0845019 -0.0461151 0.644 
0.110348 -0.0461868 0.645 
0.136907 -0.0464732 0.649 
0.163032 -0.0465448 0.65 
0.188946 -0.0465448 0.65 
0.215852 -0.0467596 0.653 
0.241885 -0.0467596 0.653 
0.26956 -0.047046 0.657 
0.296654 -0.0471893 0.659 
0.322437 -0.0471177 0.658 
0.343371 -0.0464016 0.648 
0.351543 -0.0441817 0.617 
0.352366 -0.0413891 0.578 
0.353326 -0.0389544 0.544 
0.357091 -0.0370926 0.518 
0.363887 -0.0357321 0.499 
0.368399 -0.0342999 0.479 
0.388305 -0.0343715 0.48 
0.409988 -0.0345864 0.483 
0.430133 -0.034658 0.484 
0.450358 -0.0347296 0.485 
0.471631 -0.0348728 0.487 
-0.478892 -0.0413495 0.597 
-0.457378 -0.0415573 0.6 
-0.438514 -0.0420422 0.607 
-0.432743 -0.0439122 0.634 
-0.40104 -0.0432196 0.624 
-0.371943 -0.0427348 0.617 
-0.341715 -0.0420422 0.607 
-0.317515 -0.0420422 0.607 
-0.294282 -0.0421807 0.609 
-0.271775 -0.0424577 0.613 
-0.24774 -0.042527 0.614 
-0.224715 -0.042804 0.618 
-0.200077 -0.042804 0.618 
-0.176574 -0.0430811 0.622 
-0.15202 -0.0431503 0.623 
-0.128407 -0.0435659 0.629 
-0.103166 -0.0434967 0.628 
-0.0786268 -0.0437737 0.632 
-0.0534303 -0.0437737 0.632 
-0.0284125 -0.0440508 0.636 
-0.00305648 -0.0440508 0.636 
0.0224748 -0.0443971 0.641 
0.048255 -0.0446049 0.644 
0.0738151 -0.0445356 0.643 
0.0996049 -0.0446049 0.644 
0.126058 -0.0448819 0.648 
0.151892 -0.0448819 0.648 
0.178275 -0.0450204 0.65 
0.205446 -0.0452975 0.654 
0.231166 -0.0452282 0.653 
0.258381 -0.045436 0.656 
0.285402 -0.0455745 0.658 
0.312109 -0.0456438 0.659 
0.33376 -0.0450204 0.65 
0.347501 -0.0434967 0.628 
0.351182 -0.0410032 0.592 
0.353259 -0.0386483 0.558 
0.355317 -0.0365704 0.528 
0.362824 -0.0352545 0.509 
0.364299 -0.0335229 0.484 
0.380425 -0.0332459 0.48 
0.401227 -0.0333844 0.482 
0.422188 -0.0335229 0.484 
0.441484 -0.0335229 0.484 
0.462684 -0.0336614 0.486 
0.483052 -0.0337307 0.487 
-0.462235 -0.0400833 0.599 
-0.439817 -0.0402171 0.601 
-0.431771 -0.0417562 0.624 
-0.40104 -0.0417562 0.624 
-0.37134 -0.0412209 0.616 
-0.341715 -0.0406186 0.607 
-0.317515 -0.0406186 0.607 
-0.294282 -0.0407525 0.609 
-0.271775 -0.0410201 0.613 
-0.24774 -0.0410871 0.614 
-0.224715 -0.0413547 0.618 
-0.199753 -0.0412878 0.617 
-0.17629 -0.0415555 0.621 
-0.15202 -0.0416893 0.623 
-0.128407 -0.0420908 0.629 
-0.103166 -0.0420239 0.628 
-0.0786268 -0.0422916 0.632 
-0.0534303 -0.0422916 0.632 
-0.0284125 -0.0425592 0.636 
-0.00305648 -0.0425592 0.636 
0.0224748 -0.0428938 0.641 
0.04818 -0.0430276 0.643 
0.0738151 -0.0430276 0.643 
0.0996049 -0.0430946 0.644 
0.126058 -0.0433622 0.648 
0.151892 -0.0433622 0.648 
0.178275 -0.0434961 0.65 
0.205446 -0.0437637 0.654 
0.231166 -0.0436968 0.653 
0.258381 -0.0438976 0.656 
0.285402 -0.0440314 0.658 
0.312109 -0.0440983 0.659 
0.33376 -0.0434961 0.65 
0.347501 -0.0420239 0.628 
0.351182 -0.0396149 0.592 
0.352688 -0.0370051 0.553 
0.354405 -0.0349976 0.523 
0.363776 -0.0339269 0.507 
0.364297 -0.0321871 0.481 
0.382677 -0.0321202 0.48 
0.403488 -0.032254 0.482 
0.423581 -0.0323209 0.483 
0.444671 -0.0324548 0.485 
0.46592 -0.0325886 0.487 
-0.490093 -0.0385494 0.597 
-0.465044 -0.0386785 0.599 
-0.439817 -0.0388077 0.601 
-0.431771 -0.0402928 0.624 
-0.398296 -0.0401637 0.622 
-0.368094 -0.0395825 0.613 
-0.340291 -0.0391951 0.607 
-0.316091 -0.0391951 0.607 
-0.292853 -0.0393243 0.609 
-0.270338 -0.0395825 0.613 
-0.2463 -0.0396471 0.614 
-0.223266 -0.0399054 0.618 
-0.198306 -0.0398408 0.617 
-0.174552 -0.0400345 0.62 
-0.150559 -0.0402283 0.623 
-0.126731 -0.0405511 0.628 
-0.101693 -0.0405511 0.628 
-0.0770226 -0.0407448 0.631 
-0.0520304 -0.040874 0.633 
-0.026921 -0.0410677 0.636 
-0.00156495 -0.0410677 0.636 
0.0239407 -0.041326 0.64 
0.049688 -0.0415197 0.643 
0.0753231 -0.0415197 0.643 
0.101115 -0.0415843 0.644 
0.127578 -0.0418426 0.648 
0.153412 -0.0418426 0.648 
0.1798 -0.0419717 0.65 
0.20698 -0.04223 0.654 
0.233053 -0.04223 0.654 
0.259523 -0.0422946 0.655 
0.286945 -0.0424883 0.658 
0.313654 -0.0425529 0.659 
0.335285 -0.0419717 0.65 
0.348418 -0.0404866 0.627 
0.351975 -0.038162 0.591 
0.353932 -0.0359665 0.557 
0.356176 -0.0337065 0.522 
0.363988 -0.0325442 0.504 
0.365029 -0.0309299 0.479 
0.384928 -0.0309945 0.48 
0.405748 -0.0311236 0.482 
0.425846 -0.0311882 0.483 
0.446946 -0.0313173 0.485 
0.468204 -0.0314465 0.487 
-0.485079 -0.0370871 0.596 
-0.463639 -0.0372738 0.599 
-0.440493 -0.037336 0.6 
-0.431152 -0.0386428 0.621 
-0.404614 -0.0388917 0.625 
-0.374229 -0.0383316 0.616 
-0.343994 -0.0377094 0.606 
-0.320362 -0.0377716 0.607 
-0.297138 -0.037896 0.609 
-0.273754 -0.0380205 0.611 
-0.251436 -0.0383316 0.616 
-0.227614 -0.0384561 0.618 
-0.202647 -0.0383939 0.617 
-0.178626 -0.0385183 0.619 
-0.154942 -0.0387672 0.623 
-0.131149 -0.0390784 0.628 
-0.106112 -0.0390784 0.628 
-0.0815911 -0.0393273 0.632 
-0.0566623 -0.0395139 0.635 
-0.0313462 -0.0395139 0.635 
-0.00603954 -0.0395762 0.636 
0.019438 -0.0398251 0.64 
0.0450939 -0.0399495 0.642 
0.0706891 -0.0399495 0.642 
0.0965843 -0.040074 0.644 
0.122829 -0.0402607 0.647 
0.148853 -0.0403229 0.648 
0.175227 -0.0404473 0.65 
0.202069 -0.040634 0.653 
0.228452 -0.0406963 0.654 
0.254526 -0.0406963 0.654 
0.281887 -0.0408829 0.657 
0.309487 -0.0410696 0.66 
0.332238 -0.040634 0.653 
0.347847 -0.0394517 0.634 
0.351937 -0.0372116 0.598 
0.352581 -0.0347847 0.559 
0.354529 -0.032669 0.525 
0.364017 -0.0316734 0.509 
0.364679 -0.0300555 0.483 
0.380756 -0.0298066 0.479 
0.402357 -0.0299933 0.482 
0.422448 -0.0300555 0.483 
0.442619 -0.0301177 0.484 
0.463824 -0.0302422 0.486 
0.485188 -0.0303666 0.488 
-0.467073 -0.0358091 0.598 
-0.444714 -0.0359289 0.6 
-0.433417 -0.0370068 0.618 
-0.412448 -0.0376056 0.628 
-0.380625 -0.0369469 0.617 
-0.349102 -0.0362283 0.605 
-0.326056 -0.0363481 0.607 
-0.302851 -0.0364678 0.609 
-0.279029 -0.0365277 0.61 
-0.256797 -0.0368271 0.615 
-0.232656 -0.036887 0.616 
-0.208773 -0.0370068 0.618 
-0.184135 -0.0370068 0.618 
-0.160012 -0.0371265 0.62 
-0.136822 -0.0375457 0.627 
-0.111825 -0.0375457 0.627 
-0.0873813 -0.0377852 0.631 
-0.0625204 -0.0379649 0.634 
-0.0372442 -0.0379649 0.634 
-0.0120057 -0.0380846 0.636 
0.0133923 -0.0382044 0.638 
0.0389498 -0.0383242 0.64 
0.0646667 -0.0384439 0.642 
0.0905431 -0.0385637 0.644 
0.116579 -0.0386835 0.646 
0.142774 -0.0388032 0.648 
0.169129 -0.038923 0.65 
0.195643 -0.0390427 0.652 
0.221977 -0.0391026 0.653 
0.248011 -0.0391026 0.653 
0.275304 -0.0392823 0.656 
0.303295 -0.0395218 0.66 
0.32761 -0.0392823 0.656 
0.346753 -0.0385038 0.643 
0.352118 -0.036408 0.608 
0.351598 -0.0340127 0.568 
0.353159 -0.0320965 0.536 
0.360553 -0.0308989 0.516 
0.364137 -0.0295216 0.493 
0.374016 -0.0286832 0.479 
0.393934 -0.0287431 0.48 
0.414791 -0.0288629 0.482 
0.435808 -0.0289827 0.484 
0.456985 -0.0291024 0.486 
0.477341 -0.0291623 0.487 
-0.475487 -0.0344067 0.598 
-0.452401 -0.0344643 0.599 
-0.437105 -0.0351547 0.611 
-0.426651 -0.0365931 0.636 
-0.389937 -0.0355575 0.618 
-0.358797 -0.0349246 0.607 
-0.334597 -0.0349246 0.607 
-0.310909 -0.0349821 0.608 
-0.28714 -0.0350396 0.609 
-0.265019 -0.0353273 0.614 
-0.240932 -0.0353848 0.615 
-0.217469 -0.0355575 0.618 
-0.192206 -0.0354424 0.616 
-0.168464 -0.035615 0.619 
-0.144947 -0.0359027 0.624 
-0.120647 -0.0360753 0.627 
-0.095955 -0.0361904 0.629 
-0.0711034 -0.0363054 0.631 
-0.046238 -0.0365356 0.635 
-0.0209219 -0.0365356 0.635 
0.00440117 -0.0365931 0.636 
0.0298975 -0.0367657 0.639 
0.0557198 -0.0369959 0.643 
0.0814814 -0.0370534 0.644 
0.106657 -0.0368808 0.641 
0.133656 -0.0372835 0.648 
0.159737 -0.0373411 0.649 
0.186183 -0.0374562 0.651 
0.212463 -0.0375137 0.652 
0.239188 -0.0376288 0.654 
0.266073 -0.0377438 0.656 
0.293117 -0.0378589 0.658 
0.319351 -0.0378589 0.658 
0.341907 -0.0374562 0.651 
0.349779 -0.035615 0.619 
0.352074 -0.0334861 0.582 
0.353999 -0.0315874 0.549 
0.356031 -0.0299189 0.52 
0.362429 -0.0285956 0.497 
0.368399 -0.0275599 0.479 
0.388305 -0.0276174 0.48 
0.408291 -0.027675 0.481 
0.429244 -0.02779 0.483 
0.450358 -0.0279051 0.485 
0.470662 -0.0279627 0.486 
-0.480885 -0.0328939 0.596 
-0.458658 -0.0330043 0.598 
-0.438453 -0.0332803 0.603 
-0.431594 -0.0346601 0.628 
-0.397656 -0.0342737 0.621 
-0.365692 -0.0336114 0.609 
-0.339731 -0.0334458 0.606 
-0.316091 -0.033501 0.607 
-0.292853 -0.0336114 0.609 
-0.269456 -0.0337218 0.611 
-0.246701 -0.0339426 0.615 
-0.223266 -0.0341081 0.618 
-0.197985 -0.0339978 0.616 
-0.173989 -0.0341081 0.618 
-0.150801 -0.0344393 0.624 
-0.126731 -0.0346601 0.628 
-0.101693 -0.0346601 0.628 
-0.0770226 -0.0348256 0.631 
-0.0521948 -0.0350464 0.635 
-0.0268363 -0.0349912 0.634 
-0.00156249 -0.0350464 0.635 
0.0238659 -0.035212 0.638 
0.049688 -0.0354879 0.643 
0.0753231 -0.0354879 0.643 
0.100644 -0.0353775 0.641 
0.127381 -0.0357087 0.647 
0.153412 -0.0357639 0.648 
0.180076 -0.0359294 0.651 
0.206347 -0.0359846 0.652 
0.23341 -0.0361502 0.655 
0.259127 -0.036095 0.654 
0.286945 -0.0363158 0.658 
0.313654 -0.036371 0.659 
0.336316 -0.0359846 0.652 
0.347862 -0.0345497 0.626 
0.351379 -0.0325628 0.59 
0.353932 -0.0307415 0.557 
0.353179 -0.028865 0.523 
0.366163 -0.0282579 0.512 
0.365029 -0.0264366 0.479 
0.384126 -0.0264366 0.479 
0.404906 -0.026547 0.481 
0.425846 -0.0266573 0.483 
0.446946 -0.0267677 0.485 
0.467243 -0.0268229 0.486 
-0.487874 -0.0314962 0.596 
-0.46567 -0.0316019 0.598 
-0.442568 -0.0316547 0.599 
-0.432667 -0.0327117 0.619 
-0.413104 -0.0332401 0.629 
-0.380008 -0.0325531 0.616 
-0.348525 -0.031919 0.604 
-0.326056 -0.0320775 0.607 
-0.302851 -0.0321832 0.609 
-0.278571 -0.0321832 0.609 
-0.256797 -0.0325003 0.615 
-0.232278 -0.0325003 0.615 
-0.208435 -0.032606 0.617 
-0.184135 -0.0326588 0.618 
-0.159754 -0.0327117 0.619 
-0.136822 -0.0331344 0.627 
-0.111825 -0.0331344 0.627 
-0.0873813 -0.0333458 0.631 
-0.0624218 -0.0334515 0.633 
-0.0373029 -0.0335572 0.635 
-0.0119868 -0.0335572 0.635 
0.0133713 -0.0336629 0.637 
0.0389498 -0.0338214 0.64 
0.0647674 -0.03398 0.643 
0.0905431 -0.0340328 0.644 
0.116399 -0.0340857 0.645 
0.142774 -0.0342442 0.648 
0.168869 -0.034297 0.649 
0.195643 -0.0344556 0.652 
0.221977 -0.0345084 0.653 
0.248011 -0.0345084 0.653 
0.275723 -0.0347198 0.657 
0.302836 -0.0348255 0.659 
0.32761 -0.034667 0.656 
0.345675 -0.0338743 0.641 
0.351539 -0.0320775 0.607 
0.354074 -0.0302279 0.572 
0.353159 -0.0283254 0.536 
0.360553 -0.0272685 0.516 
0.364273 -0.025736 0.487 
0.377386 -0.0253132 0.479 
0.398138 -0.0254189 0.481 
0.418182 -0.0254718 0.482 
0.439214 -0.0255775 0.484 
0.459457 -0.0256303 0.485 
0.480767 -0.025736 0.487 
-0.474085 -0.0301995 0.598 
-0.450996 -0.03025 0.599 
-0.437098 -0.030957 0.613 
-0.427992 -0.0322195 0.638 
-0.389937 -0.0312095 0.618 
-0.358206 -0.0306035 0.606 
-0.334046 -0.0306035 0.606 
-0.310909 -0.0307045 0.608 
-0.28714 -0.030755 0.609 
-0.264587 -0.030957 0.613 
-0.240148 -0.030957 0.613 
-0.217117 -0.031159 0.617 
-0.192206 -0.0311085 0.616 
-0.168192 -0.0312095 0.618 
-0.144947 -0.0315125 0.624 
-0.120647 -0.031664 0.627 
-0.095955 -0.031765 0.629 
-0.0709907 -0.0318155 0.63 
-0.046238 -0.032068 0.635 
-0.020856 -0.031967 0.633 
0.00440117 -0.0321185 0.636 
0.0298507 -0.0322195 0.638 
0.0557198 -0.032472 0.643 
0.0814814 -0.0325225 0.644 
0.106824 -0.0324215 0.642 
0.13345 -0.032674 0.647 
0.159491 -0.0327245 0.648 
0.186469 -0.0329265 0.652 
0.212137 -0.032876 0.651 
0.239188 -0.0330275 0.654 
0.266073 -0.0331285 0.656 
0.293117 -0.0332295 0.658 
0.319351 -0.0332295 0.658 
0.341382 -0.0328255 0.65 
0.350663 -0.0312095 0.618 
0.352832 -0.029341 0.581 
0.353992 -0.0276239 0.547 
0.356923 -0.0260584 0.516 
0.363398 -0.0248464 0.492 
0.372893 -0.0241899 0.479 
0.392808 -0.0242404 0.48 
0.412803 -0.0242909 0.481 
0.434673 -0.0244424 0.484 
0.454907 -0.0244929 0.485 
0.475221 -0.0245434 0.486 
-0.47809 -0.0287008 0.596 
-0.455853 -0.0287971 0.598 
-0.438514 -0.0292305 0.607 
-0.434791 -0.0306751 0.637 
-0.398296 -0.0299528 0.622 
-0.365692 -0.0293268 0.609 
-0.33917 -0.0291342 0.605 
-0.316091 -0.0292305 0.607 
-0.292853 -0.0293268 0.609 
-0.269456 -0.0294231 0.611 
-0.245899 -0.0295194 0.613 
-0.222544 -0.0296639 0.616 
-0.197663 -0.0296157 0.615 
-0.173989 -0.0297602 0.618 
-0.150801 -0.0300491 0.624 
-0.126529 -0.0301936 0.627 
-0.101532 -0.0301936 0.627 
-0.0770226 -0.0303862 0.631 
-0.0521948 -0.0305788 0.635 
-0.026794 -0.0304825 0.633 
-0.00156249 -0.0305788 0.635 
0.0238659 -0.0307233 0.638 
0.0496107 -0.0309159 0.642 
0.0753231 -0.0309641 0.643 
0.100958 -0.0309641 0.643 
0.127184 -0.0311085 0.646 
0.153412 -0.0312049 0.648 
0.180353 -0.0313975 0.652 
0.20603 -0.0313493 0.651 
0.233053 -0.0314938 0.654 
0.259127 -0.0314938 0.654 
0.286945 -0.0316864 0.658 
0.313654 -0.0317346 0.659 
0.3358 -0.0313493 0.651 
0.347656 -0.030001 0.623 
0.351567 -0.0283155 0.588 
0.353344 -0.0265819 0.552 
0.354272 -0.0250891 0.521 
0.367125 -0.0245594 0.51 
0.368399 -0.0230666 0.479 
0.387496 -0.0230666 0.479 
0.408291 -0.0231629 0.481 
0.429244 -0.0232592 0.483 
0.450358 -0.0233555 0.485 
0.469694 -0.0233555 0.485 
-0.482869 -0.0272572 0.595 
-0.461463 -0.0273947 0.598 
-0.439817 -0.0275321 0.601 
-0.433847 -0.0287232 0.627 
-0.403794 -0.0286774 0.626 
-0.369759 -0.0279902 0.611 
-0.341442 -0.0276695 0.604 
-0.318938 -0.027807 0.607 
-0.295224 -0.0278528 0.608 
-0.271876 -0.0279444 0.61 
-0.248774 -0.0280818 0.613 
-0.225067 -0.0281734 0.615 
-0.200548 -0.0281734 0.615 
-0.176888 -0.0283109 0.618 
-0.153481 -0.0285399 0.623 
-0.12947 -0.0287232 0.627 
-0.104472 -0.0287232 0.627 
-0.080109 -0.0289522 0.632 
-0.0550862 -0.0290438 0.634 
-0.0297159 -0.0289522 0.632 
-0.00454086 -0.0290897 0.635 
0.0208407 -0.0291813 0.637 
0.0465995 -0.0294103 0.642 
0.0724196 -0.0295019 0.644 
0.0979422 -0.0294561 0.643 
0.124154 -0.0295936 0.646 
0.150373 -0.0296852 0.648 
0.177023 -0.0298226 0.651 
0.202977 -0.0298226 0.651 
0.229634 -0.0299142 0.653 
0.256059 -0.0299601 0.654 
0.283427 -0.0300975 0.657 
0.310563 -0.0301891 0.659 
0.332747 -0.0298226 0.651 
0.346028 -0.028769 0.628 
0.350385 -0.0271656 0.593 
0.354601 -0.0254706 0.556 
0.353728 -0.0239131 0.522 
0.368081 -0.0235008 0.513 
0.365029 -0.0219432 0.479 
0.384126 -0.0219432 0.479 
0.404065 -0.021989 0.48 
0.425846 -0.0221265 0.483 
0.446024 -0.0221723 0.484 
0.466281 -0.0222181 0.485 
-0.488451 -0.0258619 0.595 
-0.467073 -0.0259923 0.598 
-0.443973 -0.0260357 0.599 
-0.433417 -0.0268616 0.618 
-0.419362 -0.027557 0.634 
-0.379391 -0.0267312 0.615 
-0.347948 -0.0262096 0.603 
-0.325519 -0.02634 0.606 
-0.302354 -0.0264269 0.608 
-0.278571 -0.0264704 0.609 
-0.255962 -0.0266442 0.613 
-0.231523 -0.0266442 0.613 
-0.208097 -0.0267746 0.616 
-0.183837 -0.0268181 0.617 
-0.159496 -0.0268616 0.618 
-0.136604 -0.0272093 0.626 
-0.111825 -0.0272527 0.627 
-0.0873813 -0.0274266 0.631 
-0.062126 -0.0273831 0.63 
-0.0372442 -0.027557 0.634 
-0.0119679 -0.027557 0.634 
0.0133713 -0.0276874 0.637 
0.0388889 -0.0277743 0.639 
0.0648682 -0.0279917 0.644 
0.0905431 -0.0279917 0.644 
0.116399 -0.0280351 0.645 
0.142554 -0.0281221 0.647 
0.168869 -0.028209 0.649 
0.195943 -0.0283828 0.653 
0.221297 -0.0282959 0.651 
0.248011 -0.0283828 0.653 
0.275723 -0.0285567 0.657 
0.302376 -0.0286002 0.658 
0.32761 -0.0285132 0.656 
0.344057 -0.0277309 0.638 
0.35096 -0.02634 0.606 
0.355312 -0.0249491 0.574 
0.355009 -0.0232539 0.535 
0.362973 -0.0224281 0.516 
0.363525 -0.0211241 0.486 
0.379633 -0.0208199 0.479 
0.399562 -0.0208633 0.48 
0.420443 -0.0209503 0.482 
0.441484 -0.0210372 0.484 
0.461732 -0.0210807 0.485 
0.48206 -0.0211241 0.486 
-0.47128 -0.0245898 0.598 
-0.448935 -0.0246721 0.6 
-0.434931 -0.0252478 0.614 
-0.424491 -0.0261113 0.635 
-0.386413 -0.0253711 0.617 
-0.354191 -0.0248366 0.604 
-0.330657 -0.0248777 0.605 
-0.308057 -0.025001 0.608 
-0.284284 -0.0250422 0.609 
-0.260858 -0.0251244 0.611 
-0.236499 -0.0251244 0.611 
-0.213876 -0.02533 0.616 
-0.189317 -0.02533 0.616 
-0.165293 -0.0254122 0.618 
-0.142021 -0.025659 0.624 
-0.117331 -0.0257001 0.625 
-0.0930047 -0.0258646 0.629 
-0.0679278 -0.0258646 0.629 
-0.0431234 -0.026029 0.633 
-0.0178305 -0.0259468 0.631 
0.00738423 -0.0261524 0.636 
0.0328432 -0.0262346 0.638 
0.058827 -0.0264814 0.644 
0.0845019 -0.0264814 0.644 
0.110177 -0.0264814 0.644 
0.136485 -0.0266047 0.647 
0.162781 -0.026687 0.649 
0.189818 -0.0268514 0.653 
0.21486 -0.0267281 0.65 
0.241885 -0.0268514 0.653 
0.26915 -0.0269748 0.656 
0.296204 -0.027057 0.658 
0.322437 -0.027057 0.658 
0.342841 -0.0266047 0.647 
0.349833 -0.0252478 0.614 
0.352975 -0.0238086 0.579 
0.353326 -0.0223694 0.544 
0.358133 -0.021218 0.516 
0.364219 -0.0201489 0.49 
0.377386 -0.0196965 0.479 
0.397311 -0.0197377 0.48 
0.417315 -0.0197788 0.481 
0.439214 -0.0199021 0.484 
0.459457 -0.0199433 0.485 
0.478793 -0.0199433 0.485 
-0.473292 -0.0231487 0.597 
-0.451749 -0.023265 0.6 
-0.435672 -0.0236915 0.611 
-0.425309 -0.0245833 0.634 
-0.389306 -0.0239242 0.617 
-0.357615 -0.0234589 0.605 
-0.333495 -0.0234589 0.605 
-0.310397 -0.0235364 0.607 
-0.286669 -0.0235752 0.608 
-0.263724 -0.0236915 0.611 
-0.239365 -0.0236915 0.611 
-0.216765 -0.0238854 0.616 
-0.191894 -0.0238466 0.615 
-0.168192 -0.0239629 0.618 
-0.144947 -0.0241956 0.624 
-0.12007 -0.0241956 0.624 
-0.0958024 -0.0243507 0.628 
-0.070878 -0.0243894 0.629 
-0.0460924 -0.0245446 0.633 
-0.0207571 -0.0244282 0.63 
0.00439425 -0.0246221 0.635 
0.0298507 -0.0247384 0.638 
0.0557198 -0.0249323 0.643 
0.0813548 -0.0249323 0.643 
0.107156 -0.0249711 0.644 
0.13345 -0.0250874 0.647 
0.159491 -0.0251262 0.648 
0.186755 -0.0253201 0.653 
0.212137 -0.0252425 0.651 
0.239554 -0.0253976 0.655 
0.265668 -0.0253976 0.655 
0.292672 -0.0254751 0.657 
0.319836 -0.0255527 0.659 
0.339806 -0.0250874 0.647 
0.349214 -0.0239629 0.618 
0.352074 -0.022567 0.582 
0.353999 -0.0212875 0.549 
0.355189 -0.0200467 0.517 
0.36298 -0.0191161 0.493 
0.372114 -0.0185344 0.478 
0.392808 -0.018612 0.48 
0.412803 -0.0186508 0.481 
0.434673 -0.0187671 0.484 
0.453969 -0.0187671 0.484 
0.474243 -0.0188059 0.485 
-0.478892 -0.0217486 0.597 
-0.456616 -0.0218214 0.599 
-0.438514 -0.0221129 0.607 
-0.435474 -0.0232422 0.638 
-0.3922 -0.0224772 0.617 
-0.361644 -0.0221129 0.607 
-0.336332 -0.02204 0.605 
-0.313244 -0.0221129 0.607 
-0.289521 -0.0221493 0.608 
-0.266154 -0.0222222 0.61 
-0.242231 -0.0222586 0.611 
-0.219654 -0.0224408 0.616 
-0.194462 -0.0223679 0.614 
-0.171091 -0.0225136 0.618 
-0.147874 -0.0227322 0.624 
-0.122799 -0.0226958 0.623 
-0.098748 -0.0228779 0.628 
-0.0738283 -0.0229143 0.629 
-0.0489064 -0.0229872 0.631 
-0.0237121 -0.0229508 0.63 
0.00141588 -0.0231329 0.635 
0.0268583 -0.0232422 0.638 
0.0526219 -0.0233879 0.642 
0.0783389 -0.0234244 0.643 
0.104136 -0.0234608 0.644 
0.130415 -0.0235701 0.647 
0.156451 -0.0236065 0.648 
0.183411 -0.0237522 0.652 
0.209084 -0.0237158 0.651 
0.236482 -0.0238615 0.655 
0.262194 -0.0238251 0.654 
0.28915 -0.0238979 0.656 
0.316745 -0.0240072 0.659 
0.337292 -0.0236065 0.648 
0.347996 -0.0226229 0.621 
0.351145 -0.0213114 0.585 
0.353326 -0.0198178 0.544 
0.356923 -0.0187978 0.516 
0.363811 -0.017887 0.491 
0.374356 -0.0174134 0.478 
0.395059 -0.0174863 0.48 
0.415922 -0.0175592 0.482 
0.436944 -0.017632 0.484 
0.45624 -0.017632 0.484 
0.476518 -0.0176684 0.485 
-0.476092 -0.0203485 0.597 
-0.454564 -0.0204508 0.6 
-0.437103 -0.0207575 0.609 
-0.419143 -0.0213711 0.627 
-0.381846 -0.0208598 0.612 
-0.35219 -0.020553 0.603 
-0.329238 -0.0206212 0.605 
-0.306127 -0.0206894 0.607 
-0.282391 -0.0207234 0.608 
-0.259001 -0.0207916 0.61 
-0.235451 -0.0208598 0.612 
-0.212431 -0.0209961 0.616 
-0.187872 -0.0209961 0.616 
-0.163844 -0.0210643 0.618 
-0.140557 -0.0212688 0.624 
-0.11605 -0.021337 0.626 
-0.0915296 -0.0214392 0.629 
-0.0663471 -0.0214051 0.628 
-0.0415731 -0.0215415 0.632 
-0.0164025 -0.0215756 0.633 
0.00888971 -0.0217119 0.637 
0.0343394 -0.021746 0.638 
0.0601499 -0.0218823 0.642 
0.0860122 -0.0219505 0.644 
0.111861 -0.0219846 0.645 
0.138002 -0.0220527 0.647 
0.164303 -0.0221209 0.649 
0.191056 -0.0222232 0.652 
0.216717 -0.0221891 0.651 
0.244162 -0.0223254 0.655 
0.269863 -0.0222913 0.654 
0.297294 -0.0223936 0.657 
0.323488 -0.0223936 0.657 
0.342762 -0.0219505 0.644 
0.348985 -0.0207916 0.61 
0.352497 -0.0196327 0.576 
0.355077 -0.0183034 0.537 
0.361763 -0.0175877 0.516 
0.364219 -0.0167015 0.49 
0.374356 -0.0162924 0.478 
0.395059 -0.0163606 0.48 
0.415922 -0.0164288 0.482 
0.436944 -0.016497 0.484 
0.45624 -0.016497 0.484 
0.476518 -0.016531 0.485 
-0.476092 -0.0189484 0.597 
-0.454564 -0.0190437 0.6 
-0.437103 -0.0193293 0.609 
-0.419942 -0.0198689 0.626 
-0.384716 -0.0194245 0.612 
-0.355607 -0.0191706 0.604 
-0.332076 -0.0192024 0.605 
-0.308465 -0.0192341 0.606 
-0.285243 -0.0192976 0.608 
-0.261862 -0.0193611 0.61 
-0.237932 -0.0193928 0.611 
-0.21532 -0.0195515 0.616 
-0.190452 -0.0195198 0.615 
-0.166743 -0.019615 0.618 
-0.143024 -0.0197419 0.622 
-0.118796 -0.0198372 0.625 
-0.0943297 -0.0199324 0.628 
-0.0692926 -0.0199324 0.628 
-0.0445374 -0.0200593 0.632 
-0.0193103 -0.0200276 0.631 
0.0058927 -0.0201863 0.636 
0.031347 -0.0202498 0.638 
0.0570497 -0.020345 0.641 
0.0828628 -0.0204085 0.643 
0.108667 -0.0204402 0.644 
0.134967 -0.0205354 0.647 
0.16101 -0.0205672 0.648 
0.18771 -0.0206624 0.651 
0.213664 -0.0206624 0.651 
0.241458 -0.0208211 0.656 
0.266796 -0.0207576 0.654 
0.293765 -0.0208211 0.656 
0.320894 -0.0208846 0.658 
0.340796 -0.0205037 0.646 
0.349528 -0.0195515 0.616 
0.352832 -0.0184406 0.581 
0.352677 -0.0172345 0.543 
0.356923 -0.0163776 0.516 
0.36298 -0.0156475 0.493 
0.370993 -0.0151715 0.478 
0.391682 -0.0152349 0.48 
0.41253 -0.0152984 0.482 
0.433538 -0.0153619 0.484 
0.452834 -0.0153619 0.484 
0.473106 -0.0153936 0.485 
-0.47809 -0.017519 0.596 
-0.457378 -0.0176366 0.6 
-0.438514 -0.0178423 0.607 
-0.428414 -0.0185772 0.632 
-0.391733 -0.0180481 0.614 
-0.363068 -0.0178423 0.607 
-0.337751 -0.0177835 0.605 
-0.314149 -0.0178129 0.606 
-0.290468 -0.0178423 0.607 
-0.267146 -0.0179011 0.609 
-0.243664 -0.0179599 0.611 
-0.22074 -0.0180775 0.615 
-0.195902 -0.0180481 0.614 
-0.17254 -0.0181657 0.618 
-0.14838 -0.0182244 0.62 
-0.12446 -0.018342 0.624 
-0.100221 -0.0184596 0.628 
-0.0753034 -0.018489 0.629 
-0.0503862 -0.0185478 0.631 
-0.0251895 -0.0185184 0.63 
-7.34203e-05 -0.0186948 0.636 
0.0253621 -0.0187535 0.638 
0.0509571 -0.0188123 0.64 
0.076831 -0.0189005 0.643 
0.102466 -0.0189005 0.643 
0.128898 -0.0190181 0.647 
0.154932 -0.0190475 0.648 
0.181324 -0.0191063 0.65 
0.207238 -0.0191063 0.65 
0.235304 -0.0192826 0.656 
0.260661 -0.0192239 0.654 
0.287173 -0.0192532 0.655 
0.314721 -0.0193414 0.658 
0.335254 -0.0190181 0.647 
0.348214 -0.018342 0.624 
0.351567 -0.0172838 0.588 
0.352711 -0.0161375 0.549 
0.355494 -0.0153144 0.521 
0.362996 -0.0147265 0.501 
0.366509 -0.0140505 0.478 
0.386373 -0.0140799 0.479 
0.407163 -0.0141386 0.481 
0.428112 -0.0141974 0.483 
0.447368 -0.0141974 0.483 
0.46759 -0.0142268 0.484 
-0.484265 -0.0160942 0.595 
-0.462865 -0.0161754 0.598 
-0.440493 -0.0162295 0.6 
-0.435825 -0.017095 0.632 
-0.398788 -0.0166622 0.616 
-0.369369 -0.0164459 0.608 
-0.342859 -0.0163377 0.604 
-0.319834 -0.0163918 0.606 
-0.295674 -0.0163918 0.606 
-0.272858 -0.0164729 0.609 
-0.249395 -0.016527 0.611 
-0.225772 -0.0165811 0.613 
-0.20199 -0.0166352 0.615 
-0.178049 -0.0166893 0.617 
-0.153948 -0.0167434 0.619 
-0.130522 -0.0169057 0.625 
-0.106112 -0.0169868 0.628 
-0.0810747 -0.0169868 0.628 
-0.0562162 -0.0170409 0.63 
-0.0310994 -0.0170409 0.63 
-0.00603954 -0.0172032 0.636 
0.0193772 -0.0172573 0.638 
0.0449534 -0.0173114 0.64 
0.0706891 -0.0173655 0.642 
0.0964343 -0.0173926 0.643 
0.122449 -0.0174467 0.645 
0.148853 -0.0175278 0.648 
0.174957 -0.0175549 0.649 
0.200831 -0.0175549 0.649 
0.228452 -0.0176901 0.654 
0.254526 -0.0176901 0.654 
0.281028 -0.0177172 0.655 
0.308549 -0.0177983 0.658 
0.329694 -0.0175278 0.648 
0.347299 -0.0171221 0.633 
0.350171 -0.0160942 0.595 
0.353156 -0.0152016 0.562 
0.355514 -0.0143901 0.532 
0.363977 -0.0139032 0.514 
0.362794 -0.0130377 0.482 
0.37884 -0.0129295 0.478 
0.400394 -0.0130106 0.481 
0.420443 -0.0130377 0.482 
0.441484 -0.0130918 0.484 
0.46078 -0.0130918 0.484 
0.481068 -0.0131188 0.485 
-0.470492 -0.0147482 0.597 
-0.448935 -0.0148224 0.6 
-0.437057 -0.0152423 0.617 
-0.411677 -0.015267 0.618 
-0.381402 -0.0150447 0.609 
-0.354191 -0.0149212 0.604 
-0.330657 -0.0149459 0.605 
-0.306537 -0.0149459 0.605 
-0.283817 -0.01502 0.608 
-0.260858 -0.0150941 0.611 
-0.236499 -0.0150941 0.611 
-0.213876 -0.0152176 0.616 
-0.18901 -0.0151929 0.615 
-0.165293 -0.015267 0.618 
-0.140332 -0.0153905 0.623 
-0.116236 -0.0154894 0.627 
-0.0912386 -0.0154894 0.627 
-0.0663471 -0.0155141 0.628 
-0.0415731 -0.0156129 0.632 
-0.0164284 -0.0156623 0.634 
0.00888971 -0.0157364 0.637 
0.0343394 -0.0157611 0.638 
0.0598688 -0.0157858 0.639 
0.0857451 -0.0158599 0.642 
0.111514 -0.0158846 0.643 
0.138215 -0.0160081 0.648 
0.16405 -0.0160081 0.648 
0.190177 -0.0160328 0.649 
0.216717 -0.0160823 0.651 
0.244535 -0.0162058 0.656 
0.269863 -0.0161564 0.654 
0.296842 -0.0162058 0.656 
0.322995 -0.0162058 0.656 
0.342762 -0.0159093 0.644 
0.348985 -0.0150694 0.61 
0.351885 -0.0142048 0.575 
0.352647 -0.0133648 0.541 
0.357614 -0.0127719 0.517 
0.362131 -0.0122284 0.495 
0.370993 -0.0118085 0.478 
0.391682 -0.0118579 0.48 
0.411675 -0.0118826 0.481 
0.432643 -0.011932 0.483 
0.452834 -0.0119567 0.484 
0.473106 -0.0119814 0.485 
-0.479488 -0.0133258 0.596 
-0.45802 -0.0133929 0.599 
-0.438488 -0.013527 0.605 
-0.433545 -0.0141531 0.633 
-0.393971 -0.0137059 0.613 
-0.365915 -0.0135718 0.607 
-0.340589 -0.013527 0.605 
-0.316992 -0.0135494 0.606 
-0.293315 -0.0135718 0.607 
-0.270002 -0.0136165 0.609 
-0.246529 -0.0136612 0.611 
-0.223261 -0.0137283 0.614 
-0.199106 -0.0137506 0.615 
-0.175439 -0.0138177 0.618 
-0.151044 -0.0138401 0.619 
-0.124659 -0.0139742 0.625 
-0.100221 -0.0140413 0.628 
-0.0751837 -0.0140413 0.628 
-0.0503862 -0.0141084 0.631 
-0.0252295 -0.0141084 0.631 
-7.35358e-05 -0.0142425 0.637 
0.0253223 -0.0142425 0.637 
0.0508774 -0.0142872 0.639 
0.0767115 -0.0143543 0.642 
0.102307 -0.0143543 0.642 
0.128898 -0.0144661 0.647 
0.154932 -0.0144885 0.648 
0.181045 -0.0145108 0.649 
0.207238 -0.0145332 0.65 
0.235663 -0.0146897 0.657 
0.260661 -0.0146226 0.654 
0.287173 -0.014645 0.655 
0.314721 -0.0147121 0.658 
0.335254 -0.0144661 0.647 
0.348772 -0.0139742 0.625 
0.350371 -0.0131022 0.586 
0.351412 -0.0123197 0.551 
0.354952 -0.0116713 0.522 
0.364245 -0.0113135 0.506 
0.365029 -0.0107098 0.479 
0.384126 -0.0107098 0.479 
0.404906 -0.0107546 0.481 
0.424965 -0.0107769 0.482 
0.445102 -0.0107993 0.483 
0.466281 -0.010844 0.485 
-0.486237 -0.0118881 0.594 
-0.46567 -0.0119681 0.598 
-0.442568 -0.0119881 0.599 
-0.434764 -0.0124484 0.622 
-0.403776 -0.0123484 0.617 
-0.373647 -0.0121683 0.608 
-0.346534 -0.0120682 0.603 
-0.323563 -0.0121082 0.605 
-0.300433 -0.0121482 0.607 
-0.276688 -0.0121683 0.608 
-0.254109 -0.0122483 0.612 
-0.229335 -0.0122283 0.611 
-0.206653 -0.0123284 0.616 
-0.182094 -0.0123284 0.616 
-0.158047 -0.0123684 0.618 
-0.135135 -0.0125285 0.626 
-0.110354 -0.0125485 0.627 
-0.0853569 -0.0125485 0.627 
-0.0605523 -0.0125885 0.629 
-0.0356445 -0.0126486 0.632 
-0.0104976 -0.0127086 0.635 
0.0148652 -0.0127487 0.637 
0.0403243 -0.0127687 0.638 
0.0659662 -0.0128087 0.64 
0.0917675 -0.0128487 0.642 
0.117546 -0.0128687 0.643 
0.144294 -0.0129688 0.648 
0.171648 -0.0129688 0.648 
0.197482 -0.0129688 0.648 
0.22504 -0.0130689 0.653 
0.251843 -0.0131089 0.655 
0.277956 -0.0131089 0.655 
0.304998 -0.0131489 0.657 
0.327159 -0.0129888 0.649 
0.346505 -0.0127487 0.637 
0.350299 -0.0120082 0.6 
0.353014 -0.0113277 0.566 
0.354345 -0.0106873 0.534 
