# .PCD v.7 - Point Cloud Data file format
VERSION .7
FIELDS x y z
SIZE 4 4 4
TYPE F F F
COUNT 1 1 1
WIDTH 1834
HEIGHT 1
VIEWPOINT 0 0 0 1 0 0 0
POINTS 1834
DATA ascii
0.116908 -0.271689 1.109 
0.143251 -0.241556 0.986 
0.245643 -0.302068 1.233 
0.296952 -0.304273 1.242 
0.346747 -0.304518 1.243 
0.396941 -0.305008 1.245 
0.446576 -0.305008 1.245 
0.497408 -0.305742 1.248 
0.54804 -0.306232 1.25 
0.600744 -0.307702 1.256 
0.650818 -0.307702 1.256 
0.704799 -0.309417 1.263 
0.758142 -0.310642 1.268 
0.810607 -0.311377 1.271 
0.859247 -0.310642 1.268 
0.916257 -0.312847 1.277 
0.967168 -0.312847 1.277 
1.02127 -0.313827 1.281 
1.07401 -0.314317 1.283 
1.12692 -0.314807 1.285 
1.17998 -0.315297 1.287 
1.23321 -0.315787 1.289 
-0.640122 -0.183436 0.756 
-0.630153 -0.189502 0.781 
-0.624327 -0.19751 0.814 
-0.616597 -0.205759 0.848 
-0.610279 -0.215465 0.888 
-0.599477 -0.224685 0.926 
-0.589897 -0.235604 0.971 
-0.579 -0.247494 1.02 
-0.55839 -0.256714 1.058 
-0.556219 -0.276611 1.14 
-0.524211 -0.28389 1.17 
-0.478382 -0.284375 1.172 
-0.432761 -0.285103 1.175 
-0.386902 -0.285831 1.178 
-0.343689 -0.288985 1.191 
-0.296952 -0.289713 1.194 
-0.250394 -0.290926 1.199 
-0.203099 -0.291654 1.202 
-0.155694 -0.292625 1.206 
-0.107792 -0.29311 1.208 
-0.059928 -0.294566 1.214 
-0.0115378 -0.294809 1.215 
0.037084 -0.296264 1.221 
0.0838662 -0.289713 1.194 
0.135296 -0.245795 1.013 
0.2362 -0.298206 1.229 
0.288446 -0.301602 1.243 
0.33773 -0.30136 1.242 
0.388182 -0.302088 1.245 
0.438169 -0.30233 1.246 
0.489019 -0.303058 1.249 
0.540108 -0.303786 1.252 
0.593322 -0.305485 1.259 
0.643515 -0.305485 1.259 
0.695362 -0.306213 1.262 
0.750993 -0.308396 1.271 
0.804188 -0.309367 1.275 
0.852337 -0.308396 1.271 
0.909404 -0.31058 1.28 
0.958934 -0.310095 1.278 
1.01305 -0.311065 1.282 
1.06665 -0.311793 1.285 
1.11788 -0.311793 1.285 
1.17275 -0.312764 1.289 
1.22509 -0.313007 1.29 
1.28146 -0.31422 1.295 
-0.627509 -0.185268 0.771 
-0.62154 -0.192957 0.803 
-0.613019 -0.200647 0.835 
-0.608195 -0.210499 0.876 
-0.597484 -0.21939 0.913 
-0.58751 -0.229723 0.956 
-0.577556 -0.241497 1.005 
-0.56316 -0.253031 1.053 
-0.55861 -0.272495 1.134 
-0.52834 -0.280425 1.167 
-0.483879 -0.281626 1.172 
-0.438272 -0.282347 1.175 
-0.392427 -0.283068 1.178 
-0.349568 -0.286432 1.192 
-0.303059 -0.287394 1.196 
-0.256231 -0.288355 1.2 
-0.209084 -0.289316 1.204 
-0.161485 -0.290037 1.207 
-0.113458 -0.290277 1.208 
-0.065568 -0.291479 1.213 
-0.0172508 -0.292199 1.216 
0.0313827 -0.293641 1.222 
0.0786593 -0.288355 1.2 
0.139652 -0.234769 0.977 
0.2362 -0.295323 1.229 
0.288446 -0.298687 1.243 
0.338002 -0.298687 1.243 
0.388493 -0.299408 1.246 
0.438872 -0.299889 1.248 
0.48941 -0.30037 1.25 
0.540971 -0.301331 1.254 
0.593793 -0.302772 1.26 
0.644026 -0.302772 1.26 
0.697566 -0.304214 1.266 
0.750993 -0.305416 1.271 
0.804819 -0.306617 1.276 
0.853008 -0.305656 1.272 
0.910114 -0.307819 1.281 
0.960435 -0.307578 1.28 
1.01384 -0.308299 1.283 
1.06665 -0.30878 1.285 
1.11962 -0.30926 1.287 
1.17275 -0.309741 1.289 
1.22699 -0.310462 1.292 
1.28245 -0.311423 1.296 
-0.626869 -0.182746 0.768 
-0.62187 -0.190598 0.801 
-0.612768 -0.197975 0.832 
-0.607463 -0.207493 0.872 
-0.598312 -0.216773 0.911 
-0.587285 -0.226529 0.952 
-0.576451 -0.237713 0.999 
-0.564018 -0.249848 1.05 
-0.55448 -0.265315 1.115 
-0.530154 -0.275785 1.159 
-0.489793 -0.279116 1.173 
-0.444161 -0.27983 1.176 
-0.39829 -0.280544 1.179 
-0.355159 -0.283637 1.192 
-0.308669 -0.284589 1.196 
-0.26186 -0.285541 1.2 
-0.214732 -0.286492 1.204 
-0.167146 -0.287206 1.207 
-0.119124 -0.287444 1.208 
-0.0711399 -0.288158 1.211 
-0.0230486 -0.290538 1.221 
0.0257141 -0.291489 1.225 
0.073396 -0.286968 1.206 
0.138938 -0.231288 0.972 
0.239082 -0.292441 1.229 
0.291596 -0.29601 1.244 
0.341192 -0.29601 1.244 
0.392044 -0.296962 1.248 
0.441799 -0.296962 1.248 
0.492736 -0.297676 1.251 
0.544779 -0.298866 1.256 
0.598169 -0.300531 1.263 
0.648008 -0.300293 1.262 
0.701642 -0.301721 1.268 
0.756347 -0.303387 1.275 
0.808444 -0.303863 1.277 
0.858683 -0.303625 1.276 
0.913831 -0.305052 1.282 
0.964942 -0.305052 1.282 
1.01843 -0.305766 1.285 
1.07133 -0.306242 1.287 
1.12438 -0.306718 1.289 
1.17759 -0.307194 1.291 
1.23287 -0.308146 1.295 
1.28549 -0.308384 1.296 
-0.625236 -0.180474 0.766 
-0.621094 -0.188484 0.8 
-0.611295 -0.195552 0.83 
-0.607463 -0.205448 0.872 
-0.596998 -0.214165 0.909 
-0.587285 -0.224296 0.952 
-0.575297 -0.234898 0.997 
-0.563481 -0.24715 1.049 
-0.552989 -0.261993 1.112 
-0.528325 -0.272124 1.155 
-0.489793 -0.276365 1.173 
-0.444539 -0.277307 1.177 
-0.398966 -0.27825 1.181 
-0.355755 -0.281313 1.194 
-0.308927 -0.282019 1.197 
-0.262296 -0.283198 1.202 
-0.215088 -0.28414 1.206 
-0.167285 -0.284611 1.208 
-0.119223 -0.284847 1.209 
-0.0712574 -0.285789 1.213 
-0.0231052 -0.288381 1.224 
0.0257771 -0.289323 1.228 
0.0732743 -0.283669 1.204 
0.11412 -0.249506 1.059 
0.235431 -0.288616 1.225 
0.28891 -0.293329 1.245 
0.338546 -0.293329 1.245 
0.389117 -0.294035 1.248 
0.439224 -0.294271 1.249 
0.490976 -0.295449 1.254 
0.543128 -0.296627 1.259 
0.59662 -0.298276 1.266 
0.64556 -0.297569 1.263 
0.700321 -0.299454 1.271 
0.753947 -0.300632 1.276 
0.807342 -0.301575 1.28 
0.857032 -0.301104 1.278 
0.911535 -0.302282 1.283 
0.961935 -0.302046 1.282 
1.01542 -0.302753 1.285 
1.06997 -0.303695 1.289 
1.12136 -0.303695 1.289 
1.17548 -0.304402 1.292 
1.23363 -0.306051 1.299 
1.28641 -0.306287 1.3 
-0.623604 -0.178211 0.764 
-0.619541 -0.186142 0.798 
-0.609085 -0.192906 0.827 
-0.606766 -0.20317 0.871 
-0.596341 -0.2118 0.908 
-0.585434 -0.221364 0.949 
-0.573566 -0.231861 0.994 
-0.562406 -0.244223 1.047 
-0.550999 -0.258452 1.108 
-0.526952 -0.268716 1.152 
-0.489793 -0.273614 1.173 
-0.444917 -0.27478 1.178 
-0.399641 -0.275947 1.183 
-0.356351 -0.278979 1.196 
-0.309443 -0.279679 1.199 
-0.262733 -0.280845 1.204 
-0.215267 -0.281545 1.207 
-0.167423 -0.282011 1.209 
-0.119321 -0.282245 1.21 
-0.0713161 -0.283178 1.214 
-0.0231807 -0.286443 1.228 
0.0257771 -0.286443 1.228 
0.0730917 -0.280145 1.201 
0.114842 -0.24329 1.043 
0.219262 -0.283411 1.215 
0.273871 -0.289942 1.243 
0.323947 -0.290409 1.245 
0.374483 -0.291109 1.248 
0.424918 -0.291575 1.25 
0.475513 -0.292042 1.252 
0.528365 -0.293674 1.259 
0.582235 -0.295541 1.267 
0.632248 -0.295307 1.266 
0.685417 -0.296474 1.271 
0.738985 -0.29764 1.276 
0.792952 -0.298806 1.281 
0.842046 -0.298106 1.278 
0.896491 -0.299273 1.283 
0.949119 -0.299739 1.285 
1.00035 -0.299739 1.285 
1.05649 -0.301139 1.291 
1.10624 -0.300672 1.289 
1.16033 -0.301372 1.292 
1.21934 -0.303238 1.3 
1.2741 -0.303938 1.303 
-0.624991 -0.174803 0.757 
-0.617598 -0.181499 0.786 
-0.61013 -0.188888 0.818 
-0.607171 -0.198587 0.86 
-0.596199 -0.206669 0.895 
-0.583063 -0.214982 0.931 
-0.572921 -0.225604 0.977 
-0.560751 -0.236919 1.026 
-0.546193 -0.248926 1.078 
-0.532157 -0.263243 1.14 
-0.500797 -0.270863 1.173 
-0.45558 -0.271787 1.177 
-0.410739 -0.273172 1.183 
-0.366956 -0.275712 1.194 
-0.320958 -0.277098 1.2 
-0.274027 -0.278022 1.204 
-0.226401 -0.278483 1.206 
-0.178912 -0.279407 1.21 
-0.130672 -0.279407 1.21 
-0.0827043 -0.280331 1.214 
-0.0347285 -0.283794 1.229 
0.0142692 -0.283794 1.229 
0.0623403 -0.279638 1.211 
0.10651 -0.269247 1.166 
0.152484 -0.217753 0.943 
0.264913 -0.286796 1.242 
0.315948 -0.288182 1.248 
0.365996 -0.288413 1.249 
0.41679 -0.289106 1.252 
0.467823 -0.289798 1.255 
0.51992 -0.290953 1.26 
0.573321 -0.292569 1.267 
0.624326 -0.2928 1.268 
0.674879 -0.2928 1.268 
0.73058 -0.294878 1.277 
0.783939 -0.295802 1.281 
0.83501 -0.295802 1.281 
0.888848 -0.296726 1.285 
0.94081 -0.296957 1.286 
0.99208 -0.296957 1.286 
1.04984 -0.298804 1.294 
1.09888 -0.298111 1.291 
1.15302 -0.298804 1.294 
1.21019 -0.300189 1.3 
1.2659 -0.301113 1.304 
-0.626248 -0.171427 0.75 
-0.61702 -0.17737 0.776 
-0.612517 -0.18537 0.811 
-0.61023 -0.19497 0.853 
-0.599866 -0.20297 0.888 
-0.583533 -0.209827 0.918 
-0.574341 -0.220341 0.964 
-0.560925 -0.230627 1.009 
-0.544952 -0.24137 1.056 
-0.539994 -0.259198 1.134 
-0.511364 -0.267884 1.172 
-0.466225 -0.268798 1.176 
-0.422549 -0.270855 1.185 
-0.378156 -0.272912 1.194 
-0.332215 -0.274284 1.2 
-0.285321 -0.275198 1.204 
-0.237715 -0.275655 1.206 
-0.19042 -0.276798 1.211 
-0.142023 -0.276569 1.21 
-0.0941699 -0.277712 1.215 
-0.0462197 -0.280684 1.228 
0.00274257 -0.281141 1.23 
0.0512749 -0.278398 1.218 
0.0988122 -0.267884 1.172 
0.132443 -0.21897 0.958 
0.234662 -0.279084 1.221 
0.289143 -0.284798 1.246 
0.339634 -0.285484 1.249 
0.390052 -0.285941 1.251 
0.440982 -0.286626 1.254 
0.492934 -0.287769 1.259 
0.544853 -0.288684 1.263 
0.598977 -0.290512 1.271 
0.649649 -0.290512 1.271 
0.703627 -0.291884 1.277 
0.756311 -0.292569 1.28 
0.809234 -0.293255 1.283 
0.860385 -0.293255 1.283 
0.913667 -0.293941 1.286 
0.964937 -0.293941 1.286 
1.01858 -0.294626 1.289 
1.07495 -0.295998 1.295 
1.12571 -0.295769 1.294 
1.17912 -0.296226 1.296 
1.24218 -0.298969 1.308 
1.29334 -0.298741 1.307 
-0.61937 -0.172157 0.761 
-0.6138 -0.179396 0.793 
-0.603475 -0.185957 0.822 
-0.603335 -0.196589 0.869 
-0.59094 -0.204281 0.903 
-0.578907 -0.213104 0.942 
-0.564913 -0.222379 0.983 
-0.554068 -0.234369 1.036 
-0.545926 -0.249526 1.103 
-0.521975 -0.25948 1.147 
-0.488288 -0.26604 1.176 
-0.444781 -0.268076 1.185 
-0.399886 -0.26966 1.192 
-0.354433 -0.271243 1.199 
-0.307398 -0.271922 1.202 
-0.260557 -0.273053 1.207 
-0.212964 -0.273732 1.21 
-0.16486 -0.273958 1.211 
-0.116869 -0.274637 1.214 
-0.0686947 -0.275542 1.218 
-0.0203835 -0.278935 1.233 
0.0287036 -0.278256 1.23 
0.0753394 -0.26966 1.192 
0.115489 -0.232333 1.027 
0.146159 -0.213782 0.945 
0.250407 -0.277804 1.228 
0.304484 -0.282555 1.249 
0.354847 -0.283007 1.251 
0.405692 -0.283686 1.254 
0.457503 -0.284817 1.259 
0.50931 -0.285722 1.263 
0.561436 -0.286627 1.267 
0.61388 -0.287531 1.271 
0.664552 -0.287531 1.271 
0.720289 -0.289567 1.28 
0.772525 -0.29002 1.282 
0.824278 -0.290246 1.283 
0.877476 -0.290925 1.286 
0.929468 -0.291151 1.287 
0.980778 -0.291151 1.287 
1.03931 -0.293187 1.296 
1.09097 -0.293187 1.296 
1.14264 -0.293187 1.296 
1.20168 -0.294997 1.304 
1.25848 -0.296128 1.309 
-0.627372 -0.166342 0.743 
-0.618668 -0.172163 0.769 
-0.611713 -0.179104 0.8 
-0.604461 -0.186715 0.834 
-0.596558 -0.195671 0.874 
-0.584208 -0.203506 0.909 
-0.573889 -0.213133 0.952 
-0.561268 -0.223208 0.997 
-0.54872 -0.234849 1.049 
-0.538791 -0.249626 1.115 
-0.51695 -0.261043 1.166 
-0.475305 -0.26373 1.178 
-0.431977 -0.265969 1.188 
-0.387204 -0.26776 1.196 
-0.340941 -0.268879 1.201 
-0.29428 -0.269999 1.206 
-0.246404 -0.270222 1.207 
-0.199433 -0.27179 1.214 
-0.150909 -0.271566 1.213 
-0.102887 -0.272461 1.217 
-0.0548593 -0.274924 1.228 
-0.00593995 -0.276715 1.236 
0.0429511 -0.274252 1.225 
0.0877431 -0.262163 1.171 
0.124373 -0.220073 0.983 
0.156082 -0.207088 0.925 
0.27321 -0.27761 1.24 
0.325769 -0.280297 1.252 
0.376283 -0.280745 1.254 
0.426618 -0.280969 1.255 
0.478551 -0.282088 1.26 
0.531722 -0.283655 1.267 
0.585911 -0.285446 1.275 
0.636743 -0.285446 1.275 
0.689192 -0.286118 1.278 
0.74246 -0.287013 1.282 
0.79419 -0.287237 1.283 
0.846658 -0.287685 1.285 
0.899286 -0.288133 1.287 
0.952812 -0.288804 1.29 
1.00424 -0.288804 1.29 
1.06385 -0.291043 1.3 
1.11568 -0.291043 1.3 
1.16661 -0.290819 1.299 
1.22778 -0.293058 1.309 
1.27997 -0.293058 1.309 
-0.622627 -0.166594 0.752 
-0.610772 -0.171689 0.775 
-0.605314 -0.179221 0.809 
-0.60364 -0.189412 0.855 
-0.591536 -0.196722 0.888 
-0.576174 -0.203811 0.92 
-0.567057 -0.214224 0.967 
-0.552552 -0.223971 1.011 
-0.54214 -0.237042 1.07 
-0.528423 -0.250777 1.132 
-0.501651 -0.260303 1.175 
-0.458677 -0.262518 1.185 
-0.413863 -0.264069 1.192 
-0.367878 -0.265176 1.197 
-0.322295 -0.266949 1.205 
-0.274937 -0.267613 1.208 
-0.227152 -0.268056 1.21 
-0.179947 -0.269607 1.217 
-0.131428 -0.269607 1.217 
-0.0832493 -0.270715 1.222 
-0.0349263 -0.273816 1.236 
0.0143156 -0.273152 1.233 
0.0622888 -0.268056 1.21 
0.106577 -0.229066 1.034 
0.135793 -0.210458 0.95 
0.236748 -0.269607 1.217 
0.292533 -0.276475 1.248 
0.344208 -0.278025 1.255 
0.394557 -0.278247 1.256 
0.446755 -0.279576 1.262 
0.497068 -0.279576 1.262 
0.54955 -0.280684 1.267 
0.603852 -0.282456 1.275 
0.654683 -0.282456 1.275 
0.708835 -0.283785 1.281 
0.761092 -0.284228 1.283 
0.813509 -0.284671 1.285 
0.866085 -0.285115 1.287 
0.919534 -0.285779 1.29 
0.970963 -0.285779 1.29 
1.02715 -0.287108 1.296 
1.08464 -0.288659 1.303 
1.13659 -0.288659 1.303 
1.18945 -0.288881 1.304 
1.25001 -0.290874 1.313 
1.29839 -0.289988 1.309 
-0.615963 -0.166365 0.759 
-0.60731 -0.172502 0.787 
-0.599352 -0.179516 0.819 
-0.595811 -0.189379 0.864 
-0.584755 -0.19727 0.9 
-0.570829 -0.205161 0.936 
-0.558592 -0.214805 0.98 
-0.546028 -0.225765 1.03 
-0.539772 -0.241327 1.101 
-0.515695 -0.250971 1.145 
-0.484825 -0.258862 1.181 
-0.441447 -0.261054 1.191 
-0.396611 -0.262808 1.199 
-0.349391 -0.263246 1.201 
-0.303016 -0.264561 1.207 
-0.255529 -0.265219 1.21 
-0.208317 -0.266534 1.216 
-0.159969 -0.266753 1.217 
-0.111907 -0.267849 1.222 
-0.0634989 -0.269164 1.228 
-0.0146595 -0.271356 1.238 
0.0344447 -0.269383 1.229 
0.0799798 -0.258205 1.178 
0.121224 -0.218093 0.995 
0.151087 -0.201873 0.921 
0.264159 -0.268507 1.225 
0.320663 -0.275082 1.255 
0.370993 -0.275301 1.256 
0.422408 -0.276178 1.26 
0.474892 -0.277493 1.266 
0.52744 -0.278589 1.271 
0.579931 -0.279466 1.275 
0.631257 -0.279685 1.276 
0.684267 -0.280562 1.28 
0.737022 -0.28122 1.283 
0.789401 -0.281658 1.285 
0.841939 -0.282096 1.287 
0.894637 -0.282535 1.289 
0.949697 -0.283631 1.294 
0.999738 -0.283192 1.292 
1.06101 -0.285823 1.304 
1.11556 -0.28648 1.307 
1.16409 -0.285603 1.303 
1.22444 -0.287576 1.312 
1.27772 -0.287795 1.313 
-0.617074 -0.163934 0.756 
-0.607896 -0.169789 0.783 
-0.600247 -0.176728 0.815 
-0.596317 -0.185618 0.856 
-0.585176 -0.193208 0.891 
-0.572479 -0.201231 0.928 
-0.562025 -0.211206 0.974 
-0.547366 -0.220964 1.019 
-0.537573 -0.234408 1.081 
-0.520549 -0.246768 1.138 
-0.491463 -0.255225 1.177 
-0.449827 -0.258261 1.191 
-0.405046 -0.259996 1.199 
-0.357841 -0.26043 1.201 
-0.311508 -0.261731 1.207 
-0.264042 -0.262381 1.21 
-0.216693 -0.263465 1.215 
-0.168669 -0.264116 1.218 
-0.120702 -0.265417 1.224 
-0.0721973 -0.266501 1.229 
-0.0233884 -0.26867 1.239 
0.025882 -0.267369 1.233 
0.07297 -0.259996 1.199 
0.11231 -0.221181 1.02 
0.14353 -0.201231 0.928 
0.250399 -0.263249 1.214 
0.308644 -0.271922 1.254 
0.360354 -0.273223 1.26 
0.41124 -0.273657 1.262 
0.463747 -0.274958 1.268 
0.5143 -0.274958 1.268 
0.567971 -0.276476 1.275 
0.619288 -0.276693 1.276 
0.670684 -0.27691 1.277 
0.724986 -0.278211 1.283 
0.777347 -0.278644 1.285 
0.829866 -0.279078 1.287 
0.883231 -0.279729 1.29 
0.937558 -0.280596 1.294 
0.989147 -0.280596 1.294 
1.04878 -0.282764 1.304 
1.10499 -0.283849 1.309 
1.15275 -0.282764 1.304 
1.21213 -0.284499 1.312 
1.2683 -0.285367 1.316 
-0.619493 -0.159587 0.744 
-0.609651 -0.16495 0.769 
-0.602333 -0.171599 0.8 
-0.596821 -0.179535 0.837 
-0.58634 -0.186828 0.871 
-0.575047 -0.194765 0.908 
-0.564365 -0.203988 0.951 
-0.551362 -0.213641 0.996 
-0.539394 -0.225224 1.05 
-0.526436 -0.238308 1.111 
-0.507314 -0.250749 1.169 
-0.46859 -0.255039 1.189 
-0.424021 -0.256755 1.197 
-0.377557 -0.257613 1.201 
-0.331322 -0.2589 1.207 
-0.283906 -0.259543 1.21 
-0.23586 -0.259758 1.211 
-0.189594 -0.262546 1.224 
-0.14091 -0.262761 1.225 
-0.0922976 -0.263404 1.228 
-0.0436575 -0.265335 1.237 
0.00566831 -0.265764 1.239 
0.0539092 -0.260187 1.213 
0.0934151 -0.23123 1.078 
0.125441 -0.205061 0.956 
0.156198 -0.195837 0.913 
0.269905 -0.262761 1.225 
0.32785 -0.270268 1.26 
0.378984 -0.270912 1.263 
0.430357 -0.271555 1.266 
0.481589 -0.271984 1.268 
0.533821 -0.272842 1.272 
0.586371 -0.2737 1.276 
0.638241 -0.274129 1.278 
0.691349 -0.274987 1.282 
0.744198 -0.275631 1.285 
0.796047 -0.275845 1.286 
0.849953 -0.276703 1.29 
0.904177 -0.277561 1.294 
0.957243 -0.27799 1.296 
1.01203 -0.278848 1.3 
1.06958 -0.28035 1.307 
1.12598 -0.281422 1.312 
1.1747 -0.280564 1.308 
1.23528 -0.282495 1.317 
1.28779 -0.282495 1.317 
-0.614625 -0.159752 0.753 
-0.603237 -0.164843 0.777 
-0.597301 -0.172057 0.811 
-0.59353 -0.180755 0.852 
-0.583863 -0.188605 0.889 
-0.567544 -0.195181 0.92 
-0.55914 -0.205577 0.969 
-0.541994 -0.214063 1.009 
-0.535583 -0.228489 1.077 
-0.516889 -0.239734 1.13 
-0.491881 -0.249917 1.178 
-0.451715 -0.253736 1.196 
-0.405384 -0.254584 1.2 
-0.359033 -0.255645 1.205 
-0.311766 -0.256281 1.208 
-0.264697 -0.257342 1.213 
-0.21705 -0.258191 1.217 
-0.1695 -0.259676 1.224 
-0.121195 -0.260737 1.229 
-0.0723735 -0.261373 1.232 
-0.023445 -0.263495 1.242 
0.025945 -0.262222 1.236 
0.0723614 -0.252251 1.189 
0.109163 -0.214912 1.013 
0.137001 -0.196878 0.928 
0.170623 -0.19306 0.91 
0.298865 -0.265192 1.25 
0.353442 -0.268799 1.267 
0.403955 -0.268799 1.267 
0.457337 -0.270496 1.275 
0.506575 -0.269647 1.271 
0.559 -0.270496 1.275 
0.610789 -0.27092 1.277 
0.663254 -0.271557 1.28 
0.71596 -0.272193 1.283 
0.768904 -0.272829 1.286 
0.820812 -0.273042 1.287 
0.87551 -0.274102 1.292 
0.929889 -0.274951 1.296 
0.98383 -0.275587 1.299 
1.042 -0.277285 1.307 
1.09829 -0.278345 1.312 
1.14797 -0.277709 1.309 
1.20657 -0.279194 1.316 
1.26191 -0.279831 1.319 
-0.622145 -0.155888 0.743 
-0.60608 -0.159454 0.76 
-0.598509 -0.165749 0.79 
-0.592134 -0.173092 0.825 
-0.587036 -0.181694 0.866 
-0.573564 -0.188618 0.899 
-0.56105 -0.1968 0.938 
-0.549334 -0.206451 0.984 
-0.537061 -0.217361 1.036 
-0.525427 -0.23037 1.098 
-0.504023 -0.24107 1.149 
-0.475363 -0.250092 1.192 
-0.430712 -0.25177 1.2 
-0.384466 -0.252819 1.205 
-0.336983 -0.253239 1.207 
-0.28982 -0.254078 1.211 
-0.242338 -0.254917 1.215 
-0.195494 -0.257015 1.225 
-0.147255 -0.258064 1.23 
-0.0982171 -0.258064 1.23 
-0.0494994 -0.259743 1.238 
-0.000143377 -0.260582 1.242 
0.0481005 -0.253868 1.21 
0.0923752 -0.223656 1.066 
0.122941 -0.200157 0.954 
0.153719 -0.191135 0.911 
0.264634 -0.254707 1.214 
0.325669 -0.264988 1.263 
0.377511 -0.266037 1.268 
0.429076 -0.266666 1.271 
0.480126 -0.266876 1.272 
0.532507 -0.267715 1.276 
0.583378 -0.267715 1.276 
0.636238 -0.268555 1.28 
0.688343 -0.268974 1.282 
0.742338 -0.270023 1.287 
0.793648 -0.270023 1.287 
0.84824 -0.271072 1.292 
0.901839 -0.271702 1.295 
0.956413 -0.272541 1.299 
1.01208 -0.27359 1.304 
1.06815 -0.274639 1.309 
1.12633 -0.276108 1.316 
1.17611 -0.275478 1.313 
1.23407 -0.276737 1.319 
1.28763 -0.276947 1.32 
-0.61136 -0.15539 0.749 
-0.600132 -0.160369 0.773 
-0.592882 -0.167008 0.805 
-0.590744 -0.175929 0.848 
-0.579922 -0.18319 0.883 
-0.561992 -0.188999 0.911 
-0.555101 -0.19958 0.962 
-0.537697 -0.207671 1.001 
-0.531108 -0.221571 1.068 
-0.511857 -0.232151 1.119 
-0.491046 -0.243977 1.176 
-0.453226 -0.248956 1.2 
-0.40606 -0.249371 1.202 
-0.359628 -0.250408 1.207 
-0.312282 -0.25103 1.21 
-0.265133 -0.252068 1.215 
-0.217942 -0.25352 1.222 
-0.170193 -0.254972 1.229 
-0.121589 -0.255802 1.233 
-0.0726672 -0.256632 1.237 
-0.0234639 -0.257877 1.243 
0.025945 -0.256425 1.236 
0.0719962 -0.245429 1.183 
0.111216 -0.205181 0.989 
0.139069 -0.189414 0.913 
0.174507 -0.188377 0.908 
0.302038 -0.259536 1.251 
0.357539 -0.263686 1.271 
0.408211 -0.263686 1.271 
0.461049 -0.264931 1.277 
0.51156 -0.264723 1.276 
0.562431 -0.264723 1.276 
0.614264 -0.265138 1.278 
0.667297 -0.265968 1.282 
0.720089 -0.26659 1.285 
0.77252 -0.267005 1.287 
0.82511 -0.26742 1.289 
0.88058 -0.268665 1.295 
0.935808 -0.269702 1.3 
0.989916 -0.270325 1.303 
1.04586 -0.271362 1.308 
1.10472 -0.273022 1.316 
1.15367 -0.272192 1.312 
1.21241 -0.273644 1.319 
1.26692 -0.274059 1.321 
-0.623048 -0.152198 0.742 
-0.604663 -0.155069 0.756 
-0.596562 -0.161018 0.785 
-0.589028 -0.167787 0.818 
-0.583625 -0.175991 0.858 
-0.57055 -0.18276 0.891 
-0.559046 -0.190965 0.931 
-0.547718 -0.2004 0.977 
-0.533762 -0.210246 1.025 
-0.520788 -0.222143 1.083 
-0.502749 -0.233835 1.14 
-0.479763 -0.245321 1.196 
-0.434249 -0.246552 1.202 
-0.387613 -0.247372 1.206 
-0.340096 -0.247783 1.208 
-0.293385 -0.249013 1.214 
-0.245591 -0.249629 1.217 
-0.199015 -0.25209 1.229 
-0.150383 -0.252705 1.232 
-0.101595 -0.253526 1.236 
-0.052572 -0.254757 1.242 
-0.003061 -0.255167 1.244 
0.045188 -0.247783 1.208 
0.0922019 -0.218246 1.064 
0.122554 -0.195067 0.951 
0.150345 -0.18276 0.891 
0.260925 -0.248193 1.21 
0.323729 -0.259885 1.267 
0.375719 -0.26091 1.272 
0.427436 -0.261526 1.275 
0.478643 -0.261731 1.276 
0.531174 -0.262551 1.28 
0.581296 -0.262141 1.278 
0.634226 -0.262961 1.282 
0.685871 -0.263166 1.283 
0.739319 -0.263987 1.287 
0.791858 -0.264397 1.289 
0.847173 -0.265628 1.295 
0.902272 -0.266653 1.3 
0.956302 -0.267269 1.303 
1.01289 -0.268499 1.309 
1.06752 -0.269115 1.312 
1.1258 -0.270551 1.319 
1.1766 -0.27014 1.317 
1.23284 -0.270961 1.321 
1.28745 -0.271371 1.323 
-0.61169 -0.15066 0.743 
-0.601653 -0.15573 0.768 
-0.593341 -0.161813 0.798 
-0.586858 -0.169113 0.834 
-0.577505 -0.176412 0.87 
-0.562786 -0.182901 0.902 
-0.554276 -0.192431 0.949 
-0.538209 -0.200542 0.989 
-0.529039 -0.212709 1.049 
-0.514157 -0.22447 1.107 
-0.495498 -0.236636 1.167 
-0.463207 -0.244139 1.204 
-0.415551 -0.244341 1.205 
-0.368425 -0.24495 1.208 
-0.320795 -0.245355 1.21 
-0.274357 -0.246977 1.218 
-0.227095 -0.248397 1.225 
-0.179276 -0.249816 1.232 
-0.130687 -0.25083 1.237 
-0.081436 -0.251033 1.238 
-0.0322349 -0.252249 1.244 
0.0173328 -0.251844 1.242 
0.0644267 -0.242719 1.197 
0.108016 -0.19892 0.981 
0.136628 -0.184726 0.911 
0.176994 -0.182293 0.899 
0.313076 -0.255494 1.26 
0.367634 -0.258535 1.275 
0.418794 -0.258738 1.276 
0.470402 -0.259144 1.278 
0.522577 -0.259752 1.281 
0.5732 -0.259549 1.28 
0.625206 -0.259955 1.282 
0.676844 -0.260158 1.283 
0.730265 -0.260969 1.287 
0.782789 -0.261374 1.289 
0.837415 -0.262388 1.294 
0.893126 -0.263605 1.3 
0.950042 -0.265024 1.307 
1.00368 -0.26543 1.309 
1.05829 -0.266038 1.312 
1.11737 -0.26766 1.32 
1.16734 -0.267052 1.317 
1.22355 -0.267863 1.321 
1.27911 -0.268471 1.324 
-0.616087 -0.148717 0.742 
-0.599943 -0.152125 0.759 
-0.59145 -0.157937 0.788 
-0.584198 -0.164752 0.822 
-0.578259 -0.172769 0.862 
-0.562822 -0.178781 0.892 
-0.552677 -0.1874 0.935 
-0.538553 -0.195818 0.977 
-0.526704 -0.206441 1.03 
-0.51393 -0.218466 1.09 
-0.493781 -0.229289 1.144 
-0.471678 -0.241315 1.204 
-0.424381 -0.241716 1.206 
-0.376924 -0.242117 1.208 
-0.32958 -0.242718 1.211 
-0.282926 -0.244121 1.218 
-0.235714 -0.245524 1.225 
-0.187944 -0.246927 1.232 
-0.139502 -0.248129 1.238 
-0.0902188 -0.24833 1.239 
-0.0409871 -0.249332 1.244 
0.00860857 -0.249332 1.244 
0.0560052 -0.239912 1.197 
0.121523 -0.189003 0.943 
0.168201 -0.177579 0.886 
0.298387 -0.250134 1.248 
0.355953 -0.255746 1.276 
0.407143 -0.255946 1.277 
0.459131 -0.256547 1.28 
0.51056 -0.256748 1.281 
0.562069 -0.256948 1.282 
0.61318 -0.256948 1.282 
0.665845 -0.25755 1.285 
0.718192 -0.25795 1.287 
0.771893 -0.258752 1.291 
0.824001 -0.258953 1.292 
0.880931 -0.260556 1.3 
0.938499 -0.262159 1.308 
0.991404 -0.26236 1.309 
1.04678 -0.263162 1.313 
1.10499 -0.264565 1.32 
1.15674 -0.264364 1.319 
1.21299 -0.265166 1.323 
1.26669 -0.265366 1.324 
-0.62047 -0.146779 0.741 
-0.602093 -0.149552 0.755 
-0.592448 -0.154901 0.782 
-0.584957 -0.161437 0.815 
-0.578901 -0.169162 0.854 
-0.566546 -0.175897 0.888 
-0.555069 -0.183821 0.928 
-0.542635 -0.192536 0.972 
-0.528248 -0.201846 1.019 
-0.515377 -0.213335 1.077 
-0.496566 -0.224229 1.132 
-0.478155 -0.237501 1.199 
-0.432866 -0.238888 1.206 
-0.385423 -0.239284 1.208 
-0.337821 -0.23968 1.21 
-0.291495 -0.241265 1.218 
-0.244332 -0.242651 1.225 
-0.196611 -0.244038 1.232 
-0.148212 -0.245226 1.238 
-0.0990156 -0.245622 1.24 
-0.0497393 -0.246415 1.244 
-0.000143724 -0.246613 1.245 
0.0477427 -0.237897 1.201 
0.116717 -0.189763 0.958 
0.147131 -0.170351 0.86 
0.278296 -0.242453 1.224 
0.340724 -0.252555 1.275 
0.392169 -0.252951 1.277 
0.444469 -0.253744 1.281 
0.495926 -0.253942 1.282 
0.547464 -0.25414 1.283 
0.598148 -0.253942 1.282 
0.65179 -0.254932 1.287 
0.703101 -0.254932 1.287 
0.758514 -0.256319 1.294 
0.808851 -0.255923 1.292 
0.865687 -0.257507 1.3 
0.922456 -0.258894 1.307 
0.978292 -0.259884 1.312 
1.03374 -0.260677 1.316 
1.08868 -0.261271 1.319 
1.143 -0.261667 1.321 
1.19838 -0.262261 1.324 
1.25211 -0.262459 1.325 
1.30691 -0.262855 1.327 
-0.601235 -0.145433 0.743 
-0.593924 -0.151109 0.772 
-0.584301 -0.156786 0.801 
-0.578571 -0.164224 0.839 
-0.567862 -0.171074 0.874 
-0.554363 -0.177925 0.909 
-0.543773 -0.186733 0.954 
-0.528534 -0.19515 0.997 
-0.51624 -0.206111 1.053 
-0.499481 -0.217073 1.109 
-0.484004 -0.230774 1.179 
-0.447378 -0.236255 1.207 
-0.399588 -0.236451 1.208 
-0.352009 -0.236842 1.21 
-0.305275 -0.238017 1.216 
-0.258697 -0.239778 1.225 
-0.211229 -0.241344 1.233 
-0.162729 -0.242323 1.238 
-0.113556 -0.242714 1.24 
-0.0643263 -0.243497 1.244 
-0.0147779 -0.24428 1.248 
0.0339402 -0.237038 1.211 
0.101217 -0.192214 0.982 
0.135278 -0.176555 0.902 
0.286126 -0.241344 1.233 
0.346976 -0.249761 1.276 
0.399094 -0.250544 1.28 
0.450477 -0.25074 1.281 
0.502331 -0.251131 1.283 
0.553481 -0.251131 1.283 
0.604632 -0.251131 1.283 
0.658849 -0.252305 1.289 
0.710239 -0.252305 1.289 
0.765174 -0.25348 1.295 
0.816803 -0.25348 1.295 
0.874467 -0.255241 1.304 
0.930007 -0.25622 1.309 
0.985196 -0.257003 1.313 
1.0407 -0.257786 1.317 
1.09653 -0.258569 1.321 
1.1492 -0.258569 1.321 
1.20459 -0.259156 1.324 
1.26022 -0.259743 1.327 
1.31313 -0.259743 1.327 
-0.602166 -0.143497 0.742 
-0.594191 -0.148912 0.77 
-0.584715 -0.15452 0.799 
-0.577079 -0.161289 0.834 
-0.567304 -0.168251 0.87 
-0.554658 -0.175213 0.906 
-0.544293 -0.183916 0.951 
-0.527677 -0.191652 0.991 
-0.516739 -0.202868 1.049 
-0.500723 -0.213892 1.106 
-0.485117 -0.227236 1.175 
-0.450208 -0.233424 1.207 
-0.402421 -0.233618 1.208 
-0.35514 -0.234198 1.211 
-0.308381 -0.235358 1.217 
-0.26221 -0.237486 1.228 
-0.214641 -0.239033 1.236 
-0.165766 -0.239613 1.239 
-0.116464 -0.239806 1.24 
-0.0672437 -0.24058 1.244 
-0.0177047 -0.241353 1.248 
0.0311773 -0.234778 1.214 
0.0986117 -0.189331 0.979 
0.12979 -0.1756 0.908 
0.155158 -0.162063 0.838 
0.294276 -0.240386 1.243 
0.353514 -0.247155 1.278 
0.405414 -0.247735 1.281 
0.456842 -0.247929 1.282 
0.509141 -0.248509 1.285 
0.560371 -0.248509 1.285 
0.611602 -0.248509 1.285 
0.664895 -0.249283 1.289 
0.717396 -0.249669 1.291 
0.771248 -0.250443 1.295 
0.825419 -0.251216 1.299 
0.882609 -0.252764 1.307 
0.939008 -0.253924 1.313 
0.994374 -0.254698 1.317 
1.04847 -0.255084 1.319 
1.1044 -0.255858 1.323 
1.15714 -0.255858 1.323 
1.21171 -0.256245 1.325 
1.26645 -0.256631 1.327 
1.32035 -0.256825 1.328 
-0.597612 -0.14233 0.745 
-0.589255 -0.147679 0.773 
-0.579388 -0.15322 0.802 
-0.573351 -0.160479 0.84 
-0.561071 -0.166784 0.873 
-0.549173 -0.174044 0.911 
-0.537061 -0.182259 0.954 
-0.522043 -0.190665 0.998 
-0.509315 -0.201364 1.054 
-0.492565 -0.212253 1.111 
-0.47813 -0.226391 1.185 
-0.439249 -0.230785 1.208 
-0.391413 -0.230976 1.209 
-0.344348 -0.23174 1.213 
-0.298672 -0.233842 1.224 
-0.251099 -0.234988 1.23 
-0.203047 -0.236134 1.236 
-0.154517 -0.23728 1.242 
-0.10517 -0.237662 1.244 
-0.0556634 -0.238045 1.246 
-0.00599762 -0.238427 1.248 
0.0421096 -0.229447 1.201 
0.113992 -0.182259 0.954 
0.141599 -0.162581 0.851 
0.17551 -0.158951 0.832 
0.327732 -0.242821 1.271 
0.381381 -0.244731 1.281 
0.433127 -0.245113 1.283 
0.484278 -0.245113 1.283 
0.53668 -0.245686 1.286 
0.58795 -0.245686 1.286 
0.640712 -0.24626 1.289 
0.693175 -0.246642 1.291 
0.747529 -0.247597 1.296 
0.801048 -0.24817 1.299 
0.858088 -0.249698 1.307 
0.913678 -0.250654 1.312 
0.971875 -0.252182 1.32 
1.02372 -0.251991 1.319 
1.07794 -0.252373 1.321 
1.13318 -0.252946 1.324 
1.18686 -0.253137 1.325 
1.24155 -0.253519 1.327 
1.29543 -0.25371 1.328 
-0.599117 -0.138507 0.734 
-0.591616 -0.145112 0.769 
-0.582112 -0.150584 0.798 
-0.573054 -0.156811 0.831 
-0.564614 -0.163982 0.869 
-0.550704 -0.170398 0.903 
-0.539783 -0.178701 0.947 
-0.522703 -0.18606 0.986 
-0.512808 -0.197382 1.046 
-0.495878 -0.207761 1.101 
-0.481541 -0.221347 1.173 
-0.447748 -0.227952 1.208 
-0.399919 -0.228141 1.209 
-0.353173 -0.229084 1.214 
-0.307284 -0.230971 1.224 
-0.260175 -0.232481 1.232 
-0.211914 -0.233424 1.237 
-0.163255 -0.234368 1.242 
-0.11383 -0.234556 1.243 
-0.0644297 -0.235122 1.246 
-0.0147898 -0.235689 1.249 
0.0338281 -0.227763 1.207 
0.0838508 -0.193042 1.023 
0.126957 -0.170398 0.903 
0.150326 -0.157189 0.833 
0.185044 -0.156811 0.831 
0.341258 -0.240972 1.277 
0.393705 -0.241916 1.282 
0.445163 -0.242104 1.283 
0.497474 -0.242671 1.286 
0.54917 -0.242859 1.287 
0.60048 -0.242859 1.287 
0.655336 -0.24418 1.294 
0.706925 -0.24418 1.294 
0.762031 -0.245312 1.3 
0.815737 -0.245878 1.303 
0.871681 -0.247011 1.309 
0.928808 -0.248332 1.316 
0.984257 -0.249086 1.32 
1.03767 -0.249275 1.321 
1.09281 -0.249841 1.324 
1.1456 -0.249841 1.324 
1.2011 -0.250407 1.327 
1.25684 -0.250973 1.33 
1.31084 -0.251162 1.331 
-0.595206 -0.138277 0.742 
-0.58773 -0.143681 0.771 
-0.578665 -0.149272 0.801 
-0.569255 -0.155421 0.834 
-0.559143 -0.16213 0.87 
-0.547365 -0.169212 0.908 
-0.535372 -0.177225 0.951 
-0.51995 -0.185239 0.994 
-0.506899 -0.195488 1.049 
-0.490792 -0.206297 1.107 
-0.475305 -0.219528 1.178 
-0.439977 -0.225492 1.21 
-0.39206 -0.225678 1.211 
-0.3452 -0.22661 1.216 
-0.299892 -0.229032 1.229 
-0.252324 -0.230337 1.236 
-0.203211 -0.230523 1.237 
-0.154641 -0.231641 1.243 
-0.10517 -0.231828 1.244 
-0.0557528 -0.232573 1.248 
-0.00600243 -0.232759 1.249 
0.0419694 -0.223069 1.197 
0.0981081 -0.181511 0.974 
0.134559 -0.16213 0.87 
0.156989 -0.15039 0.807 
0.305703 -0.233691 1.254 
0.36364 -0.238909 1.282 
0.415074 -0.239096 1.283 
0.466951 -0.239468 1.285 
0.518988 -0.239841 1.287 
0.571184 -0.240214 1.289 
0.622574 -0.240214 1.289 
0.677101 -0.241332 1.295 
0.731544 -0.242264 1.3 
0.78518 -0.242823 1.303 
0.84034 -0.243755 1.308 
0.897946 -0.245245 1.316 
0.953301 -0.245991 1.32 
1.00821 -0.24655 1.323 
1.06096 -0.24655 1.323 
1.11539 -0.246923 1.325 
1.16998 -0.247295 1.327 
1.22564 -0.247854 1.33 
1.27963 -0.248041 1.331 
-3.9359 -0.766224 4.164 
-0.593434 -0.138561 0.753 
-0.585112 -0.143897 0.782 
-0.573061 -0.148865 0.809 
-0.565542 -0.155674 0.846 
-0.552558 -0.161746 0.879 
-0.540476 -0.168923 0.918 
-0.529126 -0.177387 0.964 
-0.511563 -0.184932 1.005 
-0.501052 -0.196524 1.068 
-0.485089 -0.207933 1.13 
-0.466129 -0.220262 1.197 
-0.422951 -0.222654 1.21 
-0.376569 -0.223758 1.216 
-0.330248 -0.22523 1.224 
-0.283519 -0.226886 1.233 
-0.235502 -0.22799 1.239 
-0.185655 -0.227438 1.236 
-0.137261 -0.22891 1.244 
-0.0878064 -0.229278 1.246 
-0.0382533 -0.230014 1.25 
0.0114889 -0.228174 1.24 
0.0665888 -0.209405 1.138 
0.110466 -0.173523 0.943 
0.138783 -0.155674 0.846 
0.175747 -0.149969 0.815 
0.330973 -0.234063 1.272 
0.384985 -0.236087 1.283 
0.437156 -0.236639 1.286 
0.488806 -0.236823 1.287 
0.540955 -0.237191 1.289 
0.592345 -0.237191 1.289 
0.646731 -0.238295 1.295 
0.700517 -0.239031 1.299 
0.755201 -0.239951 1.304 
0.809046 -0.240503 1.307 
0.865107 -0.241607 1.313 
0.922344 -0.242895 1.32 
0.977925 -0.243631 1.324 
1.03071 -0.243631 1.324 
1.0835 -0.243631 1.324 
1.13885 -0.244183 1.327 
1.19445 -0.244735 1.33 
1.24842 -0.244919 1.331 
1.30246 -0.245103 1.332 
-0.595036 -0.132435 0.729 
-0.588486 -0.137703 0.758 
-0.579625 -0.142971 0.787 
-0.569148 -0.148421 0.817 
-0.560876 -0.155143 0.854 
-0.547803 -0.16132 0.888 
-0.536059 -0.168768 0.929 
-0.523731 -0.177125 0.975 
-0.509724 -0.186208 1.025 
-0.494475 -0.196381 1.081 
-0.479354 -0.208553 1.148 
-0.455492 -0.21909 1.206 
-0.4091 -0.219998 1.211 
-0.362906 -0.22127 1.218 
-0.317444 -0.22345 1.23 
-0.269934 -0.224721 1.237 
-0.220974 -0.225085 1.239 
-0.171716 -0.225266 1.24 
-0.122773 -0.226175 1.245 
-0.0733134 -0.22672 1.248 
-0.0236149 -0.227265 1.251 
0.0254202 -0.219998 1.211 
0.0885561 -0.180758 0.995 
0.117142 -0.165135 0.909 
0.142511 -0.151328 0.833 
0.18001 -0.148421 0.817 
0.334743 -0.231625 1.275 
0.388599 -0.233441 1.285 
0.440514 -0.233805 1.287 
0.492588 -0.234168 1.289 
0.5444 -0.23435 1.29 
0.596291 -0.234531 1.291 
0.651775 -0.235985 1.299 
0.70573 -0.236711 1.303 
0.760004 -0.237438 1.307 
0.812733 -0.23762 1.308 
0.87017 -0.239073 1.316 
0.926141 -0.239981 1.321 
0.981771 -0.240708 1.325 
1.03381 -0.240526 1.324 
1.08742 -0.240708 1.325 
1.14197 -0.241071 1.327 
1.19847 -0.241798 1.331 
1.25436 -0.242343 1.334 
1.30852 -0.242525 1.335 
-0.59051 -0.131622 0.734 
-0.58648 -0.137539 0.767 
-0.574745 -0.142202 0.793 
-0.562992 -0.147402 0.822 
-0.556023 -0.154575 0.862 
-0.541022 -0.160313 0.894 
-0.529123 -0.167845 0.936 
-0.516502 -0.176273 0.983 
-0.504503 -0.186315 1.039 
-0.486702 -0.195819 1.092 
-0.47401 -0.209447 1.168 
-0.442814 -0.216979 1.21 
-0.396205 -0.217875 1.215 
-0.349769 -0.21913 1.222 
-0.304499 -0.221641 1.236 
-0.255842 -0.222179 1.239 
-0.205946 -0.221641 1.236 
-0.157683 -0.223076 1.244 
-0.108435 -0.223793 1.248 
-0.0587736 -0.224151 1.25 
-0.00893155 -0.223972 1.249 
0.0440658 -0.21124 1.178 
0.106718 -0.170176 0.949 
0.132394 -0.153499 0.856 
0.156989 -0.141305 0.788 
0.310121 -0.225945 1.26 
0.367504 -0.230428 1.285 
0.419386 -0.230786 1.287 
0.471428 -0.231145 1.289 
0.524034 -0.231683 1.292 
0.575544 -0.231683 1.292 
0.628994 -0.2324 1.296 
0.68434 -0.233655 1.303 
0.739113 -0.234552 1.308 
0.791865 -0.234731 1.309 
0.848566 -0.235987 1.316 
0.905825 -0.237242 1.323 
0.959295 -0.237421 1.324 
1.01284 -0.237601 1.325 
1.06567 -0.237601 1.325 
1.12103 -0.238138 1.328 
1.17574 -0.238497 1.33 
1.23338 -0.239394 1.335 
1.28757 -0.239573 1.336 
-0.593648 -0.126892 0.717 
-0.587918 -0.132024 0.746 
-0.581371 -0.13751 0.777 
-0.568811 -0.142112 0.803 
-0.558189 -0.147775 0.835 
-0.547529 -0.154146 0.871 
-0.535177 -0.160871 0.909 
-0.523637 -0.168835 0.954 
-0.508 -0.176622 0.998 
-0.494484 -0.186533 1.054 
-0.480796 -0.198213 1.12 
-0.459898 -0.209009 1.181 
-0.423999 -0.214672 1.213 
-0.379046 -0.216619 1.224 
-0.331867 -0.21768 1.23 
-0.284669 -0.219096 1.238 
-0.235692 -0.21945 1.24 
-0.185054 -0.218034 1.232 
-0.137482 -0.220512 1.246 
-0.0880178 -0.221043 1.249 
-0.0383758 -0.221928 1.254 
0.0114611 -0.218919 1.237 
0.0569453 -0.205115 1.159 
0.122766 -0.157155 0.888 
0.147619 -0.144766 0.818 
0.178027 -0.142997 0.808 
0.338263 -0.225998 1.277 
0.392222 -0.227768 1.287 
0.444221 -0.228122 1.289 
0.496765 -0.228653 1.292 
0.548274 -0.228653 1.292 
0.601176 -0.229184 1.295 
0.656838 -0.2306 1.303 
0.712049 -0.231662 1.309 
0.765988 -0.232192 1.312 
0.818919 -0.232369 1.313 
0.875247 -0.233431 1.319 
0.93135 -0.234316 1.324 
0.986365 -0.234847 1.327 
1.0377 -0.234493 1.325 
1.09217 -0.234847 1.327 
1.14767 -0.235378 1.33 
1.20521 -0.236263 1.335 
1.26126 -0.236794 1.338 
1.31558 -0.236971 1.339 
-0.589907 -0.127306 0.729 
-0.583154 -0.13237 0.758 
-0.573359 -0.13726 0.786 
-0.5634 -0.142673 0.817 
-0.554218 -0.14896 0.853 
-0.540946 -0.154898 0.887 
-0.529523 -0.162232 0.929 
-0.516871 -0.170265 0.975 
-0.502513 -0.178997 1.025 
-0.485969 -0.188427 1.079 
-0.471688 -0.200651 1.149 
-0.447007 -0.210605 1.206 
-0.402565 -0.212526 1.217 
-0.357246 -0.214447 1.228 
-0.310547 -0.216018 1.237 
-0.261864 -0.216542 1.24 
-0.211914 -0.216018 1.237 
-0.163386 -0.217066 1.243 
-0.11438 -0.218114 1.249 
-0.06474 -0.218638 1.252 
-0.0148016 -0.218288 1.25 
0.0355957 -0.204667 1.172 
0.124644 -0.152278 0.872 
0.148806 -0.142149 0.814 
0.188363 -0.143197 0.82 
0.345601 -0.223877 1.282 
0.398878 -0.225099 1.289 
0.450267 -0.225099 1.289 
0.503992 -0.226147 1.295 
0.555192 -0.225972 1.294 
0.609126 -0.226845 1.299 
0.664984 -0.228242 1.307 
0.719835 -0.229116 1.312 
0.772142 -0.229116 1.312 
0.826962 -0.229814 1.316 
0.88277 -0.230687 1.321 
0.938268 -0.231386 1.325 
0.992589 -0.231735 1.327 
1.04549 -0.231735 1.327 
1.10088 -0.232259 1.33 
1.15477 -0.232434 1.331 
1.21237 -0.233307 1.336 
1.26848 -0.233831 1.339 
1.32581 -0.234529 1.343 
-0.588197 -0.125596 0.729 
-0.580609 -0.13042 0.757 
-0.571515 -0.135416 0.786 
-0.561484 -0.140757 0.817 
-0.552218 -0.14696 0.853 
-0.538258 -0.152645 0.886 
-0.527344 -0.160053 0.929 
-0.515113 -0.168151 0.976 
-0.500109 -0.176593 1.025 
-0.483439 -0.185896 1.079 
-0.468585 -0.197784 1.148 
-0.444179 -0.207776 1.206 
-0.401025 -0.210361 1.221 
-0.354655 -0.211739 1.229 
-0.307895 -0.21329 1.238 
-0.258956 -0.213634 1.24 
-0.208168 -0.212256 1.232 
-0.1606 -0.214323 1.244 
-0.111451 -0.215185 1.249 
-0.0619519 -0.216218 1.255 
-0.0118607 -0.215185 1.249 
0.0859751 -0.166428 0.966 
0.132046 -0.144892 0.841 
0.152778 -0.133694 0.776 
0.196737 -0.143169 0.831 
0.358743 -0.221559 1.286 
0.411288 -0.222248 1.29 
0.463076 -0.222421 1.291 
0.516539 -0.223282 1.296 
0.568208 -0.223282 1.296 
0.623703 -0.22466 1.304 
0.678281 -0.225522 1.309 
0.734375 -0.226728 1.316 
0.786841 -0.226728 1.316 
0.84122 -0.227245 1.319 
0.897872 -0.228278 1.325 
0.952132 -0.228623 1.327 
1.00579 -0.228795 1.328 
1.06033 -0.22914 1.33 
1.11419 -0.229312 1.331 
1.17077 -0.230001 1.335 
1.23041 -0.231207 1.342 
1.28487 -0.23138 1.343 
-0.593659 -0.120148 0.707 
-0.585468 -0.124396 0.732 
-0.579083 -0.129495 0.762 
-0.567426 -0.133913 0.788 
-0.556416 -0.139011 0.818 
-0.548137 -0.145469 0.856 
-0.533826 -0.151077 0.889 
-0.52249 -0.158385 0.932 
-0.509287 -0.166202 0.978 
-0.49434 -0.174699 1.028 
-0.477611 -0.184046 1.083 
-0.462915 -0.196111 1.154 
-0.436778 -0.205458 1.209 
-0.39372 -0.208177 1.225 
-0.346289 -0.209027 1.23 
-0.299427 -0.210556 1.239 
-0.250636 -0.211066 1.242 
-0.198205 -0.208007 1.224 
-0.15197 -0.211576 1.245 
-0.102828 -0.212596 1.251 
-0.0531646 -0.213445 1.256 
-0.00306346 -0.211576 1.245 
0.087327 -0.162463 0.956 
0.135667 -0.140541 0.827 
0.157014 -0.130854 0.77 
0.203558 -0.1419 0.835 
0.371671 -0.219053 1.289 
0.424046 -0.219563 1.292 
0.476659 -0.220073 1.295 
0.52992 -0.220753 1.299 
0.5835 -0.221432 1.303 
0.638374 -0.222452 1.309 
0.692143 -0.222962 1.312 
0.747287 -0.223812 1.317 
0.801615 -0.224321 1.32 
0.854241 -0.224321 1.32 
0.911675 -0.225511 1.327 
0.966761 -0.226021 1.33 
1.01979 -0.226021 1.33 
1.07281 -0.226021 1.33 
1.13007 -0.22687 1.335 
1.18595 -0.22738 1.338 
1.2467 -0.22874 1.346 
1.3023 -0.22908 1.348 
-0.590336 -0.119495 0.713 
-0.583189 -0.124021 0.74 
-0.57763 -0.129384 0.772 
-0.565269 -0.133741 0.798 
-0.552841 -0.138601 0.827 
-0.543129 -0.144802 0.864 
-0.529878 -0.150836 0.9 
-0.517599 -0.158042 0.943 
-0.500874 -0.164914 0.984 
-0.488854 -0.174634 1.042 
-0.476074 -0.185863 1.109 
-0.455614 -0.196086 1.17 
-0.424699 -0.203628 1.215 
-0.380904 -0.206142 1.23 
-0.333485 -0.207148 1.236 
-0.285588 -0.208153 1.242 
-0.236072 -0.208153 1.242 
-0.184003 -0.205304 1.225 
-0.137813 -0.209327 1.249 
-0.0884406 -0.210332 1.255 
-0.0385288 -0.211002 1.259 
0.0113407 -0.205137 1.224 
0.0891943 -0.159551 0.952 
0.118645 -0.146311 0.873 
0.143079 -0.136423 0.814 
0.175691 -0.132233 0.789 
0.338528 -0.214187 1.278 
0.394355 -0.216868 1.294 
0.445945 -0.216868 1.294 
0.499456 -0.217706 1.299 
0.551669 -0.217874 1.3 
0.606747 -0.219047 1.307 
0.659862 -0.219382 1.309 
0.716401 -0.220723 1.317 
0.768907 -0.220723 1.317 
0.825156 -0.221729 1.323 
0.878564 -0.221896 1.324 
0.93346 -0.222399 1.327 
0.989338 -0.223069 1.331 
1.0424 -0.223069 1.331 
1.09629 -0.223237 1.332 
1.15543 -0.22441 1.339 
1.21243 -0.22508 1.343 
1.27068 -0.225918 1.348 
1.32836 -0.226589 1.352 
-0.586747 -0.119476 0.723 
-0.577214 -0.123607 0.748 
-0.570079 -0.12873 0.779 
-0.558397 -0.133357 0.807 
-0.551654 -0.139802 0.846 
-0.533843 -0.144098 0.872 
-0.522544 -0.150873 0.913 
-0.511703 -0.158805 0.961 
-0.495065 -0.166076 1.005 
-0.479445 -0.175 1.059 
-0.469841 -0.188055 1.138 
-0.442375 -0.195987 1.186 
-0.408084 -0.202431 1.225 
-0.361592 -0.203753 1.233 
-0.313702 -0.20458 1.238 
-0.265413 -0.205406 1.243 
-0.213947 -0.203588 1.232 
-0.166301 -0.205406 1.243 
-0.117779 -0.207224 1.254 
-0.0682167 -0.208546 1.262 
-0.0177615 -0.206893 1.252 
0.0319504 -0.188385 1.14 
0.0997881 -0.153022 0.926 
0.127645 -0.13848 0.838 
0.154402 -0.126582 0.766 
0.201359 -0.137819 0.834 
0.365909 -0.213173 1.29 
0.41928 -0.214164 1.296 
0.472039 -0.21466 1.299 
0.52423 -0.214825 1.3 
0.579161 -0.215982 1.307 
0.633683 -0.216808 1.312 
0.688081 -0.217469 1.316 
0.742235 -0.217965 1.319 
0.796026 -0.218295 1.321 
0.849977 -0.218626 1.323 
0.905451 -0.219287 1.327 
0.961245 -0.219948 1.331 
1.01431 -0.219948 1.331 
1.06978 -0.220444 1.334 
1.12717 -0.22127 1.339 
1.1832 -0.221766 1.342 
1.24408 -0.223088 1.35 
1.2979 -0.223088 1.35 
-0.587019 -0.114848 0.705 
-0.58111 -0.119409 0.733 
-0.573436 -0.124459 0.764 
-0.561455 -0.128695 0.79 
-0.549414 -0.133419 0.819 
-0.541369 -0.139772 0.858 
-0.52726 -0.145311 0.892 
-0.51485 -0.152153 0.934 
-0.501136 -0.159647 0.98 
-0.485168 -0.167629 1.029 
-0.471337 -0.177892 1.092 
-0.452482 -0.188155 1.155 
-0.42614 -0.197278 1.211 
-0.384725 -0.200862 1.233 
-0.336384 -0.201351 1.236 
-0.288733 -0.202491 1.243 
-0.2386 -0.202002 1.24 
-0.185655 -0.198255 1.217 
-0.140742 -0.203468 1.249 
-0.0916751 -0.205097 1.259 
-0.0415802 -0.205586 1.262 
0.00847017 -0.199396 1.224 
0.0826698 -0.155411 0.954 
0.112353 -0.14466 0.888 
0.136108 -0.133256 0.818 
0.164965 -0.124622 0.765 
0.214371 -0.136677 0.839 
0.392833 -0.211614 1.299 
0.443594 -0.211125 1.296 
0.497938 -0.212265 1.303 
0.550308 -0.212428 1.304 
0.605991 -0.213731 1.312 
0.6588 -0.213894 1.313 
0.715479 -0.215197 1.321 
0.767563 -0.215035 1.32 
0.823296 -0.215849 1.325 
0.876121 -0.215849 1.325 
0.932451 -0.216664 1.33 
0.988439 -0.217315 1.334 
1.04162 -0.217315 1.334 
1.09645 -0.217641 1.336 
1.15832 -0.21927 1.346 
1.21198 -0.21927 1.346 
1.2694 -0.219922 1.35 
1.32911 -0.220899 1.356 
-0.583501 -0.115442 0.719 
-0.574128 -0.119456 0.744 
-0.56642 -0.124273 0.774 
-0.555629 -0.128929 0.803 
-0.547742 -0.13487 0.84 
-0.532619 -0.139687 0.87 
-0.521399 -0.14627 0.911 
-0.507976 -0.153174 0.954 
-0.493587 -0.160881 1.002 
-0.476729 -0.169069 1.053 
-0.467777 -0.181914 1.133 
-0.439391 -0.189139 1.178 
-0.408084 -0.196686 1.225 
-0.362472 -0.198452 1.236 
-0.314209 -0.199094 1.24 
-0.265413 -0.199576 1.243 
-0.212731 -0.196686 1.225 
-0.165766 -0.198934 1.239 
-0.118248 -0.202145 1.259 
-0.0684869 -0.203429 1.267 
-0.0177473 -0.20086 1.251 
0.0364794 -0.179024 1.115 
0.0938775 -0.149642 0.932 
0.119224 -0.136155 0.848 
0.144551 -0.128608 0.801 
0.198686 -0.133425 0.831 
0.376438 -0.207925 1.295 
0.429389 -0.208567 1.299 
0.48303 -0.20937 1.304 
0.536249 -0.209852 1.307 
0.590607 -0.210654 1.312 
0.645364 -0.211457 1.317 
0.699459 -0.211939 1.32 
0.752655 -0.212099 1.321 
0.807759 -0.212742 1.325 
0.860584 -0.212742 1.325 
0.916856 -0.213544 1.33 
0.973526 -0.214347 1.335 
1.02675 -0.214347 1.335 
1.08078 -0.214508 1.336 
1.14423 -0.216435 1.348 
1.19797 -0.216435 1.348 
1.25636 -0.217237 1.353 
1.31321 -0.217719 1.356 
-0.582059 -0.111541 0.705 
-0.576739 -0.11613 0.734 
-0.569107 -0.120718 0.763 
-0.558456 -0.125148 0.791 
-0.545572 -0.129578 0.819 
-0.537971 -0.135906 0.859 
-0.524249 -0.141444 0.894 
-0.511015 -0.147931 0.935 
-0.499579 -0.156 0.986 
-0.481276 -0.163119 1.031 
-0.467923 -0.173403 1.096 
-0.447839 -0.183054 1.157 
-0.421155 -0.191914 1.213 
-0.379864 -0.195553 1.236 
-0.331389 -0.196028 1.239 
-0.282903 -0.196661 1.243 
-0.232409 -0.19587 1.238 
-0.179356 -0.191914 1.213 
-0.135424 -0.198401 1.254 
-0.0862468 -0.2003 1.266 
-0.035661 -0.199667 1.262 
0.0212191 -0.180048 1.138 
0.0781952 -0.150937 0.954 
0.108188 -0.140495 0.888 
0.135443 -0.128787 0.814 
0.159056 -0.119294 0.754 
0.219608 -0.133533 0.844 
0.400154 -0.206154 1.303 
0.451061 -0.205679 1.3 
0.505597 -0.206786 1.307 
0.558558 -0.207103 1.309 
0.614011 -0.20821 1.316 
0.666984 -0.208369 1.317 
0.722768 -0.209318 1.323 
0.775513 -0.209318 1.323 
0.830762 -0.209951 1.327 
0.885665 -0.210425 1.33 
0.939395 -0.210584 1.331 
0.997679 -0.211691 1.338 
1.05102 -0.211691 1.338 
1.10849 -0.212482 1.343 
1.16982 -0.213906 1.352 
1.22191 -0.21359 1.35 
1.27857 -0.214064 1.353 
1.34137 -0.215488 1.362 
-0.581118 -0.111291 0.714 
-0.572776 -0.115343 0.74 
-0.565299 -0.120019 0.77 
-0.555429 -0.124696 0.8 
-0.545131 -0.129839 0.833 
-0.532815 -0.135139 0.867 
-0.520662 -0.141218 0.906 
-0.507004 -0.147764 0.948 
-0.494947 -0.155869 1 
-0.476923 -0.163351 1.048 
-0.46296 -0.173794 1.115 
-0.439902 -0.182679 1.172 
-0.40995 -0.190472 1.222 
-0.365962 -0.192966 1.238 
-0.317628 -0.19359 1.242 
-0.268544 -0.193902 1.244 
-0.2149 -0.190317 1.221 
-0.167174 -0.191408 1.228 
-0.121297 -0.196395 1.26 
-0.0716839 -0.19811 1.271 
-0.0206646 -0.194837 1.25 
0.0338038 -0.173483 1.113 
0.0898903 -0.145894 0.936 
0.119355 -0.130151 0.835 
0.144053 -0.122825 0.788 
0.166116 -0.116279 0.746 
0.363446 -0.201383 1.292 
0.41881 -0.203254 1.304 
0.471881 -0.203721 1.307 
0.524389 -0.203877 1.308 
0.57874 -0.204657 1.313 
0.63397 -0.205592 1.319 
0.687077 -0.205748 1.32 
0.741384 -0.206215 1.323 
0.794729 -0.206371 1.324 
0.849435 -0.206839 1.327 
0.905059 -0.207462 1.331 
0.961723 -0.208242 1.336 
1.01727 -0.208709 1.339 
1.07305 -0.209177 1.342 
1.13494 -0.210735 1.352 
1.18885 -0.210735 1.352 
1.24642 -0.211359 1.356 
1.30144 -0.211515 1.357 
-0.586102 -0.10716 0.698 
-0.579869 -0.111305 0.725 
-0.566164 -0.114376 0.745 
-0.558065 -0.118981 0.775 
-0.548254 -0.123741 0.806 
-0.541734 -0.129882 0.846 
-0.527821 -0.134948 0.879 
-0.515763 -0.141242 0.92 
-0.499914 -0.147383 0.96 
-0.48857 -0.155981 1.016 
-0.467027 -0.162582 1.059 
-0.454491 -0.173943 1.133 
-0.430275 -0.182847 1.191 
-0.396291 -0.189295 1.233 
-0.349105 -0.19037 1.24 
-0.300635 -0.190984 1.244 
-0.25104 -0.190984 1.244 
-0.195128 -0.184997 1.205 
-0.151848 -0.190984 1.244 
-0.103814 -0.193901 1.263 
-0.0537996 -0.195129 1.271 
-0.00306346 -0.191138 1.245 
0.053486 -0.159512 1.039 
0.0983871 -0.140168 0.913 
0.124903 -0.12589 0.82 
0.147846 -0.116678 0.76 
0.207226 -0.128039 0.834 
0.384875 -0.200042 1.303 
0.437158 -0.200196 1.304 
0.491022 -0.200963 1.309 
0.544454 -0.201424 1.312 
0.599035 -0.202191 1.317 
0.653025 -0.202652 1.32 
0.707789 -0.203266 1.324 
0.760574 -0.203266 1.324 
0.815817 -0.20388 1.328 
0.87007 -0.204187 1.33 
0.924482 -0.204494 1.332 
0.984925 -0.20603 1.342 
1.03843 -0.20603 1.342 
1.09519 -0.206644 1.346 
1.15738 -0.208179 1.356 
1.20787 -0.207565 1.352 
1.2655 -0.208179 1.356 
1.3254 -0.2091 1.362 
-0.577932 -0.10643 0.704 
-0.570953 -0.110512 0.731 
-0.561822 -0.114594 0.758 
-0.554044 -0.119431 0.79 
-0.541069 -0.123664 0.818 
-0.531456 -0.129258 0.855 
-0.519474 -0.135003 0.893 
-0.506088 -0.141201 0.934 
-0.499472 -0.150423 0.995 
-0.474591 -0.155261 1.027 
-0.459826 -0.164634 1.089 
-0.4405 -0.174158 1.152 
-0.415465 -0.18338 1.213 
-0.375277 -0.187462 1.24 
-0.326892 -0.188067 1.244 
-0.277519 -0.188218 1.245 
-0.224223 -0.185194 1.225 
-0.172951 -0.182624 1.208 
-0.129749 -0.189881 1.256 
-0.0806894 -0.1923 1.272 
-0.0295532 -0.189579 1.254 
0.02602 -0.168565 1.115 
0.0737979 -0.144376 0.955 
0.10332 -0.13334 0.882 
0.130816 -0.122304 0.809 
0.151177 -0.113384 0.75 
0.211898 -0.126537 0.837 
0.392487 -0.197742 1.308 
0.443275 -0.197138 1.304 
0.498301 -0.198347 1.312 
0.551027 -0.198498 1.313 
0.605212 -0.199103 1.317 
0.659716 -0.199708 1.321 
0.714538 -0.200312 1.325 
0.767363 -0.200312 1.325 
0.823283 -0.201068 1.33 
0.876967 -0.201219 1.331 
0.932826 -0.201824 1.335 
0.991958 -0.203034 1.343 
1.04784 -0.203487 1.346 
1.10477 -0.204092 1.35 
1.1646 -0.20515 1.357 
1.2178 -0.204999 1.356 
1.2728 -0.20515 1.357 
1.33473 -0.206359 1.365 
-0.577111 -0.10463 0.703 
-0.570172 -0.108649 0.73 
-0.561081 -0.112667 0.757 
-0.552642 -0.117281 0.788 
-0.540408 -0.121597 0.817 
-0.530834 -0.127104 0.854 
-0.518893 -0.13276 0.892 
-0.506088 -0.139011 0.934 
-0.497464 -0.147494 0.991 
-0.473667 -0.152555 1.025 
-0.457715 -0.161336 1.084 
-0.438588 -0.170713 1.147 
-0.414438 -0.180089 1.21 
-0.375882 -0.184852 1.242 
-0.326892 -0.185149 1.244 
-0.278188 -0.185745 1.248 
-0.223673 -0.181875 1.222 
