# .PCD v.7 - Point Cloud Data file format
VERSION .7
FIELDS x y z
SIZE 4 4 4
TYPE F F F
COUNT 1 1 1
WIDTH 1888
HEIGHT 1
VIEWPOINT 0 0 0 1 0 0 0
POINTS 1888
DATA ascii
0.256396 0.416773 1.189 
0.303799 0.416773 1.189 
0.350907 0.416422 1.188 
0.396594 0.414669 1.183 
0.410187 0.378565 1.08 
0.433939 0.362441 1.034 
0.481596 0.367349 1.048 
0.514888 0.36139 1.031 
0.55006 0.357534 1.02 
0.552994 0.333348 0.951 
0.555492 0.313368 0.894 
0.550799 0.291986 0.833 
0.548253 0.274109 0.782 
0.547569 0.259037 0.739 
0.542675 0.243614 0.695 
0.5433 0.232047 0.662 
0.540433 0.220129 0.628 
0.534856 0.208211 0.594 
0.539731 0.201201 0.574 
0.540072 0.193138 0.551 
-0.99635 0.404035 1.145 
-0.980592 0.416738 1.181 
-0.93667 0.41815 1.185 
-0.887925 0.417444 1.183 
-0.84005 0.417091 1.182 
-0.792256 0.416738 1.181 
-0.745172 0.416738 1.181 
-0.696905 0.416032 1.179 
-0.648799 0.415327 1.177 
-0.602897 0.416032 1.179 
-0.556836 0.416738 1.181 
-0.508457 0.415679 1.178 
-0.461492 0.415679 1.178 
-0.41488 0.416032 1.179 
-0.367875 0.416032 1.179 
-0.321416 0.416738 1.181 
-0.275261 0.41815 1.185 
-0.227632 0.417444 1.183 
-0.180774 0.41815 1.185 
-0.133305 0.417444 1.183 
-0.0860683 0.417091 1.182 
-0.039175 0.419561 1.189 
0.00822797 0.419561 1.189 
0.0555841 0.419208 1.188 
0.102947 0.419208 1.188 
0.150437 0.419561 1.189 
0.19784 0.419561 1.189 
0.245243 0.419561 1.189 
0.292646 0.419561 1.189 
0.339763 0.419208 1.188 
0.387126 0.419208 1.188 
0.405943 0.384274 1.089 
0.423776 0.362396 1.027 
0.47377 0.369454 1.047 
0.505665 0.362396 1.027 
0.54448 0.360985 1.023 
0.54865 0.338401 0.959 
0.556285 0.320758 0.909 
0.549503 0.297468 0.843 
0.548526 0.279825 0.793 
0.545757 0.26324 0.746 
0.543098 0.24842 0.704 
0.542769 0.236069 0.669 
0.542203 0.224777 0.637 
0.535521 0.212074 0.601 
0.539001 0.204311 0.579 
0.539757 0.196195 0.556 
-1.00445 0.405654 1.142 
-0.987472 0.417732 1.176 
-0.948586 0.421284 1.186 
-0.899022 0.420218 1.183 
-0.851138 0.419863 1.182 
-0.803334 0.419508 1.181 
-0.756891 0.419863 1.182 
-0.709166 0.419508 1.181 
-0.6604 0.418442 1.178 
-0.613957 0.418797 1.179 
-0.566952 0.418797 1.179 
-0.52083 0.419508 1.181 
-0.472543 0.418442 1.178 
-0.425578 0.418442 1.178 
-0.378935 0.418797 1.179 
-0.331931 0.418797 1.179 
-0.285893 0.420218 1.183 
-0.238326 0.419508 1.181 
-0.19189 0.420929 1.185 
-0.144646 0.420929 1.185 
-0.0974028 0.420929 1.185 
-0.0502017 0.421284 1.186 
-0.00292567 0.422349 1.189 
0.0444773 0.422349 1.189 
0.0916484 0.421284 1.186 
0.139283 0.422349 1.189 
0.187 0.42306 1.191 
0.233499 0.421284 1.186 
0.281492 0.422349 1.189 
0.328895 0.422349 1.189 
0.375982 0.421994 1.188 
0.399672 0.393222 1.107 
0.414949 0.365515 1.029 
0.460847 0.369423 1.04 
0.495065 0.364094 1.025 
0.534884 0.363384 1.023 
0.54697 0.345268 0.972 
0.551373 0.325021 0.915 
0.549947 0.304063 0.856 
0.549275 0.285947 0.805 
0.546704 0.268897 0.757 
0.544877 0.253978 0.715 
0.542888 0.239769 0.675 
0.541098 0.227692 0.641 
0.538365 0.216325 0.609 
0.539064 0.206735 0.582 
0.539081 0.198209 0.558 
-1.01337 0.40869 1.143 
-0.993206 0.419417 1.173 
-0.956123 0.423708 1.185 
-0.907345 0.422992 1.183 
-0.859454 0.422635 1.182 
-0.812331 0.422635 1.182 
-0.765207 0.422635 1.182 
-0.717475 0.422277 1.181 
-0.668688 0.421205 1.178 
-0.621196 0.420847 1.177 
-0.575247 0.421562 1.179 
-0.529587 0.422635 1.182 
-0.481239 0.421562 1.179 
-0.434234 0.421562 1.179 
-0.38723 0.421562 1.179 
-0.339937 0.421205 1.178 
-0.293968 0.422635 1.182 
-0.246217 0.421562 1.179 
-0.199889 0.422992 1.183 
-0.152983 0.423708 1.185 
-0.10574 0.423708 1.185 
-0.0583977 0.422992 1.183 
-0.0112814 0.42478 1.188 
0.0361728 0.425853 1.191 
0.0832341 0.423708 1.185 
0.130918 0.425138 1.189 
0.178621 0.425853 1.191 
0.225154 0.424065 1.186 
0.273127 0.425138 1.189 
0.32053 0.425138 1.189 
0.367623 0.42478 1.188 
0.402299 0.409048 1.144 
0.412279 0.37651 1.053 
0.44175 0.366141 1.024 
0.483517 0.366856 1.026 
0.51931 0.36328 1.016 
0.544388 0.353268 0.988 
0.550098 0.332888 0.931 
0.554417 0.314294 0.879 
0.549895 0.293198 0.82 
0.547063 0.275321 0.77 
0.546247 0.260303 0.728 
0.544453 0.246358 0.689 
0.540928 0.231698 0.648 
0.540524 0.220972 0.618 
0.537727 0.210245 0.588 
0.536356 0.200948 0.562 
0.541859 0.19487 0.545 
-1.00009 0.419289 1.165 
-0.970018 0.426487 1.185 
-0.921217 0.425767 1.183 
-0.874053 0.425767 1.183 
-0.82689 0.425767 1.183 
-0.779067 0.425407 1.182 
-0.731323 0.425047 1.181 
-0.682501 0.423967 1.178 
-0.634458 0.423247 1.176 
-0.589072 0.424327 1.179 
-0.543447 0.425407 1.182 
-0.494644 0.423967 1.178 
-0.448819 0.425047 1.181 
-0.401055 0.424327 1.179 
-0.354051 0.424327 1.179 
-0.307567 0.425047 1.181 
-0.260704 0.425407 1.182 
-0.213761 0.425767 1.183 
-0.166879 0.426487 1.185 
-0.119433 0.425767 1.183 
-0.0721472 0.425047 1.181 
-0.0252329 0.427926 1.189 
0.0222073 0.428646 1.191 
0.0693974 0.426847 1.186 
0.116976 0.427926 1.189 
0.164379 0.427926 1.189 
0.211604 0.427566 1.188 
0.259185 0.427926 1.189 
0.306588 0.427926 1.189 
0.353693 0.427566 1.188 
0.399031 0.425407 1.182 
0.408667 0.387257 1.076 
0.423867 0.363503 1.01 
0.470567 0.368542 1.024 
0.5044 0.363503 1.01 
0.538735 0.359544 0.999 
0.548448 0.340829 0.947 
0.555252 0.322834 0.897 
0.549504 0.30016 0.834 
0.548515 0.282525 0.785 
0.546574 0.266329 0.74 
0.544937 0.251933 0.7 
0.542566 0.238617 0.663 
0.540677 0.22674 0.63 
0.537055 0.215223 0.598 
0.538385 0.206585 0.574 
0.53878 0.198307 0.551 
-0.999035 0.414776 1.145 
-0.980031 0.426368 1.177 
-0.937863 0.428541 1.183 
-0.890699 0.428541 1.183 
-0.843536 0.428541 1.183 
-0.795699 0.428179 1.182 
-0.747941 0.427817 1.181 
-0.700857 0.427817 1.181 
-0.651559 0.426368 1.177 
-0.605148 0.42673 1.178 
-0.558658 0.427092 1.179 
-0.511653 0.427092 1.179 
-0.465437 0.427817 1.181 
-0.417645 0.427092 1.179 
-0.371269 0.427817 1.181 
-0.323636 0.427092 1.179 
-0.27757 0.428541 1.183 
-0.230212 0.428179 1.182 
-0.183243 0.428541 1.183 
-0.136079 0.428541 1.183 
-0.0888402 0.428179 1.182 
-0.0419281 0.430352 1.188 
0.00543499 0.430352 1.188 
0.0528425 0.430715 1.189 
0.0999926 0.429628 1.186 
0.147648 0.430715 1.189 
0.195051 0.430715 1.189 
0.24225 0.430352 1.188 
0.289857 0.430715 1.189 
0.336977 0.430352 1.188 
0.38434 0.430352 1.188 
0.402278 0.393403 1.086 
0.413572 0.365147 1.008 
0.45736 0.368045 1.016 
0.492476 0.364061 1.005 
0.528834 0.361525 0.998 
0.543552 0.345586 0.954 
0.553543 0.328923 0.908 
0.551423 0.30755 0.849 
0.548735 0.288351 0.796 
0.546196 0.271325 0.749 
0.543754 0.25611 0.707 
0.542009 0.242707 0.67 
0.541558 0.231115 0.638 
0.539444 0.219885 0.607 
0.539501 0.210467 0.581 
0.538453 0.201411 0.556 
-1.00889 0.417096 1.144 
-0.987704 0.42767 1.173 
-0.94896 0.431315 1.183 
-0.901797 0.431315 1.183 
-0.856078 0.432045 1.185 
-0.807469 0.431315 1.183 
-0.757735 0.429857 1.179 
-0.712539 0.430951 1.182 
-0.663163 0.429492 1.178 
-0.615676 0.429128 1.177 
-0.569234 0.429492 1.178 
-0.524043 0.430951 1.182 
-0.475709 0.429857 1.179 
-0.429432 0.430586 1.181 
-0.382672 0.430951 1.182 
-0.334696 0.429857 1.179 
-0.288424 0.430951 1.182 
-0.240687 0.429857 1.179 
-0.19434 0.431315 1.183 
-0.147425 0.432045 1.185 
-0.100266 0.432409 1.186 
-0.052849 0.431315 1.183 
-0.00569966 0.432409 1.186 
0.041759 0.434232 1.191 
0.0888671 0.432409 1.186 
0.136495 0.433503 1.189 
0.184207 0.434232 1.191 
0.230717 0.432409 1.186 
0.278704 0.433503 1.189 
0.325832 0.433138 1.188 
0.373195 0.433138 1.188 
0.400395 0.404335 1.109 
0.410531 0.373345 1.024 
0.441658 0.365324 1.002 
0.481606 0.365324 1.002 
0.518951 0.363501 0.997 
0.543009 0.353292 0.969 
0.551628 0.335062 0.919 
0.554341 0.315739 0.866 
0.547388 0.293499 0.805 
0.547088 0.277092 0.76 
0.544719 0.261414 0.717 
0.54452 0.248289 0.681 
0.541558 0.232611 0.638 
0.540332 0.221674 0.608 
0.539001 0.2111 0.579 
0.538786 0.20235 0.555 
-1.00621 0.419779 1.144 
-0.985793 0.430787 1.174 
-0.946186 0.43409 1.183 
-0.899022 0.43409 1.183 
-0.853299 0.434824 1.185 
-0.804695 0.43409 1.183 
-0.75497 0.432622 1.179 
-0.709767 0.433723 1.182 
-0.6604 0.432255 1.178 
-0.612915 0.431888 1.177 
-0.566472 0.432255 1.178 
-0.521271 0.433723 1.182 
-0.473746 0.433356 1.181 
-0.426662 0.433356 1.181 
-0.3799 0.433723 1.182 
-0.331931 0.432622 1.179 
-0.285652 0.433723 1.182 
-0.237922 0.432622 1.179 
-0.191566 0.43409 1.183 
-0.144402 0.43409 1.183 
-0.0974028 0.434824 1.185 
-0.0501593 0.434824 1.185 
-0.00291829 0.435191 1.186 
0.0444773 0.436291 1.189 
0.0916484 0.435191 1.186 
0.139283 0.436291 1.189 
0.187 0.437025 1.191 
0.233892 0.435925 1.188 
0.281255 0.435925 1.188 
0.328618 0.435925 1.188 
0.375982 0.435925 1.188 
0.400452 0.404368 1.102 
0.410513 0.373545 1.018 
0.439577 0.364004 0.992 
0.482024 0.366206 0.998 
0.516584 0.362537 0.988 
0.541905 0.353363 0.963 
0.551976 0.336117 0.916 
0.552517 0.315568 0.86 
0.547228 0.294286 0.802 
0.546704 0.277773 0.757 
0.544877 0.262362 0.715 
0.544513 0.249152 0.679 
0.541098 0.235208 0.641 
0.539249 0.223833 0.61 
0.538623 0.213926 0.583 
0.537773 0.204752 0.558 
-1.01603 0.423201 1.146 
-0.991512 0.432433 1.171 
-0.954509 0.436864 1.183 
-0.907345 0.436864 1.183 
-0.860182 0.436864 1.183 
-0.813018 0.436864 1.183 
-0.763264 0.435387 1.179 
-0.718083 0.436495 1.182 
-0.668688 0.435018 1.178 
-0.621196 0.434648 1.177 
-0.574759 0.435018 1.178 
-0.529587 0.436495 1.182 
-0.482055 0.436126 1.181 
-0.435339 0.436495 1.182 
-0.387887 0.436126 1.181 
-0.340803 0.436126 1.181 
-0.293719 0.436126 1.181 
-0.246217 0.435387 1.179 
-0.19972 0.436495 1.182 
-0.152725 0.436864 1.183 
-0.10574 0.437603 1.185 
-0.0583977 0.436864 1.183 
-0.0112624 0.437972 1.186 
0.0361121 0.43908 1.189 
0.0834448 0.438711 1.188 
0.130918 0.43908 1.189 
0.178321 0.43908 1.189 
0.225534 0.438711 1.188 
0.273127 0.43908 1.189 
0.32026 0.438711 1.188 
0.367933 0.43908 1.189 
0.410096 0.433541 1.174 
0.407313 0.379625 1.028 
0.427801 0.362269 0.981 
0.47543 0.367069 0.994 
0.507804 0.361899 0.98 
0.53962 0.357099 0.967 
0.553659 0.341958 0.926 
0.554223 0.320909 0.869 
0.546855 0.298013 0.807 
0.547458 0.281764 0.763 
0.544553 0.265516 0.719 
0.544517 0.252222 0.683 
0.542289 0.238558 0.646 
0.541664 0.22748 0.616 
0.538647 0.216401 0.586 
0.536115 0.20643 0.559 
-1.02141 0.425888 1.146 
-0.99445 0.434064 1.168 
-0.960058 0.439638 1.183 
-0.912894 0.439638 1.183 
-0.86573 0.439638 1.183 
-0.81995 0.440382 1.185 
-0.770751 0.439267 1.182 
-0.723015 0.438895 1.181 
-0.674786 0.438152 1.179 
-0.626717 0.437409 1.177 
-0.580285 0.43778 1.178 
-0.535131 0.439267 1.182 
-0.487594 0.438895 1.181 
-0.440883 0.439267 1.182 
-0.393426 0.438895 1.181 
-0.346342 0.438895 1.181 
-0.299258 0.438895 1.181 
-0.251747 0.438152 1.179 
-0.205264 0.439267 1.182 
-0.158274 0.439638 1.183 
-0.111298 0.440382 1.185 
-0.0638923 0.439267 1.182 
-0.0168252 0.440753 1.186 
0.0305352 0.441868 1.189 
0.0779382 0.441868 1.189 
0.125341 0.441868 1.189 
0.172599 0.441497 1.188 
0.220147 0.441868 1.189 
0.26755 0.441868 1.189 
0.314688 0.441497 1.188 
0.362356 0.441868 1.189 
0.406313 0.438152 1.179 
0.405406 0.389468 1.048 
0.42047 0.364198 0.98 
0.458603 0.363454 0.978 
0.497085 0.363083 0.977 
0.532195 0.360481 0.97 
0.548503 0.346359 0.932 
0.552355 0.326663 0.879 
0.547304 0.304365 0.819 
0.547382 0.28727 0.773 
0.546036 0.27129 0.73 
0.544413 0.256796 0.691 
0.541336 0.243046 0.654 
0.543117 0.23264 0.626 
0.539942 0.22112 0.595 
0.537138 0.210714 0.567 
0.541974 0.204025 0.549 
-0.991634 0.43082 1.152 
-0.970334 0.442039 1.182 
-0.923991 0.442413 1.183 
-0.876086 0.442039 1.182 
-0.831066 0.443161 1.185 
-0.781839 0.442039 1.182 
-0.734093 0.441665 1.181 
-0.685846 0.440917 1.179 
-0.637758 0.440169 1.177 
-0.592841 0.441665 1.181 
-0.544833 0.440917 1.179 
-0.497406 0.440543 1.178 
-0.452354 0.442413 1.183 
-0.404505 0.441665 1.181 
-0.357421 0.441665 1.181 
-0.309811 0.440917 1.179 
-0.263476 0.442039 1.182 
-0.216535 0.442413 1.183 
-0.169228 0.442039 1.182 
-0.122207 0.442413 1.183 
-0.0749803 0.442039 1.182 
-0.0279507 0.443535 1.186 
0.0193816 0.444657 1.189 
0.0667846 0.444657 1.189 
0.114092 0.444283 1.188 
0.161183 0.443535 1.186 
0.208993 0.444657 1.189 
0.256396 0.444657 1.189 
0.303544 0.444283 1.188 
0.350907 0.444283 1.188 
0.397264 0.443161 1.185 
0.399932 0.393796 1.053 
0.417152 0.371731 0.994 
0.443914 0.36126 0.966 
0.48792 0.365374 0.977 
0.522017 0.362008 0.968 
0.546131 0.352659 0.943 
0.5503 0.332464 0.889 
0.550163 0.312269 0.835 
0.548515 0.293571 0.785 
0.545097 0.275994 0.738 
0.545716 0.262157 0.701 
0.540111 0.246824 0.66 
0.541535 0.235978 0.631 
0.540647 0.225133 0.602 
0.538385 0.214662 0.574 
0.53878 0.20606 0.551 
-0.991845 0.431263 1.146 
-0.973401 0.443682 1.179 
-0.928754 0.444811 1.182 
-0.88163 0.444811 1.182 
-0.836625 0.44594 1.185 
-0.788049 0.445187 1.183 
-0.739632 0.444435 1.181 
-0.692548 0.444435 1.181 
-0.643825 0.443306 1.178 
-0.59838 0.444435 1.181 
-0.549429 0.442929 1.177 
-0.503358 0.443682 1.179 
-0.457902 0.445187 1.183 
-0.410044 0.444435 1.181 
-0.36296 0.444435 1.181 
-0.315341 0.443682 1.179 
-0.26902 0.444811 1.182 
-0.222084 0.445187 1.183 
-0.174772 0.444811 1.182 
-0.127972 0.44594 1.185 
-0.0805243 0.444811 1.182 
-0.0335134 0.446316 1.186 
0.0138048 0.447445 1.189 
0.0612077 0.447445 1.189 
0.108519 0.447069 1.188 
0.15562 0.446316 1.186 
0.20393 0.448574 1.192 
0.25082 0.447445 1.189 
0.297972 0.447069 1.188 
0.345335 0.447069 1.188 
0.392037 0.446316 1.186 
0.398861 0.402663 1.07 
0.413047 0.376697 1.001 
0.434835 0.359762 0.956 
0.480369 0.365407 0.971 
0.514804 0.362397 0.963 
0.544006 0.356376 0.947 
0.549202 0.336431 0.894 
0.55148 0.317238 0.843 
0.54761 0.296917 0.789 
0.545305 0.279606 0.743 
0.545716 0.263801 0.701 
0.540111 0.248372 0.66 
0.541535 0.237458 0.631 
0.540647 0.226545 0.602 
0.539323 0.216384 0.575 
0.53878 0.207353 0.551 
-0.990883 0.434708 1.148 
-0.970636 0.446447 1.179 
-0.926766 0.447962 1.183 
-0.878858 0.447583 1.182 
-0.833845 0.448719 1.185 
-0.784611 0.447583 1.182 
-0.736863 0.447204 1.181 
-0.689779 0.447204 1.181 
-0.640518 0.445689 1.177 
-0.595611 0.447204 1.181 
-0.547133 0.446068 1.178 
-0.500169 0.446068 1.178 
-0.455128 0.447962 1.183 
-0.407275 0.447204 1.181 
-0.360191 0.447204 1.181 
-0.312576 0.446447 1.179 
-0.266473 0.447962 1.183 
-0.219309 0.447962 1.183 
-0.172 0.447583 1.182 
-0.125193 0.448719 1.185 
-0.0778181 0.447962 1.183 
-0.0307839 0.449855 1.188 
0.0165932 0.450233 1.189 
0.0639962 0.450233 1.189 
0.111305 0.449855 1.188 
0.158401 0.449098 1.186 
0.206552 0.450991 1.191 
0.253608 0.450233 1.189 
0.300758 0.449855 1.188 
0.348121 0.449855 1.188 
0.394818 0.449098 1.186 
0.39858 0.394948 1.043 
0.414419 0.37185 0.982 
0.439713 0.36049 0.952 
0.481412 0.361626 0.955 
0.52003 0.362004 0.956 
0.546467 0.354431 0.936 
0.550727 0.334362 0.883 
0.550098 0.313914 0.829 
0.545866 0.293845 0.776 
0.545585 0.277941 0.734 
0.545243 0.261279 0.69 
0.540379 0.246511 0.651 
0.542845 0.236287 0.624 
0.539518 0.224549 0.593 
0.538468 0.214703 0.567 
0.543261 0.207887 0.549 
-0.991213 0.442354 1.161 
-0.962832 0.450736 1.183 
-0.915668 0.450736 1.183 
-0.868505 0.450736 1.183 
-0.822729 0.451498 1.185 
-0.773523 0.450355 1.182 
-0.725784 0.449974 1.181 
-0.6787 0.449974 1.181 
-0.628942 0.448069 1.176 
-0.583542 0.449212 1.179 
-0.537448 0.449974 1.181 
-0.490364 0.449974 1.181 
-0.443655 0.450355 1.182 
-0.396196 0.449974 1.181 
-0.349112 0.449974 1.181 
-0.301517 0.449212 1.179 
-0.25516 0.450355 1.182 
-0.208212 0.450736 1.183 
-0.160912 0.450355 1.182 
-0.113788 0.450355 1.182 
-0.0666643 0.450355 1.182 
-0.0196065 0.451879 1.186 
0.0277468 0.453022 1.189 
0.0751498 0.453022 1.189 
0.122553 0.453022 1.189 
0.169813 0.452641 1.188 
0.217359 0.453022 1.189 
0.264762 0.453022 1.189 
0.311902 0.452641 1.188 
0.359568 0.453022 1.189 
0.404232 0.449974 1.181 
0.401708 0.390917 1.026 
0.412922 0.362722 0.952 
0.450402 0.362341 0.951 
0.48729 0.361579 0.949 
0.526785 0.362722 0.952 
0.551688 0.35434 0.93 
0.550781 0.331479 0.87 
0.549799 0.311286 0.817 
0.547443 0.292616 0.768 
0.545696 0.276233 0.725 
0.545276 0.262135 0.688 
0.540241 0.247276 0.649 
0.541691 0.236608 0.621 
0.539997 0.225558 0.592 
0.538846 0.215652 0.566 
0.545836 0.209175 0.549 
-0.992747 0.446993 1.166 
-0.960058 0.45351 1.183 
-0.912122 0.453127 1.182 
-0.867194 0.454277 1.185 
-0.81995 0.454277 1.185 
-0.770751 0.453127 1.182 
-0.72179 0.451977 1.179 
-0.675931 0.452743 1.181 
-0.626717 0.45121 1.177 
-0.580777 0.451977 1.179 
-0.535131 0.453127 1.182 
-0.487594 0.452743 1.181 
-0.440883 0.453127 1.182 
-0.393426 0.452743 1.181 
-0.346342 0.452743 1.181 
-0.298752 0.451977 1.179 
-0.252388 0.453127 1.182 
-0.205438 0.45351 1.183 
-0.15814 0.453127 1.182 
-0.11111 0.45351 1.183 
-0.0639464 0.45351 1.183 
-0.0168252 0.45466 1.186 
0.0305352 0.45581 1.189 
0.0779382 0.45581 1.189 
0.125341 0.45581 1.189 
0.172744 0.45581 1.189 
0.220147 0.45581 1.189 
0.26755 0.45581 1.189 
0.314688 0.455427 1.188 
0.362356 0.45581 1.189 
0.406313 0.451977 1.179 
0.401317 0.39294 1.025 
0.412974 0.363038 0.947 
0.447397 0.360355 0.94 
0.484873 0.360355 0.94 
0.52735 0.363805 0.949 
0.552678 0.355754 0.928 
0.552185 0.333136 0.869 
0.549689 0.312052 0.814 
0.545669 0.292501 0.763 
0.544377 0.2764 0.721 
0.54371 0.262216 0.684 
0.540928 0.248415 0.648 
0.542273 0.237681 0.62 
0.54047 0.226563 0.591 
0.540173 0.21698 0.566 
0.545836 0.210462 0.549 
-0.991213 0.447799 1.161 
-0.96446 0.457056 1.185 
-0.914894 0.455899 1.182 
-0.869973 0.457056 1.185 
-0.822729 0.457056 1.185 
-0.774177 0.456285 1.183 
-0.724555 0.454742 1.179 
-0.6787 0.455513 1.181 
-0.629477 0.45397 1.177 
-0.584532 0.455513 1.181 
-0.537448 0.455513 1.181 
-0.490364 0.455513 1.181 
-0.443655 0.455899 1.182 
-0.396196 0.455513 1.181 
-0.349112 0.455513 1.181 
-0.301517 0.454742 1.179 
-0.25516 0.455899 1.182 
-0.208212 0.456285 1.183 
-0.160912 0.455899 1.182 
-0.113788 0.455899 1.182 
-0.0667207 0.456285 1.183 
-0.0196396 0.458213 1.188 
0.0277468 0.458599 1.189 
0.0751498 0.458599 1.189 
0.122553 0.458599 1.189 
0.169956 0.458599 1.189 
0.217359 0.458599 1.189 
0.264762 0.458599 1.189 
0.311902 0.458213 1.188 
0.359568 0.458599 1.189 
0.404232 0.455513 1.181 
0.398913 0.395344 1.025 
0.411187 0.365645 0.948 
0.441404 0.359474 0.932 
0.478561 0.359474 0.932 
0.522911 0.364488 0.945 
0.551095 0.358316 0.929 
0.550781 0.33556 0.87 
0.549799 0.315118 0.817 
0.546018 0.295447 0.766 
0.544191 0.278862 0.723 
0.545276 0.265362 0.688 
0.540241 0.25032 0.649 
0.541691 0.23952 0.621 
0.539997 0.228335 0.592 
0.539798 0.218693 0.567 
0.544549 0.21175 0.549 
-0.991508 0.448194 1.155 
-0.968381 0.459059 1.183 
-0.920438 0.458671 1.182 
-0.874053 0.459059 1.183 
-0.828287 0.459835 1.185 
-0.779726 0.459059 1.183 
-0.731323 0.458283 1.181 
-0.68424 0.458283 1.181 
-0.635537 0.457119 1.178 
-0.590071 0.458283 1.181 
-0.542068 0.457507 1.179 
-0.495064 0.457507 1.179 
-0.449579 0.459059 1.183 
-0.401735 0.458283 1.181 
-0.354651 0.458283 1.181 
-0.307046 0.457507 1.179 
-0.260924 0.459059 1.183 
-0.214122 0.459835 1.185 
-0.166456 0.458671 1.182 
-0.119433 0.459059 1.183 
-0.0722694 0.459059 1.183 
-0.0252117 0.460999 1.188 
0.02217 0.461387 1.189 
0.069573 0.461387 1.189 
0.116976 0.461387 1.189 
0.164379 0.461387 1.189 
0.211782 0.461387 1.189 
0.259185 0.461387 1.189 
0.30633 0.460999 1.188 
0.353991 0.461387 1.189 
0.399368 0.459059 1.183 
0.398913 0.397748 1.025 
0.41146 0.372136 0.959 
0.434688 0.359719 0.927 
0.471137 0.359331 0.926 
0.514638 0.363987 0.938 
0.547326 0.360883 0.93 
0.549213 0.339153 0.874 
0.549309 0.318974 0.822 
0.545257 0.298796 0.77 
0.545288 0.282886 0.729 
0.545201 0.268528 0.692 
0.541336 0.253782 0.654 
0.543117 0.242917 0.626 
0.539942 0.230888 0.595 
0.53998 0.221186 0.57 
0.542961 0.213426 0.55 
-0.990883 0.448169 1.148 
-0.973106 0.461443 1.182 
-0.925982 0.461443 1.182 
-0.878858 0.461443 1.182 
-0.833845 0.462614 1.185 
-0.785274 0.461833 1.183 
-0.736863 0.461052 1.181 
-0.689779 0.461052 1.181 
-0.641062 0.459881 1.178 
-0.595611 0.461052 1.181 
-0.547133 0.459881 1.178 
-0.500593 0.460272 1.179 
-0.455898 0.462614 1.185 
-0.406585 0.460272 1.179 
-0.359581 0.460272 1.179 
-0.312576 0.460272 1.179 
-0.266473 0.461833 1.183 
-0.21968 0.462614 1.185 
-0.172 0.461443 1.182 
-0.125193 0.462614 1.185 
-0.0777523 0.461443 1.182 
-0.0308098 0.464176 1.189 
0.0165792 0.463785 1.188 
0.0639423 0.463785 1.188 
0.111399 0.464176 1.189 
0.158802 0.464176 1.189 
0.206205 0.464176 1.189 
0.253608 0.464176 1.189 
0.301011 0.464176 1.189 
0.348414 0.464176 1.189 
0.394818 0.463004 1.186 
0.394376 0.402884 1.032 
0.414419 0.383364 0.982 
0.428019 0.359941 0.922 
0.461248 0.357208 0.915 
0.506975 0.363845 0.932 
0.54238 0.362674 0.929 
0.549042 0.342373 0.877 
0.549379 0.322073 0.825 
0.544863 0.301382 0.772 
0.545497 0.283815 0.727 
0.545243 0.26937 0.69 
0.540379 0.254145 0.651 
0.542845 0.243604 0.624 
0.539518 0.231502 0.593 
0.539418 0.221742 0.568 
0.543261 0.214325 0.549 
-0.993936 0.455967 1.161 
-0.967239 0.465393 1.185 
-0.917666 0.464215 1.182 
-0.871279 0.464608 1.183 
-0.825508 0.465393 1.185 
-0.776951 0.464608 1.183 
-0.728554 0.463822 1.181 
-0.68147 0.463822 1.181 
-0.632237 0.462251 1.177 
-0.587302 0.463822 1.181 
-0.539303 0.463037 1.179 
-0.492299 0.463037 1.179 
-0.446805 0.464608 1.183 
-0.398966 0.463822 1.181 
-0.351286 0.463037 1.179 
-0.304281 0.463037 1.179 
-0.257932 0.464215 1.182 
-0.211343 0.465393 1.185 
-0.163684 0.464215 1.182 
-0.11656 0.464215 1.182 
-0.069495 0.464608 1.183 
-0.0224257 0.466571 1.188 
0.0249374 0.466571 1.188 
0.0723005 0.466571 1.188 
0.119966 0.467749 1.191 
0.167167 0.466964 1.189 
0.21457 0.466964 1.189 
0.262414 0.467749 1.191 
0.309376 0.466964 1.189 
0.356779 0.466964 1.189 
0.401803 0.464215 1.182 
0.398524 0.402162 1.024 
0.414034 0.378991 0.965 
0.429061 0.359354 0.915 
0.465031 0.358961 0.914 
0.509152 0.36446 0.928 
0.543795 0.362889 0.924 
0.548585 0.342859 0.873 
0.54864 0.322437 0.821 
0.545257 0.302407 0.77 
0.544377 0.283163 0.721 
0.542915 0.268239 0.683 
0.540928 0.254493 0.648 
0.542273 0.243497 0.62 
0.54094 0.231715 0.59 
0.539587 0.221503 0.564 
-1.00628 0.447233 1.132 
-0.994258 0.462641 1.171 
-0.959711 0.468567 1.186 
-0.908581 0.466592 1.181 
-0.862956 0.467382 1.183 
-0.815792 0.467382 1.183 
-0.768628 0.467382 1.183 
-0.719025 0.465802 1.179 
-0.673161 0.466592 1.181 
-0.623956 0.465011 1.177 
-0.578993 0.466592 1.181 
-0.531008 0.465802 1.179 
-0.484825 0.466592 1.181 
-0.437741 0.466592 1.181 
-0.390657 0.466592 1.181 
-0.343573 0.466592 1.181 
-0.295987 0.465802 1.179 
-0.249405 0.466592 1.181 
-0.202663 0.467382 1.183 
-0.155368 0.466987 1.182 
-0.108244 0.466987 1.182 
-0.0613271 0.468567 1.186 
-0.0140675 0.469357 1.188 
0.0332956 0.469357 1.188 
0.0807266 0.469752 1.189 
0.128345 0.470543 1.191 
0.175533 0.469752 1.189 
0.222748 0.469357 1.188 
0.270793 0.470543 1.191 
0.317741 0.469752 1.189 
0.365759 0.470543 1.191 
0.40769 0.464221 1.175 
0.400963 0.402193 1.018 
0.409057 0.368611 0.933 
0.435731 0.35992 0.911 
0.473087 0.36071 0.913 
0.515067 0.364661 0.923 
0.54469 0.35992 0.911 
0.551034 0.341351 0.864 
0.548888 0.320016 0.81 
0.547754 0.298682 0.756 
0.543098 0.278138 0.704 
0.542769 0.26431 0.669 
0.542203 0.251667 0.637 
0.542649 0.240605 0.609 
0.539932 0.229147 0.58 
0.536845 0.21848 0.553 
-0.996471 0.452669 1.139 
-0.982791 0.467772 1.177 
-0.940637 0.470156 1.183 
-0.892718 0.469759 1.182 
-0.847741 0.470951 1.185 
-0.799146 0.470156 1.183 
-0.751347 0.469759 1.182 
-0.702435 0.468566 1.179 
-0.654875 0.468169 1.178 
-0.607911 0.468169 1.178 
-0.560946 0.468169 1.178 
-0.514418 0.468566 1.179 
-0.469 0.470156 1.183 
-0.420053 0.468169 1.178 
-0.373405 0.468566 1.179 
-0.326401 0.468566 1.179 
-0.279871 0.469361 1.181 
-0.232984 0.469759 1.182 
-0.186017 0.470156 1.183 
-0.13944 0.472143 1.188 
-0.0916122 0.469759 1.182 
-0.0447142 0.472143 1.188 
0.00264892 0.472143 1.188 
0.0499278 0.471348 1.186 
0.0974571 0.472541 1.189 
0.145104 0.473336 1.191 
0.192263 0.472541 1.189 
0.239464 0.472143 1.188 
0.287069 0.472541 1.189 
0.334472 0.472541 1.189 
0.382838 0.473733 1.192 
0.396418 0.428029 1.077 
0.407129 0.396632 0.998 
0.41223 0.362056 0.911 
0.447073 0.360864 0.908 
0.485402 0.362453 0.912 
0.522905 0.363248 0.914 
0.545269 0.354107 0.891 
0.551459 0.336223 0.846 
0.548526 0.31516 0.793 
0.547952 0.297673 0.749 
0.543098 0.279789 0.704 
0.542769 0.265879 0.669 
0.542203 0.253161 0.637 
0.542649 0.242033 0.609 
0.540863 0.230905 0.581 
0.536845 0.219777 0.553 
-0.996471 0.455341 1.139 
-0.982791 0.470532 1.177 
-0.940637 0.472931 1.183 
-0.892718 0.472531 1.182 
-0.847741 0.47373 1.185 
-0.799146 0.472931 1.183 
-0.750711 0.472131 1.181 
-0.702435 0.471331 1.179 
-0.654875 0.470932 1.178 
-0.607911 0.470932 1.178 
-0.560946 0.470932 1.178 
-0.514418 0.471331 1.179 
-0.469 0.472931 1.183 
-0.420053 0.470932 1.178 
-0.373405 0.471331 1.179 
-0.326401 0.471331 1.179 
-0.279871 0.472131 1.181 
-0.232984 0.472531 1.182 
-0.186017 0.472931 1.183 
-0.13944 0.474929 1.188 
-0.0916122 0.472531 1.182 
-0.0447142 0.474929 1.188 
0.00264892 0.474929 1.188 
0.0499278 0.47413 1.186 
0.0974571 0.475329 1.189 
0.145104 0.476129 1.191 
0.192263 0.475329 1.189 
0.239464 0.474929 1.188 
0.287069 0.475329 1.189 
0.334472 0.475329 1.189 
0.382838 0.476528 1.192 
0.396787 0.430954 1.078 
0.406313 0.398173 0.996 
0.414367 0.364192 0.911 
0.448213 0.362194 0.906 
0.485937 0.363393 0.909 
0.521602 0.362993 0.908 
0.54613 0.355397 0.889 
0.550172 0.336208 0.841 
0.546916 0.315021 0.788 
0.547507 0.29823 0.746 
0.543202 0.28064 0.702 
0.543524 0.267048 0.668 
0.542843 0.254255 0.636 
0.543184 0.243062 0.608 
0.540359 0.231468 0.579 
0.537168 0.220674 0.552 
-0.994609 0.45962 1.143 
-0.980592 0.474901 1.181 
-0.934298 0.475303 1.182 
-0.887174 0.475303 1.182 
-0.842183 0.476509 1.185 
-0.792927 0.475303 1.182 
-0.745803 0.475303 1.182 
-0.696905 0.474096 1.179 
-0.648799 0.473292 1.177 
-0.602897 0.474096 1.179 
-0.555421 0.473694 1.178 
-0.508888 0.474096 1.179 
-0.463451 0.475705 1.183 
-0.414528 0.473694 1.178 
-0.367875 0.474096 1.179 
-0.320871 0.474096 1.179 
-0.274564 0.475303 1.182 
-0.227632 0.475705 1.183 
-0.180469 0.475705 1.183 
-0.133868 0.477715 1.188 
-0.0860683 0.475303 1.182 
-0.039142 0.477715 1.188 
0.00822105 0.477715 1.188 
0.0554906 0.476911 1.186 
0.103034 0.478118 1.189 
0.150437 0.478118 1.189 
0.19784 0.478118 1.189 
0.245037 0.477715 1.188 
0.292646 0.478118 1.189 
0.340049 0.478118 1.189 
0.388429 0.479324 1.192 
0.396787 0.433483 1.078 
0.404681 0.3989 0.992 
0.410544 0.366731 0.912 
0.442493 0.363112 0.903 
0.479024 0.363514 0.904 
0.513355 0.362308 0.901 
0.54318 0.358287 0.891 
0.552073 0.3418 0.85 
0.548045 0.319683 0.795 
0.548383 0.302392 0.752 
0.542428 0.281884 0.701 
0.544338 0.269017 0.669 
0.542843 0.255747 0.636 
0.543184 0.244487 0.608 
0.541293 0.233228 0.58 
0.53878 0.221567 0.551 
-0.996925 0.467154 1.155 
-0.973929 0.478479 1.183 
-0.925982 0.478075 1.182 
-0.878858 0.478075 1.182 
-0.833845 0.479288 1.185 
-0.784611 0.478075 1.182 
-0.736863 0.47767 1.181 
-0.688611 0.476861 1.179 
-0.640518 0.476052 1.177 
-0.594602 0.476861 1.179 
-0.547133 0.476457 1.178 
-0.501443 0.47767 1.181 
-0.455128 0.478479 1.183 
-0.40624 0.476457 1.178 
-0.359276 0.476457 1.178 
-0.312311 0.476457 1.178 
-0.266473 0.478479 1.183 
-0.219309 0.478479 1.183 
-0.172146 0.478479 1.183 
-0.125299 0.479693 1.186 
-0.0777523 0.478075 1.182 
-0.0307839 0.480502 1.188 
0.0165792 0.480502 1.188 
0.0638347 0.479693 1.186 
0.111399 0.480906 1.189 
0.158802 0.480906 1.189 
0.206205 0.480906 1.189 
0.253608 0.480906 1.189 
0.301517 0.481715 1.191 
0.348414 0.480906 1.189 
0.395817 0.480906 1.189 
0.398488 0.43237 1.069 
0.403969 0.395969 0.979 
0.414367 0.368465 0.911 
0.441781 0.361185 0.893 
0.481125 0.364016 0.9 
0.511836 0.360376 0.891 
0.543673 0.357949 0.885 
0.552134 0.341366 0.844 
0.546916 0.318716 0.788 
0.547507 0.301729 0.746 
0.542428 0.283528 0.701 
0.543524 0.270181 0.668 
0.54199 0.256834 0.635 
0.542291 0.245509 0.607 
0.541293 0.234588 0.58 
0.538463 0.223263 0.552 
-0.99766 0.47149 1.159 
-0.972797 0.482067 1.185 
-0.92321 0.480847 1.182 
-0.876086 0.480847 1.182 
-0.831066 0.482067 1.185 
-0.781839 0.480847 1.182 
-0.734093 0.48044 1.181 
-0.685846 0.479626 1.179 
-0.637758 0.478813 1.177 
-0.591837 0.479626 1.179 
-0.544371 0.47922 1.178 
-0.498673 0.48044 1.181 
-0.451971 0.480847 1.182 
-0.403477 0.47922 1.178 
-0.356513 0.47922 1.178 
-0.309811 0.479626 1.179 
-0.263476 0.480847 1.182 
-0.216535 0.481254 1.183 
-0.169371 0.481254 1.183 
-0.122517 0.482474 1.186 
-0.0750437 0.481254 1.183 
-0.0279978 0.483288 1.188 
0.0193653 0.483288 1.188 
0.0666161 0.482474 1.186 
0.114188 0.483694 1.189 
0.161591 0.483694 1.189 
0.208993 0.483694 1.189 
0.256396 0.483694 1.189 
0.30431 0.484508 1.191 
0.351793 0.484508 1.191 
0.398605 0.483694 1.189 
0.39784 0.428775 1.054 
0.40564 0.395417 0.972 
0.415589 0.369788 0.909 
0.441887 0.361652 0.889 
0.481625 0.364907 0.897 
0.511042 0.360432 0.886 
0.542665 0.357991 0.88 
0.550831 0.341312 0.839 
0.547371 0.319751 0.786 
0.547784 0.302665 0.744 
0.541743 0.283952 0.698 
0.542643 0.270527 0.665 
0.542623 0.257916 0.634 
0.541923 0.246119 0.605 
0.540782 0.235135 0.578 
0.538463 0.224558 0.552 
-0.99766 0.474208 1.159 
-0.971155 0.484028 1.183 
-0.92321 0.483619 1.182 
-0.875345 0.48321 1.181 
-0.831066 0.484846 1.185 
-0.781839 0.483619 1.182 
-0.734093 0.48321 1.181 
-0.685264 0.481982 1.178 
-0.637758 0.481573 1.177 
-0.592841 0.48321 1.181 
-0.544833 0.482391 1.179 
-0.498673 0.48321 1.181 
-0.451971 0.483619 1.182 
-0.403477 0.481982 1.178 
-0.356513 0.481982 1.178 
-0.310337 0.48321 1.181 
-0.263476 0.483619 1.182 
-0.216352 0.483619 1.182 
-0.169371 0.484028 1.183 
-0.122517 0.485255 1.186 
-0.0750437 0.484028 1.183 
-0.0279978 0.486074 1.188 
0.0193653 0.486074 1.188 
0.0666161 0.485255 1.186 
0.114188 0.486483 1.189 
0.161591 0.486483 1.189 
0.208993 0.486483 1.189 
0.256396 0.486483 1.189 
0.30431 0.487301 1.191 
0.351202 0.486483 1.189 
0.398605 0.486483 1.189 
0.398793 0.429611 1.05 
0.403723 0.393605 0.962 
0.415882 0.370283 0.905 
0.440976 0.361282 0.883 
0.481572 0.365374 0.893 
0.509066 0.359645 0.879 
0.541015 0.3576 0.874 
0.550822 0.342052 0.836 
0.547118 0.320367 0.783 
0.548051 0.303591 0.742 
0.541894 0.283952 0.694 
0.541659 0.270041 0.66 
0.542155 0.257766 0.63 
0.541159 0.245901 0.601 
0.540672 0.235263 0.575 
0.540072 0.225443 0.551 
-0.99766 0.476926 1.159 
-0.971155 0.486802 1.183 
-0.92321 0.486391 1.182 
-0.876086 0.486391 1.182 
-0.829664 0.486802 1.183 
-0.781177 0.485979 1.181 
-0.734093 0.485979 1.181 
-0.685264 0.484745 1.178 
-0.637758 0.484333 1.177 
-0.592841 0.485979 1.181 
-0.544833 0.485156 1.179 
-0.498673 0.485979 1.181 
-0.451971 0.486391 1.182 
-0.403477 0.484745 1.178 
-0.356513 0.484745 1.178 
-0.310337 0.485979 1.181 
-0.263476 0.486391 1.182 
-0.216352 0.486391 1.182 
-0.169371 0.486802 1.183 
-0.122517 0.488037 1.186 
-0.0749803 0.486391 1.182 
-0.0279978 0.48886 1.188 
0.0193653 0.48886 1.188 
0.0666161 0.488037 1.186 
0.114188 0.489271 1.189 
0.161591 0.489271 1.189 
0.208993 0.489271 1.189 
0.256396 0.489271 1.189 
0.303799 0.489271 1.189 
0.351202 0.489271 1.189 
0.399276 0.490094 1.191 
0.398793 0.432073 1.05 
0.401205 0.393392 0.956 
0.413125 0.369937 0.899 
0.43698 0.360061 0.875 
0.480493 0.366645 0.891 
0.505591 0.359238 0.873 
0.539158 0.358415 0.871 
0.551481 0.344424 0.837 
0.545866 0.319323 0.776 
0.545497 0.299159 0.727 
0.543663 0.283111 0.688 
0.541073 0.267474 0.65 
0.542563 0.255952 0.622 
0.539997 0.243607 0.592 
0.539798 0.233319 0.567 
-1.01071 0.471781 1.14 
-0.992359 0.485024 1.172 
-0.956123 0.490404 1.185 
-0.906578 0.489163 1.182 
-0.859454 0.489163 1.182 
-0.813018 0.489577 1.183 
-0.763264 0.487921 1.179 
-0.718083 0.489163 1.182 
-0.668121 0.487094 1.177 
-0.621724 0.487507 1.178 
-0.576223 0.488749 1.181 
-0.528243 0.487921 1.179 
-0.482055 0.488749 1.181 
-0.434971 0.488749 1.181 
-0.388216 0.489163 1.182 
-0.340226 0.487921 1.179 
-0.293719 0.488749 1.181 
-0.246635 0.488749 1.181 
-0.19972 0.489163 1.182 
-0.152725 0.489577 1.183 
-0.105561 0.489577 1.183 
-0.0583483 0.489163 1.182 
-0.0113099 0.492887 1.191 
0.0360817 0.491646 1.188 
0.0834448 0.491646 1.188 
0.131248 0.493301 1.192 
0.178321 0.49206 1.189 
0.225534 0.491646 1.188 
0.272897 0.491646 1.188 
0.32053 0.49206 1.189 
0.368552 0.492887 1.191 
0.404158 0.478817 1.157 
0.396615 0.414257 1.001 
0.406433 0.385702 0.932 
0.417412 0.362941 0.877 
0.455469 0.363768 0.879 
0.486607 0.360871 0.872 
0.520176 0.360044 0.87 
0.545295 0.353836 0.855 
0.546855 0.333972 0.807 
0.545305 0.314521 0.76 
0.54426 0.294656 0.712 
0.542009 0.277275 0.67 
0.541558 0.264032 0.638 
0.541221 0.252031 0.609 
0.541358 0.241271 0.583 
0.537168 0.228441 0.552 
-0.997037 0.479449 1.152 
-0.973401 0.490686 1.179 
-0.928754 0.491935 1.182 
-0.882376 0.492351 1.183 
-0.836625 0.493183 1.185 
-0.786717 0.491519 1.181 
-0.73838 0.490686 1.179 
-0.691376 0.490686 1.179 
-0.643278 0.489854 1.177 
-0.59838 0.491519 1.181 
-0.550363 0.490686 1.179 
-0.504212 0.491519 1.181 
-0.457515 0.491935 1.182 
-0.409003 0.49027 1.178 
-0.362346 0.490686 1.179 
-0.315876 0.491519 1.181 
-0.26902 0.491935 1.182 
-0.221708 0.491519 1.181 
-0.17492 0.492351 1.183 
-0.127972 0.493183 1.185 
-0.0805243 0.491935 1.182 
-0.0335134 0.4936 1.186 
0.0138048 0.494848 1.189 
0.0611563 0.494432 1.188 
0.108611 0.494848 1.189 
0.156014 0.494848 1.189 
0.203246 0.494432 1.188 
0.250609 0.494432 1.188 
0.298223 0.494848 1.189 
0.345335 0.494432 1.188 
0.394681 0.496929 1.194 
0.397994 0.441576 1.061 
0.395891 0.397044 0.954 
0.408989 0.370408 0.89 
0.433485 0.361252 0.868 
0.472943 0.364997 0.877 
0.501537 0.360419 0.866 
0.536063 0.360419 0.866 
0.550822 0.347934 0.836 
0.546419 0.325459 0.782 
0.547313 0.308396 0.741 
0.542602 0.290083 0.697 
0.541748 0.275517 0.662 
0.542393 0.263031 0.632 
0.541546 0.250962 0.603 
0.540261 0.239725 0.576 
-1.0116 0.477547 1.141 
-0.992359 0.490521 1.172 
-0.956123 0.495962 1.185 
-0.906578 0.494707 1.182 
-0.859454 0.494707 1.182 
-0.813018 0.495125 1.183 
-0.763264 0.493451 1.179 
-0.718083 0.494707 1.182 
-0.668121 0.492614 1.177 
-0.622252 0.493451 1.179 
-0.576223 0.494288 1.181 
-0.528243 0.493451 1.179 
-0.482055 0.494288 1.181 
-0.434234 0.493451 1.179 
-0.388216 0.494707 1.182 
-0.340226 0.493451 1.179 
-0.293968 0.494707 1.182 
-0.246844 0.494707 1.182 
-0.19972 0.494707 1.182 
-0.152725 0.495125 1.183 
-0.105561 0.495125 1.183 
-0.058299 0.494288 1.181 
-0.0112909 0.497636 1.189 
0.0360817 0.497218 1.188 
0.0833043 0.496381 1.186 
0.131248 0.498892 1.192 
0.178321 0.497636 1.189 
0.225724 0.497636 1.189 
0.272897 0.497218 1.188 
0.32026 0.497218 1.188 
0.367933 0.497636 1.189 
0.404158 0.484243 1.157 
0.397418 0.4223 1.009 
0.402946 0.388818 0.929 
0.413251 0.361613 0.864 
0.450806 0.364124 0.87 
0.483259 0.36245 0.866 
0.515393 0.360776 0.862 
0.543381 0.356591 0.852 
0.546855 0.337757 0.807 
0.544928 0.31683 0.757 
0.54396 0.29967 0.716 
0.54372 0.284603 0.68 
0.542289 0.270373 0.646 
0.542543 0.258235 0.617 
0.541404 0.246516 0.589 
0.538786 0.232286 0.555 
-0.999634 0.486115 1.155 
-0.975053 0.497058 1.181 
-0.928754 0.497479 1.182 
-0.88163 0.497479 1.182 
-0.836625 0.498741 1.185 
-0.786717 0.497058 1.181 
-0.739632 0.497058 1.181 
-0.691376 0.496216 1.179 
-0.643278 0.495374 1.177 
-0.59838 0.497058 1.181 
-0.551296 0.497058 1.181 
-0.504212 0.497058 1.181 
-0.457515 0.497479 1.182 
-0.409003 0.495795 1.178 
-0.36296 0.497058 1.181 
-0.315876 0.497058 1.181 
-0.268792 0.497058 1.181 
-0.221708 0.497058 1.181 
-0.17492 0.4979 1.183 
-0.127756 0.4979 1.183 
-0.0804561 0.497058 1.181 
-0.0335134 0.499162 1.186 
0.0137932 0.500004 1.188 
0.0612077 0.500425 1.189 
0.108611 0.500425 1.189 
0.156014 0.500425 1.189 
0.203417 0.500425 1.189 
0.250609 0.500004 1.188 
0.297972 0.500004 1.188 
0.344754 0.499162 1.186 
0.39369 0.501267 1.191 
0.399606 0.451182 1.072 
0.393654 0.401518 0.954 
0.405895 0.377528 0.897 
0.422982 0.359851 0.855 
0.463907 0.363639 0.864 
0.495166 0.359851 0.855 
0.529254 0.359851 0.855 
0.550163 0.351434 0.835 
0.547118 0.329548 0.783 
0.547313 0.311871 0.741 
0.54338 0.293773 0.698 
0.541748 0.278622 0.662 
0.542393 0.265995 0.632 
0.541546 0.25379 0.603 
0.540261 0.242426 0.576 
0.541974 0.231062 0.549 
-0.997005 0.495595 1.171 
-0.961681 0.50152 1.185 
-0.912122 0.500251 1.182 
-0.864998 0.500251 1.182 
-0.81995 0.50152 1.185 
-0.768794 0.498981 1.179 
-0.723015 0.499827 1.181 
-0.674213 0.498558 1.178 
-0.627782 0.498981 1.179 
-0.581762 0.499827 1.181 
-0.534678 0.499827 1.181 
-0.487594 0.499827 1.181 
-0.44051 0.499827 1.181 
-0.393426 0.499827 1.181 
-0.346342 0.499827 1.181 
-0.299512 0.500251 1.182 
-0.252174 0.499827 1.181 
-0.20509 0.499827 1.181 
-0.158274 0.500674 1.183 
-0.111016 0.500251 1.182 
-0.0637301 0.498981 1.179 
-0.0168535 0.50279 1.188 
0.0305096 0.50279 1.188 
0.0778727 0.50279 1.188 
0.125868 0.505329 1.194 
0.172744 0.503213 1.189 
0.220517 0.50406 1.191 
0.267325 0.50279 1.188 
0.314688 0.50279 1.188 
0.362051 0.50279 1.188 
0.404934 0.497288 1.175 
0.398913 0.433805 1.025 
0.398159 0.392752 0.928 
0.406553 0.366935 0.867 
0.433995 0.36101 0.853 
0.468551 0.361433 0.854 
0.501421 0.360587 0.852 
0.53476 0.360164 0.851 
0.547304 0.34662 0.819 
0.545966 0.326306 0.771 
0.545288 0.30853 0.729 
0.544413 0.292448 0.691 
0.542163 0.277212 0.655 
0.543117 0.264938 0.626 
0.541757 0.252665 0.597 
0.542822 0.242507 0.573 
0.541974 0.23235 0.549 
-0.997856 0.498767 1.172 
-0.961681 0.504299 1.185 
-0.912122 0.503023 1.182 
-0.864998 0.503023 1.182 
-0.81995 0.504299 1.185 
-0.768794 0.501746 1.179 
-0.723015 0.502597 1.181 
-0.674213 0.50132 1.178 
-0.627782 0.501746 1.179 
-0.581762 0.502597 1.181 
-0.533773 0.501746 1.179 
-0.487594 0.502597 1.181 
-0.44051 0.502597 1.181 
-0.393426 0.502597 1.181 
-0.346342 0.502597 1.181 
-0.299512 0.503023 1.182 
-0.252174 0.502597 1.181 
-0.204743 0.501746 1.179 
-0.158274 0.503448 1.183 
-0.110922 0.502597 1.181 
-0.0636761 0.50132 1.178 
-0.0168535 0.505576 1.188 
0.0305096 0.505576 1.188 
0.0779382 0.506002 1.189 
0.125868 0.508129 1.194 
0.172744 0.506002 1.189 
0.220517 0.506853 1.191 
0.267325 0.505576 1.188 
0.314158 0.504725 1.186 
0.362051 0.505576 1.188 
0.404245 0.499193 1.173 
0.397283 0.437059 1.027 
0.39641 0.395354 0.929 
0.405453 0.36982 0.869 
0.430475 0.361734 0.85 
0.463817 0.361308 0.849 
0.497665 0.361308 0.849 
0.530887 0.360883 0.848 
0.547381 0.349818 0.822 
0.545569 0.328965 0.773 
0.54507 0.311091 0.731 
0.543578 0.294494 0.692 
0.542278 0.279599 0.657 
0.542514 0.266832 0.627 
0.541262 0.25449 0.598 
0.542424 0.244277 0.574 
0.541974 0.233637 0.549 
-0.995956 0.501943 1.173 
-0.959711 0.507506 1.186 
-0.90935 0.505795 1.182 
-0.862226 0.505795 1.182 
-0.817171 0.507078 1.185 
-0.767329 0.505367 1.181 
-0.720855 0.505795 1.182 
-0.672021 0.504511 1.179 
-0.625017 0.504511 1.179 
-0.578993 0.505367 1.181 
-0.531008 0.504511 1.179 
-0.484825 0.505367 1.181 
-0.438111 0.505795 1.182 
-0.390657 0.505367 1.181 
-0.343573 0.505367 1.181 
-0.29674 0.505795 1.182 
-0.249616 0.505795 1.182 
-0.202321 0.505367 1.181 
-0.1555 0.506223 1.183 
-0.108153 0.505367 1.181 
-0.0609652 0.504511 1.179 
-0.0140675 0.508362 1.188 
0.0332956 0.508362 1.188 
0.0806587 0.508362 1.188 
0.128668 0.51093 1.194 
0.175385 0.508362 1.188 
0.223311 0.509646 1.191 
0.269656 0.507506 1.186 
0.317474 0.508362 1.188 
0.364837 0.508362 1.188 
0.404914 0.499376 1.167 
0.396896 0.43904 1.026 
0.396872 0.395821 0.925 
0.404677 0.36929 0.863 
0.429416 0.36116 0.844 
0.462516 0.360732 0.843 
0.496713 0.36116 0.844 
0.529733 0.360732 0.843 
0.547304 0.350462 0.819 
0.545966 0.329922 0.771 
0.545288 0.31195 0.729 
0.544413 0.295689 0.691 
0.541336 0.279856 0.654 
0.543984 0.268302 0.627 
0.541757 0.255465 0.597 
0.54377 0.245623 0.574 
0.542272 0.234497 0.548 
-0.992143 0.505555 1.175 
-0.953344 0.509857 1.185 
-0.903042 0.508136 1.181 
-0.856682 0.508567 1.182 
-0.811613 0.509857 1.185 
-0.76179 0.508136 1.181 
-0.715311 0.508567 1.182 
-0.666491 0.507276 1.179 
-0.620538 0.508136 1.181 
-0.573454 0.508136 1.181 
-0.525478 0.507276 1.179 
-0.479286 0.508136 1.181 
-0.432567 0.508567 1.182 
-0.385117 0.508136 1.181 
-0.338033 0.508136 1.181 
-0.291196 0.508567 1.182 
-0.244072 0.508567 1.182 
-0.196781 0.508136 1.181 
-0.149824 0.508567 1.182 
-0.102613 0.508136 1.181 
-0.0555293 0.508136 1.181 
-0.00848104 0.510288 1.186 
0.0388678 0.511148 1.188 
0.0862309 0.511148 1.188 
0.134044 0.512869 1.192 
0.180957 0.511148 1.188 
0.228897 0.512439 1.191 
0.275219 0.510288 1.186 
0.322502 0.510288 1.186 
0.370409 0.511148 1.188 
0.403706 0.493938 1.148 
0.397793 0.437144 1.016 
0.397275 0.391966 0.911 
0.405037 0.366151 0.851 
0.431743 0.360127 0.837 
0.465113 0.360127 0.837 
0.500865 0.361848 0.841 
0.531216 0.359697 0.836 
0.547664 0.34894 0.811 
0.543523 0.326997 0.76 
0.543038 0.308496 0.717 
0.54372 0.293437 0.682 
0.541611 0.278378 0.647 
0.541973 0.2659 0.618 
0.54094 0.253853 0.59 
0.541501 0.243527 0.566 
-1.00177 0.494034 1.142 
-0.986389 0.509608 1.178 
-0.943412 0.511771 1.183 
-0.89549 0.511339 1.182 
-0.848366 0.511339 1.182 
-0.80192 0.511771 1.183 
-0.754119 0.511339 1.182 
-0.706397 0.510906 1.181 
-0.65708 0.509176 1.177 
-0.612747 0.511339 1.182 
-0.565145 0.510906 1.181 
-0.516745 0.509608 1.178 
-0.470977 0.510906 1.181 
-0.423893 0.510906 1.181 
-0.377128 0.511339 1.182 
-0.329724 0.510906 1.181 
-0.28264 0.510906 1.181 
-0.235756 0.511339 1.182 
-0.188632 0.511339 1.182 
-0.141628 0.511771 1.183 
-0.0943044 0.510906 1.181 
-0.0472603 0.511339 1.182 
-0.000136913 0.513069 1.186 
0.047226 0.513934 1.188 
0.0944298 0.513069 1.186 
0.14243 0.515665 1.192 
0.189315 0.513934 1.188 
0.237276 0.515232 1.191 
0.284041 0.513934 1.188 
0.330847 0.513069 1.186 
0.379086 0.514367 1.189 
0.406761 0.490574 1.134 
0.397767 0.431739 0.998 
0.39748 0.388046 0.897 
0.405712 0.363388 0.84 
0.435541 0.36036 0.833 
0.469313 0.360792 0.834 
0.505576 0.362955 0.839 
0.535171 0.36036 0.833 
0.547228 0.346949 0.802 
0.545259 0.326616 0.755 
0.542096 0.305851 0.707 
0.544471 0.292008 0.675 
0.540908 0.276434 0.639 
0.539793 0.263456 0.609 
0.539991 0.252209 0.583 
0.540047 0.241826 0.559 
-0.999907 0.498452 1.146 
-0.985027 0.514546 1.183 
-0.93707 0.514111 1.182 
-0.889946 0.514111 1.182 
-0.842822 0.514111 1.182 
-0.796372 0.514546 1.183 
-0.748575 0.514111 1.182 
-0.700857 0.513676 1.181 
-0.652113 0.512371 1.178 
-0.607203 0.514111 1.182 
-0.558658 0.512806 1.179 
-0.511219 0.512371 1.178 
-0.465437 0.513676 1.181 
-0.418353 0.513676 1.181 
-0.371269 0.513676 1.181 
-0.32446 0.514111 1.182 
-0.277101 0.513676 1.181 
-0.230212 0.514111 1.182 
-0.183088 0.514111 1.182 
-0.136079 0.514546 1.183 
-0.0887651 0.513676 1.181 
-0.0417516 0.514546 1.183 
0.00542126 0.515416 1.185 
0.0527092 0.51585 1.186 
0.0999926 0.51585 1.186 
0.147897 0.518025 1.191 
0.195051 0.517155 1.189 
0.242862 0.518025 1.191 
0.289857 0.517155 1.189 
0.336409 0.51585 1.186 
0.38434 0.51672 1.188 
0.405539 0.485404 1.116 
0.396271 0.424946 0.977 
0.396911 0.38754 0.891 
0.40574 0.363618 0.836 
0.435393 0.360573 0.829 
0.469574 0.361443 0.831 
0.505729 0.363618 0.836 
0.534545 0.360573 0.829 
0.549109 0.34883 0.802 
0.545166 0.326212 0.75 
0.543098 0.306205 0.704 
0.54358 0.291416 0.67 
0.542203 0.277063 0.637 
0.540867 0.264015 0.607 
0.541794 0.253141 0.582 
0.540728 0.242267 0.557 
-1.00297 0.508137 1.162 
-0.978046 0.519506 1.188 
-0.925199 0.516445 1.181 
-0.878115 0.516445 1.181 
-0.831734 0.516883 1.182 
-0.785274 0.51732 1.183 
-0.737487 0.516883 1.182 
-0.689779 0.516445 1.181 
-0.641062 0.515134 1.178 
-0.595611 0.516445 1.181 
-0.547598 0.515571 1.179 
-0.500593 0.515571 1.179 
-0.454359 0.516445 1.181 
-0.406585 0.515571 1.179 
-0.359581 0.515571 1.179 
-0.313107 0.516445 1.181 
-0.266023 0.516445 1.181 
-0.219124 0.516883 1.182 
-0.172146 0.51732 1.183 
-0.124982 0.51732 1.183 
-0.0775549 0.515571 1.179 
-0.030732 0.518632 1.186 
0.0165374 0.518195 1.185 
0.0639423 0.519506 1.188 
0.111305 0.519506 1.188 
0.159069 0.520818 1.191 
0.206205 0.519944 1.189 
0.253608 0.519944 1.189 
0.301011 0.519944 1.189 
0.347535 0.518632 1.186 
0.393154 0.516445 1.181 
0.401843 0.471404 1.078 
0.395304 0.418929 0.958 
0.399107 0.385694 0.882 
0.410145 0.364267 0.833 
0.439097 0.360768 0.825 
0.47256 0.361206 0.826 
0.510999 0.365141 0.835 
0.535163 0.359019 0.821 
0.553368 0.349836 0.8 
0.545305 0.32491 0.743 
0.543975 0.307418 0.703 
0.543524 0.292113 0.668 
0.542843 0.27812 0.636 
0.540504 0.264563 0.605 
0.542226 0.254068 0.581 
0.540088 0.242699 0.555 
-1.00353 0.513939 1.169 
-0.972474 0.522292 1.188 
-0.920438 0.519655 1.182 
-0.872576 0.519215 1.181 
-0.82619 0.519655 1.182 
-0.779726 0.520094 1.183 
-0.731943 0.519655 1.182 
-0.68424 0.519215 1.181 
-0.635537 0.517896 1.178 
-0.590071 0.519215 1.181 
-0.542068 0.518336 1.179 
-0.495064 0.518336 1.179 
-0.449199 0.519655 1.182 
-0.401055 0.518336 1.179 
-0.354051 0.518336 1.179 
-0.307567 0.519215 1.181 
-0.260483 0.519215 1.181 
-0.21358 0.519655 1.182 
-0.166597 0.520094 1.183 
-0.119231 0.519215 1.181 
-0.072025 0.518336 1.179 
-0.0251693 0.521413 1.186 
0.0220954 0.520974 1.185 
0.0693974 0.521413 1.186 
0.116878 0.522292 1.188 
0.164655 0.523611 1.191 
0.211782 0.522732 1.189 
0.258967 0.522292 1.188 
0.30633 0.522292 1.188 
0.353098 0.521413 1.186 
0.397343 0.517456 1.177 
0.397463 0.462941 1.053 
0.396876 0.418098 0.951 
0.39913 0.383806 0.873 
0.411567 0.364022 0.828 
0.440282 0.360505 0.82 
0.474127 0.361384 0.822 
0.514298 0.36666 0.834 
0.537044 0.359626 0.818 
0.554335 0.349954 0.796 
0.549051 0.325773 0.741 
0.542675 0.30555 0.695 
0.540838 0.289723 0.659 
0.541294 0.276534 0.629 
0.540258 0.263784 0.6 
0.541612 0.253233 0.576 
0.541052 0.242681 0.552 
-1.0006 0.518007 1.172 
-0.965274 0.524195 1.186 
-0.915668 0.522869 1.183 
-0.867036 0.521985 1.181 
-0.820646 0.522427 1.182 
-0.775486 0.523753 1.185 
-0.726399 0.522427 1.182 
-0.677551 0.521101 1.179 
-0.630547 0.521101 1.179 
-0.584532 0.521985 1.181 
-0.536538 0.521101 1.179 
-0.489534 0.521101 1.179 
-0.444031 0.522869 1.183 
-0.395525 0.521101 1.179 
-0.348521 0.521101 1.179 
-0.302284 0.522427 1.182 
-0.25516 0.522427 1.182 
-0.208036 0.522427 1.182 
-0.161048 0.522869 1.183 
-0.113499 0.521101 1.179 
-0.0664951 0.521101 1.179 
-0.0196065 0.524195 1.186 
0.0276535 0.523753 1.185 
0.074897 0.523753 1.185 
0.12245 0.525079 1.188 
0.169956 0.525521 1.189 
0.217359 0.525521 1.189 
0.264539 0.525079 1.188 
0.311902 0.525079 1.188 
0.359265 0.525079 1.188 
0.401494 0.518449 1.173 
0.396509 0.453035 1.025 
0.39641 0.410604 0.929 
0.400787 0.379665 0.859 
0.414776 0.361986 0.819 
0.446881 0.361544 0.818 
0.480666 0.362428 0.82 
0.516488 0.364638 0.825 
0.53939 0.358008 0.81 
0.549506 0.342981 0.776 
0.546036 0.322649 0.73 
0.544413 0.305412 0.691 
0.53968 0.288174 0.652 
0.542249 0.276241 0.625 
0.541757 0.263865 0.597 
0.541875 0.252816 0.572 
-1.00983 0.504759 1.136 
-0.995956 0.5212 1.173 
-0.959711 0.526976 1.186 
-0.91012 0.525643 1.183 
-0.861497 0.524754 1.181 
-0.815103 0.525199 1.182 
-0.769928 0.526532 1.185 
-0.720855 0.525199 1.182 
-0.672021 0.523866 1.179 
-0.626077 0.524754 1.181 
-0.577522 0.523421 1.178 
-0.530558 0.523421 1.178 
-0.484004 0.523866 1.179 
-0.438482 0.525643 1.183 
-0.390657 0.524754 1.181 
-0.342991 0.523866 1.179 
-0.29674 0.525199 1.182 
-0.249616 0.525199 1.182 
-0.202492 0.525199 1.182 
-0.155368 0.525199 1.182 
-0.107969 0.523866 1.179 
-0.0610686 0.524754 1.181 
-0.0140438 0.526976 1.186 
0.0332116 0.526532 1.185 
0.0803193 0.525643 1.183 
0.128022 0.527865 1.188 
0.175533 0.528309 1.189 
0.222748 0.527865 1.188 
0.270338 0.528309 1.189 
0.317474 0.527865 1.188 
0.364837 0.527865 1.188 
0.405261 0.518978 1.168 
0.396509 0.455439 1.025 
0.396836 0.413227 0.93 
0.399387 0.380347 0.856 
0.414269 0.363462 0.818 
0.445242 0.362129 0.815 
0.479493 0.363462 0.818 
