# .PCD v.7 - Point Cloud Data file format
VERSION .7
FIELDS x y z
SIZE 4 4 4
TYPE F F F
COUNT 1 1 1
WIDTH 1845
HEIGHT 1
VIEWPOINT 0 0 0 1 0 0 0
POINTS 1845
DATA ascii
-0.453267 -0.429322 0.971 
-0.417117 -0.431975 0.977 
-0.385133 -0.439934 0.995 
-0.347201 -0.442145 1 
-0.311328 -0.447892 1.013 
0.509115 -0.551796 1.248 
0.566931 -0.559755 1.266 
0.625694 -0.567271 1.283 
0.683703 -0.573019 1.296 
0.74672 -0.581862 1.316 
0.806473 -0.587168 1.328 
0.873655 -0.596895 1.35 
0.94053 -0.605296 1.369 
1.00456 -0.611044 1.382 
1.07729 -0.621213 1.405 
1.14783 -0.629172 1.423 
1.22487 -0.639783 1.447 
1.29852 -0.647742 1.465 
1.37267 -0.655258 1.482 
1.46363 -0.669849 1.515 
-0.764741 -0.389662 0.886 
-0.731888 -0.390982 0.889 
-0.704279 -0.39538 0.899 
-0.674386 -0.398898 0.907 
-0.641041 -0.400657 0.911 
-0.61335 -0.406375 0.924 
-0.581504 -0.409893 0.932 
-0.55194 -0.41561 0.945 
-0.516986 -0.417809 0.95 
-0.48718 -0.424846 0.966 
-0.451455 -0.427485 0.972 
-0.4161 -0.431003 0.98 
-0.383185 -0.43804 0.996 
-0.345201 -0.440239 1.001 
-0.308953 -0.445517 1.013 
0.509523 -0.549309 1.249 
0.567378 -0.557226 1.267 
0.625694 -0.564263 1.283 
0.685285 -0.571299 1.299 
0.747287 -0.579216 1.317 
0.807688 -0.584933 1.33 
0.87495 -0.594609 1.352 
0.94053 -0.602085 1.369 
1.00601 -0.608682 1.384 
1.08036 -0.619677 1.409 
1.14783 -0.625835 1.423 
1.22657 -0.637269 1.449 
1.29852 -0.644306 1.465 
1.3736 -0.652222 1.483 
1.46363 -0.666296 1.515 
-0.765604 -0.388022 0.887 
-0.732711 -0.389334 0.89 
-0.705063 -0.393709 0.9 
-0.67513 -0.397208 0.908 
-0.641041 -0.398521 0.911 
-0.614014 -0.404645 0.925 
-0.582128 -0.408145 0.933 
-0.55194 -0.413394 0.945 
-0.516986 -0.415581 0.95 
-0.487685 -0.423018 0.967 
-0.451919 -0.425643 0.973 
-0.416524 -0.429143 0.981 
-0.383954 -0.436579 0.998 
-0.345545 -0.438329 1.002 
-0.309258 -0.443579 1.014 
0.506594 -0.54638 1.249 
0.564407 -0.554254 1.267 
0.622685 -0.561254 1.283 
0.682239 -0.568253 1.299 
0.744199 -0.576127 1.317 
0.804569 -0.581814 1.33 
0.871779 -0.591438 1.352 
0.938005 -0.599312 1.37 
1.00349 -0.605874 1.385 
1.07705 -0.616373 1.409 
1.14449 -0.622497 1.423 
1.22317 -0.633871 1.449 
1.29685 -0.641745 1.467 
1.37012 -0.648745 1.483 
1.46105 -0.663181 1.516 
-0.770632 -0.386377 0.888 
-0.733534 -0.387682 0.891 
-0.705063 -0.391598 0.9 
-0.67513 -0.395079 0.908 
-0.641041 -0.396384 0.911 
-0.614678 -0.402911 0.926 
-0.582752 -0.406392 0.934 
-0.553108 -0.412048 0.947 
-0.51753 -0.413789 0.951 
-0.488189 -0.421186 0.968 
-0.452384 -0.423796 0.974 
-0.416524 -0.426842 0.981 
-0.383954 -0.434239 0.998 
-0.345545 -0.435979 1.002 
-0.309868 -0.442071 1.016 
0.503664 -0.543451 1.249 
0.561436 -0.551283 1.267 
0.619676 -0.558245 1.283 
0.679192 -0.565207 1.299 
0.74111 -0.573039 1.317 
0.80145 -0.578695 1.33 
0.868608 -0.588267 1.352 
0.934792 -0.596099 1.37 
1.00024 -0.602626 1.385 
1.07375 -0.613069 1.409 
1.14276 -0.62003 1.425 
1.21977 -0.630473 1.449 
1.29341 -0.638305 1.467 
1.36572 -0.644832 1.482 
1.45749 -0.659625 1.516 
-0.772715 -0.384294 0.888 
-0.739803 -0.385593 0.891 
-0.710604 -0.389055 0.899 
-0.680767 -0.392517 0.907 
-0.64745 -0.394248 0.911 
-0.619851 -0.399874 0.924 
-0.588692 -0.403769 0.933 
-0.559771 -0.409827 0.947 
-0.523669 -0.411126 0.95 
-0.493465 -0.417617 0.965 
-0.458765 -0.421079 0.973 
-0.422995 -0.424109 0.98 
-0.390584 -0.431466 0.997 
-0.352595 -0.433629 1.002 
-0.317016 -0.439688 1.016 
0.482774 -0.540089 1.248 
0.53893 -0.546581 1.263 
0.595815 -0.552639 1.277 
0.65331 -0.558265 1.29 
0.716758 -0.567786 1.312 
0.776685 -0.573412 1.325 
0.838275 -0.579471 1.339 
0.909638 -0.591155 1.366 
0.972567 -0.596349 1.378 
1.04391 -0.605869 1.4 
1.11543 -0.614525 1.42 
1.18773 -0.622747 1.439 
1.265 -0.632701 1.462 
1.33686 -0.639192 1.477 
1.43166 -0.655637 1.515 
1.50092 -0.659532 1.524 
-0.748161 -0.383503 0.891 
-0.718238 -0.386516 0.898 
-0.689276 -0.39039 0.907 
-0.654556 -0.391251 0.909 
-0.627839 -0.397276 0.923 
-0.596804 -0.40115 0.932 
-0.567453 -0.406746 0.945 
-0.53202 -0.408467 0.949 
-0.499914 -0.413202 0.96 
-0.467892 -0.418797 0.973 
-0.430865 -0.420519 0.977 
-0.398733 -0.427836 0.994 
-0.361633 -0.430849 1.001 
-0.325582 -0.436014 1.013 
-0.287448 -0.439457 1.021 
0.517857 -0.540175 1.255 
0.575131 -0.547062 1.271 
0.633189 -0.553518 1.286 
0.695636 -0.562557 1.307 
0.756897 -0.569444 1.323 
0.817598 -0.575039 1.336 
0.889765 -0.587521 1.365 
0.951102 -0.591826 1.375 
1.02201 -0.601295 1.397 
1.09314 -0.609903 1.417 
1.16261 -0.61679 1.433 
1.24102 -0.62755 1.458 
1.31163 -0.633576 1.472 
1.39172 -0.643476 1.495 
1.47754 -0.655097 1.522 
-0.761076 -0.380557 0.889 
-0.729714 -0.382698 0.894 
-0.703389 -0.387835 0.906 
-0.669478 -0.389119 0.909 
-0.639508 -0.392971 0.918 
-0.610133 -0.39768 0.929 
-0.579882 -0.402389 0.94 
-0.547599 -0.406242 0.949 
-0.511913 -0.407954 0.953 
-0.482373 -0.415231 0.97 
-0.445988 -0.417372 0.975 
-0.412963 -0.423365 0.989 
-0.37731 -0.427645 0.999 
-0.339847 -0.430642 1.006 
-0.303911 -0.436635 1.02 
0.49567 -0.53552 1.251 
0.552958 -0.542797 1.268 
0.61065 -0.549218 1.283 
0.670053 -0.556067 1.299 
0.732956 -0.564629 1.319 
0.792688 -0.569766 1.331 
0.859096 -0.578755 1.352 
0.926504 -0.587317 1.372 
0.992645 -0.594166 1.388 
1.06535 -0.604012 1.411 
1.13511 -0.611289 1.428 
1.21041 -0.620707 1.45 
1.28396 -0.628412 1.468 
1.35346 -0.633549 1.48 
1.45255 -0.651528 1.522 
1.51621 -0.652812 1.525 
-0.742725 -0.37975 0.892 
-0.715091 -0.384007 0.902 
-0.683647 -0.386561 0.908 
-0.649587 -0.387839 0.911 
-0.623365 -0.394224 0.926 
-0.592147 -0.398056 0.935 
-0.562585 -0.40359 0.948 
-0.527004 -0.405293 0.952 
-0.495728 -0.410828 0.965 
-0.46152 -0.414659 0.974 
-0.426161 -0.418065 0.982 
-0.392528 -0.424025 0.996 
-0.355299 -0.427006 1.003 
-0.320027 -0.433391 1.018 
0.471822 -0.53216 1.25 
0.526664 -0.537269 1.262 
0.582921 -0.542804 1.275 
0.640712 -0.548764 1.289 
0.704451 -0.558556 1.312 
0.764256 -0.56409 1.325 
0.825714 -0.57005 1.339 
0.898793 -0.582822 1.369 
0.961729 -0.587931 1.381 
1.03298 -0.597297 1.403 
1.10211 -0.604534 1.42 
1.17668 -0.6139 1.442 
1.25129 -0.622415 1.462 
1.32301 -0.628801 1.477 
1.4109 -0.641998 1.508 
1.4876 -0.649236 1.525 
-0.758609 -0.377234 0.891 
-0.727956 -0.379775 0.897 
-0.699911 -0.384009 0.907 
-0.665214 -0.384855 0.909 
-0.638662 -0.390783 0.923 
-0.606428 -0.393746 0.93 
-0.578534 -0.400097 0.945 
-0.543721 -0.402214 0.95 
-0.509041 -0.404754 0.956 
-0.478809 -0.411528 0.972 
-0.442321 -0.413645 0.977 
-0.409563 -0.419996 0.992 
-0.373371 -0.423807 1.001 
-0.336461 -0.427617 1.01 
-0.299714 -0.432698 1.022 
0.496858 -0.530923 1.254 
0.554266 -0.53812 1.271 
0.611602 -0.544047 1.285 
0.672117 -0.551668 1.303 
0.733511 -0.558866 1.32 
0.794475 -0.564793 1.334 
0.862273 -0.574531 1.357 
0.927179 -0.581305 1.373 
0.995506 -0.589349 1.392 
1.06837 -0.599087 1.415 
1.1375 -0.605861 1.431 
1.21291 -0.615176 1.453 
1.28571 -0.622373 1.47 
1.35803 -0.628724 1.485 
1.45446 -0.645236 1.524 
1.5182 -0.646506 1.527 
-0.74439 -0.376408 0.894 
-0.717469 -0.381039 0.905 
-0.683647 -0.382303 0.908 
-0.649587 -0.383566 0.911 
-0.624711 -0.390723 0.928 
-0.592147 -0.393671 0.935 
-0.563178 -0.399565 0.949 
-0.527004 -0.400828 0.952 
-0.496242 -0.406723 0.966 
-0.461994 -0.410512 0.975 
-0.427029 -0.414301 0.984 
-0.392922 -0.419775 0.997 
-0.356008 -0.423143 1.005 
-0.320341 -0.429038 1.019 
0.466331 -0.526719 1.251 
0.51992 -0.530508 1.26 
0.577394 -0.537244 1.276 
0.635158 -0.543139 1.29 
0.698297 -0.552402 1.312 
0.758041 -0.557875 1.325 
0.821882 -0.565454 1.343 
0.892372 -0.576401 1.369 
0.955944 -0.581875 1.382 
1.02787 -0.591558 1.405 
1.097 -0.598716 1.422 
1.17154 -0.607979 1.444 
1.24528 -0.615979 1.463 
1.31608 -0.621873 1.477 
1.4001 -0.633241 1.504 
1.48239 -0.642925 1.527 
-0.762788 -0.373055 0.891 
-0.732163 -0.375567 0.897 
-0.704942 -0.380173 0.908 
-0.669478 -0.380592 0.909 
-0.642294 -0.386035 0.922 
-0.61079 -0.389384 0.93 
-0.581733 -0.394827 0.943 
-0.548753 -0.398177 0.951 
-0.514062 -0.400689 0.957 
-0.483368 -0.406969 0.972 
-0.446903 -0.409063 0.977 
-0.414633 -0.415762 0.993 
-0.378066 -0.419112 1.001 
-0.341536 -0.423298 1.011 
-0.304805 -0.428323 1.023 
0.46745 -0.525041 1.254 
0.520745 -0.52839 1.262 
0.577846 -0.534671 1.277 
0.636143 -0.540951 1.292 
0.698829 -0.549744 1.313 
0.759185 -0.555605 1.327 
0.823718 -0.563561 1.346 
0.893024 -0.573609 1.37 
0.957327 -0.579471 1.384 
1.03006 -0.58952 1.408 
1.09777 -0.5958 1.423 
1.17397 -0.605849 1.447 
1.24698 -0.613385 1.465 
1.31697 -0.618828 1.478 
1.40476 -0.631808 1.509 
1.48433 -0.640181 1.529 
-0.762788 -0.370966 0.891 
-0.732979 -0.37388 0.898 
-0.704942 -0.378044 0.908 
-0.669478 -0.37846 0.909 
-0.642991 -0.384289 0.923 
-0.612104 -0.388036 0.932 
-0.581733 -0.392616 0.943 
-0.548753 -0.395947 0.951 
-0.515136 -0.399277 0.959 
-0.483368 -0.40469 0.972 
-0.446903 -0.406772 0.977 
-0.415051 -0.41385 0.994 
-0.378066 -0.416764 1.001 
-0.342212 -0.42176 1.013 
-0.304805 -0.425924 1.023 
0.0882237 -3.96446 9.522 
0.511866 -0.525431 1.262 
0.568416 -0.53126 1.276 
0.626568 -0.537505 1.291 
0.689066 -0.546248 1.312 
0.748719 -0.551661 1.325 
0.814248 -0.560404 1.346 
0.882741 -0.56998 1.369 
0.946221 -0.575392 1.382 
1.01798 -0.584969 1.405 
1.08699 -0.592046 1.422 
1.16379 -0.602455 1.447 
1.23499 -0.609117 1.463 
1.30569 -0.614946 1.477 
1.39321 -0.627852 1.508 
1.47357 -0.636596 1.529 
-0.766967 -0.368876 0.891 
-0.73637 -0.37136 0.897 
-0.7092 -0.375914 0.908 
-0.673742 -0.376328 0.909 
-0.645216 -0.380882 0.92 
-0.616475 -0.38585 0.932 
-0.586156 -0.390404 0.943 
-0.553214 -0.393716 0.951 
-0.519634 -0.397028 0.959 
-0.487927 -0.40241 0.972 
-0.451486 -0.40448 0.977 
-0.419291 -0.411104 0.993 
-0.382761 -0.414416 1.001 
-0.346963 -0.419385 1.013 
-0.309603 -0.423525 1.023 
0.0875844 -3.91357 9.453 
0.508907 -0.522471 1.262 
0.565424 -0.528267 1.276 
0.62354 -0.534477 1.291 
0.68599 -0.543171 1.312 
0.745612 -0.548553 1.325 
0.812296 -0.558075 1.348 
0.880173 -0.567183 1.37 
0.94298 -0.572151 1.382 
1.01469 -0.581674 1.405 
1.08442 -0.589126 1.423 
1.1604 -0.599062 1.447 
1.23324 -0.606514 1.465 
1.30223 -0.611482 1.477 
1.3906 -0.62473 1.509 
1.47191 -0.633838 1.531 
-0.767828 -0.367198 0.892 
-0.737191 -0.369668 0.898 
-0.7092 -0.373785 0.908 
-0.673742 -0.374196 0.909 
-0.645917 -0.379136 0.921 
-0.616475 -0.383665 0.932 
-0.586156 -0.388193 0.943 
-0.553214 -0.391486 0.951 
-0.520718 -0.395603 0.961 
-0.488429 -0.400543 0.973 
-0.451948 -0.402601 0.978 
-0.419713 -0.409187 0.994 
-0.382761 -0.412069 1.001 
-0.347306 -0.417421 1.014 
-0.309906 -0.421537 1.024 
0.0209238 -3.86299 9.384 
0.497068 -0.519512 1.262 
0.55302 -0.524863 1.275 
0.610482 -0.530626 1.289 
0.672142 -0.538859 1.309 
0.733182 -0.545446 1.325 
0.796685 -0.552856 1.343 
0.865422 -0.562736 1.367 
0.927997 -0.567675 1.379 
1.00008 -0.577555 1.403 
1.07032 -0.585377 1.422 
1.14286 -0.59361 1.442 
1.217 -0.601843 1.462 
1.28663 -0.607195 1.475 
1.37553 -0.620779 1.508 
1.45565 -0.629424 1.529 
1.5295 -0.634776 1.542 
-0.748992 -0.367153 0.897 
-0.721977 -0.371655 0.908 
-0.686532 -0.372065 0.909 
-0.653869 -0.374111 0.914 
-0.628238 -0.38066 0.93 
-0.596246 -0.383935 0.938 
-0.565404 -0.388437 0.949 
-0.531461 -0.391302 0.956 
-0.501088 -0.397442 0.971 
-0.465233 -0.399898 0.977 
-0.431518 -0.40481 0.989 
-0.395657 -0.408494 0.998 
-0.360147 -0.413405 1.01 
-0.323681 -0.418317 1.022 
-0.284874 -0.421182 1.029 
0.481506 -0.515733 1.26 
0.536804 -0.520645 1.272 
0.593982 -0.526375 1.286 
0.654284 -0.533743 1.304 
0.716562 -0.54152 1.323 
0.77803 -0.54766 1.338 
0.845043 -0.556665 1.36 
0.909182 -0.562804 1.375 
0.981527 -0.573037 1.4 
1.05068 -0.580405 1.418 
1.11971 -0.586954 1.434 
1.19821 -0.597596 1.46 
1.26761 -0.602917 1.473 
1.34794 -0.61274 1.497 
1.43584 -0.62502 1.527 
1.51338 -0.631978 1.544 
-0.758663 -0.364642 0.896 
-0.730203 -0.368305 0.905 
-0.697191 -0.369933 0.909 
-0.663132 -0.371154 0.912 
-0.638456 -0.378072 0.929 
-0.60595 -0.380921 0.936 
-0.575317 -0.385398 0.947 
-0.541535 -0.388247 0.954 
-0.511418 -0.394351 0.969 
-0.475713 -0.396793 0.975 
-0.441771 -0.401269 0.986 
-0.407359 -0.406153 0.998 
-0.371254 -0.410223 1.008 
-0.335008 -0.415106 1.02 
-0.296363 -0.417955 1.027 
0.463408 -0.512371 1.259 
0.517274 -0.516034 1.268 
0.5732 -0.520918 1.28 
0.633497 -0.52865 1.299 
0.696364 -0.537196 1.32 
0.755231 -0.541673 1.331 
0.823477 -0.551847 1.356 
0.88854 -0.558766 1.373 
0.956332 -0.566498 1.392 
1.02855 -0.575858 1.415 
1.09569 -0.581556 1.429 
1.17202 -0.591323 1.453 
1.24434 -0.598241 1.47 
1.31624 -0.604346 1.485 
1.41157 -0.620218 1.524 
1.48779 -0.626729 1.54 
-0.770783 -0.361327 0.893 
-0.741767 -0.364564 0.901 
-0.712113 -0.367801 0.909 
-0.67736 -0.36861 0.911 
-0.649485 -0.373466 0.923 
-0.619325 -0.377512 0.933 
-0.588367 -0.381558 0.943 
-0.556028 -0.3852 0.952 
-0.52406 -0.389651 0.963 
-0.491215 -0.394102 0.974 
-0.455635 -0.396934 0.981 
-0.422469 -0.402599 0.995 
-0.385493 -0.405431 1.002 
-0.350373 -0.411096 1.016 
-0.312613 -0.414737 1.025 
-0.0224408 -3.69015 9.12 
0.492706 -0.512251 1.266 
0.547469 -0.516297 1.276 
0.605374 -0.522367 1.291 
0.668037 -0.531268 1.313 
0.728065 -0.536933 1.327 
0.793329 -0.54543 1.348 
0.860267 -0.553927 1.369 
0.922865 -0.558783 1.381 
0.997042 -0.569708 1.408 
1.0644 -0.575777 1.423 
1.13767 -0.584274 1.444 
1.21262 -0.592771 1.465 
1.28231 -0.598031 1.478 
1.36937 -0.610574 1.509 
1.45037 -0.619476 1.531 
1.5351 -0.629187 1.555 
-0.756145 -0.361244 0.898 
-0.728365 -0.365267 0.908 
-0.694452 -0.366474 0.911 
-0.661744 -0.368485 0.916 
-0.634781 -0.374117 0.93 
-0.604131 -0.37814 0.94 
-0.572081 -0.381761 0.949 
-0.537624 -0.384174 0.955 
-0.507919 -0.390611 0.971 
-0.472107 -0.393024 0.977 
-0.438476 -0.397852 0.989 
-0.403082 -0.401874 0.999 
-0.367253 -0.406299 1.01 
-0.331195 -0.411529 1.023 
-0.292682 -0.414747 1.031 
0.463776 -0.506869 1.26 
0.518905 -0.511696 1.272 
0.574096 -0.515719 1.282 
0.635448 -0.524166 1.303 
0.697946 -0.532212 1.323 
0.756933 -0.536637 1.334 
0.824085 -0.545889 1.357 
0.889834 -0.55313 1.375 
0.959767 -0.56198 1.397 
1.03 -0.570026 1.417 
1.09953 -0.576865 1.434 
1.17606 -0.586519 1.458 
1.24604 -0.592151 1.472 
1.32068 -0.599392 1.49 
1.4125 -0.613472 1.525 
1.49165 -0.621115 1.544 
-0.773743 -0.357539 0.894 
-0.74388 -0.360338 0.901 
-0.714245 -0.363538 0.909 
-0.679497 -0.364338 0.911 
-0.652355 -0.369537 0.924 
-0.621513 -0.373136 0.933 
-0.591831 -0.377935 0.945 
-0.558261 -0.380735 0.952 
-0.526319 -0.385134 0.963 
-0.493499 -0.389533 0.974 
-0.458869 -0.393133 0.983 
-0.424802 -0.397932 0.995 
-0.38823 -0.401131 1.003 
-0.352756 -0.40633 1.016 
-0.315016 -0.40993 1.025 
-0.0432184 -3.59658 8.993 
0.467472 -0.504713 1.262 
0.52353 -0.510312 1.276 
0.578453 -0.513912 1.285 
0.640463 -0.52271 1.307 
0.701579 -0.529509 1.324 
0.761201 -0.534308 1.336 
0.830315 -0.544707 1.362 
0.893708 -0.550306 1.376 
0.965111 -0.559904 1.4 
1.03405 -0.567103 1.418 
1.10674 -0.575501 1.439 
1.18271 -0.5847 1.462 
1.25203 -0.589899 1.475 
1.32595 -0.596698 1.492 
1.41793 -0.610695 1.527 
1.50011 -0.619494 1.549 
-0.77041 -0.35584 0.895 
-0.741296 -0.35902 0.903 
-0.709982 -0.361406 0.909 
-0.676706 -0.362996 0.913 
-0.650125 -0.368563 0.927 
-0.61846 -0.371743 0.935 
-0.588642 -0.376514 0.947 
-0.553796 -0.378502 0.952 
-0.522344 -0.383273 0.964 
-0.489433 -0.387647 0.975 
-0.455645 -0.39202 0.986 
-0.42098 -0.396394 0.997 
-0.38429 -0.399574 1.005 
-0.349361 -0.405538 1.02 
-0.310814 -0.408321 1.027 
-0.0221283 -3.57549 8.993 
0.467843 -0.502151 1.263 
0.52353 -0.50732 1.276 
0.578453 -0.510898 1.285 
0.640463 -0.519645 1.307 
0.702109 -0.526802 1.325 
0.76291 -0.532368 1.339 
0.830925 -0.54191 1.363 
0.895007 -0.547874 1.378 
0.967179 -0.557814 1.403 
1.03551 -0.564573 1.42 
1.10904 -0.573319 1.442 
1.18352 -0.581669 1.463 
1.25203 -0.58644 1.475 
1.32861 -0.594392 1.495 
1.41793 -0.607114 1.527 
1.50399 -0.617452 1.553 
-0.77041 -0.353741 0.895 
-0.742117 -0.357298 0.904 
-0.709982 -0.359274 0.909 
-0.677447 -0.36125 0.914 
-0.650827 -0.366784 0.928 
-0.619121 -0.369946 0.936 
-0.589264 -0.374689 0.948 
-0.554377 -0.376665 0.953 
-0.522344 -0.381012 0.964 
-0.489433 -0.38536 0.975 
-0.456569 -0.390498 0.988 
-0.421402 -0.394451 0.998 
-0.384673 -0.397613 1.006 
-0.349361 -0.403146 1.02 
-0.311419 -0.406703 1.029 
-0.0432184 -3.5544 8.993 
0.464513 -0.498794 1.262 
0.520945 -0.504723 1.277 
0.575887 -0.50828 1.286 
0.637398 -0.51658 1.307 
0.699001 -0.523695 1.325 
0.75977 -0.529228 1.339 
0.827728 -0.538714 1.363 
0.891775 -0.544642 1.378 
0.963889 -0.554523 1.403 
1.03218 -0.561242 1.42 
1.10566 -0.569938 1.442 
1.18009 -0.578238 1.463 
1.25027 -0.583771 1.477 
1.32511 -0.590886 1.495 
1.41435 -0.603533 1.527 
1.50228 -0.6146 1.555 
-0.774608 -0.351642 0.895 
-0.745531 -0.354785 0.903 
-0.715031 -0.357535 0.91 
-0.68248 -0.3595 0.915 
-0.654473 -0.364215 0.927 
-0.622845 -0.367358 0.935 
-0.59371 -0.372465 0.948 
-0.558261 -0.374037 0.952 
-0.526319 -0.378359 0.963 
-0.494006 -0.383074 0.975 
-0.460269 -0.387395 0.986 
-0.425656 -0.391717 0.997 
-0.389004 -0.39486 1.005 
-0.354145 -0.400754 1.02 
-0.315631 -0.403504 1.027 
-0.278164 -0.408612 1.04 
0.163152 -3.43784 8.75 
0.498024 -0.499764 1.272 
0.55305 -0.503693 1.282 
0.612172 -0.510372 1.299 
0.676228 -0.519801 1.323 
0.735034 -0.524123 1.334 
0.801217 -0.532767 1.356 
0.867262 -0.540232 1.375 
0.934822 -0.547697 1.394 
1.00532 -0.555948 1.415 
1.07524 -0.56302 1.433 
1.14975 -0.571664 1.455 
1.22187 -0.578343 1.472 
1.29796 -0.586201 1.492 
1.38291 -0.597202 1.52 
1.46441 -0.605846 1.542 
1.54963 -0.615275 1.566 
-0.754445 -0.351886 0.901 
-0.724904 -0.355011 0.909 
-0.693209 -0.357354 0.915 
-0.66319 -0.360869 0.924 
-0.632453 -0.364384 0.933 
-0.604188 -0.369852 0.947 
-0.569424 -0.371804 0.952 
-0.536494 -0.375319 0.961 
-0.50492 -0.380396 0.974 
-0.469917 -0.383521 0.982 
-0.436469 -0.388598 0.995 
-0.40039 -0.392113 1.004 
-0.36467 -0.3968 1.016 
-0.327035 -0.400315 1.025 
-0.290079 -0.405782 1.039 
0.0199137 -3.48801 8.931 
0.475642 -0.495218 1.268 
0.531589 -0.500296 1.281 
0.587664 -0.504592 1.292 
0.651046 -0.513965 1.316 
0.710996 -0.519433 1.33 
0.774361 -0.526462 1.348 
0.841004 -0.534664 1.369 
0.908012 -0.542084 1.388 
0.977924 -0.550286 1.409 
1.04584 -0.556535 1.425 
1.12122 -0.565908 1.449 
1.19445 -0.573329 1.468 
1.26578 -0.579187 1.483 
1.34188 -0.586607 1.502 
1.43069 -0.598714 1.533 
1.52003 -0.61004 1.562 
-0.768781 -0.348609 0.898 
-0.741142 -0.352491 0.908 
-0.707271 -0.353655 0.911 
-0.676843 -0.356761 0.919 
-0.647867 -0.361031 0.93 
-0.617358 -0.364913 0.94 
-0.586051 -0.368795 0.95 
-0.551639 -0.371125 0.956 
-0.519971 -0.375783 0.968 
-0.485854 -0.379277 0.977 
-0.453765 -0.3851 0.992 
-0.417139 -0.387817 0.999 
-0.382598 -0.393252 1.013 
-0.345928 -0.397523 1.024 
-0.308083 -0.401405 1.034 
-0.26944 -0.405287 1.044 
0.144588 -3.44338 8.87 
0.492058 -0.493798 1.272 
0.547464 -0.498068 1.283 
0.606546 -0.504667 1.3 
0.670022 -0.513596 1.323 
0.72987 -0.518643 1.336 
0.795443 -0.526795 1.357 
0.860813 -0.533783 1.375 
0.930281 -0.542323 1.397 
0.998681 -0.549311 1.415 
1.06852 -0.556299 1.433 
1.14528 -0.566004 1.458 
1.21744 -0.572603 1.475 
1.29355 -0.580367 1.495 
1.37216 -0.58852 1.516 
1.45717 -0.598613 1.542 
1.54229 -0.60793 1.566 
-0.76205 -0.347274 0.9 
-0.733431 -0.350747 0.909 
-0.701793 -0.353062 0.915 
-0.670403 -0.355763 0.922 
-0.640518 -0.359622 0.932 
-0.611777 -0.364638 0.945 
-0.578354 -0.367339 0.952 
-0.545509 -0.370812 0.961 
-0.513001 -0.375056 0.972 
-0.478153 -0.378143 0.98 
-0.445803 -0.383931 0.995 
-0.408992 -0.386632 1.002 
-0.3742 -0.392034 1.016 
-0.336651 -0.395507 1.025 
-0.299249 -0.400137 1.037 
-0.107993 -3.51905 9.12 
0.453033 -0.487342 1.263 
0.508966 -0.492744 1.277 
0.564262 -0.496602 1.287 
0.625138 -0.50432 1.307 
0.687608 -0.512037 1.327 
0.749442 -0.518211 1.343 
0.816138 -0.526699 1.365 
0.880762 -0.532873 1.381 
0.952083 -0.542134 1.405 
1.01886 -0.547922 1.42 
1.09213 -0.556411 1.442 
1.16796 -0.565286 1.465 
1.23892 -0.571073 1.48 
1.31635 -0.579176 1.501 
1.40003 -0.589209 1.527 
1.48769 -0.600013 1.555 
-0.78265 -0.344013 0.897 
-0.752717 -0.346698 0.904 
-0.722226 -0.349382 0.911 
-0.691177 -0.352067 0.918 
-0.660282 -0.355135 0.926 
-0.631443 -0.359737 0.938 
-0.601646 -0.36434 0.95 
-0.566146 -0.365874 0.954 
-0.534754 -0.370476 0.966 
-0.500865 -0.373927 0.975 
-0.468154 -0.378913 0.988 
-0.433104 -0.382748 0.998 
-0.397651 -0.386967 1.009 
-0.361321 -0.391186 1.02 
-0.323485 -0.394637 1.029 
-0.28603 -0.399623 1.042 
-0.00105282 -3.49766 9.12 
0.46041 -0.485914 1.267 
0.516569 -0.491283 1.281 
0.571627 -0.494735 1.29 
0.632234 -0.502021 1.309 
0.695401 -0.510075 1.33 
0.758554 -0.516979 1.348 
0.824951 -0.525032 1.369 
0.889809 -0.531169 1.385 
0.961402 -0.540373 1.409 
1.02769 -0.545742 1.423 
1.10271 -0.554947 1.447 
1.17724 -0.563 1.468 
1.24839 -0.568753 1.483 
1.32603 -0.576807 1.504 
1.41087 -0.587162 1.531 
1.49979 -0.598284 1.56 
-0.778443 -0.34191 0.897 
-0.750133 -0.34534 0.906 
-0.719529 -0.348008 0.913 
-0.687619 -0.350295 0.919 
-0.657356 -0.353726 0.928 
-0.62838 -0.3583 0.94 
-0.597819 -0.362493 0.951 
-0.56226 -0.364017 0.955 
-0.531321 -0.368973 0.968 
-0.496801 -0.372022 0.976 
-0.464927 -0.37774 0.991 
-0.428423 -0.380408 0.998 
-0.394476 -0.386125 1.013 
-0.357236 -0.389556 1.022 
-0.319278 -0.392986 1.031 
-0.281412 -0.39756 1.043 
0.0417231 -3.47627 9.12 
0.466721 -0.483324 1.268 
0.522985 -0.48866 1.282 
0.580365 -0.493996 1.296 
0.641787 -0.50162 1.316 
0.702167 -0.507337 1.331 
0.767147 -0.515342 1.352 
0.831979 -0.522203 1.37 
0.900836 -0.530589 1.392 
0.970072 -0.538212 1.412 
1.03654 -0.543549 1.426 
1.1141 -0.55384 1.453 
1.18574 -0.56032 1.47 
1.25873 -0.5668 1.487 
1.33752 -0.575186 1.509 
1.42083 -0.584715 1.534 
1.51291 -0.596912 1.566 
-0.777205 -0.340185 0.898 
-0.748834 -0.343594 0.907 
-0.718174 -0.346246 0.914 
-0.68621 -0.348519 0.92 
-0.655885 -0.351928 0.929 
-0.626176 -0.356095 0.94 
-0.596215 -0.360641 0.952 
-0.561193 -0.362535 0.957 
-0.529598 -0.367081 0.969 
-0.495019 -0.370112 0.977 
-0.46307 -0.375794 0.992 
-0.42651 -0.378446 0.999 
-0.392101 -0.38375 1.013 
-0.355187 -0.387538 1.023 
-0.317782 -0.391705 1.034 
-0.279501 -0.395872 1.045 
0.0204779 -3.47913 9.184 
0.463747 -0.48035 1.268 
0.520384 -0.486032 1.283 
0.577326 -0.490957 1.296 
0.638701 -0.498534 1.316 
0.699045 -0.504216 1.331 
0.764541 -0.51255 1.353 
0.829976 -0.519748 1.372 
0.897571 -0.527324 1.392 
0.966761 -0.534901 1.412 
1.0332 -0.540204 1.426 
1.11069 -0.550433 1.453 
1.18229 -0.556873 1.47 
1.25778 -0.564449 1.49 
1.33751 -0.573162 1.513 
1.41724 -0.581117 1.534 
1.50923 -0.59324 1.566 
-0.778936 -0.338832 0.9 
-0.748834 -0.341467 0.907 
-0.71896 -0.344479 0.915 
-0.68621 -0.346361 0.92 
-0.655885 -0.34975 0.929 
-0.628174 -0.35502 0.943 
-0.596215 -0.358409 0.952 
-0.562366 -0.361044 0.959 
-0.530144 -0.365185 0.97 
-0.495019 -0.367821 0.977 
-0.463537 -0.373844 0.993 
-0.426937 -0.37648 1 
-0.392488 -0.38175 1.014 
-0.355534 -0.385515 1.024 
-0.318397 -0.390033 1.036 
-0.280036 -0.394174 1.047 
0.0423179 -3.48244 9.25 
0.467825 -0.478506 1.271 
0.524209 -0.483776 1.285 
0.582156 -0.489424 1.3 
0.64325 -0.496577 1.319 
0.703749 -0.502224 1.334 
0.769416 -0.510507 1.356 
0.833801 -0.516907 1.373 
0.90213 -0.524813 1.394 
0.971446 -0.532342 1.414 
1.03872 -0.537989 1.429 
1.11563 -0.547778 1.455 
1.18735 -0.554178 1.472 
1.26551 -0.562837 1.495 
1.34372 -0.570743 1.516 
1.42454 -0.579026 1.538 
1.51291 -0.589567 1.566 
-0.773462 -0.337095 0.901 
-0.74409 -0.340088 0.909 
-0.714858 -0.343456 0.918 
-0.681215 -0.344952 0.922 
-0.651446 -0.348693 0.932 
-0.622858 -0.353557 0.945 
-0.590756 -0.356924 0.954 
-0.558516 -0.360666 0.964 
-0.524399 -0.363659 0.972 
-0.489644 -0.366652 0.98 
-0.45747 -0.372264 0.995 
-0.420741 -0.374883 1.002 
-0.386874 -0.380869 1.018 
-0.34867 -0.383488 1.025 
-0.312009 -0.388726 1.039 
-0.273191 -0.392467 1.049 
0.108952 -3.51088 9.384 
0.471176 -0.475899 1.272 
0.527632 -0.481137 1.286 
0.588356 -0.488994 1.307 
0.646834 -0.493858 1.32 
0.707938 -0.499844 1.336 
0.773166 -0.507701 1.357 
0.83824 -0.514435 1.375 
0.909296 -0.523788 1.4 
0.97683 -0.530149 1.417 
1.04499 -0.536135 1.433 
1.12135 -0.545488 1.458 
1.19323 -0.551848 1.475 
1.27071 -0.560079 1.497 
1.35083 -0.568685 1.52 
1.43186 -0.576916 1.542 
1.51851 -0.586643 1.568 
-0.772205 -0.335354 0.902 
-0.741958 -0.337957 0.909 
-0.714258 -0.342046 0.92 
-0.679789 -0.343162 0.923 
-0.649261 -0.346508 0.932 
-0.621955 -0.352085 0.947 
-0.588519 -0.354687 0.954 
-0.557409 -0.359149 0.966 
-0.523194 -0.362123 0.974 
-0.487843 -0.364725 0.981 
-0.455137 -0.36993 0.995 
-0.418809 -0.372905 1.003 
-0.384864 -0.378853 1.019 
-0.346604 -0.381456 1.026 
-0.30987 -0.386661 1.04 
-0.271247 -0.390751 1.051 
0.109753 -3.51452 9.453 
0.464845 -0.472544 1.271 
0.521601 -0.478121 1.286 
0.580889 -0.484813 1.304 
0.640642 -0.490762 1.32 
0.701146 -0.496339 1.335 
0.766801 -0.504518 1.357 
0.831791 -0.51121 1.375 
0.900795 -0.51939 1.397 
0.970184 -0.526826 1.417 
1.03682 -0.532031 1.431 
1.11222 -0.540954 1.455 
1.1847 -0.547646 1.473 
1.26369 -0.556569 1.497 
1.3437 -0.56512 1.52 
1.42463 -0.573299 1.542 
1.51116 -0.582966 1.568 
-0.784027 -0.332869 0.901 
-0.753918 -0.335455 0.908 
-0.724832 -0.33878 0.917 
-0.689774 -0.339519 0.919 
-0.660953 -0.343583 0.93 
-0.633939 -0.349125 0.945 
-0.601311 -0.35208 0.953 
-0.568637 -0.355405 0.962 
-0.536348 -0.359469 0.973 
-0.499602 -0.360947 0.977 
-0.468195 -0.366858 0.993 
-0.432059 -0.369814 1.001 
-0.397244 -0.374616 1.014 
-0.360337 -0.378311 1.024 
-0.323568 -0.383114 1.037 
-0.285491 -0.387547 1.049 
-0.0229255 -3.44211 9.317 
0.455902 -0.469564 1.271 
0.512155 -0.474736 1.285 
0.569961 -0.480278 1.3 
0.630877 -0.487297 1.319 
0.690199 -0.4921 1.332 
0.757254 -0.501336 1.357 
0.820921 -0.507247 1.373 
0.887778 -0.514266 1.392 
0.95886 -0.522764 1.415 
1.02532 -0.527936 1.429 
1.10047 -0.536802 1.453 
1.17354 -0.543822 1.472 
1.25148 -0.552319 1.495 
1.33125 -0.560816 1.518 
1.41011 -0.568205 1.538 
1.49822 -0.57855 1.566 
-0.790366 -0.330756 0.901 
-0.760306 -0.333326 0.908 
-0.729689 -0.335896 0.915 
-0.69624 -0.337364 0.919 
-0.666779 -0.341035 0.929 
-0.640587 -0.346909 0.945 
-0.607378 -0.349478 0.952 
-0.574807 -0.352782 0.961 
-0.543193 -0.357187 0.973 
-0.505957 -0.358289 0.976 
-0.473267 -0.363061 0.989 
-0.438224 -0.366732 0.999 
-0.403181 -0.371137 1.011 
-0.367182 -0.375542 1.023 
-0.330545 -0.380315 1.036 
-0.292871 -0.385087 1.049 
-0.0656744 -3.37144 9.184 
0.452922 -0.466583 1.271 
0.509141 -0.471722 1.285 
0.566913 -0.477229 1.3 
0.627784 -0.484204 1.319 
0.688107 -0.48971 1.334 
0.754072 -0.498153 1.357 
0.817701 -0.504027 1.373 
0.884513 -0.511002 1.392 
0.955541 -0.519445 1.415 
1.02197 -0.524585 1.429 
1.09706 -0.533395 1.453 
1.17009 -0.54037 1.472 
1.24797 -0.548813 1.495 
1.32944 -0.557991 1.52 
1.4065 -0.564598 1.538 
1.49454 -0.574877 1.566 
1.57388 -0.581118 1.583 
-0.760306 -0.331197 0.908 
-0.729689 -0.33375 0.915 
-0.69624 -0.335209 0.919 
-0.666779 -0.338856 0.929 
-0.641943 -0.345422 0.947 
-0.608016 -0.34761 0.953 
-0.576003 -0.351258 0.963 
-0.543751 -0.35527 0.974 
-0.506475 -0.356365 0.977 
-0.474224 -0.361471 0.991 
-0.438663 -0.364754 1 
-0.403979 -0.369496 1.013 
-0.367541 -0.373508 1.024 
-0.331502 -0.378979 1.039 
-0.292871 -0.382627 1.049 
-0.0872125 -3.3499 9.184 
0.44696 -0.463602 1.271 
0.502331 -0.467979 1.283 
0.560815 -0.47418 1.3 
0.621597 -0.48111 1.319 
0.680828 -0.485852 1.332 
0.747707 -0.494971 1.357 
0.810671 -0.500442 1.372 
0.876092 -0.506643 1.389 
0.950246 -0.516856 1.417 
1.01455 -0.520869 1.428 
1.09024 -0.529987 1.453 
1.16319 -0.536918 1.472 
1.23847 -0.544213 1.492 
1.32231 -0.554426 1.52 
1.39929 -0.560991 1.538 
1.4872 -0.571205 1.566 
1.56645 -0.577405 1.583 
-0.764565 -0.329067 0.908 
-0.73398 -0.331604 0.915 
-0.701313 -0.333416 0.92 
-0.671136 -0.336678 0.929 
-0.64502 -0.342476 0.945 
-0.611843 -0.345013 0.952 
-0.58052 -0.349 0.963 
-0.54832 -0.352986 0.974 
-0.511058 -0.354073 0.977 
-0.477905 -0.358422 0.989 
-0.442466 -0.361684 0.998 
-0.40873 -0.36712 1.013 
-0.372344 -0.371107 1.024 
-0.335728 -0.375818 1.037 
-0.297791 -0.380167 1.049 
-0.194903 -3.32836 9.184 
0.413215 -0.456273 1.259 
0.473399 -0.463158 1.278 
0.530094 -0.468232 1.292 
0.592407 -0.47693 1.316 
0.649284 -0.480192 1.325 
0.714296 -0.488527 1.348 
0.778294 -0.49505 1.366 
0.843727 -0.501574 1.384 
0.914492 -0.510271 1.408 
0.980277 -0.515345 1.422 
1.05155 -0.522593 1.442 
1.12519 -0.530204 1.463 
1.19727 -0.536365 1.48 
1.28005 -0.546512 1.508 
1.35705 -0.553398 1.527 
1.44393 -0.563546 1.555 
1.52723 -0.571519 1.577 
-0.779879 -0.326218 0.906 
-0.747863 -0.328018 0.911 
-0.720916 -0.332339 0.923 
-0.683377 -0.331979 0.922 
-0.655035 -0.336299 0.934 
-0.629043 -0.34242 0.951 
-0.595479 -0.344941 0.958 
-0.564267 -0.349262 0.97 
-0.528304 -0.351062 0.975 
-0.493951 -0.354303 0.984 
-0.460266 -0.358623 0.996 
-0.426047 -0.363304 1.009 
-0.390026 -0.367265 1.02 
-0.352443 -0.370505 1.029 
-0.316262 -0.376266 1.045 
-0.27749 -0.380227 1.056 
-0.0438288 -3.28378 9.12 
0.434011 -0.456561 1.268 
0.489913 -0.461601 1.282 
0.548198 -0.467723 1.299 
0.609686 -0.475284 1.32 
0.667831 -0.479245 1.331 
0.734436 -0.488246 1.356 
0.796638 -0.493287 1.37 
0.864926 -0.501208 1.392 
0.935631 -0.50949 1.415 
0.999055 -0.513091 1.425 
1.07439 -0.522092 1.45 
1.14782 -0.529293 1.47 
1.22037 -0.535415 1.487 
1.30633 -0.546576 1.518 
1.38126 -0.552337 1.534 
1.46875 -0.562419 1.562 
1.5516 -0.569981 1.583 
-0.773083 -0.324808 0.908 
-0.741752 -0.326955 0.914 
-0.71303 -0.330532 0.924 
-0.678387 -0.331605 0.927 
-0.651809 -0.336971 0.942 
-0.620774 -0.340548 0.952 
-0.588942 -0.344125 0.962 
-0.556312 -0.347702 0.972 
-0.520223 -0.349491 0.977 
-0.487183 -0.353783 0.989 
-0.451828 -0.357003 0.998 
-0.418233 -0.362369 1.013 
-0.381577 -0.365946 1.023 
-0.345123 -0.370596 1.036 
-0.307632 -0.375247 1.049 
-0.268851 -0.379539 1.061 
0.0417231 -3.26239 9.12 
0.451711 -0.456449 1.276 
0.506915 -0.460384 1.287 
0.567334 -0.467896 1.308 
0.627059 -0.473619 1.324 
0.689086 -0.480058 1.342 
0.754209 -0.48757 1.363 
0.816261 -0.49222 1.376 
0.884414 -0.499733 1.397 
0.955588 -0.50796 1.42 
1.02218 -0.512968 1.434 
1.09741 -0.521553 1.458 
1.1706 -0.52835 1.477 
1.24613 -0.535504 1.497 
1.32937 -0.545163 1.524 
1.40837 -0.552317 1.544 
1.49849 -0.563049 1.574 
1.57215 -0.566984 1.585 
-0.764115 -0.32339 0.91 
-0.734234 -0.326233 0.918 
-0.700675 -0.327654 0.922 
-0.669677 -0.330497 0.93 
-0.645524 -0.337249 0.949 
-0.610891 -0.339026 0.954 
-0.580664 -0.343646 0.967 
-0.546036 -0.346133 0.974 
-0.510329 -0.348266 0.98 
-0.478471 -0.353596 0.995 
-0.441449 -0.355729 1.001 
-0.40836 -0.36177 1.018 
-0.370304 -0.364258 1.025 
-0.334903 -0.370299 1.042 
-0.295894 -0.373497 1.051 
-0.258343 -0.379894 1.069 
0.396442 -0.448481 1.262 
0.452065 -0.453812 1.277 
0.507703 -0.458076 1.289 
0.567768 -0.465183 1.309 
0.627059 -0.470514 1.324 
0.6896 -0.477266 1.343 
0.754209 -0.484374 1.363 
0.817448 -0.489704 1.378 
0.88568 -0.497167 1.399 
0.956933 -0.505341 1.422 
1.02432 -0.510671 1.437 
1.09892 -0.518845 1.46 
1.1706 -0.524886 1.477 
1.24946 -0.533415 1.501 
1.32937 -0.541589 1.524 
1.41111 -0.549762 1.547 
1.49849 -0.559357 1.574 
1.57413 -0.563977 1.587 
-0.764955 -0.321609 0.911 
-0.734234 -0.32408 0.918 
-0.701435 -0.325845 0.923 
-0.670398 -0.328669 0.931 
-0.646205 -0.335377 0.95 
-0.610891 -0.336789 0.954 
-0.581264 -0.341731 0.968 
-0.546036 -0.343849 0.974 
-0.51137 -0.346674 0.982 
-0.478471 -0.351263 0.995 
-0.44189 -0.353734 1.002 
-0.40836 -0.359383 1.018 
-0.370665 -0.362207 1.026 
-0.335224 -0.368208 1.043 
-0.296176 -0.371385 1.052 
-0.258343 -0.377387 1.069 
0.020052 -3.17478 8.993 
0.449422 -0.45117 1.278 
0.50468 -0.455053 1.289 
0.564698 -0.462114 1.309 
0.623954 -0.467409 1.324 
0.687984 -0.475176 1.346 
0.751013 -0.481177 1.363 
0.814216 -0.486473 1.378 
0.882399 -0.493886 1.399 
0.953599 -0.502006 1.422 
1.02095 -0.507301 1.437 
1.097 -0.516127 1.462 
1.16714 -0.521422 1.477 
1.24594 -0.529895 1.501 
1.32579 -0.538015 1.524 
1.40748 -0.546134 1.547 
1.49574 -0.556019 1.575 
1.57239 -0.560962 1.589 
-0.764955 -0.319472 0.911 
-0.735034 -0.322278 0.919 
-0.702195 -0.324031 0.924 
-0.671118 -0.326836 0.932 
-0.646885 -0.333499 0.951 
-0.611532 -0.334902 0.955 
-0.581264 -0.339461 0.968 
-0.546036 -0.341565 0.974 
-0.512412 -0.345072 0.984 
-0.478952 -0.34928 0.996 
-0.44189 -0.351384 1.002 
-0.409163 -0.357697 1.02 
-0.371026 -0.360151 1.027 
-0.335546 -0.366113 1.044 
-0.296457 -0.369269 1.053 
-0.258585 -0.375231 1.07 
-0.107235 -3.17578 9.056 
0.422116 -0.444666 1.268 
0.47826 -0.449926 1.283 
0.536425 -0.455888 1.3 
0.598661 -0.463953 1.323 
0.655345 -0.466759 1.331 
0.722248 -0.475877 1.357 
0.78493 -0.481137 1.372 
0.853092 -0.488852 1.394 
0.920401 -0.495164 1.412 
0.988454 -0.501126 1.429 
1.06298 -0.509542 1.453 
1.13403 -0.515504 1.47 
1.20886 -0.522517 1.49 
1.29209 -0.532337 1.518 
1.36598 -0.537597 1.533 
1.45782 -0.549169 1.566 
1.5387 -0.555832 1.585 
-0.78033 -0.316639 0.909 
-0.750638 -0.319426 0.917 
-0.721088 -0.322561 0.926 
-0.685648 -0.323257 0.928 
-0.657038 -0.327437 0.94 
-0.627472 -0.331617 0.952 
-0.596948 -0.335798 0.964 
-0.563151 -0.338584 0.972 
-0.528175 -0.341023 0.979 
-0.49514 -0.345203 0.991 
-0.459309 -0.347989 0.999 
-0.42662 -0.353911 1.016 
-0.389154 -0.356698 1.024 
-0.352752 -0.361226 1.037 
-0.315012 -0.365406 1.049 
-0.277097 -0.370631 1.064 
-0.236663 -0.373766 1.073 
0.38787 -0.43995 1.263 
0.443428 -0.445176 1.278 
0.499021 -0.449356 1.29 
0.559838 -0.457019 1.312 
0.61821 -0.461547 1.325 
0.682683 -0.469559 1.348 
0.745713 -0.475481 1.365 
0.807753 -0.480009 1.378 
0.876464 -0.487673 1.4 
0.945597 -0.494639 1.42 
1.01562 -0.501258 1.439 
1.09088 -0.509618 1.463 
1.16099 -0.514843 1.478 
1.2389 -0.522855 1.501 
1.31865 -0.530867 1.524 
1.40022 -0.538878 1.547 
1.48836 -0.548632 1.575 
1.56888 -0.554902 1.593 
-0.769228 -0.315199 0.911 
-0.740953 -0.318659 0.921 
-0.708058 -0.320389 0.926 
-0.675489 -0.322465 0.932 
-0.65066 -0.328693 0.95 
-0.616011 -0.330423 0.955 
-0.585804 -0.334921 0.968 
-0.550604 -0.336997 0.974 
-0.517027 -0.340457 0.984 
-0.483624 -0.344609 0.996 
-0.44659 -0.346684 1.002 
-0.413947 -0.352912 1.02 
-0.375843 -0.355334 1.027 
-0.340443 -0.361216 1.044 
-0.301396 -0.36433 1.053 
-0.263604 -0.370212 1.07 
-0.192186 -3.13331 9.056 
0.400667 -0.438026 1.266 
0.456842 -0.443562 1.282 
0.513499 -0.448406 1.296 
0.575634 -0.45671 1.32 
0.632068 -0.459478 1.328 
0.697908 -0.468128 1.353 
0.76074 -0.473664 1.369 
0.826635 -0.480238 1.388 
0.89468 -0.487157 1.408 
0.962294 -0.493039 1.425 
1.03484 -0.500651 1.447 
1.10838 -0.507917 1.468 
1.18042 -0.513799 1.485 
1.25966 -0.522103 1.509 
1.33557 -0.528331 1.527 
1.42205 -0.538018 1.555 
1.51077 -0.547706 1.583 
1.5878 -0.55255 1.597 
-0.75973 -0.314437 0.915 
-0.731156 -0.317874 0.925 
-0.696529 -0.318905 0.928 
-0.664507 -0.32131 0.935 
-0.638635 -0.327152 0.952 
-0.60699 -0.330589 0.962 
-0.574548 -0.334025 0.972 
-0.538553 -0.335743 0.977 
-0.505738 -0.339867 0.989 
-0.471024 -0.343304 0.999 
-0.435943 -0.347084 1.01 
-0.40077 -0.351551 1.023 
-0.363856 -0.355331 1.034 
-0.327312 -0.360486 1.049 
-0.288213 -0.363923 1.059 
-0.249477 -0.369077 1.074 
-0.0432184 -3.09042 8.993 
0.424779 -0.438494 1.276 
0.479751 -0.442274 1.287 
0.539314 -0.449147 1.307 
0.599566 -0.455333 1.325 
0.657807 -0.459113 1.336 
0.724909 -0.468048 1.362 
0.786647 -0.472515 1.375 
0.854928 -0.480075 1.397 
0.922357 -0.486261 1.415 
0.993988 -0.493821 1.437 
1.0681 -0.501725 1.46 
1.13788 -0.50688 1.475 
1.21454 -0.51444 1.497 
1.2955 -0.523031 1.522 
1.37043 -0.52853 1.538 
1.46526 -0.540901 1.574 
1.54452 -0.546743 1.591 
-0.782047 -0.310926 0.911 
-0.752275 -0.313657 0.919 
-0.721867 -0.316387 0.927 
-0.687126 -0.317411 0.93 
-0.659135 -0.321848 0.943 
-0.62879 -0.325602 0.954 
-0.598806 -0.330039 0.967 
-0.564309 -0.332428 0.974 
-0.529254 -0.334817 0.981 
-0.496639 -0.339254 0.994 
-0.460689 -0.341985 1.002 
-0.42662 -0.346763 1.016 
-0.389534 -0.349835 1.025 
-0.353432 -0.354613 1.039 
-0.315613 -0.358709 1.051 
-0.277878 -0.364169 1.067 
-0.237104 -0.3669 1.075 
0.381946 -0.431065 1.263 
0.438803 -0.437549 1.282 
0.493735 -0.440962 1.292 
0.553684 -0.447788 1.312 
0.612919 -0.452908 1.327 
0.675357 -0.459393 1.346 
0.739852 -0.466219 1.366 
0.803034 -0.471338 1.381 
0.871761 -0.478847 1.403 
0.938937 -0.484649 1.42 
1.01238 -0.49284 1.444 
1.08699 -0.50069 1.467 
1.15719 -0.50581 1.482 
1.23432 -0.513318 1.504 
1.31236 -0.520486 1.525 
1.39477 -0.528677 1.549 
1.48473 -0.538916 1.579 
1.56533 -0.54506 1.597 
-0.77435 -0.309129 0.912 
-0.746082 -0.312518 0.922 
-0.714709 -0.314891 0.929 
-0.67986 -0.315908 0.932 
-0.655116 -0.322009 0.95 
-0.62114 -0.324043 0.956 
-0.591564 -0.328788 0.97 
-0.555742 -0.330483 0.975 
-0.522703 -0.334212 0.986 
-0.488786 -0.33794 0.997 
-0.45264 -0.340652 1.005 
-0.419141 -0.346075 1.021 
-0.381031 -0.348448 1.028 
-0.34567 -0.35421 1.045 
-0.306626 -0.357261 1.054 
-0.268622 -0.362684 1.07 
-0.227442 -0.365057 1.077 
0.389098 -0.429459 1.267 
0.445163 -0.434882 1.283 
0.501342 -0.439288 1.296 
0.561972 -0.446406 1.317 
0.620543 -0.450813 1.33 
0.684709 -0.45827 1.352 
0.747898 -0.464032 1.369 
0.811856 -0.469455 1.385 
0.881472 -0.477251 1.408 
0.947595 -0.482336 1.423 
1.02268 -0.491149 1.449 
1.0961 -0.498267 1.47 
1.16649 -0.503351 1.485 
1.24551 -0.511486 1.509 
1.32124 -0.517587 1.527 
1.41018 -0.528095 1.558 
1.49592 -0.536569 1.583 
1.57676 -0.54267 1.601 
-0.770459 -0.308 0.915 
-0.742002 -0.311366 0.925 
-0.708173 -0.312712 0.929 
-0.674026 -0.314059 0.933 
-0.649798 -0.320454 0.952 
-0.616985 -0.323147 0.96 
-0.585946 -0.327187 0.972 
-0.550009 -0.32887 0.977 
-0.517335 -0.332909 0.989 
-0.482254 -0.335939 0.998 
-0.447343 -0.339641 1.009 
-0.412765 -0.344354 1.023 
-0.374889 -0.347047 1.031 
-0.339613 -0.353106 1.049 
-0.299779 -0.355462 1.056 
-0.261826 -0.361185 1.073 
-0.168589 -3.00628 8.931 
0.396288 -0.427834 1.271 
0.451884 -0.432546 1.285 
0.508987 -0.437595 1.3 
0.569874 -0.444664 1.321 
0.627253 -0.44803 1.331 
0.691051 -0.455099 1.352 
0.75487 -0.461158 1.37 
0.822488 -0.468564 1.392 
0.889968 -0.474959 1.411 
0.95561 -0.479672 1.425 
1.03232 -0.489097 1.453 
1.1045 -0.495493 1.472 
1.17741 -0.501552 1.49 
1.26005 -0.510977 1.518 
1.33362 -0.516026 1.533 
1.42113 -0.525788 1.562 
1.50524 -0.53353 1.585 
1.58822 -0.540262 1.605 
-0.769153 -0.306188 0.916 
-0.740633 -0.309531 0.926 
-0.706755 -0.310868 0.93 
-0.672558 -0.312205 0.934 
-0.647565 -0.318222 0.952 
-0.616014 -0.321565 0.962 
-0.584267 -0.325241 0.973 
-0.548839 -0.327247 0.979 
-0.515015 -0.33059 0.989 
-0.480395 -0.333932 0.999 
-0.445859 -0.337944 1.011 
-0.410767 -0.342289 1.024 
-0.372833 -0.344963 1.032 
-0.337153 -0.350646 1.049 
-0.297865 -0.353654 1.058 
-0.259552 -0.359002 1.074 
-0.126699 -2.98534 8.931 
0.393307 -0.424853 1.271 
0.449219 -0.429867 1.286 
0.507106 -0.435549 1.303 
0.566776 -0.441566 1.321 
0.6246 -0.445243 1.332 
0.686862 -0.45126 1.35 
0.751108 -0.457611 1.369 
0.819224 -0.465299 1.392 
0.887288 -0.471985 1.412 
0.952268 -0.47633 1.425 
1.02891 -0.485689 1.453 
1.1018 -0.492375 1.473 
1.17549 -0.498726 1.492 
1.25649 -0.507417 1.518 
1.33003 -0.512431 1.533 
1.42109 -0.523462 1.566 
1.50342 -0.530481 1.587 
1.58841 -0.537835 1.609 
-0.771302 -0.30404 0.916 
-0.742804 -0.307359 0.926 
-0.708936 -0.308687 0.93 
-0.674748 -0.310015 0.934 
-0.649798 -0.315989 0.952 
-0.61827 -0.319308 0.962 
-0.586548 -0.32296 0.973 
-0.551135 -0.324951 0.979 
-0.518381 -0.328934 0.991 
-0.482738 -0.33159 0.999 
-0.449117 -0.336236 1.013 
-0.413169 -0.339888 1.024 
-0.37598 -0.343207 1.034 
-0.339613 -0.348186 1.049 
-0.300346 -0.351173 1.058 
-0.262314 -0.356816 1.075 
-0.220681 -0.358807 1.081 
0.0660544 -0.39034 1.176 
0.411102 -0.424859 1.28 
0.465743 -0.428179 1.29 
0.524389 -0.434153 1.308 
0.584029 -0.439796 1.325 
0.643583 -0.444443 1.339 
0.703733 -0.448758 1.352 
0.770523 -0.456392 1.375 
0.840348 -0.46469 1.4 
0.907045 -0.470333 1.417 
0.973058 -0.47498 1.431 
1.05458 -0.486265 1.465 
1.12439 -0.491244 1.48 
1.20018 -0.498214 1.501 
1.28017 -0.50618 1.525 
1.36031 -0.513483 1.547 
1.44773 -0.522776 1.575 
1.52778 -0.528751 1.593 
-0.794469 -0.300903 0.913 
-0.763882 -0.30321 0.92 
-0.734317 -0.306176 0.929 
-0.698781 -0.306836 0.931 
-0.670192 -0.31079 0.943 
-0.639976 -0.314416 0.954 
-0.610776 -0.31903 0.968 
-0.57573 -0.321007 0.974 
-0.54186 -0.323974 0.983 
-0.508806 -0.327928 0.995 
-0.47291 -0.330565 1.003 
-0.438533 -0.33485 1.016 
-0.401945 -0.338145 1.026 
-0.365615 -0.34243 1.039 
-0.328249 -0.346714 1.052 
-0.290118 -0.351328 1.066 
-0.250174 -0.354954 1.077 
0.0273268 -0.385934 1.171 
0.0746442 -0.38923 1.181 
0.404465 -0.421199 1.278 
0.459336 -0.424824 1.289 
0.517858 -0.430756 1.307 
0.577815 -0.436689 1.325 
0.637303 -0.441303 1.339 
0.694297 -0.44361 1.346 
0.761296 -0.45152 1.37 
0.833782 -0.461407 1.4 
0.900399 -0.46701 1.417 
0.96432 -0.470635 1.428 
1.04628 -0.48217 1.463 
1.11744 -0.487773 1.48 
1.19314 -0.494694 1.501 
1.27302 -0.502604 1.525 
1.35306 -0.509855 1.547 
1.44034 -0.519083 1.575 
1.5184 -0.524356 1.591 
1.60569 -0.532266 1.615 
-0.768197 -0.301053 0.92 
-0.738675 -0.303998 0.929 
-0.702393 -0.304325 0.93 
-0.672469 -0.307597 0.94 
-0.644451 -0.312178 0.954 
-0.61468 -0.316433 0.967 
-0.580299 -0.318723 0.974 
-0.546471 -0.321668 0.983 
-0.513473 -0.325595 0.995 
-0.477138 -0.327886 1.002 
-0.443299 -0.332467 1.016 
-0.406361 -0.335412 1.025 
-0.370488 -0.339993 1.039 
-0.333183 -0.344247 1.052 
-0.294564 -0.348174 1.064 
-0.255225 -0.352428 1.077 
0.0108311 -0.382533 1.169 
0.0577315 -0.384497 1.175 
0.378404 -0.415911 1.271 
0.434477 -0.421146 1.287 
0.491827 -0.426382 1.303 
0.550452 -0.431618 1.319 
0.608981 -0.435872 1.332 
0.667056 -0.439144 1.342 
0.726465 -0.442744 1.353 
0.801171 -0.454524 1.389 
0.872581 -0.463032 1.415 
0.934246 -0.46565 1.423 
1.01187 -0.475467 1.453 
1.086 -0.482666 1.475 
1.16498 -0.491174 1.501 
1.23706 -0.496082 1.516 
1.31205 -0.501645 1.533 
1.40273 -0.512444 1.566 
1.48294 -0.518661 1.585 
1.56954 -0.526515 1.609 
-0.783334 -0.297271 0.915 
-0.755834 -0.300844 0.926 
-0.722022 -0.302144 0.93 
-0.68789 -0.303443 0.934 
-0.663193 -0.309291 0.952 
-0.62918 -0.311241 0.958 
-0.60024 -0.316114 0.973 
-0.564333 -0.317738 0.978 
-0.532325 -0.321962 0.991 
-0.496795 -0.324561 0.999 
-0.462456 -0.32846 1.011 
-0.426742 -0.332033 1.022 
-0.389019 -0.334633 1.03 
-0.35336 -0.339831 1.046 
-0.31434 -0.342755 1.055 
-0.277441 -0.349252 1.075 
-0.235674 -0.350877 1.08 
0.0245806 -0.380441 1.171 
0.0718745 -0.38369 1.181 
0.382585 -0.41423 1.275 
0.438176 -0.418778 1.289 
0.496402 -0.424626 1.307 
0.554385 -0.429174 1.321 
0.613484 -0.433723 1.335 
0.668705 -0.435022 1.339 
0.72802 -0.438596 1.35 
0.806166 -0.452241 1.392 
0.877137 -0.460363 1.417 
0.938901 -0.462962 1.425 
1.01877 -0.473684 1.458 
1.09093 -0.479857 1.477 
1.17084 -0.488628 1.504 
1.24389 -0.493827 1.52 
1.31822 -0.499025 1.536 
1.41179 -0.510721 1.572 
1.48853 -0.515594 1.587 
1.57527 -0.523391 1.611 
-0.782896 -0.29577 0.917 
-0.754476 -0.298995 0.927 
-0.719841 -0.299963 0.93 
-0.686434 -0.301576 0.935 
-0.660961 -0.307059 0.952 
-0.628242 -0.309639 0.96 
-0.598572 -0.314155 0.974 
-0.563189 -0.31609 0.98 
-0.531071 -0.320283 0.993 
-0.494947 -0.322541 1 
-0.460995 -0.326734 1.013 
-0.425176 -0.330282 1.024 
-0.387354 -0.332862 1.032 
-0.351913 -0.338345 1.049 
-0.312457 -0.340926 1.057 
-0.275175 -0.347054 1.076 
-0.233573 -0.348989 1.082 
0.0273268 -0.377695 1.171 
0.0747074 -0.381243 1.182 
0.383185 -0.411885 1.277 
0.438176 -0.415755 1.289 
0.496782 -0.421883 1.308 
0.555224 -0.426721 1.323 
0.613943 -0.430914 1.336 
0.667207 -0.430914 1.336 
0.725863 -0.43414 1.346 
0.806166 -0.448977 1.392 
0.877756 -0.457363 1.418 
0.938901 -0.459621 1.425 
1.02017 -0.47091 1.46 
1.09093 -0.476393 1.477 
1.17395 -0.486391 1.508 
1.24553 -0.490907 1.522 
1.32166 -0.496713 1.54 
1.41359 -0.507679 1.574 
1.49041 -0.512517 1.589 
1.57918 -0.520903 1.615 
-0.78375 -0.29394 0.918 
-0.75529 -0.297142 0.928 
-0.721389 -0.298422 0.932 
-0.687168 -0.299703 0.936 
-0.660961 -0.304826 0.952 
-0.628896 -0.307708 0.961 
-0.598572 -0.311871 0.974 
-0.563189 -0.313792 0.98 
-0.531606 -0.318274 0.994 
-0.495442 -0.320516 1.001 
-0.46145 -0.324678 1.014 
-0.425176 -0.32788 1.024 
-0.388105 -0.331082 1.034 
-0.351913 -0.335885 1.049 
-0.313048 -0.339087 1.059 
-0.275431 -0.344851 1.077 
-0.233573 -0.346452 1.082 
0.0218344 -0.374949 1.171 
0.0691049 -0.378151 1.181 
0.363786 -0.407289 1.272 
0.41906 -0.411772 1.286 
0.476548 -0.417215 1.303 
0.534174 -0.421698 1.317 
0.592917 -0.42618 1.331 
0.649864 -0.428742 1.339 
0.702722 -0.428422 1.338 
0.776973 -0.440269 1.375 
0.853569 -0.451796 1.411 
0.91756 -0.455638 1.423 
0.992094 -0.463963 1.449 
1.06653 -0.471328 1.472 
1.14738 -0.480614 1.501 
1.22089 -0.486057 1.518 
1.29408 -0.49086 1.533 
1.38613 -0.502067 1.568 
1.46435 -0.50751 1.585 
1.55067 -0.515195 1.609 
-0.791498 -0.291469 0.917 
-0.762349 -0.294329 0.926 
-0.730132 -0.296237 0.932 
-0.694462 -0.296872 0.934 
-0.669891 -0.302594 0.952 
-0.637247 -0.305136 0.96 
-0.607085 -0.309268 0.973 
-0.571214 -0.310858 0.978 
-0.540386 -0.315625 0.993 
-0.503823 -0.317533 0.999 
-0.469569 -0.321347 1.011 
-0.434357 -0.325161 1.023 
-0.39665 -0.327704 1.031 
-0.360719 -0.332472 1.046 
-0.322677 -0.336286 1.058 
-0.285269 -0.342007 1.076 
-0.243497 -0.343596 1.081 
-0.204108 -0.349953 1.101 
0.0467092 -0.373474 1.175 
0.095226 -0.380149 1.196 
0.387087 -0.406849 1.28 
0.442225 -0.410663 1.292 
0.501378 -0.41702 1.312 
0.559171 -0.421152 1.325 
0.619848 -0.426555 1.342 
0.667329 -0.422741 1.33 
0.725228 -0.425602 1.339 
0.807686 -0.441494 1.389 
0.882324 -0.451348 1.42 
0.942904 -0.453255 1.426 
1.0271 -0.465651 1.465 
1.0981 -0.471054 1.482 
1.18139 -0.480908 1.513 
1.25156 -0.484722 1.525 
1.33129 -0.491715 1.547 
1.41998 -0.50125 1.577 
1.4979 -0.506336 1.593 
1.59081 -0.515871 1.623 
-0.781991 -0.29058 0.921 
-0.752556 -0.29342 0.93 
-0.717017 -0.294051 0.932 
-0.687155 -0.297206 0.942 
-0.657875 -0.300992 0.954 
-0.626988 -0.304463 0.965 
-0.594614 -0.307618 0.975 
-0.562012 -0.311088 0.986 
-0.527474 -0.313928 0.995 
-0.492217 -0.316767 1.004 
-0.458946 -0.3215 1.019 
-0.421194 -0.323708 1.026 
-0.385108 -0.32781 1.039 
-0.347655 -0.331596 1.051 
-0.309535 -0.335698 1.064 
-0.270882 -0.34043 1.079 
-0.229343 -0.342639 1.086 
0.00534806 -0.368826 1.169 
0.0522648 -0.371034 1.176 
0.101257 -0.378922 1.201 
0.384085 -0.403847 1.28 
0.439195 -0.407633 1.292 
0.498301 -0.413943 1.312 
0.556903 -0.418675 1.327 
0.615322 -0.422462 1.339 
0.662712 -0.418675 1.327 
0.72047 -0.421515 1.336 
0.802112 -0.436975 1.385 
0.877756 -0.447387 1.418 
0.938901 -0.449595 1.425 
1.02366 -0.462215 1.465 
1.09463 -0.467579 1.482 
1.1794 -0.477991 1.515 
1.24962 -0.481777 1.527 
1.32938 -0.488718 1.549 
1.41808 -0.498183 1.579 
1.49604 -0.503231 1.595 
1.58896 -0.512696 1.625 
-0.784151 -0.28842 0.921 
-0.754737 -0.291239 0.93 
-0.719203 -0.291865 0.932 
-0.690096 -0.29531 0.943 
-0.660112 -0.298755 0.954 
-0.629251 -0.3022 0.965 
-0.5969 -0.305331 0.975 
-0.564325 -0.308776 0.986 
-0.529807 -0.311594 0.995 
-0.494572 -0.314413 1.004 
-0.461336 -0.31911 1.019 
-0.4236 -0.321302 1.026 
-0.387545 -0.325373 1.039 
-0.350119 -0.329131 1.051 
-0.312617 -0.333829 1.066 
-0.273412 -0.3379 1.079 
-0.232103 -0.340405 1.087 
-0.192066 -0.346355 1.106 
0.0439536 -0.367963 1.175 
0.0924985 -0.374853 1.197 
0.367923 -0.399592 1.276 
0.423389 -0.403977 1.29 
0.481812 -0.409927 1.309 
0.540119 -0.414624 1.324 
0.59783 -0.418069 1.335 
0.648615 -0.416503 1.33 
0.703749 -0.417756 1.334 
0.779062 -0.429969 1.373 
0.856878 -0.441869 1.411 
0.920897 -0.445627 1.423 
1.00305 -0.457214 1.46 
1.07361 -0.462537 1.477 
1.15627 -0.472245 1.508 
1.22929 -0.477256 1.524 
1.3036 -0.482267 1.54 
1.39513 -0.492914 1.574 
