# .PCD v.7 - Point Cloud Data file format
VERSION .7
FIELDS x y z
SIZE 4 4 4
TYPE F F F
COUNT 1 1 1
WIDTH 1895
HEIGHT 1
VIEWPOINT 0 0 0 1 0 0 0
POINTS 1895
DATA ascii
-0.0762393 0.180658 1.159 
-0.0301101 0.181126 1.162 
0.0162164 0.181126 1.162 
0.0623276 0.180502 1.158 
0.109713 0.182529 1.171 
0.156932 0.183152 1.175 
0.204124 0.183464 1.177 
0.252115 0.184243 1.182 
0.299239 0.184243 1.182 
0.347242 0.184711 1.185 
0.395817 0.185335 1.189 
0.443965 0.185646 1.191 
0.493511 0.186426 1.196 
0.541646 0.186582 1.197 
0.589368 0.186582 1.197 
0.636557 0.186426 1.196 
0.668793 0.182217 1.169 
0.675008 0.171929 1.103 
0.672701 0.160862 1.032 
0.678568 0.152913 0.981 
0.675943 0.14356 0.921 
0.674746 0.135922 0.872 
0.676965 0.129687 0.832 
0.67514 0.123297 0.791 
0.674513 0.117685 0.755 
0.671016 0.112074 0.719 
0.676005 0.108021 0.693 
-0.877402 0.173567 1.097 
-0.833666 0.173567 1.097 
-0.790651 0.173725 1.098 
-0.753679 0.175307 1.108 
-0.712066 0.17594 1.112 
-0.669535 0.176415 1.115 
-0.626203 0.176731 1.117 
-0.584795 0.17768 1.123 
-0.538581 0.177206 1.12 
-0.496134 0.177997 1.125 
-0.453288 0.178788 1.13 
-0.409321 0.179263 1.133 
-0.365436 0.179896 1.137 
-0.320951 0.18037 1.14 
-0.27671 0.181161 1.145 
-0.231263 0.18132 1.146 
-0.186546 0.182269 1.152 
-0.140984 0.182744 1.155 
-0.0951835 0.183218 1.158 
-0.0491434 0.183693 1.161 
-0.00286907 0.184484 1.166 
0.0430932 0.182269 1.152 
0.0903348 0.184959 1.169 
0.137409 0.185591 1.173 
0.184645 0.186066 1.176 
0.232514 0.186857 1.181 
0.279835 0.187015 1.182 
0.327235 0.187174 1.183 
0.375349 0.187648 1.186 
0.423345 0.187965 1.188 
0.472293 0.188598 1.192 
0.520687 0.188914 1.194 
0.570669 0.189705 1.199 
0.618471 0.189705 1.199 
0.662383 0.188598 1.192 
0.674172 0.179104 1.132 
0.675458 0.168187 1.063 
0.676645 0.158536 1.002 
0.675892 0.149043 0.942 
0.672549 0.140499 0.888 
0.677657 0.134487 0.85 
0.673037 0.127208 0.804 
0.675274 0.121829 0.77 
0.673882 0.116291 0.735 
0.673527 0.111387 0.704 
-0.897983 0.176139 1.097 
-0.858141 0.176942 1.102 
-0.807557 0.175497 1.093 
-0.772369 0.177424 1.105 
-0.73227 0.178387 1.111 
-0.689834 0.178869 1.114 
-0.64716 0.179351 1.117 
-0.602627 0.179351 1.117 
-0.559593 0.179832 1.12 
-0.514941 0.179832 1.12 
-0.474488 0.181438 1.13 
-0.430578 0.18192 1.133 
-0.384387 0.181438 1.13 
-0.342039 0.182883 1.139 
-0.297671 0.183525 1.143 
-0.252764 0.184007 1.146 
-0.207617 0.184489 1.149 
-0.162654 0.185452 1.155 
-0.116808 0.185773 1.157 
-0.0708032 0.186094 1.159 
-0.02466 0.186576 1.162 
0.0216106 0.186094 1.159 
0.0679346 0.186416 1.161 
0.115205 0.188021 1.171 
0.162582 0.188824 1.176 
0.209823 0.189145 1.178 
0.257659 0.189787 1.182 
0.304783 0.189787 1.182 
0.3528 0.190269 1.185 
0.401056 0.190751 1.188 
0.449929 0.191393 1.192 
0.499121 0.192035 1.196 
0.548175 0.192517 1.199 
0.594982 0.192196 1.197 
0.641093 0.191714 1.194 
0.667354 0.185773 1.157 
0.675248 0.175818 1.095 
0.674259 0.1649 1.027 
0.679687 0.156711 0.976 
0.673686 0.146917 0.915 
0.675239 0.139691 0.87 
0.67402 0.132626 0.826 
0.675283 0.126686 0.789 
0.675388 0.121066 0.754 
0.670831 0.115125 0.717 
0.67698 0.111432 0.694 
-0.881579 0.179038 1.099 
-0.837001 0.178875 1.098 
-0.796116 0.179527 1.102 
-0.756277 0.180504 1.108 
-0.714674 0.181156 1.112 
-0.672149 0.181644 1.115 
-0.628823 0.18197 1.117 
-0.586906 0.182785 1.122 
-0.541207 0.182459 1.12 
-0.497885 0.182948 1.123 
-0.455938 0.184088 1.13 
-0.411978 0.184577 1.133 
-0.367779 0.185066 1.136 
-0.323341 0.185554 1.139 
-0.279395 0.186532 1.145 
-0.233951 0.186695 1.146 
-0.189083 0.187509 1.151 
-0.143693 0.188161 1.155 
-0.0979838 0.188813 1.159 
-0.0518662 0.189138 1.161 
-0.00560354 0.189953 1.166 
0.0405669 0.188487 1.157 
0.0875932 0.190442 1.169 
0.134543 0.19093 1.172 
0.182042 0.191745 1.177 
0.229744 0.192397 1.181 
0.276828 0.192397 1.181 
0.324461 0.192722 1.183 
0.372567 0.193211 1.186 
0.420559 0.193537 1.188 
0.469497 0.194189 1.192 
0.517887 0.194514 1.194 
0.567858 0.195329 1.199 
0.615659 0.195329 1.199 
0.660694 0.194514 1.194 
0.675076 0.185391 1.138 
0.677397 0.174314 1.07 
0.676314 0.163724 1.005 
0.677974 0.154439 0.948 
0.671222 0.144827 0.889 
0.676458 0.138636 0.851 
0.673656 0.131468 0.807 
0.674343 0.125603 0.771 
0.675817 0.12039 0.739 
0.671876 0.114689 0.704 
-0.904875 0.18112 1.096 
-0.865894 0.182111 1.102 
-0.816739 0.180954 1.095 
-0.781555 0.182937 1.107 
-0.738754 0.183268 1.109 
-0.697672 0.184094 1.114 
-0.654432 0.184425 1.116 
-0.610486 0.18459 1.117 
-0.566967 0.18492 1.119 
-0.522821 0.185086 1.12 
-0.482012 0.186573 1.129 
-0.438549 0.187234 1.133 
-0.392337 0.186738 1.13 
-0.349745 0.18806 1.138 
-0.305178 0.188556 1.141 
-0.260599 0.189217 1.145 
-0.215325 0.189548 1.147 
-0.170336 0.190374 1.152 
-0.124948 0.1912 1.157 
-0.0789574 0.191531 1.159 
-0.032807 0.191861 1.161 
0.0135377 0.192687 1.166 
0.0597664 0.191861 1.161 
0.106875 0.193348 1.17 
0.154177 0.194175 1.175 
0.201364 0.194505 1.177 
0.249132 0.195166 1.181 
0.296467 0.195331 1.182 
0.344463 0.195827 1.185 
0.392698 0.196323 1.188 
0.441172 0.196819 1.191 
0.490706 0.197645 1.196 
0.538388 0.197645 1.196 
0.586561 0.19781 1.197 
0.633753 0.197645 1.196 
0.667191 0.193514 1.171 
0.673784 0.181946 1.101 
0.671398 0.170213 1.03 
0.677876 0.16195 0.98 
0.678173 0.153191 0.927 
0.673473 0.144268 0.873 
0.675825 0.137657 0.833 
0.677541 0.131543 0.796 
0.674525 0.125098 0.757 
0.670261 0.118984 0.72 
0.676638 0.115183 0.697 
-0.888347 0.184528 1.101 
-0.844452 0.184528 1.101 
-0.801285 0.184695 1.102 
-0.761474 0.185701 1.108 
-0.71989 0.186371 1.112 
-0.676772 0.186707 1.114 
-0.634062 0.187209 1.117 
-0.591113 0.187712 1.12 
-0.546461 0.187712 1.12 
-0.501808 0.187712 1.12 
-0.461238 0.189388 1.13 
-0.417292 0.189891 1.133 
-0.372779 0.190226 1.135 
-0.328683 0.190897 1.139 
-0.284517 0.191735 1.144 
-0.239535 0.192237 1.147 
-0.194482 0.192908 1.151 
-0.14911 0.193578 1.155 
-0.10342 0.194249 1.159 
-0.0573117 0.194584 1.161 
-0.0110725 0.195422 1.166 
0.0352009 0.194249 1.159 
0.08204 0.195757 1.168 
0.128936 0.19626 1.171 
0.176521 0.197265 1.177 
0.223825 0.197601 1.179 
0.271519 0.198103 1.182 
0.318912 0.198271 1.183 
0.367004 0.198774 1.186 
0.414986 0.199109 1.188 
0.463906 0.199779 1.192 
0.512287 0.200115 1.194 
0.562234 0.200953 1.199 
0.610035 0.200953 1.199 
0.655094 0.200115 1.194 
0.672093 0.191399 1.142 
0.678672 0.180338 1.076 
0.675969 0.168941 1.008 
0.676369 0.159555 0.952 
0.669303 0.149499 0.892 
0.674837 0.143131 0.854 
0.674021 0.136091 0.812 
0.675076 0.130058 0.776 
0.67599 0.124527 0.743 
0.670474 0.118326 0.706 
0.682788 0.115644 0.69 
-0.870055 0.18762 1.104 
-0.821551 0.1866 1.098 
-0.78486 0.188299 1.108 
-0.741355 0.188469 1.109 
-0.700284 0.189319 1.114 
-0.657049 0.189659 1.116 
-0.614203 0.190169 1.119 
-0.569591 0.190169 1.119 
-0.525448 0.190339 1.12 
-0.484659 0.191868 1.129 
-0.441206 0.192548 1.133 
-0.395686 0.192378 1.132 
-0.352104 0.193228 1.137 
-0.307584 0.193738 1.14 
-0.263054 0.194417 1.144 
-0.218015 0.194927 1.147 
-0.173038 0.195777 1.152 
-0.127662 0.196627 1.157 
-0.0816754 0.196967 1.159 
-0.0355297 0.197307 1.161 
0.0108125 0.198326 1.167 
0.0572401 0.197986 1.165 
0.104131 0.198836 1.17 
0.151421 0.199686 1.175 
0.198603 0.200026 1.177 
0.245945 0.200366 1.179 
0.293695 0.200875 1.182 
0.341107 0.201045 1.183 
0.389912 0.201895 1.188 
0.438379 0.202405 1.191 
0.487902 0.203255 1.196 
0.534688 0.202915 1.194 
0.584729 0.203764 1.199 
0.630948 0.203255 1.196 
0.666714 0.199686 1.175 
0.671656 0.18796 1.106 
0.673038 0.176743 1.04 
0.677402 0.167566 0.986 
0.67746 0.158389 0.932 
0.672445 0.149042 0.877 
0.675144 0.142244 0.837 
0.677193 0.135956 0.8 
0.673633 0.129158 0.76 
0.674294 0.12372 0.728 
0.677233 0.119132 0.701 
-0.897983 0.189003 1.097 
-0.860477 0.190381 1.105 
-0.813468 0.189692 1.101 
-0.774466 0.190898 1.108 
-0.73227 0.191415 1.111 
-0.689834 0.191932 1.114 
-0.64716 0.192449 1.117 
-0.603706 0.192793 1.119 
-0.559094 0.192793 1.119 
-0.514941 0.192965 1.12 
-0.474069 0.194516 1.129 
-0.430958 0.195377 1.134 
-0.385067 0.195033 1.132 
-0.341438 0.195894 1.137 
-0.297411 0.196756 1.142 
-0.252543 0.197273 1.145 
-0.207436 0.19779 1.148 
-0.162513 0.198823 1.154 
-0.116808 0.19934 1.157 
-0.0709254 0.200029 1.161 
-0.0246387 0.200029 1.161 
0.0216666 0.200202 1.162 
0.0682857 0.201063 1.167 
0.115205 0.201752 1.171 
0.162582 0.202614 1.176 
0.209823 0.202958 1.178 
0.257005 0.203131 1.179 
0.305041 0.20382 1.183 
0.352204 0.20382 1.183 
0.401394 0.204853 1.189 
0.449552 0.205198 1.191 
0.499121 0.206059 1.196 
0.54726 0.206232 1.197 
0.594982 0.206232 1.197 
0.642167 0.206059 1.196 
0.667354 0.19934 1.157 
0.669698 0.187108 1.086 
0.672946 0.176598 1.025 
0.678294 0.167811 0.974 
0.675895 0.158163 0.918 
0.675239 0.149893 0.87 
0.67402 0.142312 0.826 
0.678707 0.136626 0.793 
0.676284 0.130079 0.755 
0.670831 0.123532 0.717 
0.676005 0.119397 0.693 
-0.891076 0.19175 1.098 
-0.851932 0.192798 1.104 
-0.808649 0.192972 1.105 
-0.766671 0.193496 1.108 
-0.725106 0.194195 1.112 
-0.681997 0.194544 1.114 
-0.639301 0.195068 1.117 
-0.596366 0.195592 1.12 
-0.551714 0.195592 1.12 
-0.506609 0.195417 1.119 
-0.466125 0.197164 1.129 
-0.422606 0.197862 1.133 
-0.377769 0.198037 1.134 
-0.333732 0.198735 1.138 
-0.289629 0.199609 1.143 
-0.244701 0.200133 1.146 
-0.199533 0.200656 1.149 
-0.154528 0.201704 1.155 
-0.108762 0.202228 1.158 
-0.0627572 0.202752 1.161 
-0.0164847 0.202927 1.162 
0.0298162 0.202752 1.161 
0.0765617 0.203975 1.168 
0.123444 0.204498 1.171 
0.170855 0.205372 1.176 
0.218296 0.205895 1.179 
0.2653 0.205895 1.179 
0.313364 0.206594 1.183 
0.360527 0.206594 1.183 
0.409759 0.207642 1.189 
0.458315 0.208166 1.192 
0.506687 0.208515 1.194 
0.55661 0.209388 1.199 
0.604412 0.209388 1.199 
0.651125 0.209039 1.197 
0.669072 0.200133 1.146 
0.672973 0.188432 1.079 
0.674185 0.17743 1.016 
0.676002 0.167825 0.961 
0.67492 0.158569 0.908 
0.675877 0.150711 0.863 
0.67407 0.143027 0.819 
0.677383 0.137089 0.785 
0.674374 0.130453 0.747 
0.672105 0.124515 0.713 
0.678916 0.120673 0.691 
-0.886733 0.194502 1.099 
-0.846753 0.195387 1.104 
-0.80492 0.195918 1.107 
-0.761474 0.196095 1.108 
-0.720537 0.19698 1.113 
-0.676772 0.197157 1.114 
-0.634062 0.197688 1.117 
-0.591113 0.198219 1.12 
-0.546461 0.198219 1.12 
-0.502705 0.198573 1.122 
-0.461238 0.199988 1.13 
-0.417292 0.200519 1.133 
-0.373107 0.20105 1.136 
-0.328394 0.201404 1.138 
-0.284268 0.202289 1.143 
-0.239535 0.202997 1.147 
-0.194482 0.203705 1.151 
-0.14911 0.204413 1.155 
-0.10342 0.205121 1.159 
-0.0573117 0.205475 1.161 
-0.011063 0.206183 1.165 
0.0352009 0.205121 1.159 
0.08204 0.206714 1.168 
0.128936 0.207245 1.171 
0.176371 0.208129 1.176 
0.224205 0.209014 1.181 
0.271289 0.209014 1.181 
0.318912 0.209368 1.183 
0.366695 0.209722 1.185 
0.415336 0.21043 1.189 
0.464685 0.211315 1.194 
0.511429 0.210961 1.192 
0.562234 0.2122 1.199 
0.610035 0.2122 1.199 
0.65674 0.211846 1.197 
0.671504 0.201935 1.141 
0.67552 0.190254 1.075 
0.673605 0.178397 1.008 
0.675553 0.16884 0.954 
0.670804 0.158221 0.894 
0.674837 0.151142 0.854 
0.676512 0.144239 0.815 
0.675076 0.137337 0.776 
0.67599 0.131497 0.743 
0.672373 0.125302 0.708 
0.682788 0.122117 0.69 
-0.883985 0.197617 1.102 
-0.842337 0.198155 1.105 
-0.799728 0.198514 1.107 
-0.756277 0.198693 1.108 
-0.71596 0.199769 1.114 
-0.672149 0.199949 1.115 
-0.628823 0.200307 1.117 
-0.586906 0.201204 1.122 
-0.541207 0.200845 1.12 
-0.497885 0.201383 1.123 
-0.455938 0.202638 1.13 
-0.411978 0.203176 1.133 
-0.367779 0.203714 1.136 
-0.323057 0.204073 1.138 
-0.279151 0.205149 1.144 
-0.234359 0.205866 1.148 
-0.188755 0.206046 1.149 
-0.143693 0.207122 1.155 
-0.0979838 0.207839 1.159 
-0.0517768 0.207839 1.159 
-0.00560354 0.209094 1.166 
0.0407071 0.208198 1.161 
0.0875183 0.209453 1.168 
0.134543 0.21017 1.172 
0.181887 0.210887 1.176 
0.229355 0.211425 1.179 
0.27636 0.211425 1.179 
0.324461 0.212143 1.183 
0.372253 0.212501 1.185 
0.421621 0.213577 1.191 
0.470285 0.214115 1.194 
0.516586 0.213577 1.191 
0.567858 0.215012 1.199 
0.615659 0.215012 1.199 
0.663461 0.215012 1.199 
0.674767 0.203176 1.133 
0.672281 0.189727 1.058 
0.675294 0.179326 1 
0.677258 0.169822 0.947 
0.672732 0.15978 0.891 
0.676458 0.152606 0.851 
0.675326 0.145075 0.809 
0.674343 0.13826 0.771 
0.676731 0.132701 0.74 
0.672831 0.126425 0.705 
0.68503 0.123556 0.689 
-0.881401 0.200202 1.102 
-0.840506 0.200928 1.106 
-0.796412 0.200928 1.106 
-0.753679 0.201292 1.108 
-0.713347 0.202382 1.114 
-0.669535 0.202563 1.115 
-0.626203 0.202927 1.117 
-0.583233 0.203472 1.12 
-0.539543 0.203835 1.122 
-0.496134 0.20438 1.125 
-0.453288 0.205288 1.13 
-0.409321 0.205833 1.133 
-0.365436 0.20656 1.137 
-0.320388 0.206742 1.138 
-0.276227 0.20765 1.143 
-0.231667 0.208559 1.148 
-0.18606 0.20874 1.149 
-0.140984 0.20983 1.155 
-0.0952657 0.210557 1.159 
-0.0490588 0.210557 1.159 
-0.00287154 0.21201 1.167 
0.0433551 0.210557 1.159 
0.0903348 0.212374 1.169 
0.137292 0.212919 1.172 
0.184645 0.213645 1.176 
0.23212 0.21419 1.179 
0.279125 0.21419 1.179 
0.327235 0.214917 1.183 
0.375032 0.21528 1.185 
0.424414 0.21637 1.191 
0.473085 0.216915 1.194 
0.519379 0.21637 1.191 
0.570669 0.217824 1.199 
0.618987 0.218005 1.2 
0.665161 0.21746 1.197 
0.674767 0.205833 1.133 
0.672281 0.192208 1.058 
0.675294 0.181671 1 
0.675828 0.171679 0.945 
0.672732 0.161869 0.891 
0.676458 0.154602 0.851 
0.67616 0.147154 0.81 
0.674343 0.140069 0.771 
0.675817 0.134255 0.739 
0.673785 0.12826 0.706 
0.68503 0.125171 0.689 
-0.881579 0.202234 1.099 
-0.8431 0.203522 1.106 
-0.798283 0.203338 1.105 
-0.756277 0.20389 1.108 
-0.71596 0.204994 1.114 
-0.672149 0.205178 1.115 
-0.628823 0.205546 1.117 
-0.585859 0.206098 1.12 
-0.542174 0.206466 1.122 
-0.497885 0.20665 1.123 
-0.455938 0.207939 1.13 
-0.411978 0.208491 1.133 
-0.368103 0.209227 1.137 
-0.323057 0.209411 1.138 
-0.278907 0.210331 1.143 
-0.234359 0.211251 1.148 
-0.188755 0.211435 1.149 
-0.143693 0.212539 1.155 
-0.0979838 0.213275 1.159 
-0.0517768 0.213275 1.159 
-0.00560354 0.214563 1.166 
0.040602 0.213091 1.158 
0.0875183 0.214931 1.168 
0.134543 0.215667 1.172 
0.181887 0.216403 1.176 
0.229355 0.216955 1.179 
0.27636 0.216955 1.179 
0.324461 0.217691 1.183 
0.372253 0.218059 1.185 
0.421621 0.219164 1.191 
0.470285 0.219716 1.194 
0.516586 0.219164 1.191 
0.567858 0.220636 1.199 
0.616173 0.22082 1.2 
0.663461 0.220636 1.199 
0.67389 0.209043 1.136 
0.672965 0.195609 1.063 
0.674295 0.184384 1.002 
0.676463 0.174632 0.949 
0.6729 0.164511 0.894 
0.675255 0.156782 0.852 
0.67759 0.149789 0.814 
0.673407 0.142061 0.772 
0.675908 0.136356 0.741 
0.675937 0.130652 0.71 
0.683414 0.126787 0.689 
-0.884313 0.204252 1.096 
-0.848287 0.206116 1.106 
-0.802739 0.205743 1.104 
-0.760787 0.206302 1.107 
-0.721185 0.207607 1.114 
-0.677379 0.207793 1.115 
-0.633494 0.20798 1.116 
-0.591113 0.208725 1.12 
-0.546461 0.208725 1.12 
-0.502705 0.209098 1.122 
-0.46083 0.210402 1.129 
-0.417292 0.211148 1.133 
-0.373436 0.211893 1.137 
-0.328394 0.212079 1.138 
-0.284268 0.213011 1.143 
-0.239743 0.213943 1.148 
-0.194144 0.214129 1.149 
-0.14911 0.215248 1.155 
-0.103331 0.215807 1.158 
-0.0572129 0.215993 1.159 
-0.0110345 0.216552 1.162 
0.0350794 0.215248 1.155 
0.08204 0.21767 1.168 
0.128936 0.218229 1.171 
0.176221 0.218975 1.175 
0.223825 0.21972 1.179 
0.27083 0.21972 1.179 
0.318912 0.220466 1.183 
0.366076 0.220466 1.183 
0.416034 0.221957 1.191 
0.464685 0.222516 1.194 
0.511 0.221957 1.191 
0.562234 0.223448 1.199 
0.610035 0.223448 1.199 
0.657837 0.223448 1.199 
0.671504 0.212639 1.141 
0.672378 0.199407 1.07 
0.6716 0.187293 1.005 
0.674845 0.177603 0.953 
0.674691 0.168098 0.902 
0.673622 0.159339 0.855 
0.677083 0.152444 0.818 
0.675859 0.145176 0.779 
0.675155 0.138653 0.744 
0.676397 0.133062 0.714 
0.681169 0.128589 0.69 
-0.888642 0.206634 1.095 
-0.853475 0.20871 1.106 
-0.807185 0.208144 1.103 
-0.765979 0.208898 1.107 
-0.72641 0.210219 1.114 
-0.682609 0.210408 1.115 
-0.638729 0.210597 1.116 
-0.595833 0.211163 1.119 
-0.551714 0.211352 1.12 
-0.506609 0.211163 1.119 
-0.466125 0.21305 1.129 
-0.422606 0.213805 1.133 
-0.378769 0.21456 1.137 
-0.333732 0.214748 1.138 
-0.289629 0.215692 1.143 
-0.244701 0.216258 1.146 
-0.199533 0.216824 1.149 
-0.154394 0.217768 1.154 
-0.108762 0.218522 1.158 
-0.062649 0.218711 1.159 
-0.0164705 0.219089 1.161 
0.0296621 0.217956 1.155 
0.0764306 0.220032 1.166 
0.123444 0.220976 1.171 
0.17071 0.22173 1.175 
0.218296 0.222485 1.179 
0.26575 0.222863 1.181 
0.313364 0.22324 1.183 
0.360527 0.22324 1.183 
0.409759 0.224372 1.189 
0.458315 0.224938 1.192 
0.505414 0.22475 1.191 
0.55661 0.226259 1.199 
0.604412 0.226259 1.199 
0.651125 0.225882 1.197 
0.669656 0.216447 1.147 
0.672349 0.203426 1.078 
0.672195 0.19116 1.013 
0.673892 0.180781 0.958 
0.675663 0.171534 0.909 
0.673528 0.162288 0.86 
0.676539 0.155117 0.822 
0.67652 0.147946 0.784 
0.676179 0.141341 0.749 
0.675876 0.135303 0.717 
0.678916 0.130396 0.691 
-0.893778 0.209202 1.095 
-0.858662 0.211303 1.106 
-0.812359 0.21073 1.103 
-0.770474 0.211303 1.106 
-0.730978 0.212641 1.113 
-0.687839 0.213023 1.115 
-0.643963 0.213214 1.116 
-0.601619 0.213978 1.12 
-0.55647 0.213787 1.119 
-0.512315 0.213978 1.12 
-0.471421 0.215698 1.129 
-0.428298 0.216653 1.134 
-0.384102 0.217226 1.137 
-0.33907 0.217417 1.138 
-0.29499 0.218372 1.143 
-0.249858 0.218754 1.145 
-0.204922 0.219519 1.149 
-0.159391 0.219901 1.151 
-0.114193 0.221238 1.158 
-0.0680852 0.221429 1.159 
-0.021916 0.221811 1.161 
0.0242867 0.221047 1.157 
0.0709008 0.222575 1.165 
0.117951 0.223722 1.171 
0.165199 0.224486 1.175 
0.212766 0.22525 1.179 
0.25977 0.22525 1.179 
0.307815 0.226014 1.183 
0.354979 0.226014 1.183 
0.404182 0.227161 1.189 
0.452345 0.227543 1.191 
0.499827 0.227543 1.191 
0.550986 0.229071 1.199 
0.597789 0.228689 1.197 
0.645511 0.228689 1.197 
0.668909 0.220665 1.155 
0.670388 0.206909 1.083 
0.674032 0.195446 1.023 
0.676386 0.184938 0.968 
0.673616 0.174239 0.912 
0.674944 0.165642 0.867 
0.678412 0.158382 0.829 
0.674559 0.150167 0.786 
0.676179 0.143098 0.749 
0.675876 0.136984 0.717 
0.678916 0.132017 0.691 
-0.888501 0.21235 1.098 
-0.850112 0.213704 1.105 
-0.804599 0.213317 1.103 
-0.763383 0.214091 1.107 
-0.723797 0.215444 1.114 
-0.679994 0.215638 1.115 
-0.636111 0.215831 1.116 
-0.593739 0.216605 1.12 
-0.549087 0.216605 1.12 
-0.504435 0.216605 1.12 
-0.463888 0.218539 1.13 
-0.419949 0.219119 1.133 
-0.376433 0.220086 1.138 
-0.331354 0.220279 1.139 
-0.286949 0.221053 1.143 
-0.242225 0.221826 1.147 
-0.196667 0.22202 1.148 
-0.151688 0.22318 1.154 
-0.106138 0.224147 1.159 
-0.059931 0.224147 1.159 
-0.0137478 0.224534 1.161 
0.0323427 0.22318 1.154 
0.079165 0.225501 1.166 
0.12619 0.226468 1.171 
0.173466 0.227242 1.175 
0.221061 0.228015 1.179 
0.268065 0.228015 1.179 
0.316138 0.228789 1.183 
0.363302 0.228789 1.183 
0.412547 0.229949 1.189 
0.461111 0.230529 1.192 
0.508207 0.230336 1.191 
0.559422 0.231883 1.199 
0.607224 0.231883 1.199 
0.653933 0.231496 1.197 
0.670001 0.221053 1.143 
0.672999 0.207902 1.075 
0.669909 0.194557 1.006 
0.674727 0.184888 0.956 
0.676304 0.175411 0.907 
0.673974 0.165935 0.858 
0.67599 0.158392 0.819 
0.675763 0.151043 0.781 
0.67508 0.143501 0.742 
0.677121 0.137892 0.713 
0.680808 0.133057 0.688 
-0.885765 0.215512 1.101 
-0.844164 0.216099 1.104 
-0.799425 0.215904 1.103 
-0.758875 0.216882 1.108 
-0.719217 0.218253 1.115 
-0.67537 0.218448 1.116 
-0.630877 0.218448 1.116 
-0.588486 0.219231 1.12 
-0.544805 0.219623 1.122 
-0.500073 0.219623 1.122 
-0.4594 0.22158 1.132 
-0.415001 0.221972 1.134 
-0.371095 0.222755 1.138 
-0.326012 0.22295 1.139 
-0.281588 0.223733 1.143 
-0.237051 0.224712 1.148 
-0.191449 0.224908 1.149 
-0.146402 0.226082 1.155 
-0.100702 0.226865 1.159 
-0.0545889 0.227257 1.161 
-0.00830941 0.227452 1.162 
0.0377554 0.225887 1.154 
0.0848517 0.228823 1.169 
0.131682 0.229214 1.171 
0.179129 0.230193 1.176 
0.226975 0.231172 1.181 
0.274059 0.231172 1.181 
0.322231 0.231955 1.185 
0.369474 0.231955 1.185 
0.418124 0.232738 1.189 
0.467485 0.233716 1.194 
0.514224 0.233325 1.192 
0.565046 0.234695 1.199 
0.612847 0.234695 1.199 
0.658996 0.234108 1.196 
0.673589 0.223146 1.14 
0.672364 0.208661 1.066 
0.672949 0.195742 1 
0.676463 0.185759 0.949 
0.675158 0.175581 0.897 
0.676048 0.166968 0.853 
0.67759 0.159334 0.814 
0.676024 0.1517 0.775 
0.674996 0.144849 0.74 
0.675937 0.138977 0.71 
-0.905167 0.214133 1.081 
-0.880411 0.218689 1.104 
-0.834882 0.218292 1.102 
-0.791665 0.21849 1.103 
-0.752436 0.219877 1.11 
-0.711372 0.220867 1.115 
-0.66692 0.220867 1.115 
-0.623025 0.221066 1.116 
-0.580088 0.22166 1.119 
-0.536911 0.222254 1.122 
-0.493495 0.222848 1.125 
-0.451834 0.224433 1.133 
-0.407023 0.224631 1.134 
-0.363089 0.225423 1.138 
-0.317998 0.225622 1.139 
-0.274025 0.22681 1.145 
-0.229174 0.227602 1.149 
-0.183366 0.227602 1.149 
-0.138276 0.228791 1.155 
-0.0924678 0.229385 1.158 
-0.0463407 0.229583 1.159 
-0.000134488 0.230772 1.165 
0.0459936 0.229187 1.157 
0.0931559 0.231762 1.17 
0.14004 0.232158 1.172 
0.187403 0.232951 1.176 
0.235284 0.233941 1.181 
0.282368 0.233941 1.181 
0.330568 0.234734 1.185 
0.37813 0.234932 1.186 
0.427207 0.235922 1.191 
0.475885 0.236516 1.194 
0.522611 0.23612 1.192 
0.572525 0.237111 1.197 
0.621801 0.237705 1.2 
0.66741 0.236913 1.196 
0.675033 0.223641 1.129 
0.672211 0.208784 1.054 
0.675606 0.197493 0.997 
0.674457 0.186202 0.94 
0.674821 0.176496 0.891 
0.678454 0.168572 0.851 
0.674711 0.159658 0.806 
0.676151 0.152725 0.771 
0.673882 0.145594 0.735 
0.675441 0.13985 0.706 
-0.900929 0.216868 1.082 
-0.876026 0.221478 1.105 
-0.827454 0.220275 1.099 
-0.787205 0.221278 1.104 
-0.747903 0.222681 1.111 
-0.706143 0.223482 1.115 
-0.66169 0.223482 1.115 
-0.618344 0.223883 1.117 
-0.574839 0.224284 1.119 
-0.532123 0.225086 1.123 
-0.488653 0.225687 1.126 
-0.44652 0.22709 1.133 
-0.402058 0.227491 1.135 
-0.357751 0.228092 1.138 
-0.312931 0.228493 1.14 
-0.268654 0.229495 1.145 
-0.223785 0.230297 1.149 
-0.178286 0.230698 1.151 
-0.132858 0.2315 1.155 
-0.0870364 0.232101 1.158 
-0.0409752 0.232702 1.161 
0.00531604 0.232903 1.162 
0.0514648 0.232101 1.158 
0.0987279 0.234707 1.171 
0.145662 0.235107 1.173 
0.193083 0.235909 1.177 
0.240823 0.236711 1.181 
0.287907 0.236711 1.181 
0.336126 0.237513 1.185 
0.38434 0.238114 1.188 
0.432793 0.238715 1.191 
0.481485 0.239317 1.194 
0.529088 0.239317 1.194 
0.577656 0.239717 1.196 
0.627429 0.240519 1.2 
0.669081 0.238314 1.189 
0.672495 0.223683 1.116 
0.673942 0.210254 1.049 
0.676189 0.198629 0.991 
0.673088 0.186803 0.932 
0.676714 0.177984 0.888 
0.678436 0.169566 0.846 
0.674283 0.160547 0.801 
0.677122 0.153932 0.768 
0.672722 0.146316 0.73 
0.676829 0.141105 0.704 
-0.895854 0.219406 1.082 
-0.870055 0.223867 1.104 
-0.820803 0.222447 1.097 
-0.782027 0.223867 1.104 
-0.74336 0.225489 1.112 
-0.700913 0.226097 1.115 
-0.65646 0.226097 1.115 
-0.613105 0.226503 1.117 
-0.569591 0.226908 1.119 
-0.526855 0.227719 1.123 
-0.483801 0.228531 1.127 
-0.441206 0.229747 1.133 
-0.397084 0.230356 1.136 
-0.352414 0.230761 1.138 
-0.307853 0.231369 1.141 
-0.263284 0.232181 1.145 
-0.218395 0.232992 1.149 
-0.172888 0.233397 1.151 
-0.127441 0.234208 1.155 
-0.081605 0.234817 1.158 
-0.0355297 0.235425 1.161 
0.010757 0.235425 1.161 
0.0570436 0.235425 1.161 
0.10422 0.237453 1.171 
0.151163 0.237858 1.173 
0.198772 0.238872 1.178 
0.246362 0.239481 1.181 
0.293695 0.239683 1.182 
0.341684 0.240292 1.185 
0.389255 0.240494 1.186 
0.437643 0.241103 1.189 
0.487086 0.242117 1.194 
0.535584 0.242522 1.196 
0.583266 0.242522 1.196 
0.633058 0.243333 1.2 
0.668984 0.239075 1.179 
0.673478 0.224881 1.109 
0.671097 0.210281 1.037 
0.675341 0.199331 0.983 
0.676006 0.188583 0.93 
0.678579 0.179458 0.885 
0.676757 0.170131 0.839 
0.673285 0.160397 0.791 
0.674525 0.153503 0.757 
0.674915 0.147014 0.725 
0.676638 0.141336 0.697 
-0.892253 0.223584 1.09 
-0.85892 0.226251 1.103 
-0.810513 0.22502 1.097 
-0.773767 0.227071 1.107 
-0.734247 0.228507 1.114 
-0.691073 0.228917 1.116 
-0.64658 0.228917 1.116 
-0.603706 0.229533 1.119 
-0.559094 0.229533 1.119 
-0.514941 0.229738 1.12 
-0.473229 0.231174 1.127 
-0.430958 0.232609 1.134 
-0.386428 0.23302 1.136 
-0.342039 0.233635 1.139 
-0.297411 0.23425 1.142 
-0.252543 0.234866 1.145 
-0.207436 0.235481 1.148 
-0.162231 0.236302 1.152 
-0.116808 0.237327 1.157 
-0.0707421 0.237532 1.158 
-0.02466 0.238353 1.162 
0.0216106 0.237737 1.159 
0.0681686 0.238968 1.165 
0.115205 0.240199 1.171 
0.162443 0.241019 1.175 
0.209823 0.241635 1.178 
0.257005 0.24184 1.179 
0.305041 0.24266 1.183 
0.352204 0.24266 1.183 
0.401056 0.243686 1.188 
0.449552 0.244301 1.191 
0.498286 0.244917 1.194 
0.548175 0.245942 1.199 
0.593491 0.244917 1.194 
0.644315 0.246148 1.2 
0.673699 0.239584 1.168 
0.671548 0.223379 1.089 
0.67032 0.209431 1.021 
0.676901 0.19938 0.972 
0.674422 0.187893 0.916 
0.676791 0.178867 0.872 
0.6781 0.170457 0.831 
0.674559 0.161227 0.786 
0.674462 0.154047 0.751 
0.674389 0.147483 0.719 
0.676652 0.141945 0.692 
-0.890265 0.227593 1.097 
-0.848073 0.228007 1.099 
-0.805722 0.228422 1.101 
-0.766671 0.229875 1.108 
-0.727062 0.231327 1.115 
-0.682609 0.231327 1.115 
-0.639301 0.231742 1.117 
-0.597431 0.232779 1.122 
-0.551714 0.232364 1.12 
-0.506609 0.232157 1.119 
-0.466125 0.234232 1.129 
-0.42298 0.235269 1.134 
-0.379102 0.236099 1.138 
-0.334319 0.236514 1.14 
-0.289376 0.236929 1.142 
-0.244914 0.237966 1.147 
-0.19936 0.238173 1.148 
-0.154126 0.239003 1.152 
-0.108668 0.240041 1.157 
-0.062649 0.240456 1.159 
-0.0164847 0.241078 1.162 
0.0297391 0.240248 1.158 
0.0765617 0.242323 1.168 
0.123444 0.242945 1.171 
0.17071 0.243775 1.175 
0.218296 0.244605 1.179 
0.2653 0.244605 1.179 
0.313364 0.245435 1.183 
0.361137 0.24585 1.185 
0.409414 0.246472 1.188 
0.458315 0.247302 1.192 
0.505838 0.247302 1.192 
0.55661 0.248754 1.199 
0.602899 0.248132 1.196 
0.652213 0.248754 1.199 
0.672575 0.239003 1.152 
0.672349 0.223651 1.078 
0.670204 0.209543 1.01 
0.675299 0.199169 0.96 
0.675663 0.188589 0.909 
0.680577 0.18029 0.869 
0.676539 0.170539 0.822 
0.677383 0.162862 0.785 
0.673471 0.154771 0.746 
0.675876 0.148755 0.717 
0.677933 0.143153 0.69 
-0.889311 0.230585 1.099 
-0.843957 0.230165 1.097 
-0.803869 0.231214 1.102 
-0.764762 0.232683 1.109 
-0.724447 0.233942 1.115 
-0.679994 0.233942 1.115 
-0.636111 0.234152 1.116 
-0.593739 0.234991 1.12 
-0.549087 0.234991 1.12 
-0.504435 0.234991 1.12 
-0.463888 0.237089 1.13 
-0.42032 0.237928 1.134 
-0.376102 0.238558 1.137 
-0.331645 0.239187 1.14 
-0.286698 0.239607 1.142 
-0.242225 0.240656 1.147 
-0.196667 0.240866 1.148 
-0.151688 0.242125 1.154 
-0.105955 0.242754 1.157 
-0.059931 0.243174 1.159 
-0.0137596 0.243803 1.162 
0.0324548 0.242964 1.158 
0.0793687 0.245272 1.169 
0.12619 0.245691 1.171 
0.173613 0.24674 1.176 
0.221061 0.24737 1.179 
0.26852 0.247789 1.181 
0.316138 0.248209 1.183 
0.363916 0.248629 1.185 
0.412547 0.249468 1.189 
0.461111 0.250097 1.192 
0.509487 0.250517 1.194 
0.559422 0.251566 1.199 
0.606211 0.251146 1.197 
0.653933 0.251146 1.197 
0.673518 0.241075 1.149 
0.673625 0.225759 1.076 
0.669243 0.210862 1.005 
0.675433 0.200791 0.957 
0.676304 0.190301 0.907 
0.680258 0.181698 0.866 
0.676816 0.172047 0.82 
0.677493 0.164284 0.783 
0.672505 0.155891 0.743 
0.676397 0.149807 0.714 
0.677221 0.143932 0.686 
-0.887374 0.234011 1.103 
-0.835753 0.231889 1.093 
-0.80015 0.234223 1.104 
-0.760245 0.235496 1.11 
-0.719217 0.236557 1.115 
-0.674764 0.236557 1.115 
-0.630877 0.236769 1.116 
-0.589537 0.238042 1.122 
-0.545291 0.238254 1.123 
-0.500519 0.238254 1.123 
-0.458588 0.239739 1.13 
-0.415367 0.2408 1.135 
-0.370769 0.241224 1.137 
-0.326298 0.241861 1.14 
-0.281834 0.242709 1.144 
-0.237051 0.243558 1.148 
-0.191449 0.24377 1.149 
-0.146275 0.244831 1.154 
-0.100615 0.245679 1.158 
-0.0544949 0.245892 1.159 
-0.00830941 0.246528 1.162 
0.037919 0.245892 1.159 
0.0849243 0.248225 1.17 
0.131795 0.24865 1.172 
0.179129 0.249498 1.176 
0.22659 0.250135 1.179 
0.274059 0.250559 1.181 
0.321687 0.250983 1.183 
0.369786 0.25162 1.186 
0.418124 0.252256 1.189 
0.467485 0.253317 1.194 
0.515087 0.253317 1.194 
0.565046 0.254378 1.199 
0.612847 0.254378 1.199 
0.659547 0.253954 1.197 
0.675362 0.242497 1.143 
0.673626 0.226585 1.068 
0.671945 0.212583 1.002 
0.676369 0.201975 0.952 
0.674555 0.19073 0.899 
0.677208 0.18182 0.857 
0.678172 0.173333 0.817 
0.677686 0.165271 0.779 
0.67417 0.157209 0.741 
0.676172 0.151057 0.712 
0.67784 0.145329 0.685 
-0.884787 0.236597 1.103 
-0.830903 0.233809 1.09 
-0.797561 0.236812 1.104 
-0.757642 0.238099 1.11 
-0.716602 0.239172 1.115 
-0.671547 0.238957 1.114 
-0.62826 0.239386 1.116 
-0.586906 0.240673 1.122 
-0.542657 0.240888 1.123 
-0.497442 0.240673 1.122 
-0.455938 0.242389 1.13 
-0.413069 0.243676 1.136 
-0.368103 0.243891 1.137 
-0.323341 0.24432 1.139 
-0.279151 0.245392 1.144 
-0.234359 0.24625 1.148 
-0.188755 0.246465 1.149 
-0.14332 0.247108 1.152 
-0.0978992 0.248395 1.158 
-0.0517768 0.24861 1.159 
-0.00558432 0.249253 1.162 
0.040637 0.24861 1.159 
0.0875932 0.250755 1.169 
0.134543 0.251398 1.172 
0.181887 0.252256 1.176 
0.229355 0.2529 1.179 
0.276828 0.253329 1.181 
0.324461 0.253758 1.183 
0.372567 0.254401 1.186 
0.420913 0.255045 1.189 
0.470285 0.256117 1.194 
0.517887 0.256117 1.194 
0.567858 0.25719 1.199 
0.615659 0.25719 1.199 
0.662354 0.256761 1.197 
0.676263 0.244534 1.14 
0.671699 0.227588 1.061 
0.673622 0.214718 1.001 
0.677889 0.203993 0.951 
0.673653 0.191981 0.895 
0.67684 0.183186 0.854 
0.67759 0.174606 0.814 
0.676024 0.16624 0.775 
0.673172 0.158304 0.738 
0.675937 0.152298 0.71 
0.677463 0.146506 0.683 
-0.8838 0.239618 1.105 
-0.826067 0.235715 1.087 
-0.794972 0.239401 1.104 
-0.755719 0.240919 1.111 
-0.713987 0.241786 1.115 
-0.668934 0.24157 1.114 
-0.625643 0.242003 1.116 
-0.584274 0.243304 1.122 
-0.540985 0.243955 1.125 
-0.495252 0.243521 1.123 
-0.453288 0.245039 1.13 
-0.410044 0.246123 1.135 
-0.365758 0.246774 1.138 
-0.320951 0.247208 1.14 
-0.27671 0.248292 1.145 
-0.231667 0.248942 1.148 
-0.18606 0.249159 1.149 
-0.140862 0.250244 1.154 
-0.0951013 0.250894 1.157 
-0.0490588 0.251328 1.159 
-0.00285923 0.251978 1.162 
0.0433551 0.251328 1.159 
0.0903348 0.253496 1.169 
0.137409 0.254364 1.173 
0.184645 0.255014 1.176 
0.23212 0.255665 1.179 
0.279598 0.256098 1.181 
0.326959 0.256315 1.182 
0.375349 0.257183 1.186 
0.423701 0.257833 1.189 
0.473085 0.258917 1.194 
0.52156 0.259351 1.196 
0.570669 0.260002 1.199 
0.618987 0.260219 1.2 
0.664606 0.259351 1.196 
0.67715 0.246557 1.137 
0.672211 0.228559 1.054 
0.675606 0.216198 0.997 
0.676609 0.204488 0.943 
0.674821 0.193212 0.891 
0.67479 0.181936 0.839 
0.676161 0.173696 0.801 
0.677155 0.166106 0.766 
0.674434 0.1583 0.73 
0.677516 0.152445 0.703 
-0.893317 0.237168 1.082 
-0.868252 0.242209 1.105 
-0.815247 0.239579 1.093 
-0.780143 0.242209 1.105 
-0.740753 0.243744 1.112 
-0.698298 0.244401 1.115 
-0.653845 0.244401 1.115 
-0.611579 0.245278 1.119 
-0.567473 0.245497 1.12 
-0.522821 0.245497 1.12 
-0.480731 0.246812 1.126 
-0.438936 0.248566 1.134 
-0.393379 0.248347 1.133 
-0.350052 0.249662 1.139 
-0.30491 0.249881 1.14 
-0.260599 0.250977 1.145 
-0.215513 0.251635 1.148 
-0.170336 0.252511 1.152 
-0.124732 0.253169 1.155 
-0.0788211 0.253607 1.157 
-0.03292 0.255361 1.165 
0.0134797 0.254484 1.161 
0.0599723 0.255361 1.165 
0.106784 0.256238 1.169 
0.154045 0.257334 1.174 
0.201535 0.258211 1.178 
0.249132 0.258868 1.181 
0.296718 0.259306 1.183 
0.343591 0.259087 1.182 
0.392037 0.259964 1.186 
0.441172 0.26106 1.191 
0.489886 0.261718 1.194 
0.538388 0.262156 1.196 
0.586561 0.262375 1.197 
0.636402 0.263252 1.201 
0.670609 0.257991 1.177 
0.67364 0.242209 1.105 
0.67158 0.226647 1.034 
0.67351 0.214153 0.977 
0.678187 0.20385 0.93 
0.678347 0.193329 0.882 
0.675489 0.183027 0.835 
0.676523 0.174698 0.797 
0.674527 0.166368 0.759 
0.674574 0.158039 0.721 
0.676005 0.151901 0.693 
-0.891738 0.244136 1.102 
-0.842418 0.242585 1.095 
-0.806058 0.244801 1.105 
-0.764072 0.245465 1.108 
-0.723797 0.246795 1.114 
-0.679384 0.246795 1.114 
-0.636111 0.247238 1.116 
-0.593739 0.248124 1.12 
-0.550558 0.248788 1.123 
-0.503985 0.247902 1.119 
-0.462657 0.249675 1.127 
-0.421061 0.251668 1.136 
-0.375441 0.251447 1.135 
-0.331354 0.252333 1.139 
-0.286698 0.252998 1.142 
-0.242225 0.254105 1.147 
-0.196667 0.254327 1.148 
-0.151293 0.254992 1.151 
-0.105955 0.256321 1.157 
-0.059931 0.256764 1.159 
-0.0137596 0.257428 1.162 
0.0325389 0.257207 1.161 
0.0793687 0.258979 1.169 
0.126298 0.259644 1.172 
0.173613 0.26053 1.176 
0.220873 0.260973 1.178 
0.268747 0.261859 1.182 
0.316138 0.262081 1.183 
0.363916 0.262524 1.185 
0.4122 0.263189 1.188 
0.461111 0.264075 1.192 
0.509487 0.264518 1.194 
0.559422 0.265625 1.199 
0.60773 0.265847 1.2 
0.655572 0.265847 1.2 
0.676449 0.255656 1.154 
0.674877 0.238819 1.078 
0.67457 0.224419 1.013 
0.673315 0.211348 0.954 
0.676304 0.200936 0.907 
0.677562 0.190524 0.86 
0.677083 0.181219 0.818 
0.677594 0.173022 0.781 
0.671525 0.163939 0.74 
0.675441 0.156407 0.706 
-0.899096 0.24381 1.089 
-0.868252 0.247392 1.105 
-0.816739 0.245153 1.095 
-0.78085 0.247616 1.106 
-0.740753 0.248959 1.112 
-0.698298 0.249631 1.115 
-0.654432 0.249855 1.116 
-0.610486 0.250079 1.117 
-0.568487 0.251198 1.122 
-0.522821 0.25075 1.12 
-0.480731 0.252094 1.126 
-0.438549 0.253661 1.133 
-0.393379 0.253661 1.133 
-0.349745 0.25478 1.138 
-0.304643 0.255004 1.139 
-0.260599 0.256348 1.145 
-0.215513 0.257019 1.148 
-0.170336 0.257915 1.152 
-0.124732 0.258586 1.155 
-0.0786849 0.258586 1.155 
-0.03292 0.260825 1.165 
0.0134913 0.260154 1.162 
0.0599723 0.260825 1.165 
0.106784 0.261721 1.169 
0.154045 0.26284 1.174 
0.201535 0.263736 1.178 
0.249132 0.264407 1.181 
0.296718 0.264855 1.183 
0.343591 0.264631 1.182 
0.392037 0.265527 1.186 
0.441172 0.266646 1.191 
0.489065 0.26687 1.192 
0.538388 0.267766 1.196 
0.587541 0.268437 1.199 
0.636402 0.268885 1.201 
0.670609 0.263512 1.177 
0.673031 0.247168 1.104 
0.672879 0.231944 1.036 
0.674888 0.219183 0.979 
0.678187 0.208212 0.93 
0.676809 0.197018 0.88 
0.675489 0.186943 0.835 
0.677372 0.17866 0.798 
0.674527 0.169928 0.759 
0.676001 0.162988 0.728 
0.678877 0.156943 0.701 
-0.895134 0.249531 1.103 
-0.84653 0.248174 1.097 
-0.808649 0.249984 1.105 
-0.766671 0.250662 1.108 
-0.72641 0.25202 1.114 
-0.681997 0.25202 1.114 
-0.638729 0.252472 1.116 
-0.595833 0.253151 1.119 
-0.552699 0.253829 1.122 
-0.505704 0.252698 1.117 
-0.464887 0.254734 1.126 
-0.423353 0.25677 1.135 
-0.377769 0.256544 1.134 
-0.334025 0.257675 1.139 
-0.289123 0.258128 1.141 
-0.244914 0.259485 1.147 
-0.19936 0.259711 1.148 
-0.153993 0.26039 1.151 
-0.10848 0.261295 1.155 
-0.062649 0.2622 1.159 
-0.0165272 0.263557 1.165 
0.0298162 0.262652 1.161 
0.0766272 0.264462 1.169 
0.123444 0.264915 1.171 
0.17071 0.26582 1.175 
0.21811 0.266498 1.178 
0.26575 0.267177 1.181 
0.313364 0.267629 1.183 
0.361137 0.268082 1.185 
0.408725 0.268308 1.186 
0.458315 0.269666 1.192 
0.506687 0.270118 1.194 
0.55661 0.271249 1.199 
0.604916 0.271475 1.2 
0.652757 0.271475 1.2 
0.677829 0.262652 1.161 
0.67422 0.244554 1.081 
0.676176 0.230528 1.019 
0.673188 0.216502 0.957 
0.675663 0.205643 0.909 
0.678227 0.195915 0.866 
0.676539 0.185961 0.822 
0.677383 0.17759 0.785 
0.671525 0.16741 0.74 
0.677344 0.161754 0.715 
0.680182 0.155872 0.689 
-0.871631 0.252804 1.106 
-0.819307 0.250289 1.095 
-0.783443 0.252804 1.106 
-0.74336 0.254175 1.112 
-0.700913 0.254861 1.115 
-0.65646 0.254861 1.115 
-0.613105 0.255318 1.117 
-0.571118 0.256461 1.122 
-0.525448 0.256004 1.12 
-0.483801 0.257604 1.127 
-0.441206 0.258975 1.133 
-0.396385 0.259204 1.134 
-0.352414 0.260118 1.138 
-0.307314 0.260347 1.139 
-0.263284 0.261718 1.145 
-0.218015 0.262175 1.147 
-0.172888 0.263089 1.151 
-0.127331 0.263775 1.154 
-0.0813935 0.264004 1.155 
-0.0355603 0.265604 1.162 
0.010794 0.266289 1.165 
0.0570436 0.265375 1.161 
0.104042 0.267204 1.169 
0.151292 0.268347 1.174 
0.198603 0.269032 1.177 
0.245945 0.26949 1.179 
0.293695 0.270175 1.182 
0.340819 0.270175 1.182 
0.389255 0.27109 1.186 
0.438379 0.272232 1.191 
0.487086 0.272918 1.194 
0.535584 0.273375 1.196 
0.584729 0.274061 1.199 
0.633058 0.27429 1.2 
0.668984 0.26949 1.179 
0.671656 0.252804 1.106 
0.67577 0.233603 1.022 
0.67445 0.219889 0.962 
0.675014 0.208232 0.911 
0.677758 0.198403 0.868 
0.677073 0.188574 0.825 
0.676402 0.17966 0.786 
0.672432 0.169374 0.741 
0.677344 0.163431 0.715 
0.680182 0.157488 0.689 
-0.870843 0.255166 1.105 
-0.820055 0.253088 1.096 
-0.783443 0.255397 1.106 
-0.74336 0.256783 1.112 
-0.700913 0.257476 1.115 
-0.65646 0.257476 1.115 
-0.613105 0.257937 1.117 
-0.571118 0.259092 1.122 
-0.525448 0.25863 1.12 
-0.483801 0.260247 1.127 
-0.441206 0.261632 1.133 
-0.396385 0.261863 1.134 
-0.352414 0.262787 1.138 
-0.307314 0.263018 1.139 
-0.263054 0.264172 1.144 
-0.218015 0.264865 1.147 
-0.172888 0.265789 1.151 
-0.127331 0.266481 1.154 
-0.0815345 0.267174 1.157 
-0.0355603 0.268329 1.162 
0.010794 0.269022 1.165 
0.0569453 0.267636 1.159 
0.104042 0.269945 1.169 
0.151163 0.270869 1.173 
0.198603 0.271793 1.177 
0.245945 0.272254 1.179 
0.293695 0.272947 1.182 
0.341107 0.273178 1.183 
0.389255 0.273871 1.186 
0.438379 0.275026 1.191 
0.487086 0.275718 1.194 
0.535584 0.27618 1.196 
0.585216 0.277104 1.2 
0.633058 0.277104 1.2 
0.668984 0.272254 1.179 
0.670442 0.254936 1.104 
0.674828 0.239926 1.039 
0.675801 0.225609 0.977 
0.67671 0.213601 0.925 
0.676558 0.202517 0.877 
0.676636 0.192587 0.834 
0.67669 0.183581 0.795 
0.67718 0.174575 0.756 
0.676445 0.166955 0.723 
0.678931 0.16072 0.696 
-0.8846 0.257991 1.106 
-0.832147 0.255425 1.095 
-0.795692 0.257758 1.105 
-0.755719 0.259157 1.111 
-0.713987 0.26009 1.115 
-0.668934 0.259857 1.114 
-0.625643 0.260324 1.116 
-0.583233 0.261257 1.12 
-0.540023 0.261957 1.123 
-0.494811 0.261723 1.122 
-0.452887 0.263356 1.129 
-0.410405 0.264989 1.136 
-0.365436 0.265222 1.137 
-0.32067 0.265689 1.139 
-0.276227 0.266622 1.143 
-0.231667 0.267788 1.148 
-0.186384 0.268488 1.151 
-0.140496 0.268488 1.151 
-0.0949369 0.269421 1.155 
-0.0490588 0.270354 1.159 
-0.00286661 0.271754 1.165 
0.0432803 0.269888 1.157 
0.090412 0.27292 1.17 
0.137292 0.273387 1.172 
0.184645 0.27432 1.176 
0.23212 0.275019 1.179 
0.279125 0.275019 1.179 
0.326959 0.275719 1.182 
0.375349 0.276652 1.186 
0.424414 0.277819 1.191 
0.473085 0.278518 1.194 
0.52156 0.278985 1.196 
0.570669 0.279685 1.199 
0.618987 0.279918 1.2 
0.665161 0.279218 1.197 
0.67715 0.265222 1.137 
0.674187 0.247494 1.061 
0.67732 0.233965 1.003 
0.672252 0.219269 0.94 
0.674242 0.208306 0.893 
0.677253 0.198742 0.852 
0.67783 0.189411 0.812 
0.676967 0.180547 0.774 
0.673073 0.171683 0.736 
0.675694 0.165152 0.708 
0.684035 0.160486 0.688 
-0.85892 0.259878 1.103 
-0.814207 0.259642 1.102 
-0.773767 0.26082 1.107 
-0.734247 0.26247 1.114 
-0.689834 0.26247 1.114 
-0.64658 0.262941 1.116 
-0.603706 0.263648 1.119 
-0.560593 0.264355 1.122 
-0.512643 0.262705 1.115 
-0.473229 0.265533 1.127 
-0.431338 0.267418 1.135 
-0.385748 0.267182 1.134 
-0.342039 0.26836 1.139 
-0.29689 0.268596 1.14 
-0.252543 0.269774 1.145 
-0.207256 0.270245 1.147 
-0.16209 0.271187 1.151 
-0.116505 0.271894 1.154 
-0.0708032 0.273072 1.159 
-0.0247236 0.274486 1.165 
0.0216666 0.273779 1.162 
0.0682272 0.274721 1.166 
0.115205 0.275899 1.171 
0.162443 0.276842 1.175 
0.209823 0.277549 1.178 
0.257005 0.277784 1.179 
0.304783 0.278491 1.182 
0.353098 0.279434 1.186 
0.400381 0.279434 1.186 
0.449552 0.280612 1.191 
0.498286 0.281319 1.194 
0.546803 0.28179 1.196 
0.596473 0.282732 1.2 
0.644315 0.282732 1.2 
0.675429 0.275899 1.171 
0.669698 0.255873 1.086 
0.673603 0.241736 1.026 
0.676901 0.229013 0.972 
0.673686 0.215583 0.915 
0.676015 0.205216 0.871 
0.678916 0.196028 0.832 
0.676139 0.186132 0.79 
0.67718 0.178121 0.756 
0.676075 0.169404 0.719 
0.679255 0.163278 0.693 
-0.876026 0.262941 1.105 
-0.827454 0.261513 1.099 
-0.787205 0.262703 1.104 
-0.748576 0.264606 1.112 
-0.706143 0.26532 1.115 
-0.661097 0.265082 1.114 
-0.617791 0.265558 1.116 
-0.575353 0.26651 1.12 
-0.531649 0.266986 1.122 
-0.488653 0.267938 1.126 
-0.446126 0.269365 1.132 
-0.402058 0.270079 1.135 
-0.357751 0.270793 1.138 
-0.312382 0.270793 1.138 
-0.26842 0.272221 1.144 
-0.223395 0.272935 1.147 
-0.178286 0.273887 1.151 
-0.132743 0.2746 1.154 
-0.0869612 0.275314 1.157 
-0.0409752 0.276266 1.161 
0.00532976 0.277218 1.165 
0.0514204 0.275314 1.157 
0.0986436 0.278408 1.17 
0.145662 0.279122 1.173 
0.193083 0.280073 1.177 
0.240415 0.280549 1.179 
0.287907 0.281025 1.181 
0.335558 0.281501 1.183 
0.383693 0.282215 1.186 
0.432793 0.283405 1.191 
0.481485 0.284119 1.194 
0.529974 0.284595 1.196 
0.579105 0.285308 1.199 
0.627429 0.285546 1.2 
0.668518 0.282691 1.188 
0.670687 0.264844 1.113 
0.674585 0.249853 1.05 
0.678918 0.236766 0.995 
0.671644 0.221298 0.93 
0.677476 0.211542 0.889 
0.676832 0.200834 0.844 
0.676808 0.191316 0.804 
0.678885 0.183226 0.77 
0.676264 0.171566 0.721 
0.678608 0.165141 0.694 
-0.878617 0.265532 1.105 
-0.830032 0.26409 1.099 
-0.789078 0.265051 1.103 
-0.750508 0.266974 1.111 
-0.708758 0.267935 1.115 
-0.663709 0.267695 1.114 
-0.620408 0.268175 1.116 
-0.57798 0.269137 1.12 
-0.534756 0.269857 1.123 
-0.489985 0.269857 1.123 
-0.448781 0.27202 1.132 
-0.405077 0.272981 1.136 
-0.36042 0.273462 1.138 
-0.31505 0.273462 1.138 
-0.270866 0.274663 1.143 
-0.226085 0.275625 1.147 
-0.180986 0.276586 1.151 
-0.13545 0.277307 1.154 
-0.0896746 0.278028 1.157 
-0.0436979 0.278989 1.161 
0.00259987 0.28019 1.166 
0.048707 0.278028 1.157 
0.0959817 0.281392 1.171 
0.142789 0.281632 1.172 
0.190323 0.282834 1.177 
0.23765 0.283314 1.179 
0.285137 0.283795 1.181 
0.332784 0.284276 1.183 
0.380911 0.284996 1.186 
0.43 0.286198 1.191 
0.478685 0.286919 1.194 
0.527169 0.287399 1.196 
0.576293 0.28812 1.199 
0.624615 0.288361 1.2 
0.669095 0.286919 1.194 
0.67528 0.270338 1.125 
0.674043 0.253036 1.053 
0.678625 0.23982 0.998 
0.670902 0.22396 0.932 
0.676151 0.213867 0.89 
0.678051 0.203775 0.848 
0.677441 0.193923 0.807 
0.677959 0.185272 0.771 
0.674434 0.175419 0.73 
0.67848 0.169172 0.704 
-0.893357 0.267881 1.104 
-0.847804 0.267396 1.102 
-0.803869 0.267396 1.102 
-0.764762 0.269094 1.109 
-0.723797 0.270307 1.114 
-0.679384 0.270307 1.114 
-0.635541 0.27055 1.115 
-0.593739 0.271763 1.12 
-0.550068 0.272248 1.122 
-0.501282 0.270065 1.113 
-0.462657 0.273462 1.127 
-0.42032 0.27516 1.134 
-0.375441 0.275403 1.135 
-0.331645 0.276616 1.14 
-0.286698 0.277101 1.142 
-0.242225 0.278315 1.147 
-0.196667 0.278557 1.148 
-0.151293 0.279285 1.151 
-0.105772 0.280256 1.155 
-0.059931 0.281226 1.159 
-0.0137596 0.281954 1.162 
0.0324829 0.281226 1.159 
0.0793687 0.283653 1.169 
0.12619 0.284138 1.171 
0.173466 0.285109 1.175 
0.220873 0.285837 1.178 
0.26852 0.286565 1.181 
0.316138 0.28705 1.183 
0.363916 0.287535 1.185 
0.4122 0.288263 1.188 
0.461111 0.289234 1.192 
0.509487 0.289719 1.194 
0.558489 0.290447 1.197 
0.60773 0.291175 1.2 
0.655572 0.291175 1.2 
0.67938 0.281226 1.159 
0.675503 0.261815 1.079 
0.676568 0.246528 1.016 
0.673315 0.231484 0.954 
0.67705 0.220322 0.908 
0.680258 0.210131 0.866 
0.677641 0.199212 0.821 
0.676628 0.189749 0.782 
0.677031 0.181499 0.748 
0.675667 0.173492 0.715 
0.680536 0.167668 0.691 
-0.874225 0.27096 1.106 
-0.827129 0.26998 1.102 
-0.783194 0.26998 1.102 
-0.745968 0.27243 1.112 
-0.703528 0.273165 1.115 
-0.659075 0.273165 1.115 
-0.615174 0.27341 1.116 
-0.572726 0.27439 1.12 
-0.528074 0.27439 1.12 
-0.486444 0.276105 1.127 
-0.443471 0.27733 1.132 
-0.399748 0.27831 1.136 
-0.355083 0.2788 1.138 
-0.309985 0.279045 1.139 
-0.265737 0.28027 1.144 
-0.220513 0.28076 1.146 
-0.175587 0.281984 1.151 
-0.130037 0.282719 1.154 
-0.0843207 0.283699 1.158 
-0.0382854 0.284679 1.162 
0.00806189 0.285414 1.165 
0.0543209 0.284434 1.161 
0.101474 0.286884 1.171 
0.148412 0.287374 1.173 
0.195843 0.288354 1.177 
0.243799 0.289579 1.182 
0.290677 0.289334 1.181 
0.338333 0.289824 1.183 
0.386474 0.290559 1.186 
0.435586 0.291784 1.191 
0.484286 0.292519 1.194 
0.532779 0.293009 1.196 
0.581917 0.293744 1.199 
0.630244 0.293989 1.2 
0.669609 0.290314 1.185 
0.670877 0.271695 1.109 
0.673178 0.25577 1.044 
0.677143 0.242296 0.989 
0.6731 0.227597 0.929 
0.678797 0.217552 0.888 
0.676398 0.206037 0.841 
0.677006 0.196483 0.802 
0.678923 0.188153 0.768 
0.674434 0.178843 0.73 
0.67848 0.172474 0.704 
-0.889787 0.273554 1.106 
-0.8434 0.272812 1.103 
-0.797976 0.272317 1.101 
-0.75956 0.274296 1.109 
-0.718572 0.275532 1.114 
-0.674764 0.27578 1.115 
-0.630312 0.27578 1.115 
-0.588486 0.277016 1.12 
-0.545291 0.277758 1.123 
-0.496062 0.275285 1.113 
-0.458182 0.279242 1.129 
-0.415367 0.280726 1.135 
-0.370443 0.280974 1.136 
-0.326298 0.281963 1.14 
-0.281588 0.282705 1.143 
-0.236845 0.283694 1.147 
-0.191283 0.283942 1.148 
-0.146021 0.284931 1.152 
-0.100615 0.286415 1.158 
-0.0544949 0.286662 1.159 
-0.00833087 0.288146 1.165 
0.0379844 0.287157 1.161 
0.0849243 0.289383 1.17 
0.131795 0.289878 1.172 
0.179129 0.290867 1.176 
0.22659 0.291609 1.179 
0.274059 0.292104 1.181 
0.322231 0.293093 1.185 
0.369474 0.293093 1.185 
0.418124 0.294083 1.189 
0.467485 0.295319 1.194 
0.51595 0.295814 1.196 
0.564103 0.296061 1.197 
0.613358 0.296803 1.2 
0.6612 0.296803 1.2 
0.678316 0.283942 1.148 
0.679303 0.266381 1.077 
0.674627 0.24882 1.006 
0.674948 0.234969 0.95 
0.676056 0.22285 0.901 
0.679578 0.212709 0.86 
0.679002 0.202321 0.818 
0.677686 0.192675 0.779 
0.67599 0.183771 0.743 
0.676172 0.176103 0.712 
0.681798 0.170415 0.689 
-0.860477 0.275898 1.105 
-0.814946 0.275398 1.103 
-0.772369 0.275898 1.105 
-0.733588 0.277895 1.113 
-0.690454 0.278395 1.115 
-0.646001 0.278395 1.115 
-0.603706 0.279393 1.119 
-0.560593 0.280142 1.122 
-0.510804 0.277396 1.111 
-0.474069 0.28189 1.129 
-0.430958 0.283138 1.134 
-0.385748 0.283138 1.134 
-0.342339 0.284637 1.14 
-0.297411 0.285136 1.142 
-0.252543 0.285885 1.145 
-0.207256 0.286384 1.147 
-0.16209 0.287383 1.151 
-0.116606 0.288382 1.155 
-0.0708032 0.289381 1.159 
-0.02466 0.29013 1.162 
0.0216666 0.29013 1.162 
0.0683442 0.291628 1.168 
0.115205 0.292377 1.171 
0.162305 0.293126 1.174 
0.209823 0.294124 1.178 
0.257659 0.295123 1.182 
0.304783 0.295123 1.182 
0.3528 0.295872 1.185 
0.400381 0.296122 1.186 
0.449929 0.29762 1.192 
0.498286 0.298119 1.194 
0.546803 0.298619 1.196 
0.595976 0.299368 1.199 
0.644315 0.299617 1.2 
0.674276 0.291877 1.169 
0.676715 0.270904 1.085 
0.674185 0.253676 1.016 
0.676706 0.240193 0.962 
0.675663 0.22696 0.909 
0.68136 0.217223 0.87 
0.679008 0.205987 0.825 
0.677383 0.196 0.785 
0.676179 0.187011 0.749 
0.674933 0.178772 0.716 
0.679898 0.172779 0.692 
-0.875015 0.278993 1.107 
-0.82863 0.278237 1.104 
-0.782484 0.277481 1.101 
-0.745968 0.280253 1.112 
-0.703528 0.281009 1.115 
-0.659666 0.281261 1.116 
-0.615725 0.281513 1.117 
-0.572726 0.28227 1.12 
-0.527603 0.282018 1.119 
-0.486444 0.284034 1.127 
-0.442688 0.28479 1.13 
-0.399397 0.28605 1.135 
-0.355395 0.287058 1.139 
-0.310529 0.287562 1.141 
-0.265969 0.28857 1.145 
-0.220513 0.288822 1.146 
-0.175282 0.289578 1.149 
-0.130037 0.290838 1.154 
-0.0843935 0.292099 1.159 
-0.0382854 0.292855 1.162 
0.00806189 0.293611 1.165 
0.0545548 0.293863 1.166 
0.101474 0.295123 1.171 
0.148412 0.295627 1.173 
0.195843 0.296635 1.177 
0.243799 0.297895 1.182 
0.290923 0.297895 1.182 
0.338905 0.298651 1.185 
0.386474 0.298903 1.186 
0.435586 0.300163 1.191 
0.484286 0.30092 1.194 
0.532779 0.301424 1.196 
0.580946 0.301676 1.197 
0.630244 0.302432 1.2 
0.670174 0.298903 1.186 
0.670724 0.276221 1.096 
0.669442 0.258831 1.027 
0.677184 0.246734 0.979 
0.675978 0.232872 0.924 
0.679644 0.222035 0.881 
0.676636 0.21019 0.834 
