# .PCD v.7 - Point Cloud Data file format
VERSION .7
FIELDS x y z
SIZE 4 4 4
TYPE F F F
COUNT 1 1 1
WIDTH 1828
HEIGHT 1
VIEWPOINT 0 0 0 1 0 0 0
POINTS 1828
DATA ascii
-0.460013 -0.356788 0.693 
-0.433632 -0.357817 0.695 
-0.403588 -0.355758 0.691 
-0.370597 -0.350609 0.681 
-0.344456 -0.351639 0.683 
-0.317226 -0.351639 0.683 
-0.292968 -0.355243 0.69 
-0.249302 -0.337738 0.656 
-0.233096 -0.355243 0.69 
-0.206779 -0.357302 0.694 
-0.178336 -0.355758 0.691 
0.304681 -0.373777 0.726 
0.319839 -0.358332 0.696 
0.323615 -0.33362 0.648 
0.323564 -0.308907 0.6 
0.331848 -0.295006 0.573 
0.342988 -0.284194 0.552 
0.366979 -0.285739 0.555 
0.388404 -0.285224 0.554 
0.413455 -0.287283 0.558 
0.436482 -0.287798 0.559 
0.46123 -0.289343 0.562 
0.485357 -0.290373 0.564 
0.509644 -0.291402 0.566 
0.533149 -0.291917 0.567 
0.557715 -0.292947 0.569 
-0.542924 -0.342862 0.669 
-0.516252 -0.342862 0.669 
-0.490312 -0.343375 0.67 
-0.468444 -0.346962 0.677 
-0.455799 -0.358237 0.699 
-0.425483 -0.356187 0.695 
-0.392051 -0.351062 0.685 
-0.362612 -0.349012 0.681 
-0.335954 -0.349525 0.682 
-0.30967 -0.35055 0.684 
-0.28529 -0.354137 0.691 
-0.235456 -0.3362 0.656 
-0.220789 -0.35465 0.692 
-0.193758 -0.355675 0.694 
0.303395 -0.372587 0.727 
0.320035 -0.35875 0.7 
0.324581 -0.334662 0.653 
0.323768 -0.309037 0.603 
0.331658 -0.294687 0.575 
0.340399 -0.2829 0.552 
0.363719 -0.283925 0.554 
0.385806 -0.283925 0.554 
0.410838 -0.285975 0.558 
0.43386 -0.286487 0.559 
0.457779 -0.287512 0.561 
0.482712 -0.28905 0.564 
0.506989 -0.290075 0.566 
0.53049 -0.290587 0.567 
0.555046 -0.291612 0.569 
-0.548378 -0.340783 0.668 
-0.521747 -0.340783 0.668 
-0.496597 -0.341804 0.67 
-0.47199 -0.343334 0.673 
-0.459049 -0.354047 0.694 
-0.431381 -0.354047 0.694 
-0.401967 -0.352517 0.691 
-0.369 -0.347415 0.681 
-0.342352 -0.347925 0.682 
-0.315162 -0.347925 0.682 
-0.290506 -0.350986 0.688 
-0.244314 -0.334151 0.655 
-0.230193 -0.352517 0.691 
-0.203524 -0.354047 0.694 
-0.173475 -0.352517 0.691 
0.315596 -0.365271 0.716 
0.323474 -0.343334 0.673 
0.324279 -0.317826 0.623 
0.330064 -0.300481 0.589 
0.334338 -0.284156 0.557 
0.353984 -0.282115 0.553 
0.378071 -0.283646 0.556 
0.400238 -0.283646 0.556 
0.424684 -0.285176 0.559 
0.447769 -0.285687 0.56 
0.472614 -0.287217 0.563 
0.495939 -0.287727 0.564 
0.521182 -0.289258 0.567 
0.544746 -0.289768 0.568 
-0.558613 -0.339724 0.669 
-0.530351 -0.338709 0.667 
-0.506025 -0.340232 0.67 
-0.481459 -0.341756 0.673 
-0.465437 -0.349881 0.689 
-0.442417 -0.353435 0.696 
-0.414073 -0.352928 0.695 
-0.378582 -0.345818 0.681 
-0.351432 -0.345818 0.681 
-0.324758 -0.346326 0.682 
-0.299314 -0.348357 0.686 
-0.271964 -0.348357 0.686 
-0.235749 -0.344803 0.679 
-0.212982 -0.351912 0.693 
-0.185353 -0.351912 0.693 
0.306802 -0.365115 0.719 
0.321469 -0.349881 0.689 
0.32308 -0.322459 0.635 
0.326192 -0.300623 0.592 
0.330886 -0.284373 0.56 
0.348797 -0.280819 0.553 
0.372856 -0.282342 0.556 
0.395022 -0.282342 0.556 
0.418689 -0.283358 0.558 
0.442516 -0.284373 0.56 
0.465672 -0.284881 0.561 
0.490648 -0.286404 0.564 
0.514953 -0.28742 0.566 
0.538468 -0.287928 0.567 
0.564042 -0.289451 0.57 
-0.535044 -0.337145 0.667 
-0.509976 -0.338156 0.669 
-0.485472 -0.339672 0.672 
-0.465506 -0.344727 0.682 
-0.447957 -0.352309 0.697 
-0.419566 -0.351803 0.696 
-0.383374 -0.344221 0.681 
-0.356224 -0.344221 0.681 
-0.329557 -0.344727 0.682 
-0.303253 -0.345738 0.684 
-0.277194 -0.347254 0.687 
-0.236276 -0.337145 0.667 
-0.217857 -0.350287 0.693 
-0.190503 -0.350792 0.694 
0.298691 -0.367978 0.728 
0.317811 -0.356858 0.706 
0.324887 -0.335123 0.663 
0.323958 -0.306311 0.606 
0.331459 -0.291653 0.577 
0.339719 -0.279522 0.553 
0.36242 -0.280027 0.554 
0.385201 -0.280533 0.555 
0.408795 -0.281544 0.557 
0.432549 -0.282555 0.559 
0.455649 -0.28306 0.56 
0.481389 -0.285082 0.564 
0.505662 -0.286093 0.566 
0.52916 -0.286598 0.567 
0.553712 -0.287609 0.569 
-0.544429 -0.33558 0.667 
-0.518613 -0.336084 0.668 
-0.493455 -0.33709 0.67 
-0.470226 -0.339605 0.675 
-0.456451 -0.349668 0.695 
-0.428126 -0.349165 0.694 
-0.394687 -0.344133 0.684 
-0.365806 -0.342624 0.681 
-0.338656 -0.342624 0.681 
-0.311963 -0.343127 0.682 
-0.286861 -0.345643 0.687 
-0.25645 -0.341618 0.679 
-0.230193 -0.347655 0.691 
-0.203817 -0.349668 0.695 
0.0720275 -0.377339 0.75 
0.312674 -0.360736 0.717 
0.322697 -0.341115 0.678 
0.323238 -0.312437 0.621 
0.330064 -0.296337 0.589 
0.335042 -0.279734 0.556 
0.355281 -0.278225 0.553 
0.379375 -0.279734 0.556 
0.401542 -0.279734 0.556 
0.425995 -0.281244 0.559 
0.449083 -0.281747 0.56 
0.473934 -0.283256 0.563 
0.498143 -0.284262 0.565 
0.52159 -0.284765 0.566 
0.546078 -0.285772 0.568 
-0.55225 -0.334016 0.667 
-0.52487 -0.333515 0.666 
-0.501311 -0.335518 0.67 
-0.476725 -0.337021 0.673 
-0.461926 -0.346035 0.691 
-0.43401 -0.347036 0.693 
-0.405208 -0.346035 0.691 
-0.371648 -0.340526 0.68 
-0.345044 -0.341027 0.681 
-0.318361 -0.341528 0.682 
-0.292879 -0.343531 0.686 
-0.267078 -0.345534 0.69 
-0.233353 -0.343531 0.686 
-0.208406 -0.347537 0.694 
-0.180738 -0.347537 0.694 
0.308488 -0.360056 0.719 
0.32121 -0.34303 0.685 
0.322013 -0.315488 0.63 
0.327027 -0.295957 0.591 
0.332321 -0.279432 0.558 
0.351391 -0.276928 0.553 
0.375464 -0.27843 0.556 
0.39763 -0.27843 0.556 
0.421307 -0.279432 0.558 
0.445143 -0.280433 0.56 
0.469138 -0.281435 0.562 
0.494168 -0.282937 0.565 
0.517608 -0.283438 0.566 
0.541128 -0.283939 0.567 
0.566715 -0.285441 0.57 
-0.53032 -0.331455 0.665 
-0.507596 -0.333947 0.67 
-0.483038 -0.335443 0.673 
-0.465019 -0.341922 0.686 
-0.439875 -0.344913 0.692 
-0.412882 -0.345411 0.693 
-0.37747 -0.338433 0.679 
-0.351432 -0.33943 0.681 
-0.324758 -0.339928 0.682 
-0.298441 -0.340925 0.684 
-0.27355 -0.343916 0.69 
-0.236984 -0.333449 0.669 
-0.217543 -0.344913 0.692 
-0.190778 -0.346408 0.695 
0.304695 -0.359866 0.722 
0.320085 -0.345411 0.693 
0.324633 -0.322483 0.647 
0.324203 -0.297063 0.596 
0.330449 -0.282111 0.566 
0.344283 -0.275133 0.552 
0.36828 -0.276628 0.555 
0.390407 -0.276628 0.555 
0.41402 -0.277625 0.557 
0.438576 -0.27912 0.56 
0.460902 -0.27912 0.56 
0.485817 -0.280615 0.563 
0.510971 -0.282111 0.566 
0.534479 -0.282609 0.567 
0.560032 -0.284104 0.57 
-0.538118 -0.329896 0.665 
-0.513914 -0.331384 0.668 
-0.48947 -0.332872 0.671 
-0.468236 -0.336841 0.679 
-0.449284 -0.344282 0.694 
-0.421008 -0.343786 0.693 
-0.385432 -0.336841 0.679 
-0.35889 -0.337337 0.68 
-0.332755 -0.338329 0.682 
-0.306014 -0.338825 0.683 
-0.280825 -0.341305 0.688 
-0.245195 -0.332376 0.67 
-0.225331 -0.342794 0.691 
-0.198927 -0.344778 0.695 
0.0701067 -0.362141 0.73 
0.31311 -0.356188 0.718 
0.322697 -0.336345 0.678 
0.322905 -0.310548 0.626 
0.328413 -0.293185 0.591 
0.332321 -0.276815 0.558 
0.350755 -0.273838 0.552 
0.374788 -0.275326 0.555 
0.39763 -0.275822 0.556 
0.421307 -0.276815 0.558 
0.445938 -0.278303 0.561 
0.468304 -0.278303 0.561 
0.494168 -0.280287 0.565 
0.517608 -0.280783 0.566 
0.541128 -0.281279 0.567 
0.566715 -0.282768 0.57 
-0.527966 -0.327842 0.664 
-0.50527 -0.330311 0.669 
-0.481459 -0.332286 0.673 
-0.464761 -0.339692 0.688 
-0.438252 -0.341667 0.692 
-0.41007 -0.341173 0.691 
-0.374286 -0.335248 0.679 
-0.347727 -0.335742 0.68 
-0.32156 -0.33673 0.682 
-0.295665 -0.338211 0.685 
-0.270706 -0.341173 0.691 
-0.235944 -0.333273 0.675 
-0.214607 -0.342161 0.693 
-0.187518 -0.343148 0.695 
0.303395 -0.358948 0.727 
0.320035 -0.345617 0.7 
0.323587 -0.321424 0.651 
0.322694 -0.296737 0.601 
0.331269 -0.282418 0.572 
0.342313 -0.273037 0.553 
0.365018 -0.273531 0.554 
0.387804 -0.274025 0.555 
0.411408 -0.275012 0.557 
0.43595 -0.276493 0.56 
0.458276 -0.276493 0.56 
0.483176 -0.277975 0.563 
0.508316 -0.279456 0.566 
0.530882 -0.279456 0.566 
0.55638 -0.280937 0.569 
-0.538118 -0.326776 0.665 
-0.513914 -0.328251 0.668 
-0.48947 -0.329725 0.671 
-0.468236 -0.333656 0.679 
-0.449284 -0.341027 0.694 
-0.421008 -0.340535 0.693 
-0.383275 -0.333165 0.678 
-0.35677 -0.333656 0.679 
-0.331156 -0.33513 0.682 
-0.304412 -0.335622 0.683 
-0.279211 -0.338078 0.688 
-0.245078 -0.331199 0.674 
-0.223711 -0.339553 0.691 
-0.197014 -0.341027 0.694 
0.296088 -0.358717 0.73 
0.317618 -0.350363 0.713 
0.322748 -0.326776 0.665 
0.323387 -0.301224 0.613 
0.331371 -0.286974 0.584 
0.337125 -0.27174 0.553 
0.359821 -0.272232 0.554 
0.382598 -0.272723 0.555 
0.406183 -0.273706 0.557 
0.429927 -0.274689 0.559 
0.453832 -0.275672 0.561 
0.477046 -0.276163 0.562 
0.503007 -0.278129 0.566 
0.525572 -0.278129 0.566 
0.550074 -0.279111 0.568 
-0.546736 -0.325706 0.666 
-0.518622 -0.324728 0.664 
-0.496597 -0.327662 0.67 
-0.471288 -0.32864 0.672 
-0.458388 -0.33891 0.693 
-0.430759 -0.33891 0.693 
-0.396732 -0.333531 0.682 
-0.367916 -0.332064 0.679 
-0.34185 -0.333042 0.681 
-0.315162 -0.333531 0.682 
-0.289661 -0.335487 0.686 
-0.263459 -0.336954 0.689 
-0.232333 -0.33402 0.683 
-0.208106 -0.33891 0.693 
-0.180999 -0.339888 0.695 
0.309775 -0.353093 0.722 
0.322616 -0.336465 0.688 
0.320991 -0.307122 0.628 
0.326192 -0.289516 0.592 
0.332321 -0.272889 0.558 
0.350755 -0.269955 0.552 
0.374788 -0.271422 0.555 
0.39763 -0.271911 0.556 
0.421307 -0.272889 0.558 
0.446733 -0.274845 0.562 
0.468304 -0.274356 0.561 
0.494168 -0.276312 0.565 
0.517608 -0.276801 0.566 
0.541128 -0.27729 0.567 
0.56771 -0.279246 0.571 
-0.52717 -0.322684 0.663 
-0.50527 -0.325604 0.669 
-0.480029 -0.326578 0.671 
-0.466112 -0.335825 0.69 
-0.439875 -0.336798 0.692 
-0.412286 -0.336798 0.692 
-0.376915 -0.329985 0.678 
-0.350916 -0.330958 0.68 
-0.324758 -0.331931 0.682 
-0.298005 -0.332418 0.683 
-0.27355 -0.335825 0.69 
-0.241762 -0.329985 0.678 
-0.219166 -0.336798 0.692 
-0.191854 -0.337285 0.693 
0.295682 -0.354806 0.729 
0.318064 -0.347506 0.714 
0.321777 -0.322684 0.663 
0.323915 -0.298836 0.614 
0.330804 -0.283748 0.583 
0.337125 -0.269147 0.553 
0.359172 -0.269147 0.553 
0.381908 -0.269633 0.554 
0.406183 -0.271093 0.557 
0.429927 -0.272067 0.559 
0.453832 -0.27304 0.561 
0.476198 -0.27304 0.561 
0.503007 -0.275474 0.566 
0.525572 -0.275474 0.566 
0.551043 -0.276934 0.569 
-0.547557 -0.323067 0.667 
-0.517841 -0.321129 0.663 
-0.495856 -0.324035 0.669 
-0.470587 -0.325004 0.671 
-0.458388 -0.33566 0.693 
-0.430759 -0.33566 0.693 
-0.39615 -0.329848 0.681 
-0.367916 -0.328879 0.679 
-0.34185 -0.329848 0.681 
-0.315162 -0.330332 0.682 
-0.289661 -0.332269 0.686 
-0.263459 -0.333722 0.689 
-0.233592 -0.330332 0.682 
-0.209731 -0.33566 0.693 
-0.182366 -0.336144 0.694 
0.307662 -0.351159 0.725 
0.32171 -0.33566 0.693 
0.320027 -0.304661 0.629 
0.325352 -0.287224 0.593 
0.331927 -0.273178 0.564 
0.346872 -0.267365 0.552 
0.369547 -0.26785 0.553 
0.39301 -0.268818 0.555 
0.417381 -0.270272 0.558 
0.441203 -0.27124 0.56 
0.464357 -0.271725 0.561 
0.488458 -0.272693 0.563 
0.513626 -0.274146 0.566 
0.537138 -0.274631 0.567 
0.563692 -0.276568 0.571 
-0.533439 -0.320538 0.665 
-0.509214 -0.321984 0.668 
-0.484027 -0.322948 0.67 
-0.468237 -0.330661 0.686 
-0.444743 -0.333553 0.692 
-0.417757 -0.334035 0.693 
-0.381685 -0.326804 0.678 
-0.355177 -0.327286 0.679 
-0.329557 -0.328733 0.682 
-0.30281 -0.329215 0.683 
-0.277598 -0.331625 0.688 
-0.247623 -0.32825 0.681 
-0.223711 -0.333071 0.691 
-0.19673 -0.334035 0.693 
0.291862 -0.350905 0.728 
0.315596 -0.345121 0.716 
0.321551 -0.322466 0.669 
0.323525 -0.29692 0.616 
0.330001 -0.281495 0.584 
0.335136 -0.267035 0.554 
0.355933 -0.266071 0.552 
0.37931 -0.267035 0.554 
0.40357 -0.268481 0.557 
0.426541 -0.268963 0.558 
0.4512 -0.270409 0.561 
0.473566 -0.270409 0.561 
0.500352 -0.272819 0.566 
0.522917 -0.272819 0.566 
0.548374 -0.274265 0.569 
-0.55225 -0.319938 0.667 
-0.522506 -0.318019 0.663 
-0.499815 -0.320418 0.668 
-0.475308 -0.321857 0.671 
-0.463263 -0.332409 0.693 
-0.435635 -0.332409 0.693 
-0.403885 -0.329052 0.686 
-0.372145 -0.325214 0.678 
-0.346641 -0.326653 0.681 
-0.320429 -0.327613 0.683 
-0.294487 -0.329052 0.686 
-0.267917 -0.330011 0.688 
-0.23839 -0.327133 0.682 
-0.214297 -0.33193 0.692 
-0.186978 -0.332409 0.693 
0.300811 -0.349677 0.729 
0.319467 -0.338645 0.706 
0.321026 -0.312743 0.652 
0.323231 -0.28876 0.602 
0.331081 -0.275329 0.574 
0.340399 -0.264776 0.552 
0.362406 -0.264776 0.552 
0.386502 -0.266215 0.555 
0.410102 -0.267175 0.557 
0.43386 -0.268134 0.559 
0.457779 -0.269093 0.561 
0.480144 -0.269093 0.561 
0.506989 -0.271492 0.566 
0.529554 -0.271492 0.566 
0.556021 -0.27341 0.57 
-0.542865 -0.318374 0.667 
-0.514725 -0.317419 0.665 
-0.491149 -0.319329 0.669 
-0.468643 -0.322192 0.675 
-0.454821 -0.331739 0.695 
-0.425884 -0.330784 0.693 
-0.390784 -0.324579 0.68 
-0.363139 -0.324102 0.679 
-0.337554 -0.325534 0.682 
-0.310819 -0.326011 0.683 
-0.28525 -0.32792 0.687 
-0.257861 -0.32792 0.687 
-0.231142 -0.328875 0.689 
-0.20456 -0.330307 0.692 
-0.177483 -0.331262 0.694 
0.303813 -0.347491 0.728 
0.321407 -0.335557 0.703 
0.321598 -0.308827 0.647 
0.323231 -0.287348 0.602 
0.331081 -0.273983 0.574 
0.340399 -0.263482 0.552 
0.362406 -0.263482 0.552 
0.386502 -0.264914 0.555 
0.410102 -0.265868 0.557 
0.43386 -0.266823 0.559 
0.457779 -0.267778 0.561 
0.481 -0.268255 0.562 
0.506989 -0.270164 0.566 
0.529554 -0.270164 0.566 
0.556021 -0.272074 0.57 
-0.544429 -0.31681 0.667 
-0.516284 -0.31586 0.665 
-0.491982 -0.317285 0.668 
-0.468833 -0.31966 0.673 
-0.457108 -0.330584 0.696 
-0.426892 -0.328684 0.692 
-0.392379 -0.322984 0.68 
-0.364732 -0.322509 0.679 
-0.339153 -0.323934 0.682 
-0.312878 -0.324884 0.684 
-0.286861 -0.326309 0.687 
-0.259849 -0.326784 0.688 
-0.232758 -0.327259 0.689 
-0.206183 -0.328684 0.692 
-0.179111 -0.329634 0.694 
0.300811 -0.346258 0.729 
0.319014 -0.334859 0.705 
0.320533 -0.30921 0.651 
0.323958 -0.287836 0.606 
0.33031 -0.273112 0.575 
0.339104 -0.262187 0.552 
0.361112 -0.262187 0.552 
0.384507 -0.263137 0.554 
0.408795 -0.264562 0.557 
0.431776 -0.265037 0.558 
0.455649 -0.265987 0.56 
0.478829 -0.266462 0.561 
0.505662 -0.268837 0.566 
0.528227 -0.268837 0.566 
0.554685 -0.270737 0.57 
-0.547557 -0.315245 0.667 
-0.519403 -0.3143 0.665 
-0.495115 -0.315718 0.668 
-0.470587 -0.317136 0.671 
-0.459711 -0.328479 0.695 
-0.428515 -0.327061 0.692 
-0.394553 -0.321862 0.681 
-0.366324 -0.320917 0.679 
-0.340753 -0.322335 0.682 
-0.314482 -0.32328 0.684 
-0.288472 -0.324698 0.687 
-0.261463 -0.325171 0.688 
-0.234714 -0.326116 0.69 
-0.207806 -0.327061 0.692 
-0.180478 -0.327534 0.693 
0.300398 -0.344076 0.728 
0.318562 -0.332733 0.704 
0.320041 -0.307211 0.65 
0.324133 -0.287833 0.609 
0.329533 -0.272236 0.576 
0.33781 -0.260893 0.552 
0.359817 -0.260893 0.552 
0.383899 -0.262311 0.555 
0.407489 -0.263256 0.557 
0.430467 -0.263729 0.558 
0.454336 -0.264674 0.56 
0.477513 -0.265146 0.561 
0.504334 -0.26751 0.566 
0.5269 -0.26751 0.566 
0.552377 -0.268927 0.569 
-0.545993 -0.313681 0.667 
-0.517844 -0.312741 0.665 
-0.493548 -0.314151 0.668 
-0.469013 -0.315562 0.671 
-0.458081 -0.326849 0.695 
-0.426892 -0.325438 0.692 
-0.392379 -0.319795 0.68 
-0.365269 -0.319795 0.68 
-0.339153 -0.320735 0.682 
-0.313335 -0.322146 0.685 
-0.286861 -0.323087 0.687 
-0.260227 -0.324027 0.689 
-0.233434 -0.324968 0.691 
-0.206183 -0.325438 0.692 
-0.179111 -0.326379 0.694 
0.287365 -0.339077 0.721 
0.314356 -0.337196 0.717 
0.319982 -0.314622 0.669 
0.323337 -0.293459 0.624 
0.327567 -0.276058 0.587 
0.333032 -0.26195 0.557 
0.35205 -0.259598 0.552 
0.37609 -0.261009 0.555 
0.398216 -0.261009 0.555 
0.422615 -0.26242 0.558 
0.445659 -0.26289 0.559 
0.469619 -0.263831 0.561 
0.495493 -0.265712 0.565 
0.518935 -0.266182 0.566 
0.542457 -0.266653 0.567 
-0.557778 -0.312585 0.668 
-0.530351 -0.312117 0.667 
-0.503759 -0.312117 0.667 
-0.478598 -0.313053 0.669 
-0.467463 -0.323815 0.692 
-0.441146 -0.324751 0.694 
-0.408711 -0.321008 0.686 
-0.37747 -0.317732 0.679 
-0.351432 -0.318668 0.681 
-0.325711 -0.320072 0.684 
-0.29975 -0.321476 0.687 
-0.272757 -0.321944 0.688 
-0.246398 -0.323348 0.691 
-0.218849 -0.323348 0.691 
-0.191577 -0.323815 0.692 
0.0619615 -0.257836 0.551 
0.305961 -0.339258 0.725 
0.320085 -0.324283 0.693 
0.321623 -0.29995 0.641 
0.323888 -0.279829 0.598 
0.331448 -0.266727 0.57 
0.342988 -0.258304 0.552 
0.364995 -0.258304 0.552 
0.388404 -0.25924 0.554 
0.412714 -0.260643 0.557 
0.435701 -0.261111 0.558 
0.459589 -0.262047 0.56 
0.483636 -0.262983 0.562 
0.508743 -0.264387 0.565 
0.532209 -0.264855 0.566 
0.559675 -0.267195 0.571 
-0.542112 -0.311018 0.668 
-0.514709 -0.310553 0.667 
-0.48958 -0.311484 0.669 
-0.469828 -0.31614 0.679 
-0.455147 -0.324986 0.698 
-0.423034 -0.321727 0.691 
-0.389189 -0.316605 0.68 
-0.362079 -0.316605 0.68 
-0.336447 -0.318002 0.683 
-0.311028 -0.319865 0.687 
-0.283639 -0.319865 0.687 
-0.257369 -0.321261 0.69 
-0.230193 -0.321727 0.691 
-0.202937 -0.322193 0.692 
0.0517177 -0.257009 0.552 
0.280334 -0.333367 0.716 
0.310605 -0.335229 0.72 
0.320634 -0.315209 0.677 
0.322977 -0.29286 0.629 
0.326474 -0.274702 0.59 
0.331606 -0.260268 0.559 
0.349461 -0.257009 0.552 
0.372814 -0.25794 0.554 
0.394188 -0.257475 0.553 
0.419245 -0.259337 0.557 
0.442244 -0.259803 0.558 
0.466988 -0.2612 0.561 
0.491971 -0.262596 0.564 
0.516281 -0.263528 0.566 
0.539798 -0.263993 0.567 
0.566371 -0.265855 0.571 
-0.534279 -0.309452 0.668 
-0.506887 -0.308989 0.667 
-0.481736 -0.309915 0.669 
-0.469349 -0.319643 0.69 
-0.445041 -0.32196 0.695 
-0.41313 -0.318717 0.688 
-0.381216 -0.315011 0.68 
-0.354626 -0.315474 0.681 
-0.3294 -0.317327 0.685 
-0.302972 -0.318254 0.687 
-0.276385 -0.31918 0.689 
-0.249639 -0.320107 0.691 
-0.221769 -0.319643 0.69 
-0.195105 -0.321033 0.693 
0.0555006 -0.255251 0.551 
0.286169 -0.332614 0.718 
0.314356 -0.332151 0.717 
0.32059 -0.308989 0.667 
0.324279 -0.288605 0.623 
0.328069 -0.270075 0.583 
0.33444 -0.257104 0.555 
0.354639 -0.255715 0.552 
0.378693 -0.257104 0.555 
0.400097 -0.256641 0.554 
0.425233 -0.258494 0.558 
0.448281 -0.258957 0.559 
0.472251 -0.259884 0.561 
0.498143 -0.261737 0.565 
0.52159 -0.2622 0.566 
0.546078 -0.263127 0.568 
-0.554645 -0.307885 0.668 
-0.527222 -0.307424 0.667 
-0.500631 -0.307424 0.667 
-0.476171 -0.308807 0.67 
-0.464218 -0.318947 0.692 
-0.43726 -0.319408 0.693 
-0.403129 -0.314338 0.682 
-0.374837 -0.313416 0.68 
-0.34875 -0.314338 0.682 
-0.323917 -0.316642 0.687 
-0.296096 -0.316181 0.686 
-0.26953 -0.317103 0.688 
-0.243509 -0.318947 0.692 
-0.215608 -0.318486 0.691 
-0.188604 -0.319408 0.693 
0.0592694 -0.253498 0.55 
0.292843 -0.332774 0.722 
0.315391 -0.326321 0.708 
0.319836 -0.303737 0.659 
0.324576 -0.28484 0.618 
0.329101 -0.267325 0.58 
0.335221 -0.25442 0.552 
0.357228 -0.25442 0.552 
0.380609 -0.255342 0.554 
0.403423 -0.255803 0.555 
0.42785 -0.257186 0.558 
0.450903 -0.257646 0.559 
0.475728 -0.259029 0.562 
0.500793 -0.260412 0.565 
0.524245 -0.260873 0.566 
0.548742 -0.261795 0.568 
-0.549945 -0.306319 0.668 
-0.521746 -0.305401 0.666 
-0.496681 -0.306319 0.668 
-0.471457 -0.307236 0.67 
-0.460013 -0.317783 0.693 
-0.431136 -0.316865 0.691 
-0.397747 -0.31228 0.681 
-0.370053 -0.311821 0.68 
-0.344456 -0.313197 0.683 
-0.319084 -0.315031 0.687 
-0.29127 -0.314573 0.686 
-0.265075 -0.315948 0.689 
-0.23864 -0.317324 0.692 
-0.211052 -0.317324 0.692 
-0.183728 -0.317783 0.693 
0.0625649 -0.249916 0.545 
0.298335 -0.331539 0.723 
0.315664 -0.318241 0.694 
0.320576 -0.297147 0.648 
0.323958 -0.277888 0.606 
0.331081 -0.263214 0.574 
0.341694 -0.253126 0.552 
0.363701 -0.253126 0.552 
0.386406 -0.253584 0.553 
0.410669 -0.25496 0.556 
0.434393 -0.255877 0.558 
0.458276 -0.256794 0.56 
0.483176 -0.25817 0.563 
0.507418 -0.259087 0.565 
0.530882 -0.259545 0.566 
0.557358 -0.26138 0.57 
-0.540545 -0.304752 0.668 
-0.511606 -0.303383 0.665 
-0.488011 -0.305208 0.669 
-0.469615 -0.310683 0.681 
-0.452211 -0.317526 0.696 
-0.420194 -0.314333 0.689 
-0.387595 -0.310227 0.68 
-0.360485 -0.310227 0.68 
-0.335335 -0.312051 0.684 
-0.309417 -0.31342 0.687 
-0.282028 -0.31342 0.687 
-0.256121 -0.315245 0.691 
-0.228241 -0.314789 0.69 
-0.201605 -0.316157 0.693 
-0.174479 -0.31707 0.695 
0.287853 -0.327563 0.718 
0.315155 -0.326194 0.715 
0.319629 -0.303383 0.665 
0.324279 -0.284222 0.623 
0.327262 -0.26643 0.584 
0.333738 -0.253656 0.556 
0.352704 -0.251375 0.551 
0.376711 -0.252743 0.554 
0.399518 -0.2532 0.555 
0.423164 -0.254112 0.557 
0.44617 -0.254568 0.558 
0.470935 -0.255937 0.561 
0.495939 -0.257306 0.564 
0.520263 -0.258218 0.566 
0.543787 -0.258674 0.567 
-0.553906 -0.303639 0.669 
-0.524082 -0.301824 0.665 
-0.499815 -0.303185 0.668 
-0.474599 -0.304093 0.67 
-0.462595 -0.314078 0.692 
-0.431136 -0.313624 0.691 
-0.397747 -0.309086 0.681 
-0.370053 -0.308632 0.68 
-0.344456 -0.309993 0.683 
-0.319084 -0.311809 0.687 
-0.29127 -0.311355 0.686 
-0.265075 -0.312717 0.689 
-0.23864 -0.314078 0.692 
-0.210747 -0.313624 0.691 
-0.183728 -0.314532 0.693 
0.271392 -0.326333 0.719 
0.303002 -0.327694 0.722 
0.318238 -0.312717 0.689 
0.322124 -0.291385 0.642 
0.323888 -0.271415 0.598 
0.331617 -0.257798 0.568 
0.343659 -0.250083 0.551 
0.36629 -0.250536 0.552 
0.389704 -0.251444 0.554 
0.413277 -0.252352 0.556 
0.43701 -0.25326 0.558 
0.460902 -0.254167 0.56 
0.485817 -0.255529 0.563 
0.510068 -0.256437 0.565 
0.533536 -0.256891 0.566 
0.559049 -0.258252 0.569 
-0.538979 -0.301619 0.668 
-0.510046 -0.300264 0.665 
-0.486442 -0.30207 0.669 
-0.47008 -0.308843 0.684 
-0.444743 -0.312455 0.692 
-0.412332 -0.308843 0.684 
-0.382248 -0.306586 0.679 
-0.3557 -0.307037 0.68 
-0.301361 -0.310198 0.687 
-0.273972 -0.310198 0.687 
-0.248018 -0.312004 0.691 
-0.219512 -0.310649 0.688 
-0.193479 -0.312907 0.693 
0.0572416 -0.245178 0.543 
0.29372 -0.325098 0.72 
0.315708 -0.318325 0.705 
0.319987 -0.294846 0.653 
0.323765 -0.275882 0.611 
0.329892 -0.261433 0.579 
0.336515 -0.249242 0.552 
0.357873 -0.24879 0.551 
0.381908 -0.250145 0.554 
0.404724 -0.250597 0.555 
0.428389 -0.2515 0.557 
0.452214 -0.252403 0.559 
0.477046 -0.253757 0.562 
0.501229 -0.25466 0.564 
0.525572 -0.255563 0.566 
0.550074 -0.256466 0.568 
-0.550768 -0.300501 0.669 
-0.52018 -0.298256 0.664 
-0.496681 -0.300052 0.668 
-0.471457 -0.300951 0.67 
-0.460013 -0.311282 0.693 
-0.424424 -0.309036 0.688 
-0.392379 -0.305442 0.68 
-0.365269 -0.305442 0.68 
-0.302972 -0.308587 0.687 
-0.275583 -0.308587 0.687 
-0.249639 -0.310383 0.691 
-0.220805 -0.308587 0.687 
-0.195105 -0.311282 0.693 
0.0559682 -0.243905 0.543 
0.29751 -0.323859 0.721 
0.316119 -0.31218 0.695 
0.321618 -0.289272 0.644 
0.323564 -0.269508 0.6 
0.33069 -0.256482 0.571 
0.341074 -0.247498 0.551 
0.363701 -0.247947 0.552 
0.387105 -0.248846 0.554 
0.410669 -0.249744 0.556 
0.434393 -0.250642 0.558 
0.457457 -0.251092 0.559 
0.483176 -0.252888 0.563 
0.50652 -0.253338 0.564 
0.530882 -0.254236 0.566 
0.555403 -0.255134 0.568 
-0.544492 -0.298933 0.669 
-0.513177 -0.296252 0.663 
-0.491149 -0.298933 0.669 
-0.47142 -0.303401 0.679 
-0.447989 -0.30921 0.692 
-0.417363 -0.306976 0.687 
-0.385432 -0.303401 0.679 
-0.35889 -0.303848 0.68 
-0.294487 -0.306529 0.686 
-0.267527 -0.306976 0.687 
-0.241536 -0.308763 0.691 
-0.213988 -0.308763 0.691 
-0.186978 -0.309657 0.693 
0.278136 -0.321274 0.719 
0.307228 -0.321721 0.72 
0.31867 -0.305188 0.683 
0.321553 -0.2824 0.632 
0.324804 -0.264526 0.592 
0.331338 -0.251568 0.563 
0.345615 -0.245759 0.55 
0.368879 -0.246653 0.552 
0.39301 -0.247993 0.555 
0.415885 -0.24844 0.556 
0.439627 -0.249334 0.558 
0.463529 -0.250228 0.56 
0.488458 -0.251568 0.563 
0.512718 -0.252462 0.565 
0.536191 -0.252909 0.566 
0.560731 -0.253802 0.568 
-0.533479 -0.296475 0.667 
-0.505368 -0.295586 0.665 
-0.481736 -0.297364 0.669 
-0.470029 -0.307142 0.691 
-0.440222 -0.306698 0.69 
-0.409722 -0.304475 0.685 
-0.378505 -0.301364 0.678 
-0.313793 -0.30492 0.686 
-0.286443 -0.30492 0.686 
-0.259849 -0.305809 0.688 
-0.233434 -0.307142 0.691 
-0.206183 -0.307587 0.692 
-0.179627 -0.309365 0.696 
0.28994 -0.319588 0.719 
0.315503 -0.316477 0.712 
0.318773 -0.293363 0.66 
0.323126 -0.274695 0.618 
0.329195 -0.260027 0.585 
0.333234 -0.245803 0.553 
0.353354 -0.244469 0.55 
0.377328 -0.245803 0.553 
0.40082 -0.246692 0.555 
0.42447 -0.247581 0.557 
0.448281 -0.24847 0.559 
0.471409 -0.248914 0.56 
0.49638 -0.250248 0.563 
0.52159 -0.251581 0.566 
0.545117 -0.252026 0.567 
-0.551512 -0.295353 0.668 
-0.520951 -0.293142 0.663 
-0.498248 -0.295353 0.668 
-0.472322 -0.295795 0.669 
-0.462304 -0.306848 0.694 
-0.430878 -0.304195 0.688 
-0.399931 -0.301543 0.682 
-0.371101 -0.300216 0.679 
-0.307358 -0.303311 0.686 
-0.280416 -0.303753 0.687 
-0.254132 -0.30508 0.69 
-0.226295 -0.304638 0.689 
-0.200269 -0.306848 0.694 
-0.173595 -0.308617 0.698 
0.297922 -0.319228 0.722 
0.316752 -0.309501 0.7 
0.319056 -0.28651 0.648 
0.323601 -0.268824 0.608 
0.33031 -0.254233 0.575 
0.33849 -0.243622 0.551 
0.360457 -0.243622 0.551 
0.383813 -0.244506 0.553 
0.408061 -0.245832 0.556 
0.431776 -0.246717 0.558 
0.454836 -0.247159 0.559 
0.477975 -0.247601 0.56 
0.502981 -0.248927 0.563 
0.528227 -0.250254 0.566 
0.552738 -0.251138 0.568 
-0.545245 -0.293786 0.668 
-0.514732 -0.291587 0.663 
-0.492718 -0.294226 0.669 
-0.470923 -0.297304 0.676 
-0.456451 -0.305661 0.695 
-0.425041 -0.303022 0.689 
-0.392379 -0.299064 0.68 
-0.365269 -0.299064 0.68 
-0.293732 -0.302582 0.688 
-0.266303 -0.302582 0.688 
-0.239916 -0.303901 0.691 
-0.212367 -0.303901 0.691 
-0.185888 -0.305661 0.695 
0.282292 -0.317095 0.721 
0.310174 -0.316216 0.719 
0.32046 -0.299064 0.68 
0.32041 -0.274435 0.624 
0.327027 -0.259921 0.591 
0.331726 -0.244968 0.557 
0.349484 -0.24189 0.55 
0.372762 -0.242769 0.552 
0.39763 -0.244528 0.556 
0.420552 -0.244968 0.557 
0.443553 -0.245408 0.558 
0.467469 -0.246288 0.56 
0.492419 -0.247607 0.563 
0.516693 -0.248487 0.565 
0.541128 -0.249366 0.567 
0.564727 -0.249806 0.568 
-0.526408 -0.29047 0.664 
-0.502195 -0.291782 0.667 
-0.477029 -0.292657 0.669 
-0.467187 -0.303593 0.694 
-0.435085 -0.300531 0.687 
-0.406509 -0.299656 0.685 
-0.375325 -0.296594 0.678 
-0.314022 -0.298781 0.683 
-0.280825 -0.300968 0.688 
-0.254132 -0.301843 0.69 
-0.226952 -0.302281 0.691 
-0.199214 -0.304468 0.696 
0.275166 -0.318904 0.729 
0.301309 -0.315842 0.722 
0.316835 -0.303156 0.693 
0.320107 -0.281721 0.644 
0.323564 -0.262473 0.6 
0.33069 -0.249786 0.571 
0.340456 -0.2406 0.55 
0.363701 -0.241475 0.552 
0.387105 -0.24235 0.554 
0.411408 -0.243662 0.557 
0.434393 -0.244099 0.558 
0.457457 -0.244537 0.559 
0.48146 -0.245412 0.561 
0.505622 -0.246287 0.563 
0.530882 -0.247599 0.566 
0.554425 -0.248037 0.567 
-0.539736 -0.290218 0.667 
-0.511606 -0.289347 0.665 
-0.488011 -0.291088 0.669 
-0.470994 -0.297179 0.683 
-0.450262 -0.301531 0.693 
-0.421413 -0.30066 0.691 
-0.387025 -0.295439 0.679 
-0.360485 -0.295874 0.68 
-0.308066 -0.297615 0.684 
-0.282849 -0.29979 0.689 
-0.25538 -0.29979 0.689 
-0.228572 -0.30066 0.691 
-0.189964 -0.303706 0.698 
0.283983 -0.313714 0.721 
0.31186 -0.312843 0.719 
0.320634 -0.294569 0.677 
0.320228 -0.268897 0.618 
0.328683 -0.256279 0.589 
0.332434 -0.241921 0.556 
0.350774 -0.23931 0.55 
0.374057 -0.24018 0.552 
0.398216 -0.241486 0.555 
0.421858 -0.242356 0.557 
0.444862 -0.242791 0.558 
0.467945 -0.243226 0.559 
0.492862 -0.244531 0.562 
0.518018 -0.245837 0.565 
0.542457 -0.246707 0.567 
-0.552881 -0.287355 0.664 
-0.527201 -0.287788 0.665 
-0.502195 -0.288654 0.667 
-0.477029 -0.289519 0.669 
-0.467187 -0.300338 0.694 
-0.433185 -0.29601 0.684 
-0.405916 -0.29601 0.684 
-0.375325 -0.293414 0.678 
-0.349322 -0.294279 0.68 
-0.306462 -0.29601 0.684 
-0.281233 -0.298174 0.689 
-0.253764 -0.298174 0.689 
-0.226952 -0.29904 0.691 
-0.179017 -0.302935 0.7 
0.294128 -0.312023 0.721 
0.31526 -0.304666 0.704 
0.319918 -0.283893 0.656 
0.322537 -0.262255 0.606 
0.329533 -0.249272 0.576 
0.33849 -0.238453 0.551 
0.361112 -0.238886 0.552 
0.383813 -0.239318 0.553 
0.408795 -0.241049 0.557 
0.431776 -0.241482 0.558 
0.454836 -0.241915 0.559 
0.477975 -0.242348 0.56 
0.502088 -0.243213 0.562 
0.528227 -0.244944 0.566 
0.551765 -0.245377 0.567 
-0.546652 -0.285798 0.664 
-0.52018 -0.285798 0.664 
-0.496681 -0.28752 0.668 
-0.471457 -0.288381 0.67 
-0.462668 -0.300002 0.697 
-0.426145 -0.293976 0.683 
-0.397747 -0.293115 0.681 
-0.369509 -0.292254 0.679 
-0.343447 -0.293115 0.681 
-0.303697 -0.294837 0.685 
-0.278001 -0.296558 0.689 
-0.250532 -0.296558 0.689 
-0.224034 -0.29785 0.692 
-0.194875 -0.300432 0.698 
0.278586 -0.313775 0.729 
0.304273 -0.310332 0.721 
0.317776 -0.296128 0.688 
0.319616 -0.274177 0.637 
0.323659 -0.256099 0.595 
0.331033 -0.244047 0.567 
0.344325 -0.23673 0.55 
0.367584 -0.237591 0.552 
0.391709 -0.238882 0.555 
0.415327 -0.239743 0.557 
0.438319 -0.240174 0.558 
0.46139 -0.240604 0.559 
0.485407 -0.241465 0.561 
0.509583 -0.242326 0.563 
0.534864 -0.243617 0.566 
0.559399 -0.244478 0.568 
-0.538118 -0.284669 0.665 
-0.511606 -0.284669 0.665 
-0.488011 -0.286381 0.669 
-0.471684 -0.292802 0.684 
-0.448962 -0.295799 0.691 
-0.420804 -0.295371 0.69 
-0.387025 -0.290662 0.679 
-0.360485 -0.29109 0.68 
-0.329073 -0.291518 0.681 
-0.303697 -0.29323 0.685 
-0.278001 -0.294943 0.689 
-0.250532 -0.294943 0.689 
-0.224034 -0.296227 0.692 
-0.197865 -0.298367 0.697 
0.275544 -0.312494 0.73 
0.301309 -0.309069 0.722 
0.317314 -0.294087 0.687 
0.320117 -0.273111 0.638 
0.323115 -0.254276 0.594 
0.331033 -0.242718 0.567 
0.344325 -0.23544 0.55 
0.367584 -0.236297 0.552 
0.391003 -0.237153 0.554 
0.415327 -0.238437 0.557 
0.438319 -0.238865 0.558 
0.46139 -0.239293 0.559 
0.484542 -0.239721 0.56 
0.510488 -0.241433 0.564 
0.534864 -0.24229 0.566 
0.559399 -0.243146 0.568 
-0.539677 -0.283109 0.665 
-0.513165 -0.283109 0.665 
-0.488849 -0.284387 0.668 
-0.471212 -0.289921 0.681 
-0.451235 -0.294604 0.692 
-0.421197 -0.292901 0.688 
-0.388617 -0.28907 0.679 
-0.361547 -0.28907 0.679 
-0.332268 -0.289921 0.681 
-0.306014 -0.290772 0.683 
-0.280825 -0.292901 0.688 
-0.253764 -0.293327 0.689 
-0.226952 -0.294178 0.691 
-0.200846 -0.296307 0.696 
-0.173346 -0.296733 0.697 
0.296229 -0.307376 0.722 
0.31521 -0.29503 0.693 
0.320576 -0.275872 0.648 
0.322157 -0.255437 0.6 
0.330505 -0.243942 0.573 
0.341074 -0.234576 0.551 
0.363701 -0.235002 0.552 
0.386406 -0.235428 0.553 
0.411408 -0.237131 0.557 
0.434393 -0.237556 0.558 
0.457457 -0.237982 0.559 
0.480602 -0.238408 0.56 
0.505622 -0.239685 0.563 
0.530882 -0.240962 0.566 
0.554425 -0.241388 0.567 
-0.545095 -0.281126 0.664 
-0.518622 -0.281126 0.664 
-0.495115 -0.28282 0.668 
-0.470587 -0.28409 0.671 
-0.460372 -0.294675 0.696 
-0.423922 -0.288747 0.682 
-0.394987 -0.287477 0.679 
-0.367916 -0.287477 0.679 
-0.341348 -0.287901 0.68 
-0.309217 -0.289171 0.683 
-0.284052 -0.291288 0.688 
-0.256995 -0.291711 0.689 
-0.230193 -0.292558 0.691 
-0.203524 -0.293828 0.694 
-0.176616 -0.295098 0.697 
0.288654 -0.304836 0.72 
0.314715 -0.302296 0.714 
0.320705 -0.281126 0.664 
0.320899 -0.258687 0.611 
0.328306 -0.245986 0.581 
0.333926 -0.233708 0.552 
0.355933 -0.233708 0.552 
0.377941 -0.233708 0.552 
0.402121 -0.234978 0.555 
0.425777 -0.235824 0.557 
0.449592 -0.236671 0.559 
0.472722 -0.237095 0.56 
0.495048 -0.237095 0.56 
0.522917 -0.239635 0.566 
0.546446 -0.240058 0.567 
-0.555995 -0.279569 0.664 
-0.53032 -0.27999 0.665 
-0.505323 -0.280832 0.667 
-0.480167 -0.281674 0.669 
-0.469764 -0.291779 0.693 
-0.43448 -0.286727 0.681 
-0.407928 -0.287148 0.682 
-0.379063 -0.285885 0.679 
-0.352511 -0.286306 0.68 
-0.308764 -0.287148 0.682 
-0.283639 -0.289253 0.687 
-0.256995 -0.290095 0.689 
-0.230193 -0.290937 0.691 
-0.203524 -0.2922 0.694 
-0.176616 -0.293463 0.697 
0.292437 -0.303568 0.721 
0.314812 -0.29599 0.703 
0.320894 -0.277043 0.658 
0.321472 -0.254307 0.604 
0.328961 -0.242097 0.575 
0.337198 -0.231992 0.551 
0.359817 -0.232413 0.552 
0.382516 -0.232834 0.553 
0.406758 -0.234097 0.556 
0.429696 -0.234518 0.557 
0.453525 -0.23536 0.559 
0.476662 -0.235781 0.56 
0.499879 -0.236202 0.561 
0.5269 -0.238308 0.566 
0.550436 -0.238729 0.567 
-0.550493 -0.277593 0.663 
-0.524851 -0.278012 0.664 
-0.500631 -0.279268 0.667 
-0.47546 -0.280106 0.669 
-0.464888 -0.290154 0.693 
-0.427463 -0.284711 0.68 
-0.399764 -0.284292 0.679 
-0.372693 -0.284292 0.679 
-0.346132 -0.284711 0.68 
-0.307165 -0.285549 0.682 
-0.281617 -0.287223 0.686 
-0.25538 -0.288479 0.689 
-0.228572 -0.289317 0.691 
-0.201896 -0.290573 0.694 
-0.174981 -0.291829 0.697 
0.294128 -0.301878 0.721 
0.314812 -0.294341 0.703 
0.320894 -0.2755 0.658 
0.321277 -0.254984 0.609 
0.328534 -0.242423 0.579 
0.334614 -0.2307 0.551 
0.357228 -0.231118 0.552 
0.379235 -0.231118 0.552 
0.40415 -0.232793 0.556 
0.427083 -0.233212 0.557 
0.450903 -0.234049 0.559 
0.474035 -0.234468 0.56 
0.496361 -0.234468 0.56 
0.524245 -0.23698 0.566 
0.547776 -0.237399 0.567 
-0.554438 -0.276455 0.664 
-0.52717 -0.276039 0.663 
-0.503759 -0.277704 0.667 
-0.478598 -0.278537 0.669 
-0.467463 -0.288113 0.692 
-0.430652 -0.283116 0.68 
-0.403542 -0.283116 0.68 
-0.375878 -0.2827 0.679 
-0.348808 -0.2827 0.679 
-0.308764 -0.283949 0.682 
-0.282813 -0.285198 0.685 
-0.256995 -0.286864 0.689 
-0.230193 -0.287696 0.691 
-0.203231 -0.288529 0.693 
-0.176616 -0.290194 0.697 
0.285674 -0.300187 0.721 
0.312674 -0.298521 0.717 
0.318889 -0.278953 0.67 
0.320326 -0.258552 0.621 
0.326746 -0.244812 0.588 
0.330535 -0.231073 0.555 
0.35012 -0.229408 0.551 
0.372762 -0.229824 0.552 
0.396915 -0.231073 0.555 
0.419797 -0.231489 0.556 
0.443553 -0.232322 0.558 
0.467469 -0.233155 0.56 
0.489795 -0.233155 0.56 
0.516693 -0.235236 0.565 
0.540173 -0.235653 0.566 
0.563733 -0.236069 0.567 
-0.53028 -0.274484 0.663 
-0.506127 -0.275726 0.666 
-0.481736 -0.276968 0.669 
-0.470029 -0.286076 0.691 
-0.43448 -0.281936 0.681 
-0.406731 -0.281522 0.68 
-0.378505 -0.280694 0.678 
-0.351993 -0.281108 0.679 
-0.310364 -0.28235 0.682 
-0.284004 -0.283178 0.684 
-0.258236 -0.284834 0.688 
-0.231813 -0.286076 0.691 
-0.20456 -0.28649 0.692 
-0.177739 -0.287732 0.695 
0.278586 -0.301808 0.729 
0.303007 -0.297254 0.718 
0.315928 -0.283178 0.684 
0.320619 -0.264548 0.639 
0.323415 -0.245089 0.592 
0.328984 -0.231427 0.559 
0.346243 -0.228115 0.551 
0.368879 -0.228529 0.552 
0.392302 -0.229357 0.554 
0.415885 -0.230185 0.556 
0.439627 -0.231013 0.558 
0.463529 -0.231841 0.56 
0.485855 -0.231841 0.56 
0.511811 -0.233497 0.564 
0.536191 -0.234325 0.566 
0.559744 -0.234739 0.567 
-0.540423 -0.27334 0.664 
-0.513951 -0.27334 0.664 
-0.491149 -0.275399 0.669 
-0.47142 -0.279515 0.679 
-0.450583 -0.284455 0.691 
-0.4163 -0.279927 0.68 
-0.382709 -0.278692 0.677 
-0.356244 -0.279104 0.678 
-0.330185 -0.279927 0.68 
-0.289996 -0.281162 0.683 
-0.26392 -0.282397 0.686 
-0.23795 -0.284044 0.69 
-0.211052 -0.284867 0.692 
-0.183993 -0.28569 0.694 
-0.154173 -0.287748 0.699 
0.29372 -0.296393 0.72 
0.31526 -0.289807 0.704 
0.320894 -0.270871 0.658 
0.322175 -0.250288 0.608 
0.328961 -0.236703 0.575 
0.33849 -0.226823 0.551 
0.360457 -0.226823 0.551 
0.383813 -0.227646 0.553 
0.408061 -0.228881 0.556 
0.431002 -0.229293 0.557 
0.454836 -0.230116 0.559 
0.477975 -0.230528 0.56 
0.501195 -0.23094 0.561 
0.528227 -0.232998 0.566 
0.551765 -0.23341 0.567 
-0.549766 -0.271783 0.664 
-0.522506 -0.271374 0.663 
-0.499066 -0.273011 0.667 
-0.474599 -0.274239 0.67 
-0.463263 -0.283653 0.693 
-0.4233 -0.278742 0.681 
-0.394987 -0.277923 0.679 
-0.367374 -0.277514 0.678 
-0.341348 -0.278332 0.68 
-0.301923 -0.278742 0.681 
-0.27558 -0.27956 0.683 
-0.250532 -0.282016 0.689 
-0.223711 -0.282835 0.691 
-0.19673 -0.283653 0.693 
-0.171541 -0.287746 0.703 
0.278586 -0.298389 0.729 
0.304267 -0.293477 0.717 
0.31614 -0.278742 0.681 
0.320605 -0.260323 0.636 
0.324255 -0.241903 0.591 
0.328396 -0.228396 0.558 
0.346243 -0.225531 0.551 
0.368879 -0.22594 0.552 
0.392302 -0.226759 0.554 
0.415885 -0.227578 0.556 
0.439627 -0.228396 0.558 
0.462701 -0.228805 0.559 
0.485855 -0.229215 0.56 
0.511811 -0.230852 0.564 
0.536191 -0.231671 0.566 
0.559744 -0.23208 0.567 
-0.5365 -0.269819 0.663 
-0.510836 -0.270226 0.664 
-0.488011 -0.272261 0.669 
-0.470304 -0.277551 0.682 
-0.445399 -0.279993 0.688 
-0.414933 -0.277958 0.683 
-0.383729 -0.27511 0.676 
-0.357834 -0.275924 0.678 
-0.33178 -0.276738 0.68 
-0.298729 -0.277145 0.681 
-0.272377 -0.277958 0.683 
-0.247301 -0.2804 0.689 
-0.22047 -0.281214 0.691 
-0.193479 -0.282028 0.693 
-0.168723 -0.286912 0.705 
0.278586 -0.296679 0.729 
0.305948 -0.291795 0.717 
0.316804 -0.276331 0.679 
0.320578 -0.25761 0.633 
0.322869 -0.240517 0.591 
0.328259 -0.227901 0.56 
0.344951 -0.224239 0.551 
0.367584 -0.224646 0.552 
0.390297 -0.225053 0.553 
0.414581 -0.226274 0.556 
0.438319 -0.227088 0.558 
0.46139 -0.227495 0.559 
0.484542 -0.227901 0.56 
0.509583 -0.229122 0.563 
0.534864 -0.230343 0.566 
0.557429 -0.230343 0.566 
-0.538054 -0.268264 0.663 
-0.511622 -0.268264 0.663 
-0.488849 -0.270287 0.668 
-0.471212 -0.275547 0.681 
-0.450583 -0.279594 0.691 
-0.419361 -0.277166 0.685 
-0.3869 -0.273524 0.676 
-0.360482 -0.273929 0.677 
-0.334969 -0.275143 0.68 
-0.308312 -0.275547 0.681 
-0.281574 -0.275952 0.682 
-0.256249 -0.277975 0.687 
-0.230193 -0.279594 0.691 
-0.202937 -0.279998 0.692 
-0.177122 -0.282831 0.699 
0.263199 -0.294969 0.729 
0.288254 -0.290923 0.719 
0.3145 -0.285663 0.706 
0.319351 -0.266241 0.658 
0.321804 -0.246819 0.61 
0.327967 -0.233871 0.578 
0.334614 -0.222947 0.551 
0.356581 -0.222947 0.551 
0.379235 -0.223351 0.552 
0.40415 -0.22497 0.556 
0.426316 -0.22497 0.556 
0.450096 -0.225779 0.558 
0.474035 -0.226588 0.56 
0.497248 -0.226993 0.561 
0.523319 -0.228611 0.565 
0.54681 -0.229016 0.566 
-0.548938 -0.266709 0.663 
-0.521718 -0.266307 0.662 
-0.499066 -0.268319 0.667 
-0.474599 -0.269525 0.67 
-0.462595 -0.278375 0.692 
-0.431234 -0.275962 0.686 
-0.400352 -0.273548 0.68 
-0.371047 -0.271939 0.676 
-0.345623 -0.273146 0.679 
-0.319022 -0.273548 0.68 
-0.292341 -0.27395 0.681 
-0.26597 -0.274755 0.683 
-0.241187 -0.277571 0.69 
-0.213988 -0.277973 0.691 
-0.186978 -0.278778 0.693 
-0.157902 -0.281996 0.701 
0.279911 -0.292857 0.728 
0.304267 -0.288432 0.717 
0.31614 -0.27395 0.681 
0.321109 -0.25625 0.637 
0.322027 -0.238148 0.592 
0.328114 -0.226079 0.562 
0.343659 -0.221654 0.551 
0.36629 -0.222057 0.552 
0.389 -0.222459 0.553 
0.413277 -0.223666 0.556 
0.436227 -0.224068 0.557 
0.460079 -0.224873 0.559 
0.483228 -0.225275 0.56 
0.50736 -0.226079 0.562 
0.533536 -0.227689 0.566 
0.556102 -0.227689 0.566 
-0.537243 -0.264755 0.662 
-0.51085 -0.264755 0.662 
-0.488849 -0.267154 0.668 
-0.471212 -0.272353 0.681 
-0.450583 -0.276353 0.691 
-0.421809 -0.275553 0.689 
-0.386328 -0.269954 0.675 
-0.360482 -0.270754 0.677 
-0.334969 -0.271953 0.68 
-0.307859 -0.271953 0.68 
-0.281574 -0.272753 0.682 
-0.255877 -0.274353 0.686 
-0.230193 -0.276353 0.691 
-0.202937 -0.276753 0.692 
-0.176487 -0.281152 0.703 
0.259423 -0.29115 0.728 
0.285674 -0.288351 0.721 
0.312238 -0.286351 0.716 
0.317938 -0.267154 0.668 
0.320842 -0.248757 0.622 
0.325893 -0.23356 0.584 
0.331337 -0.220762 0.552 
0.352704 -0.220362 0.551 
0.375351 -0.220762 0.552 
0.399518 -0.221962 0.555 
0.421645 -0.221962 0.555 
0.44617 -0.223162 0.558 
0.470095 -0.223962 0.56 
0.492421 -0.223962 0.56 
0.518424 -0.225561 0.564 
0.542828 -0.226361 0.566 
-0.555995 -0.263997 0.664 
-0.52713 -0.262805 0.661 
-0.503808 -0.264395 0.665 
-0.480167 -0.265985 0.669 
-0.468408 -0.274732 0.691 
-0.438308 -0.273142 0.687 
-0.408526 -0.271551 0.683 
-0.376272 -0.267973 0.674 
-0.351474 -0.269564 0.678 
-0.325401 -0.270359 0.68 
-0.298291 -0.270359 0.68 
-0.271978 -0.271154 0.682 
-0.247301 -0.273937 0.689 
-0.22047 -0.274732 0.691 
-0.193479 -0.275527 0.693 
-0.168962 -0.280696 0.706 
0.268328 -0.28984 0.729 
0.294536 -0.287057 0.722 
0.314812 -0.279503 0.703 
0.318943 -0.260021 0.654 
0.321277 -0.24213 0.609 
0.328183 -0.22901 0.576 
0.337198 -0.21907 0.551 
0.359165 -0.21907 0.551 
0.381824 -0.219468 0.552 
0.406026 -0.22066 0.555 
0.428924 -0.221058 0.556 
0.452713 -0.221853 0.558 
0.476662 -0.222648 0.56 
0.50077 -0.223444 0.562 
0.525969 -0.224636 0.565 
0.549465 -0.225034 0.566 
-0.545732 -0.261254 0.661 
-0.519379 -0.261254 0.661 
-0.497502 -0.263626 0.667 
-0.473734 -0.265207 0.671 
-0.460972 -0.273507 0.692 
-0.432131 -0.272716 0.69 
-0.398171 -0.268369 0.679 
-0.369461 -0.267183 0.676 
-0.344031 -0.268369 0.679 
-0.317427 -0.268764 0.68 
-0.290744 -0.269159 0.681 
-0.264368 -0.26995 0.683 
-0.239916 -0.273112 0.691 
-0.212367 -0.273112 0.691 
-0.185353 -0.273902 0.693 
-0.160001 -0.277855 0.703 
0.279911 -0.287736 0.728 
0.304267 -0.283388 0.717 
0.315675 -0.268764 0.68 
0.321109 -0.251769 0.637 
0.321483 -0.233588 0.591 
0.32753 -0.22173 0.561 
0.343659 -0.217778 0.551 
0.36629 -0.218173 0.552 
0.389 -0.218568 0.553 
0.412534 -0.219359 0.555 
0.436227 -0.220149 0.557 
0.460079 -0.22094 0.559 
0.483228 -0.221335 0.56 
0.50736 -0.222126 0.562 
0.533536 -0.223706 0.566 
0.556102 -0.223706 0.566 
-0.536431 -0.259704 0.661 
-0.509307 -0.259311 0.66 
-0.488849 -0.262455 0.668 
-0.471212 -0.267562 0.681 
-0.449931 -0.271098 0.69 
-0.423034 -0.271491 0.691 
-0.385755 -0.264812 0.674 
-0.360482 -0.265991 0.677 
-0.334969 -0.267169 0.68 
-0.307406 -0.266776 0.679 
-0.281574 -0.267955 0.682 
-0.255877 -0.269527 0.686 
-0.230193 -0.271491 0.691 
-0.202937 -0.271884 0.692 
-0.177883 -0.275813 0.702 
0.25807 -0.286421 0.729 
0.284377 -0.283671 0.722 
0.310993 -0.281706 0.717 
0.316845 -0.262847 0.669 
0.321437 -0.245953 0.626 
0.325367 -0.231023 0.588 
0.329827 -0.21845 0.556 
0.348828 -0.216486 0.551 
0.371468 -0.216879 0.552 
0.394188 -0.217271 0.553 
0.41774 -0.218057 0.555 
0.441452 -0.218843 0.557 
0.465323 -0.219629 0.559 
0.488482 -0.220022 0.56 
0.512632 -0.220808 0.562 
0.538846 -0.222379 0.566 
0.561411 -0.222379 0.566 
-0.524785 -0.257764 0.66 
-0.501493 -0.259326 0.664 
-0.478598 -0.261278 0.669 
-0.466788 -0.269871 0.691 
-0.436985 -0.26948 0.69 
-0.404135 -0.265965 0.681 
-0.372557 -0.262841 0.673 
-0.348294 -0.264793 0.678 
-0.322211 -0.265575 0.68 
-0.295535 -0.265965 0.681 
-0.268779 -0.266356 0.682 
-0.244423 -0.26948 0.69 
-0.217229 -0.269871 0.691 
-0.190229 -0.270652 0.693 
-0.165416 -0.275338 0.705 
0.268328 -0.284712 0.729 
0.294536 -0.281978 0.722 
0.314812 -0.274557 0.703 
0.317968 -0.254639 0.652 
0.321277 -0.237845 0.609 
0.328534 -0.226129 0.579 
0.335906 -0.215193 0.551 
0.358523 -0.215584 0.552 
0.38053 -0.215584 0.552 
0.403995 -0.216365 0.554 
0.42762 -0.217146 0.556 
0.451405 -0.217927 0.558 
0.475349 -0.218708 0.56 
0.499452 -0.21949 0.562 
0.523715 -0.220271 0.564 
0.548137 -0.221052 0.566 
-0.539445 -0.255827 0.659 
-0.51395 -0.256216 0.66 
-0.492809 -0.258933 0.667 
-0.471809 -0.262039 0.675 
-0.455444 -0.26825 0.691 
-0.426892 -0.268638 0.692 
-0.389494 -0.262039 0.675 
-0.363657 -0.262815 0.677 
-0.337661 -0.263592 0.679 
-0.310591 -0.263592 0.679 
-0.284773 -0.264756 0.682 
-0.258339 -0.265533 0.684 
-0.233434 -0.26825 0.691 
-0.206183 -0.268638 0.692 
-0.179885 -0.270579 0.697 
-0.153188 -0.27252 0.702 
0.279142 -0.281837 0.726 
0.304691 -0.278732 0.718 
0.315211 -0.263592 0.679 
0.320101 -0.246511 0.635 
0.322027 -0.229818 0.592 
0.328984 -0.217007 0.559 
0.347535 -0.213901 0.551 
0.370173 -0.21429 0.552 
0.392891 -0.214678 0.553 
0.416438 -0.215454 0.555 
0.439355 -0.215842 0.556 
0.464012 -0.217007 0.559 
0.487168 -0.217395 0.56 
0.511314 -0.218172 0.562 
0.537518 -0.219724 0.566 
0.561073 -0.220113 0.567 
-0.524785 -0.254668 0.66 
-0.502248 -0.256597 0.665 
-0.478598 -0.258141 0.669 
-0.466788 -0.26663 0.691 
-0.437619 -0.26663 0.691 
-0.404135 -0.262771 0.681 
-0.372557 -0.259684 0.673 
-0.348294 -0.261613 0.678 
-0.321737 -0.261999 0.679 
-0.295101 -0.262385 0.68 
-0.268779 -0.263157 0.682 
-0.244423 -0.266244 0.69 
-0.217229 -0.26663 0.691 
-0.190229 -0.267401 0.693 
-0.165416 -0.272032 0.705 
0.268696 -0.281678 0.73 
0.294128 -0.278205 0.721 
0.314364 -0.270874 0.702 
0.31748 -0.251195 0.651 
0.321277 -0.234989 0.609 
0.327967 -0.223027 0.578 
0.334006 -0.212223 0.55 
0.357228 -0.212995 0.552 
0.379235 -0.212995 0.552 
0.403423 -0.214153 0.555 
0.426316 -0.214538 0.556 
0.450096 -0.21531 0.558 
0.474035 -0.216082 0.56 
0.498134 -0.216854 0.562 
0.521466 -0.217239 0.563 
0.54681 -0.218397 0.566 
-0.539445 -0.252737 0.659 
-0.513172 -0.252737 0.659 
-0.493548 -0.256188 0.668 
-0.471809 -0.258873 0.675 
-0.455444 -0.265009 0.691 
-0.427509 -0.265776 0.693 
-0.388917 -0.258489 0.674 
-0.363657 -0.25964 0.677 
-0.337661 -0.260407 0.679 
-0.310133 -0.260023 0.678 
-0.284773 -0.261557 0.682 
-0.258716 -0.262708 0.685 
-0.233096 -0.264626 0.69 
-0.205885 -0.265009 0.691 
-0.179885 -0.26731 0.697 
-0.153188 -0.269228 0.702 
0.283195 -0.275747 0.719 
0.310559 -0.274597 0.716 
0.316371 -0.256188 0.668 
0.320923 -0.239697 0.625 
0.325367 -0.225507 0.588 
0.33042 -0.213618 0.557 
0.348828 -0.211317 0.551 
0.371468 -0.2117 0.552 
0.394188 -0.212084 0.553 
0.41774 -0.212851 0.555 
0.440659 -0.213234 0.556 
0.465323 -0.214385 0.559 
0.488482 -0.214769 0.56 
0.512632 -0.215536 0.562 
0.538846 -0.21707 0.566 
0.562403 -0.217453 0.567 
-0.520899 -0.251191 0.659 
-0.49988 -0.253859 0.666 
-0.47546 -0.255003 0.669 
-0.463547 -0.263389 0.691 
-0.435006 -0.26377 0.692 
-0.400352 -0.259196 0.68 
-0.370498 -0.25729 0.675 
-0.345114 -0.258433 0.678 
-0.318553 -0.258814 0.679 
-0.292341 -0.259577 0.681 
-0.26597 -0.260339 0.683 
-0.241187 -0.263007 0.69 
-0.213988 -0.263389 0.691 
-0.187248 -0.264532 0.694 
-0.161649 -0.267963 0.703 
0.277821 -0.277111 0.727 
0.303007 -0.27368 0.718 
0.314081 -0.259196 0.68 
0.319616 -0.242805 0.637 
0.321722 -0.226415 0.594 
0.329122 -0.215742 0.566 
0.341745 -0.209644 0.55 
0.364995 -0.210406 0.552 
0.387703 -0.210787 0.553 
0.411232 -0.211549 0.555 
0.43414 -0.211931 0.556 
0.457948 -0.212693 0.558 
0.481055 -0.213074 0.559 
0.506942 -0.214599 0.563 
0.531269 -0.215361 0.565 
0.554774 -0.215742 0.566 
-0.529428 -0.250024 0.66 
-0.505403 -0.251161 0.663 
-0.483305 -0.253434 0.669 
-0.470284 -0.26101 0.689 
-0.44184 -0.261389 0.69 
-0.41373 -0.26101 0.689 
-0.376731 -0.25457 0.672 
-0.352543 -0.256464 0.677 
-0.326515 -0.257222 0.679 
-0.299885 -0.257601 0.68 
-0.273979 -0.258737 0.683 
-0.248555 -0.260632 0.688 
-0.22209 -0.261768 0.691 
-0.194823 -0.262147 0.692 
-0.169893 -0.266314 0.703 
0.25636 -0.276163 0.729 
0.281509 -0.272375 0.719 
0.309311 -0.271617 0.717 
0.315276 -0.253434 0.669 
0.32048 -0.237523 0.627 
0.324539 -0.223128 0.589 
0.329113 -0.211005 0.557 
0.346905 -0.208354 0.55 
0.370173 -0.209111 0.552 
0.392891 -0.20949 0.553 
0.416438 -0.210248 0.555 
0.439355 -0.210627 0.556 
0.464012 -0.211763 0.559 
0.487168 -0.212142 0.56 
0.512224 -0.213278 0.563 
0.537518 -0.214415 0.566 
0.561073 -0.214794 0.567 
-0.525535 -0.2481 0.659 
-0.50305 -0.249983 0.664 
-0.480167 -0.251865 0.669 
-0.46773 -0.259771 0.69 
-0.439875 -0.260524 0.692 
-0.409307 -0.258642 0.687 
-0.374135 -0.253371 0.673 
-0.349368 -0.254877 0.677 
-0.32333 -0.25563 0.679 
-0.296696 -0.256006 0.68 
-0.270379 -0.256759 0.682 
-0.245328 -0.259018 0.688 
-0.218849 -0.260148 0.691 
-0.191854 -0.2609 0.693 
-0.166595 -0.264665 0.703 
0.254651 -0.274454 0.729 
0.279823 -0.270689 0.719 
0.30763 -0.269936 0.717 
0.316371 -0.251488 0.668 
0.32041 -0.234923 0.624 
0.32426 -0.220617 0.586 
0.329233 -0.208946 0.555 
0.348195 -0.207064 0.55 
0.371468 -0.207817 0.552 
0.394188 -0.208193 0.553 
0.418493 -0.209323 0.556 
0.441452 -0.209699 0.557 
0.465323 -0.210452 0.559 
0.488482 -0.210829 0.56 
0.513544 -0.211958 0.563 
0.538846 -0.213088 0.566 
0.561411 -0.213088 0.566 
-0.527081 -0.246555 0.659 
-0.503848 -0.248051 0.663 
-0.481736 -0.250296 0.669 
-0.469349 -0.258153 0.69 
-0.441498 -0.258901 0.692 
-0.412713 -0.258153 0.69 
-0.375155 -0.251418 0.672 
-0.350956 -0.253289 0.677 
-0.324922 -0.254037 0.679 
-0.298291 -0.254411 0.68 
-0.272377 -0.255534 0.683 
-0.246583 -0.25703 0.687 
-0.220789 -0.258901 0.692 
-0.193479 -0.259275 0.693 
-0.168005 -0.262642 0.702 
0.241352 -0.271248 0.725 
0.271747 -0.272744 0.729 
0.296684 -0.269003 0.719 
0.310417 -0.256656 0.686 
0.318564 -0.242065 0.647 
0.320408 -0.225229 0.602 
0.328012 -0.213631 0.571 
0.336647 -0.205026 0.548 
0.360457 -0.206148 0.551 
