# .PCD v.7 - Point Cloud Data file format
VERSION .7
FIELDS x y z
SIZE 4 4 4
TYPE F F F
COUNT 1 1 1
WIDTH 1860
HEIGHT 1
VIEWPOINT 0 0 0 1 0 0 0
POINTS 1860
DATA ascii
-0.278744 0.0765222 1.188 
-0.23216 0.0767798 1.192 
-0.185411 0.0771019 1.197 
-0.137344 0.0769087 1.194 
-0.0899677 0.0771019 1.197 
-0.0423516 0.0772951 1.2 
0.00548988 0.0772951 1.2 
0.0533314 0.0772951 1.2 
0.10151 0.0775528 1.204 
0.149511 0.0775528 1.204 
0.197512 0.0775528 1.204 
0.245105 0.077424 1.202 
0.293514 0.0775528 1.204 
0.336977 0.0765222 1.188 
0.348753 0.0694368 1.078 
0.340336 0.0588087 0.913 
0.337123 0.0526251 0.817 
0.33387 0.0458618 0.712 
0.33428 0.0421258 0.654 
0.335343 0.0380679 0.591 
0.336435 0.0356846 0.554 
0.337813 0.0336234 0.522 
0.337789 0.0315622 0.49 
0.34201 0.0302095 0.469 
0.347634 0.0291145 0.452 
0.349435 0.0275042 0.427 
0.437276 0.0285992 0.444 
-1.0197 0.0784404 1.175 
-0.972854 0.0784404 1.175 
-0.926798 0.0785072 1.176 
-0.877668 0.0783069 1.173 
-0.829486 0.0781734 1.171 
-0.784807 0.0783736 1.174 
-0.738002 0.0783736 1.174 
-0.691786 0.0784404 1.175 
-0.644941 0.0784404 1.175 
-0.597587 0.0783736 1.174 
-0.55172 0.0785072 1.176 
-0.505265 0.0785739 1.177 
-0.45873 0.0786407 1.178 
-0.412814 0.0788409 1.181 
-0.36604 0.0789077 1.182 
-0.320804 0.079375 1.189 
-0.273171 0.0793082 1.188 
-0.226379 0.0795085 1.191 
-0.180098 0.0800426 1.199 
-0.131965 0.0798423 1.196 
-0.0842828 0.0798423 1.196 
-0.0367232 0.0801093 1.2 
0.0111183 0.0801093 1.2 
0.0590089 0.0801761 1.201 
0.107157 0.0803764 1.204 
0.155158 0.0803764 1.204 
0.203159 0.0803764 1.204 
0.250743 0.0802429 1.202 
0.299161 0.0803764 1.204 
0.339089 0.0785072 1.176 
0.352168 0.0716311 1.073 
0.340111 0.0594144 0.89 
0.337612 0.0534062 0.8 
0.333895 0.0470642 0.705 
0.334106 0.0426582 0.639 
0.334331 0.038853 0.582 
0.337261 0.03665 0.549 
0.337756 0.0339797 0.509 
0.340609 0.0321105 0.481 
0.343656 0.0305751 0.458 
0.345036 0.0286391 0.429 
0.433043 0.0297072 0.445 
-1.03623 0.081196 1.175 
-0.989388 0.081196 1.175 
-0.943345 0.0812651 1.176 
-0.894936 0.0811269 1.174 
-0.846686 0.0809887 1.172 
-0.800644 0.0810578 1.173 
-0.755164 0.081196 1.175 
-0.707113 0.0810578 1.173 
-0.661474 0.081196 1.175 
-0.614629 0.081196 1.175 
-0.567785 0.081196 1.175 
-0.52227 0.0814033 1.178 
-0.475709 0.0814724 1.179 
-0.428705 0.0814724 1.179 
-0.382348 0.0816106 1.181 
-0.336683 0.0819561 1.186 
-0.290132 0.0821634 1.189 
-0.243341 0.0823707 1.192 
-0.196147 0.0825089 1.194 
-0.148545 0.0825089 1.194 
-0.101112 0.0826471 1.196 
-0.0535638 0.0828544 1.199 
-0.00577175 0.0829927 1.201 
0.0421096 0.0829927 1.201 
0.0902158 0.0832 1.204 
0.138217 0.0832 1.204 
0.186372 0.0832691 1.205 
0.23383 0.0830617 1.202 
0.282454 0.0832691 1.205 
0.329672 0.0830617 1.202 
0.345916 0.0755295 1.093 
0.338676 0.064404 0.932 
0.336314 0.0576319 0.834 
0.33633 0.0524491 0.759 
0.339098 0.0478192 0.692 
0.333811 0.0427747 0.619 
0.335136 0.038283 0.554 
0.335872 0.0358644 0.519 
0.337327 0.0339295 0.491 
0.340184 0.0323402 0.468 
0.344557 0.0309581 0.448 
0.347487 0.0290923 0.421 
0.433043 0.0307508 0.445 
-1.03711 0.084023 1.176 
-0.989388 0.0839516 1.175 
-0.943345 0.084023 1.176 
-0.894936 0.0838801 1.174 
-0.846686 0.0837372 1.172 
-0.800644 0.0838087 1.173 
-0.755164 0.0839516 1.175 
-0.707113 0.0838087 1.173 
-0.661474 0.0839516 1.175 
-0.615152 0.084023 1.176 
-0.567785 0.0839516 1.175 
-0.52227 0.0841659 1.178 
-0.475709 0.0842373 1.179 
-0.428705 0.0842373 1.179 
-0.382672 0.0844517 1.182 
-0.336683 0.0847375 1.186 
-0.29062 0.0850947 1.191 
-0.243341 0.0851662 1.192 
-0.196147 0.0853091 1.194 
-0.148545 0.0853091 1.194 
-0.101112 0.085452 1.196 
-0.0535638 0.0856663 1.199 
-0.00577175 0.0858092 1.201 
0.0421096 0.0858092 1.201 
0.0902158 0.0860236 1.204 
0.138217 0.0860236 1.204 
0.186372 0.086095 1.205 
0.234219 0.0860236 1.204 
0.282454 0.086095 1.205 
0.329672 0.0858806 1.202 
0.347182 0.0783786 1.097 
0.34013 0.0664468 0.93 
0.335617 0.0584446 0.818 
0.335367 0.0532289 0.745 
0.331719 0.0467985 0.655 
0.332703 0.0435119 0.609 
0.33444 0.0396537 0.555 
0.3353 0.037153 0.52 
0.336175 0.035081 0.491 
0.339457 0.0333663 0.467 
0.343788 0.0319373 0.447 
0.345986 0.030294 0.424 
0.346172 0.0285078 0.399 
-1.0518 0.0868547 1.177 
-1.00317 0.0867071 1.175 
-0.957135 0.0867809 1.176 
-0.91025 0.0867809 1.176 
-0.861163 0.0865595 1.173 
-0.814398 0.0865595 1.173 
-0.768942 0.0867071 1.175 
-0.720868 0.0865595 1.173 
-0.675827 0.0867809 1.176 
-0.628407 0.0867071 1.175 
-0.581562 0.0867071 1.175 
-0.536538 0.0870023 1.179 
-0.489534 0.0870023 1.179 
-0.442529 0.0870023 1.179 
-0.396531 0.0872237 1.182 
-0.35059 0.0875189 1.186 
-0.304074 0.0877402 1.189 
-0.256671 0.0877402 1.189 
-0.209796 0.0879616 1.192 
-0.162818 0.0882568 1.196 
-0.115136 0.0882568 1.196 
-0.0674539 0.0882568 1.196 
-0.0198545 0.0886258 1.201 
0.0280035 0.088552 1.2 
0.0761611 0.0889209 1.205 
0.124202 0.0889209 1.205 
0.172243 0.0889209 1.205 
0.220101 0.0888471 1.204 
0.268102 0.0888471 1.204 
0.316103 0.0888471 1.204 
0.344145 0.0839768 1.138 
0.338676 0.0687754 0.932 
0.335431 0.0610271 0.827 
0.336773 0.0557877 0.756 
0.337308 0.0512863 0.695 
0.334554 0.0470063 0.637 
0.333957 0.0436118 0.591 
0.335296 0.0405863 0.55 
0.335699 0.0380036 0.515 
0.336171 0.0358635 0.486 
0.338721 0.0341663 0.463 
0.341221 0.0322477 0.437 
0.344692 0.0309932 0.42 
0.346026 0.0295911 0.401 
0.433175 0.0326904 0.443 
-1.02332 0.0895388 1.176 
-0.97561 0.0894627 1.175 
-0.930346 0.089615 1.177 
-0.880419 0.0893104 1.173 
-0.832943 0.0892343 1.172 
-0.788231 0.0894627 1.175 
-0.741386 0.0894627 1.175 
-0.694541 0.0894627 1.175 
-0.647696 0.0894627 1.175 
-0.600851 0.0894627 1.175 
-0.55495 0.089615 1.177 
-0.508457 0.0896911 1.178 
-0.461884 0.0897673 1.179 
-0.415584 0.0899195 1.181 
-0.369124 0.0900718 1.183 
-0.322776 0.0903002 1.186 
-0.275958 0.0904525 1.188 
-0.229364 0.0907571 1.192 
-0.182604 0.0911377 1.197 
-0.134544 0.0909093 1.194 
-0.0870877 0.0910616 1.196 
-0.0395374 0.0913662 1.2 
0.00831101 0.0914423 1.201 
0.0562392 0.0915184 1.202 
0.10442 0.0917469 1.205 
0.152335 0.0916707 1.204 
0.200336 0.0916707 1.204 
0.248337 0.0916707 1.204 
0.296338 0.0916707 1.204 
0.337761 0.0899195 1.181 
0.353888 0.0826864 1.086 
0.333582 0.06487 0.852 
0.337352 0.0595403 0.782 
0.333421 0.0536015 0.704 
0.334029 0.0484241 0.636 
0.333957 0.0449978 0.591 
0.333321 0.0419523 0.551 
0.335047 0.0391352 0.514 
0.335479 0.0369272 0.485 
0.337989 0.035176 0.462 
0.338781 0.0327395 0.43 
0.342821 0.0314452 0.413 
0.34548 0.0300747 0.395 
-1.05456 0.0923752 1.177 
-1.00678 0.0922968 1.176 
-0.959077 0.0922183 1.175 
-0.913784 0.0923752 1.177 
-0.863914 0.0920613 1.173 
-0.817149 0.0920613 1.173 
-0.771697 0.0922183 1.175 
-0.724236 0.0921398 1.174 
-0.678585 0.0922968 1.176 
-0.631163 0.0922183 1.175 
-0.584318 0.0922183 1.175 
-0.538845 0.0924537 1.178 
-0.492299 0.0925322 1.179 
-0.445294 0.0925322 1.179 
-0.399641 0.0928462 1.183 
-0.353073 0.0930031 1.185 
-0.306088 0.0930816 1.186 
-0.259459 0.093317 1.189 
-0.212591 0.0935525 1.192 
-0.165761 0.0939449 1.197 
-0.117744 0.0937095 1.194 
-0.0702587 0.0938664 1.196 
-0.0226711 0.0942589 1.201 
0.0252103 0.0942589 1.201 
0.0733351 0.0945728 1.205 
0.121376 0.0945728 1.205 
0.169417 0.0945728 1.205 
0.217458 0.0945728 1.205 
0.265278 0.0944943 1.204 
0.313279 0.0944943 1.204 
0.342376 0.0895498 1.141 
0.337174 0.0737746 0.94 
0.334107 0.0642781 0.819 
0.334917 0.0583918 0.744 
0.339098 0.0543107 0.692 
0.332703 0.0477965 0.609 
0.333104 0.0444217 0.566 
0.334491 0.0404191 0.515 
0.335031 0.0381431 0.486 
0.336906 0.0362594 0.462 
0.338098 0.0339834 0.433 
0.34223 0.0327277 0.417 
0.344371 0.0312365 0.398 
0.349293 0.0298238 0.38 
-1.02057 0.0950547 1.176 
-0.972854 0.0949739 1.175 
-0.928374 0.0952163 1.178 
-0.877668 0.0948122 1.173 
-0.830195 0.0947314 1.172 
-0.785475 0.0949739 1.175 
-0.739259 0.0950547 1.176 
-0.691786 0.0949739 1.175 
-0.644941 0.0949739 1.175 
-0.598605 0.0950547 1.176 
-0.552189 0.0951355 1.177 
-0.505694 0.0952163 1.178 
-0.459898 0.0954588 1.181 
-0.412814 0.0954588 1.181 
-0.366349 0.0956205 1.183 
-0.319725 0.0957822 1.185 
-0.273171 0.0960246 1.188 
-0.226949 0.0965096 1.194 
-0.179797 0.0967521 1.197 
-0.131744 0.0965096 1.194 
-0.0841419 0.0965096 1.194 
-0.0367232 0.0969946 1.2 
0.0111276 0.0970754 1.201 
0.0590581 0.0971562 1.202 
0.107246 0.0973987 1.205 
0.155287 0.0973987 1.205 
0.203328 0.0973987 1.205 
0.25116 0.0973179 1.204 
0.299161 0.0973179 1.204 
0.339089 0.0950547 1.176 
0.35799 0.0875376 1.083 
0.330446 0.0674112 0.834 
0.336223 0.062319 0.771 
0.336823 0.0560952 0.694 
0.333638 0.0497906 0.616 
0.333192 0.0463149 0.573 
0.333668 0.0434051 0.537 
0.333461 0.0403336 0.499 
0.335652 0.0383129 0.474 
0.338093 0.0365346 0.452 
0.339025 0.0342714 0.424 
0.341659 0.0328973 0.407 
0.346595 0.0315232 0.39 
-1.038 0.0978958 1.177 
-0.989388 0.0977294 1.175 
-0.944147 0.0978958 1.177 
-0.895698 0.0977294 1.175 
-0.846686 0.0974799 1.172 
-0.802009 0.0977294 1.175 
-0.755164 0.0977294 1.175 
-0.707113 0.0975631 1.173 
-0.662037 0.0978126 1.176 
-0.615152 0.0978126 1.176 
-0.568268 0.0978126 1.176 
-0.52227 0.097979 1.178 
-0.475709 0.0980621 1.179 
-0.429432 0.0982285 1.181 
-0.382995 0.0983948 1.183 
-0.336399 0.0985612 1.185 
-0.290132 0.0988939 1.189 
-0.243341 0.0991434 1.192 
-0.196476 0.0994761 1.196 
-0.148794 0.0994761 1.196 
-0.101112 0.0994761 1.196 
-0.0535638 0.0997256 1.199 
-0.00576694 0.0998088 1.2 
0.0421096 0.099892 1.201 
0.0902907 0.100225 1.205 
0.138332 0.100225 1.205 
0.186527 0.100308 1.206 
0.234413 0.100225 1.205 
0.28222 0.100141 1.204 
0.329672 0.0999751 1.202 
0.349081 0.0917409 1.103 
0.344241 0.0758547 0.912 
0.336805 0.0652916 0.785 
0.334596 0.0584713 0.703 
0.333583 0.053065 0.638 
0.334259 0.0494053 0.594 
0.334006 0.0457457 0.55 
0.333392 0.042086 0.506 
0.335823 0.0398403 0.479 
0.337203 0.0372619 0.448 
0.338601 0.0350162 0.421 
0.341136 0.0335191 0.403 
0.344794 0.0323547 0.389 
0.352818 0.0315229 0.379 
-1.00954 0.100571 1.176 
-0.962651 0.100571 1.176 
-0.916545 0.100656 1.177 
-0.866665 0.100314 1.173 
-0.820599 0.100399 1.174 
-0.774453 0.100485 1.175 
-0.727608 0.100485 1.175 
-0.680763 0.100485 1.175 
-0.633918 0.100485 1.175 
-0.587573 0.100571 1.176 
-0.541148 0.100656 1.177 
-0.495064 0.100827 1.179 
-0.448819 0.100998 1.181 
-0.402075 0.101084 1.182 
-0.355853 0.10134 1.185 
-0.308609 0.10134 1.185 
-0.262248 0.101682 1.189 
-0.215748 0.10211 1.194 
-0.168428 0.102281 1.196 
-0.120544 0.10211 1.194 
-0.0730635 0.102281 1.196 
-0.0254876 0.102709 1.201 
0.0223938 0.102709 1.201 
0.0704507 0.102965 1.204 
0.11855 0.103051 1.205 
0.166591 0.103051 1.205 
0.21481 0.103136 1.206 
0.262455 0.102965 1.204 
0.310456 0.102965 1.204 
0.342076 0.0974918 1.14 
0.340856 0.080217 0.938 
0.334059 0.0688429 0.805 
0.333858 0.0627711 0.734 
0.339493 0.0584096 0.683 
0.333034 0.0519101 0.607 
0.333386 0.0480618 0.562 
0.33393 0.0441279 0.516 
0.333892 0.0415623 0.486 
0.335403 0.0390823 0.457 
0.336536 0.0368588 0.431 
0.338947 0.0353194 0.413 
0.340849 0.0337801 0.395 
0.344837 0.0324973 0.38 
0.34695 0.0307869 0.36 
-1.01867 0.103416 1.177 
-0.970924 0.103328 1.176 
-0.924825 0.103416 1.177 
-0.875663 0.103153 1.174 
-0.828152 0.103065 1.173 
-0.783386 0.103328 1.176 
-0.736501 0.103328 1.176 
-0.68903 0.103241 1.175 
-0.642185 0.103241 1.175 
-0.595847 0.103328 1.176 
-0.549429 0.103416 1.177 
-0.503358 0.103592 1.179 
-0.457128 0.103768 1.181 
-0.410391 0.103856 1.182 
-0.36419 0.104119 1.185 
-0.316411 0.103944 1.183 
-0.270613 0.104471 1.189 
-0.224524 0.105086 1.196 
-0.176842 0.105086 1.196 
-0.128944 0.10491 1.194 
-0.081478 0.105086 1.196 
-0.0339373 0.105525 1.201 
0.0139441 0.105525 1.201 
0.061877 0.105613 1.202 
0.110072 0.105877 1.205 
0.158113 0.105877 1.205 
0.206325 0.105964 1.206 
0.253984 0.105789 1.204 
0.301985 0.105789 1.204 
0.341265 0.103153 1.174 
0.353693 0.0940148 1.07 
0.331375 0.0717852 0.817 
0.335882 0.0662497 0.754 
0.336337 0.06089 0.693 
0.332732 0.0542123 0.617 
0.332363 0.0498191 0.567 
0.331178 0.0464802 0.529 
0.332291 0.0438443 0.499 
0.333641 0.0408569 0.465 
0.335517 0.0389239 0.443 
0.337234 0.0371666 0.423 
0.338193 0.0354972 0.404 
0.342088 0.0340914 0.388 
0.343573 0.0316312 0.36 
-1.03524 0.106177 1.177 
-0.987472 0.106086 1.176 
-0.941387 0.106177 1.177 
-0.893703 0.106086 1.176 
-0.844658 0.105816 1.173 
-0.799933 0.106086 1.176 
-0.752408 0.105996 1.175 
-0.705563 0.105996 1.175 
-0.659279 0.106086 1.176 
-0.612395 0.106086 1.176 
-0.56551 0.106086 1.176 
-0.519507 0.106267 1.178 
-0.472944 0.106357 1.179 
-0.426662 0.106537 1.181 
-0.380221 0.106718 1.183 
-0.33362 0.106898 1.185 
-0.287343 0.107259 1.189 
-0.240546 0.10753 1.192 
-0.193671 0.107891 1.196 
-0.145745 0.10771 1.194 
-0.0983892 0.107981 1.197 
-0.0507942 0.108251 1.2 
-0.00295274 0.108251 1.2 
0.0449636 0.108432 1.202 
0.0930394 0.108612 1.204 
0.141158 0.108702 1.205 
0.189355 0.108793 1.206 
0.237239 0.108702 1.205 
0.285043 0.108612 1.204 
0.332491 0.108432 1.202 
0.34816 0.0985088 1.092 
0.328465 0.0747837 0.829 
0.335 0.0681984 0.756 
0.335195 0.0626054 0.694 
0.331977 0.0560201 0.621 
0.332363 0.0511488 0.567 
0.331767 0.0474502 0.526 
0.332721 0.0442929 0.491 
0.334669 0.0411355 0.456 
0.335291 0.0389705 0.432 
0.33701 0.0372565 0.413 
0.338925 0.035723 0.396 
0.341277 0.0343698 0.381 
0.346828 0.0323852 0.359 
-1.03524 0.108937 1.177 
-0.987472 0.108844 1.176 
-0.941387 0.108937 1.177 
-0.893703 0.108844 1.176 
-0.844658 0.108567 1.173 
-0.800613 0.108937 1.177 
-0.753049 0.108844 1.176 
-0.705563 0.108752 1.175 
-0.659279 0.108844 1.176 
-0.612395 0.108844 1.176 
-0.56551 0.108844 1.176 
-0.519507 0.109029 1.178 
-0.472944 0.109122 1.179 
-0.427023 0.1094 1.182 
-0.380221 0.109492 1.183 
-0.33362 0.109677 1.185 
-0.287343 0.110048 1.189 
-0.240546 0.110325 1.192 
-0.193671 0.110695 1.196 
-0.145745 0.11051 1.194 
-0.098307 0.110695 1.196 
-0.0507942 0.111066 1.2 
-0.00295274 0.111066 1.2 
0.0450384 0.111436 1.204 
0.0930394 0.111436 1.204 
0.141158 0.111528 1.205 
0.189355 0.111621 1.206 
0.237436 0.111621 1.206 
0.285043 0.111436 1.204 
0.332491 0.111251 1.202 
0.348753 0.0997739 1.078 
0.327619 0.0760799 0.822 
0.334467 0.0687681 0.743 
0.335797 0.0631223 0.682 
0.332703 0.0563658 0.609 
0.333104 0.0523859 0.566 
0.333365 0.0478508 0.517 
0.333147 0.0444262 0.48 
0.334478 0.0410017 0.443 
0.336242 0.0391506 0.423 
0.337245 0.0373921 0.404 
0.340233 0.0360038 0.389 
0.343733 0.0345229 0.373 
0.345521 0.0323941 0.35 
-1.01039 0.111697 1.177 
-0.963469 0.111697 1.177 
-0.916545 0.111697 1.177 
-0.867404 0.111412 1.174 
-0.821298 0.111507 1.175 
-0.775112 0.111602 1.176 
-0.728227 0.111602 1.176 
-0.681343 0.111602 1.176 
-0.633918 0.111507 1.175 
-0.588073 0.111697 1.177 
-0.541148 0.111697 1.177 
-0.495903 0.112077 1.181 
-0.449199 0.112172 1.182 
-0.403096 0.112456 1.185 
-0.356153 0.112551 1.186 
-0.308609 0.112456 1.185 
-0.262027 0.112741 1.188 
-0.21611 0.1135 1.196 
-0.168568 0.113595 1.197 
-0.120746 0.1135 1.196 
-0.0731246 0.113595 1.197 
-0.0254876 0.113975 1.201 
0.0223938 0.113975 1.201 
0.0702752 0.113975 1.201 
0.118452 0.114259 1.204 
0.166591 0.114354 1.205 
0.214988 0.114544 1.207 
0.262455 0.114259 1.204 
0.310713 0.114354 1.205 
0.345952 0.110274 1.162 
0.335173 0.0916733 0.966 
0.332335 0.0768689 0.81 
0.333042 0.0698463 0.736 
0.335304 0.0646268 0.681 
0.332649 0.0593124 0.625 
0.331658 0.0545674 0.575 
0.331692 0.0495377 0.522 
0.332295 0.0462162 0.487 
0.332565 0.043559 0.459 
0.33379 0.0411865 0.434 
0.334913 0.0392885 0.414 
0.336139 0.0375803 0.396 
0.340374 0.0363466 0.383 
0.342729 0.0341639 0.36 
-1.04628 0.114457 1.177 
-0.999353 0.114457 1.177 
-0.953237 0.114555 1.178 
-0.905504 0.114457 1.177 
-0.855661 0.114068 1.173 
-0.810965 0.11436 1.176 
-0.76408 0.11436 1.176 
-0.716586 0.114263 1.175 
-0.670881 0.114457 1.177 
-0.622896 0.114263 1.175 
-0.577032 0.114457 1.177 
-0.530107 0.114457 1.177 
-0.483593 0.114555 1.178 
-0.438111 0.114944 1.182 
-0.39198 0.115235 1.185 
-0.345027 0.115333 1.186 
-0.297744 0.115333 1.186 
-0.251094 0.115624 1.189 
-0.205062 0.116402 1.197 
-0.157208 0.116305 1.196 
-0.109618 0.116402 1.197 
-0.0619994 0.116597 1.199 
-0.0142214 0.116791 1.201 
0.033688 0.116889 1.202 
0.0816092 0.116889 1.202 
0.129746 0.117083 1.204 
0.178042 0.117277 1.206 
0.22631 0.117375 1.207 
0.273976 0.11718 1.205 
0.322017 0.11718 1.205 
0.34618 0.107164 1.102 
0.329654 0.0809079 0.832 
0.338031 0.0749759 0.771 
0.335367 0.0671963 0.691 
0.332979 0.0616533 0.634 
0.334522 0.057569 0.592 
0.334006 0.0534848 0.55 
0.331784 0.0486225 0.5 
0.333598 0.0455107 0.468 
0.335037 0.0428851 0.441 
0.335027 0.0407457 0.419 
0.335782 0.038898 0.4 
0.339419 0.0375366 0.386 
0.339989 0.0357862 0.368 
0.342203 0.0335495 0.345 
-1.00763 0.117218 1.177 
-0.960709 0.117218 1.177 
-0.913784 0.117218 1.177 
-0.86465 0.116919 1.174 
-0.818542 0.117018 1.175 
-0.772354 0.117118 1.176 
-0.725469 0.117118 1.176 
-0.678585 0.117118 1.176 
-0.6317 0.117118 1.176 
-0.585313 0.117218 1.177 
-0.538388 0.117218 1.177 
-0.493134 0.117616 1.181 
-0.446427 0.117716 1.182 
-0.400317 0.118014 1.185 
-0.353371 0.118114 1.186 
-0.306088 0.118114 1.186 
-0.259241 0.118313 1.188 
-0.213483 0.119209 1.197 
-0.165623 0.11911 1.196 
-0.118039 0.119209 1.197 
-0.0704349 0.119409 1.199 
-0.0226711 0.119608 1.201 
0.0252103 0.119608 1.201 
0.0730917 0.119608 1.201 
0.121275 0.119907 1.204 
0.169557 0.120106 1.206 
0.217819 0.120205 1.207 
0.265719 0.120106 1.206 
0.3138 0.120106 1.206 
0.349578 0.116023 1.165 
0.330265 0.0815644 0.819 
0.330709 0.0713066 0.716 
0.333208 0.0658291 0.661 
0.332703 0.0606504 0.609 
0.332659 0.0560693 0.563 
0.33393 0.0513885 0.516 
0.332317 0.0472058 0.474 
0.333439 0.0441185 0.443 
0.335106 0.0404336 0.406 
0.337449 0.0388402 0.39 
0.339126 0.0366492 0.368 
0.34126 0.034757 0.349 
-1.02507 0.12008 1.178 
-0.97644 0.119876 1.176 
-0.931137 0.12008 1.178 
-0.88192 0.119774 1.175 
-0.833654 0.11957 1.173 
-0.789572 0.119978 1.177 
-0.742017 0.119876 1.176 
-0.695132 0.119876 1.176 
-0.648799 0.119978 1.177 
-0.601874 0.119978 1.177 
-0.55495 0.119978 1.177 
-0.508888 0.120182 1.179 
-0.463059 0.120488 1.182 
-0.416287 0.12059 1.183 
-0.369748 0.120793 1.185 
-0.322776 0.120895 1.186 
-0.275493 0.120895 1.186 
-0.229749 0.121711 1.194 
-0.182604 0.122017 1.197 
-0.134544 0.121711 1.194 
-0.0873061 0.122221 1.199 
-0.0395704 0.122424 1.201 
0.00831101 0.122424 1.201 
0.0562392 0.122526 1.202 
0.10442 0.122832 1.205 
0.152588 0.122934 1.206 
0.200668 0.122934 1.206 
0.248749 0.122934 1.206 
0.297076 0.123036 1.207 
0.341479 0.121711 1.194 
0.337367 0.0971444 0.953 
0.335317 0.0814464 0.799 
0.334396 0.0702335 0.689 
0.332979 0.064627 0.634 
0.330884 0.0587148 0.576 
0.330552 0.0538219 0.528 
0.331456 0.0505599 0.496 
0.332111 0.0478077 0.469 
0.33345 0.0418954 0.411 
0.335366 0.0401625 0.394 
0.3374 0.0375122 0.368 
0.340337 0.0360851 0.354 
-1.0444 0.122842 1.178 
-0.996592 0.122738 1.177 
-0.950475 0.122842 1.178 
-0.902743 0.122738 1.177 
-0.85291 0.122321 1.173 
-0.808207 0.122634 1.176 
-0.761322 0.122634 1.176 
-0.714438 0.122634 1.176 
-0.668121 0.122738 1.177 
-0.620668 0.122634 1.176 
-0.574759 0.122842 1.178 
-0.527795 0.122842 1.178 
-0.481239 0.122947 1.179 
-0.435708 0.123364 1.183 
-0.389529 0.123677 1.186 
-0.342823 0.123885 1.188 
-0.294963 0.123677 1.186 
-0.248306 0.12399 1.189 
-0.202254 0.124824 1.197 
-0.154403 0.12472 1.196 
-0.106811 0.124824 1.197 
-0.0592369 0.125137 1.2 
-0.0114049 0.125241 1.201 
0.0365069 0.125345 1.202 
0.0845686 0.125554 1.204 
0.13268 0.125658 1.205 
0.180721 0.125658 1.205 
0.229141 0.125867 1.207 
0.277032 0.125762 1.206 
0.324843 0.125658 1.205 
0.329545 0.102508 0.983 
0.335278 0.0909326 0.872 
0.337352 0.0815474 0.782 
0.333217 0.0709108 0.68 
0.332243 0.0653839 0.627 
0.331448 0.0594399 0.57 
0.330552 0.0550601 0.528 
0.332125 0.0518274 0.497 
0.332111 0.0489076 0.469 
0.332858 0.0464048 0.445 
0.334282 0.0412951 0.396 
0.3358 0.0386881 0.371 
0.338921 0.0371239 0.356 
0.340219 0.0357682 0.343 
-1.01401 0.125605 1.178 
-0.96623 0.125498 1.177 
-0.920086 0.125605 1.178 
-0.869416 0.125072 1.173 
-0.822651 0.125072 1.173 
-0.779193 0.125605 1.178 
-0.730985 0.125392 1.176 
-0.6841 0.125392 1.176 
-0.637758 0.125498 1.177 
-0.590833 0.125498 1.177 
-0.543909 0.125498 1.177 
-0.498673 0.125925 1.181 
-0.451971 0.126032 1.182 
-0.406218 0.126458 1.186 
-0.358934 0.126458 1.186 
-0.311388 0.126351 1.185 
-0.264367 0.126458 1.186 
-0.219098 0.127631 1.197 
-0.171232 0.127524 1.196 
-0.123654 0.127631 1.197 
-0.0760587 0.127844 1.199 
-0.0283042 0.128057 1.201 
0.0195772 0.128057 1.201 
0.0674586 0.128057 1.201 
0.115628 0.128377 1.204 
0.163901 0.128591 1.206 
0.211982 0.128591 1.206 
0.260278 0.128697 1.207 
0.308399 0.128697 1.207 
0.347067 0.125285 1.175 
0.336713 0.0969228 0.909 
0.335207 0.0871132 0.817 
0.330588 0.0751711 0.705 
0.331725 0.0692001 0.649 
0.332804 0.0644019 0.604 
0.332632 0.0588574 0.552 
0.332153 0.0551255 0.517 
0.332067 0.0517135 0.485 
0.331841 0.0488346 0.458 
0.333266 0.0451027 0.423 
0.334705 0.041584 0.39 
0.334811 0.0392383 0.368 
0.337969 0.0378521 0.355 
0.339227 0.036466 0.342 
-1.01678 0.128368 1.178 
-0.96899 0.128259 1.177 
-0.922849 0.128368 1.178 
-0.872167 0.127823 1.173 
-0.824698 0.127714 1.172 
-0.781955 0.128368 1.178 
-0.734367 0.128259 1.177 
-0.686858 0.12815 1.176 
-0.641062 0.128368 1.178 
-0.593593 0.128259 1.177 
-0.546669 0.128259 1.177 
-0.500593 0.128477 1.179 
-0.454743 0.128804 1.182 
-0.408999 0.129239 1.186 
-0.361716 0.129239 1.186 
-0.314432 0.129239 1.186 
-0.267149 0.129239 1.186 
-0.221905 0.130438 1.197 
-0.174037 0.130329 1.196 
-0.126461 0.130438 1.197 
-0.0788705 0.130656 1.199 
-0.0311207 0.130874 1.201 
0.0167607 0.130874 1.201 
0.0646959 0.130983 1.202 
0.112617 0.130983 1.202 
0.161073 0.131419 1.206 
0.209153 0.131419 1.206 
0.257447 0.131528 1.207 
0.305568 0.131528 1.207 
0.344605 0.12815 1.176 
0.333295 0.0962213 0.883 
0.33508 0.0865229 0.794 
0.331299 0.0766065 0.703 
0.332733 0.0706131 0.648 
0.33256 0.0654915 0.601 
0.332538 0.0603699 0.554 
0.333501 0.0567738 0.521 
0.332067 0.0528509 0.485 
0.331841 0.0499087 0.458 
0.332065 0.0462037 0.424 
0.334007 0.0434794 0.399 
0.335006 0.0416269 0.382 
0.337283 0.0398833 0.366 
0.337167 0.0380308 0.349 
-1.0444 0.13113 1.178 
-0.996592 0.131019 1.177 
-0.951282 0.131242 1.179 
-0.902743 0.131019 1.177 
-0.852183 0.130462 1.172 
-0.808207 0.130908 1.176 
-0.761322 0.130908 1.176 
-0.714438 0.130908 1.176 
-0.668121 0.131019 1.177 
-0.621724 0.13113 1.178 
-0.574759 0.13113 1.178 
-0.527795 0.13113 1.178 
-0.482055 0.131464 1.181 
-0.435708 0.131687 1.183 
-0.389529 0.132021 1.186 
-0.343112 0.132355 1.189 
-0.294714 0.13191 1.185 
-0.248723 0.132577 1.191 
-0.202086 0.133134 1.196 
-0.154403 0.133134 1.196 
-0.106989 0.133468 1.199 
-0.0592369 0.133579 1.2 
-0.0114049 0.133691 1.201 
0.0365069 0.133802 1.202 
0.0845686 0.134025 1.204 
0.13257 0.134025 1.204 
0.180721 0.134136 1.205 
0.229141 0.134358 1.207 
0.277262 0.134358 1.207 
0.324843 0.134136 1.205 
0.332011 0.107977 0.97 
0.334012 0.0938394 0.843 
0.331232 0.0814833 0.732 
0.332534 0.0744704 0.669 
0.331822 0.0687933 0.618 
0.331658 0.0640067 0.575 
0.330551 0.0594428 0.534 
0.331273 0.0557693 0.501 
0.332022 0.0525412 0.472 
0.332257 0.0497583 0.447 
0.331016 0.045417 0.408 
0.332934 0.0433019 0.389 
0.333215 0.0414096 0.372 
0.335807 0.0390719 0.351 
-1.05359 0.134007 1.179 
-1.00487 0.133779 1.177 
-0.959576 0.134007 1.179 
-0.911798 0.133893 1.178 
-0.861163 0.133325 1.173 
-0.815092 0.133438 1.174 
-0.77025 0.133779 1.177 
-0.723326 0.133779 1.177 
-0.676401 0.133779 1.177 
-0.630012 0.133893 1.178 
-0.583047 0.133893 1.178 
-0.536083 0.133893 1.178 
-0.490364 0.134234 1.181 
-0.443655 0.134348 1.182 
-0.397873 0.134802 1.186 
-0.351181 0.13503 1.188 
-0.303307 0.134802 1.186 
-0.256455 0.13503 1.188 
-0.210676 0.136052 1.197 
-0.162818 0.135939 1.196 
-0.115425 0.13628 1.199 
-0.0676795 0.136393 1.2 
-0.019871 0.136621 1.202 
0.0280269 0.136507 1.201 
0.0759715 0.136621 1.202 
0.124099 0.136848 1.204 
0.172386 0.137075 1.206 
0.220466 0.137075 1.206 
0.26877 0.137189 1.207 
0.316628 0.137075 1.206 
0.348076 0.130824 1.151 
0.335186 0.0967257 0.851 
0.334546 0.0853596 0.751 
0.332237 0.0770623 0.678 
0.332243 0.0712656 0.627 
0.332171 0.0662645 0.583 
0.331029 0.061718 0.543 
0.331273 0.0569443 0.501 
0.332885 0.0530798 0.467 
0.332968 0.0501246 0.441 
0.332114 0.0462601 0.407 
0.334058 0.0436459 0.384 
0.333849 0.0416 0.366 
0.337017 0.0395541 0.348 
-1.03888 0.136656 1.178 
-0.991072 0.13654 1.177 
-0.947356 0.137004 1.181 
-0.89646 0.136424 1.176 
-0.846686 0.135959 1.172 
-0.802691 0.136424 1.176 
-0.755806 0.136424 1.176 
-0.709525 0.13654 1.177 
-0.663163 0.136656 1.178 
-0.616199 0.136656 1.178 
-0.568751 0.13654 1.177 
-0.52227 0.136656 1.178 
-0.476919 0.13712 1.182 
-0.430159 0.137236 1.183 
-0.383643 0.137468 1.185 
-0.337251 0.137816 1.188 
-0.289156 0.137468 1.185 
-0.243341 0.13828 1.192 
-0.196476 0.138744 1.196 
-0.148794 0.138744 1.196 
-0.101365 0.139092 1.199 
-0.0536085 0.139208 1.2 
-0.00576694 0.139208 1.2 
0.0422148 0.139672 1.204 
0.0900659 0.13944 1.202 
0.138446 0.139904 1.206 
0.186372 0.139788 1.205 
0.234802 0.14002 1.207 
0.283157 0.140136 1.208 
0.330221 0.139672 1.204 
0.333091 0.111366 0.96 
0.337123 0.0947772 0.817 
0.33117 0.0831766 0.717 
0.332704 0.0765642 0.66 
0.331274 0.0706479 0.609 
0.330886 0.0649636 0.56 
0.333028 0.0612514 0.528 
0.332295 0.0564951 0.487 
0.332376 0.0522029 0.45 
0.332065 0.0491867 0.424 
0.334153 0.0439664 0.379 
0.334108 0.0415303 0.358 
0.33573 0.0400222 0.345 
-1.03888 0.139418 1.178 
-0.991072 0.1393 1.177 
-0.947356 0.139773 1.181 
-0.895698 0.139063 1.175 
-0.846686 0.138708 1.172 
-0.803374 0.1393 1.177 
-0.755806 0.139181 1.176 
-0.709525 0.1393 1.177 
-0.6626 0.1393 1.177 
-0.616199 0.139418 1.178 
-0.569234 0.139418 1.178 
-0.522713 0.139536 1.179 
-0.476919 0.139892 1.182 
-0.430159 0.14001 1.183 
-0.383643 0.140247 1.185 
-0.337251 0.140602 1.188 
-0.288668 0.14001 1.183 
-0.243341 0.141075 1.192 
-0.196476 0.141548 1.196 
-0.148794 0.141548 1.196 
-0.101365 0.141904 1.199 
-0.0536085 0.142022 1.2 
-0.00577175 0.14214 1.201 
0.0422148 0.142495 1.204 
0.0902158 0.142495 1.204 
0.138446 0.142732 1.206 
0.186372 0.142614 1.205 
0.234802 0.14285 1.207 
0.283157 0.142969 1.208 
0.330495 0.142614 1.205 
0.340341 0.124506 1.052 
0.335186 0.100717 0.851 
0.335787 0.0911307 0.77 
0.332606 0.0818993 0.692 
0.331492 0.0750349 0.634 
0.332571 0.0699458 0.591 
0.331029 0.0642649 0.543 
0.330612 0.0591758 0.5 
0.331801 0.05385 0.455 
0.33095 0.0507728 0.429 
0.333253 0.0442635 0.374 
0.334639 0.0420148 0.355 
0.335836 0.0403579 0.341 
-1.0223 0.142181 1.178 
-0.976166 0.142301 1.179 
-0.929162 0.142301 1.179 
-0.877668 0.141577 1.173 
-0.829486 0.141336 1.171 
-0.787481 0.142181 1.178 
-0.739888 0.14206 1.177 
-0.693552 0.142181 1.178 
-0.646587 0.142181 1.178 
-0.599623 0.142181 1.178 
-0.552659 0.142181 1.178 
-0.506123 0.142301 1.179 
-0.460287 0.142664 1.182 
-0.414212 0.143026 1.185 
-0.367278 0.143146 1.186 
-0.320804 0.143508 1.189 
-0.272022 0.142784 1.183 
-0.227329 0.144353 1.196 
-0.179647 0.144353 1.196 
-0.132075 0.144474 1.197 
-0.0845647 0.144836 1.2 
-0.0367844 0.145077 1.202 
0.0111183 0.144836 1.2 
0.0592055 0.14544 1.205 
0.107246 0.14544 1.205 
0.155416 0.14556 1.206 
0.203497 0.14556 1.206 
0.251786 0.145681 1.207 
0.300155 0.145802 1.208 
0.341107 0.142784 1.183 
0.333247 0.115145 0.954 
0.334805 0.101989 0.845 
0.335351 0.0928158 0.769 
0.33278 0.0831601 0.689 
0.331285 0.0744699 0.617 
0.332428 0.0692799 0.574 
0.332419 0.0638486 0.529 
0.332518 0.0584172 0.484 
0.33195 0.0540721 0.448 
0.331169 0.0468303 0.388 
0.332179 0.0442957 0.367 
0.333337 0.0423646 0.351 
-1.06188 0.145066 1.179 
-1.01315 0.14482 1.177 
-0.969513 0.145313 1.181 
-0.920086 0.144943 1.178 
-0.869416 0.144328 1.173 
-0.821949 0.144205 1.172 
-0.779193 0.144943 1.178 
-0.732228 0.144943 1.178 
-0.685264 0.144943 1.178 
-0.637758 0.14482 1.177 
-0.591335 0.144943 1.178 
-0.544833 0.145066 1.179 
-0.498673 0.145313 1.181 
-0.451971 0.145436 1.182 
-0.406218 0.145928 1.186 
-0.359539 0.146174 1.188 
-0.311651 0.145928 1.186 
-0.264145 0.145805 1.185 
-0.218548 0.146912 1.194 
-0.171232 0.147158 1.196 
-0.12386 0.147527 1.199 
-0.0761221 0.14765 1.2 
-0.0283277 0.147896 1.202 
0.0195772 0.147773 1.201 
0.0676833 0.148265 1.205 
0.115724 0.148265 1.205 
0.163901 0.148389 1.206 
0.211982 0.148389 1.206 
0.260062 0.148389 1.206 
0.308399 0.148512 1.207 
0.345886 0.144082 1.171 
0.333233 0.107293 0.872 
0.334658 0.0975722 0.793 
0.331995 0.0871137 0.708 
0.33219 0.079239 0.644 
0.331371 0.0718565 0.584 
0.330466 0.0664426 0.54 
0.330612 0.061521 0.5 
0.330747 0.0570914 0.464 
0.332213 0.0541384 0.44 
0.333252 0.0467559 0.38 
0.333077 0.0438029 0.356 
0.336019 0.0420803 0.342 
-1.0242 0.147581 1.177 
-0.978931 0.147831 1.179 
-0.931927 0.147831 1.179 
-0.88117 0.147204 1.174 
-0.832233 0.146828 1.171 
-0.790243 0.147706 1.178 
-0.743279 0.147706 1.178 
-0.696905 0.147831 1.179 
-0.64935 0.147706 1.178 
-0.602386 0.147706 1.178 
-0.555421 0.147706 1.178 
-0.509752 0.148082 1.181 
-0.463059 0.148208 1.182 
-0.416991 0.148584 1.185 
-0.37006 0.148709 1.186 
-0.323593 0.149085 1.189 
-0.274796 0.148333 1.183 
-0.229364 0.149461 1.192 
-0.182452 0.149963 1.196 
-0.134882 0.150088 1.197 
-0.0873789 0.150465 1.2 
-0.0395704 0.15059 1.201 
0.00831101 0.15059 1.201 
0.0563795 0.151091 1.205 
0.10442 0.151091 1.205 
0.152588 0.151217 1.206 
0.200668 0.151217 1.206 
0.248749 0.151217 1.206 
0.297076 0.151342 1.207 
0.340621 0.149336 1.191 
0.337454 0.114228 0.911 
0.336027 0.102692 0.819 
0.334852 0.0927864 0.74 
0.332105 0.0833824 0.665 
0.330575 0.0768623 0.613 
0.331617 0.0712199 0.568 
0.331185 0.0665805 0.531 
0.330457 0.0624428 0.498 
0.330766 0.0574273 0.458 
0.33141 0.0535403 0.427 
0.332748 0.0453901 0.362 
0.332646 0.0433839 0.346 
-1.04529 0.150596 1.179 
-0.997439 0.150469 1.178 
-0.952895 0.150852 1.181 
-0.901976 0.150213 1.176 
-0.85291 0.14983 1.173 
-0.808207 0.150213 1.176 
-0.762617 0.150469 1.178 
-0.715653 0.150469 1.178 
-0.669256 0.150596 1.179 
-0.621724 0.150469 1.178 
-0.574759 0.150469 1.178 
-0.528243 0.150596 1.179 
-0.482463 0.15098 1.182 
-0.435708 0.151107 1.183 
-0.389529 0.15149 1.186 
-0.343112 0.151874 1.189 
-0.294216 0.151107 1.183 
-0.248306 0.151874 1.189 
-0.201748 0.152512 1.194 
-0.154533 0.152896 1.197 
-0.106811 0.152896 1.197 
-0.0592862 0.153406 1.201 
-0.0114143 0.153534 1.202 
0.036598 0.153917 1.205 
0.0845686 0.15379 1.204 
0.13279 0.154045 1.206 
0.180871 0.154045 1.206 
0.228951 0.154045 1.206 
0.277032 0.154045 1.206 
0.325382 0.154173 1.207 
0.338195 0.134502 1.053 
0.335182 0.113426 0.888 
0.335112 0.102569 0.803 
0.332094 0.0918395 0.719 
0.331725 0.0828982 0.649 
0.33008 0.075873 0.594 
0.331726 0.0711469 0.557 
0.331692 0.0666762 0.522 
0.33093 0.0619501 0.485 
0.331209 0.0570963 0.447 
0.330567 0.050582 0.396 
0.333077 0.0454727 0.356 
0.335217 0.0436844 0.342 
-1.0242 0.153101 1.177 
-0.980592 0.153621 1.181 
-0.931927 0.153361 1.179 
-0.88117 0.152711 1.174 
-0.832233 0.152321 1.171 
-0.790243 0.153231 1.178 
-0.743279 0.153231 1.178 
-0.696905 0.153361 1.179 
-0.64935 0.153231 1.178 
-0.602386 0.153231 1.178 
-0.555421 0.153231 1.178 
-0.509752 0.153621 1.181 
-0.463059 0.153752 1.182 
-0.416991 0.154142 1.185 
-0.37006 0.154272 1.186 
-0.323593 0.154662 1.189 
-0.274564 0.153752 1.182 
-0.229172 0.154922 1.191 
-0.182604 0.155703 1.197 
-0.135108 0.155963 1.199 
-0.0873789 0.156093 1.2 
-0.0395704 0.156223 1.201 
0.00831793 0.156353 1.202 
0.0563795 0.156743 1.205 
0.104334 0.156613 1.204 
0.152588 0.156873 1.206 
0.200668 0.156873 1.206 
0.248749 0.156873 1.206 
0.297076 0.157003 1.207 
0.340907 0.155052 1.192 
0.334295 0.124484 0.957 
0.333974 0.110956 0.853 
0.33317 0.0993792 0.764 
0.333568 0.0902737 0.694 
0.330653 0.0811683 0.624 
0.331031 0.075575 0.581 
0.330419 0.070502 0.542 
0.330098 0.0651688 0.501 
0.331461 0.0593153 0.456 
0.328977 0.0522911 0.402 
0.330612 0.0485189 0.373 
0.332338 0.0464376 0.357 
0.33298 0.0446166 0.343 
-1.03976 0.156126 1.179 
-0.991914 0.155994 1.178 
-0.947356 0.156391 1.181 
-0.895698 0.155597 1.175 
-0.847409 0.155332 1.173 
-0.803374 0.155861 1.177 
-0.757092 0.155994 1.178 
-0.710127 0.155994 1.178 
-0.663726 0.156126 1.179 
-0.616199 0.155994 1.178 
-0.569234 0.155994 1.178 
-0.522713 0.156126 1.179 
-0.476919 0.156524 1.182 
-0.430159 0.156656 1.183 
-0.383967 0.157053 1.186 
-0.338103 0.157715 1.191 
-0.288668 0.156656 1.183 
-0.242729 0.15745 1.189 
-0.196476 0.158377 1.196 
-0.148918 0.15851 1.197 
-0.10145 0.158907 1.2 
-0.0536085 0.158907 1.2 
-0.00577655 0.159172 1.202 
0.0422499 0.159569 1.205 
0.0902158 0.159437 1.204 
0.138446 0.159702 1.206 
0.186527 0.159702 1.206 
0.234608 0.159702 1.206 
0.282689 0.159702 1.206 
0.331043 0.159834 1.207 
0.335488 0.137322 1.037 
0.336713 0.120372 0.909 
0.335317 0.105806 0.799 
0.332556 0.0953443 0.72 
0.331214 0.0858098 0.648 
0.3309 0.0791887 0.598 
0.331239 0.0733621 0.554 
0.330366 0.0685949 0.518 
0.330695 0.0618414 0.467 
0.331362 0.0586632 0.443 
0.330567 0.0524394 0.396 
0.331225 0.0483342 0.365 
0.331166 0.0459506 0.347 
-1.0526 0.159161 1.181 
-1.00296 0.158756 1.178 
-0.958435 0.159161 1.181 
-0.909036 0.158756 1.178 
-0.859876 0.158352 1.175 
-0.813031 0.158352 1.175 
-0.768794 0.158891 1.179 
-0.721178 0.158756 1.178 
-0.674213 0.158756 1.178 
-0.626717 0.158622 1.177 
-0.580285 0.158756 1.178 
-0.53332 0.158756 1.178 
-0.487594 0.159161 1.181 
-0.441256 0.15943 1.183 
-0.395092 0.159835 1.186 
-0.349275 0.160508 1.191 
-0.300272 0.1597 1.185 
-0.253242 0.159835 1.186 
-0.207348 0.160913 1.194 
-0.160147 0.161317 1.197 
-0.112613 0.161587 1.199 
-0.0648653 0.161721 1.2 
-0.0170521 0.161991 1.202 
0.0309462 0.162395 1.205 
0.078987 0.162395 1.205 
0.127133 0.16253 1.206 
0.175214 0.16253 1.206 
0.223295 0.16253 1.206 
0.271375 0.16253 1.206 
0.319721 0.162665 1.207 
0.348379 0.149457 1.109 
0.336713 0.122504 0.909 
0.335112 0.108219 0.803 
0.333625 0.0978414 0.726 
0.331696 0.0886772 0.658 
0.33029 0.0811302 0.602 
0.330641 0.0745266 0.553 
0.329728 0.0696749 0.517 
0.329208 0.0630713 0.468 
0.331514 0.0601064 0.446 
0.33037 0.0536376 0.398 
0.330528 0.0497293 0.369 
0.332636 0.0474383 0.352 
-1.05814 0.16193 1.181 
-1.00849 0.161519 1.178 
-0.963974 0.16193 1.181 
-0.915337 0.161656 1.179 
-0.865387 0.161108 1.175 
-0.817845 0.160971 1.174 
-0.774324 0.161656 1.179 
-0.726703 0.161519 1.178 
-0.680316 0.161656 1.179 
-0.632237 0.161382 1.177 
-0.58581 0.161519 1.178 
-0.538845 0.161519 1.178 
-0.493134 0.16193 1.181 
-0.446805 0.162205 1.183 
-0.40133 0.16289 1.188 
-0.354265 0.163027 1.189 
-0.30583 0.162479 1.185 
-0.258586 0.162479 1.185 
-0.212591 0.163439 1.192 
-0.165761 0.164124 1.197 
-0.118237 0.164398 1.199 
-0.0704349 0.164398 1.199 
-0.0226899 0.16481 1.202 
0.0252943 0.165221 1.205 
0.0732743 0.165084 1.204 
0.121477 0.165358 1.206 
0.169557 0.165358 1.206 
0.217819 0.165495 1.207 
0.265719 0.165358 1.206 
0.31406 0.165495 1.207 
0.352578 0.161108 1.175 
0.337174 0.128886 0.94 
0.332801 0.114489 0.835 
0.334109 0.103932 0.758 
0.333746 0.0947451 0.691 
0.331492 0.0869296 0.634 
0.330462 0.0795255 0.58 
0.330532 0.0734925 0.536 
0.330457 0.0682822 0.498 
0.330747 0.0636204 0.464 
0.331181 0.0603297 0.44 
0.33037 0.054571 0.398 
0.33058 0.0508689 0.371 
0.331407 0.0488122 0.356 
0.333437 0.0467555 0.341 
-1.01125 0.164282 1.178 
-0.965106 0.164421 1.179 
-0.918102 0.164421 1.179 
-0.868881 0.164003 1.176 
-0.8199 0.163584 1.173 
-0.777089 0.164421 1.179 
-0.729466 0.164282 1.178 
-0.682501 0.164282 1.178 
-0.634458 0.164003 1.176 
-0.589072 0.164421 1.179 
-0.542068 0.164421 1.179 
-0.495903 0.1647 1.181 
-0.449579 0.164979 1.183 
-0.404116 0.165676 1.188 
-0.357054 0.165816 1.189 
-0.308609 0.165258 1.185 
-0.261366 0.165258 1.185 
-0.215387 0.166234 1.192 
-0.16885 0.16721 1.199 
-0.121048 0.16721 1.199 
-0.0732468 0.16721 1.199 
-0.0255088 0.167629 1.202 
0.022487 0.168187 1.206 
0.0705092 0.168047 1.205 
0.118648 0.168187 1.206 
0.166729 0.168187 1.206 
0.214988 0.168326 1.207 
0.263109 0.168326 1.207 
0.311229 0.168326 1.207 
0.351609 0.1647 1.181 
0.337013 0.132764 0.952 
0.332801 0.116448 0.835 
0.33455 0.105849 0.759 
0.333087 0.0966445 0.693 
0.331403 0.0879981 0.631 
0.330236 0.0811646 0.582 
0.331804 0.0744706 0.534 
0.330457 0.0694501 0.498 
0.331488 0.0644297 0.462 
0.33173 0.0610827 0.438 
0.329666 0.0563411 0.404 
0.329726 0.0518784 0.372 
0.3315 0.0497866 0.357 
-1.05814 0.16747 1.181 
-1.00935 0.167186 1.179 
-0.962341 0.167186 1.179 
-0.915337 0.167186 1.179 
-0.866123 0.166761 1.176 
-0.818542 0.166619 1.175 
-0.774324 0.167186 1.179 
-0.726703 0.167044 1.178 
-0.679739 0.167044 1.178 
-0.6317 0.166761 1.176 
-0.58581 0.167044 1.178 
-0.539303 0.167186 1.179 
-0.493134 0.16747 1.181 
-0.446805 0.167753 1.183 
-0.40133 0.168462 1.188 
-0.354265 0.168604 1.189 
-0.30583 0.168037 1.185 
-0.259241 0.168462 1.188 
-0.212948 0.169313 1.194 
-0.166038 0.170022 1.199 
-0.118335 0.170164 1.2 
-0.0704349 0.170022 1.199 
-0.0226899 0.170448 1.202 
0.0253153 0.171015 1.206 
0.0733351 0.170873 1.205 
0.121477 0.171015 1.206 
0.169557 0.171015 1.206 
0.217819 0.171157 1.207 
0.265939 0.171157 1.207 
0.31406 0.171157 1.207 
0.353778 0.167186 1.179 
0.338177 0.134571 0.949 
0.333155 0.117839 0.831 
0.33499 0.107771 0.76 
0.332606 0.0981279 0.692 
0.331183 0.088627 0.625 
0.330462 0.0822459 0.58 
0.331182 0.0755812 0.533 
0.330612 0.0709016 0.5 
0.328812 0.0665057 0.469 
0.331209 0.0633861 0.447 
0.331071 0.0601246 0.424 
0.330259 0.0550197 0.388 
0.330556 0.0524672 0.37 
0.330566 0.0486385 0.343 
-1.03875 0.170239 1.181 
-0.989991 0.169951 1.179 
-0.944586 0.170239 1.181 
-0.893703 0.169519 1.176 
-0.846098 0.169374 1.175 
-0.800613 0.169663 1.177 
-0.75497 0.169951 1.179 
-0.707365 0.169807 1.178 
-0.660961 0.169951 1.179 
-0.613436 0.169807 1.178 
-0.565991 0.169663 1.177 
-0.52083 0.170239 1.181 
-0.474147 0.170383 1.182 
-0.428469 0.17096 1.186 
-0.381828 0.171248 1.188 
-0.33531 0.171681 1.191 
-0.286377 0.170816 1.185 
-0.240344 0.171681 1.191 
-0.194157 0.172834 1.199 
-0.146111 0.172546 1.197 
-0.098718 0.173122 1.201 
-0.0507942 0.172978 1.2 
-0.00296258 0.173555 1.204 
0.0451132 0.173843 1.206 
0.0931167 0.173699 1.205 
0.141275 0.173843 1.206 
0.189512 0.173987 1.207 
0.237633 0.173987 1.207 
0.28599 0.174131 1.208 
0.333598 0.173843 1.206 
0.328238 0.14213 0.986 
0.335117 0.129589 0.899 
0.334277 0.115463 0.801 
0.333294 0.105084 0.729 
0.332605 0.0960029 0.666 
0.33073 0.0876423 0.608 
0.330466 0.0778402 0.54 
0.330236 0.0725067 0.503 
0.329398 0.0681822 0.473 
0.33016 0.0644344 0.447 
0.331633 0.0614072 0.426 
0.329733 0.0569386 0.395 
0.329737 0.054344 0.377 
0.330832 0.0517493 0.359 
-1.04529 0.172716 1.179 
-0.998286 0.172716 1.179 
-0.952895 0.173009 1.181 
-0.90351 0.17257 1.178 
-0.854365 0.17213 1.175 
-0.808894 0.172423 1.177 
-0.763264 0.172716 1.179 
-0.715653 0.17257 1.178 
-0.668688 0.17257 1.178 
-0.621196 0.172423 1.177 
-0.574759 0.17257 1.178 
-0.528243 0.172716 1.179 
-0.482055 0.173009 1.181 
-0.436444 0.173595 1.185 
-0.390515 0.174181 1.189 
-0.343689 0.174474 1.191 
-0.294216 0.173302 1.183 
-0.248932 0.17462 1.192 
-0.202254 0.175353 1.197 
-0.154533 0.175353 1.197 
-0.107078 0.175792 1.2 
-0.0592369 0.175792 1.2 
-0.0114333 0.176378 1.204 
0.0366284 0.176671 1.206 
0.0846389 0.176525 1.205 
0.13279 0.176671 1.206 
0.181021 0.176818 1.207 
0.229141 0.176818 1.207 
0.277721 0.177111 1.209 
0.325652 0.176964 1.208 
0.364838 0.172716 1.179 
0.34013 0.136239 0.93 
0.332591 0.120125 0.82 
0.335437 0.11031 0.753 
0.332944 0.0985902 0.673 
0.330575 0.0898006 0.613 
0.329619 0.080132 0.547 
0.329583 0.0751512 0.513 
0.331383 0.0709029 0.484 
0.330343 0.0663616 0.453 
0.331483 0.0631388 0.431 
0.330059 0.0597694 0.408 
0.330367 0.0565465 0.386 
0.330528 0.0540562 0.369 
0.331207 0.0501008 0.342 
-1.03875 0.175779 1.181 
-0.989991 0.175481 1.179 
-0.944586 0.175779 1.181 
-0.894463 0.175183 1.177 
-0.846098 0.174886 1.175 
-0.801294 0.175332 1.178 
-0.75497 0.175481 1.179 
-0.707365 0.175332 1.178 
-0.660961 0.175481 1.179 
-0.613436 0.175332 1.178 
-0.566472 0.175332 1.178 
-0.52083 0.175779 1.181 
-0.474147 0.175927 1.182 
-0.428469 0.176523 1.186 
-0.381828 0.176821 1.188 
-0.33531 0.177267 1.191 
-0.285893 0.176076 1.183 
-0.240546 0.177416 1.192 
-0.194157 0.178458 1.199 
-0.146111 0.17816 1.197 
-0.098718 0.178755 1.201 
-0.0507942 0.178607 1.2 
-0.00296258 0.179202 1.204 
0.0451132 0.1795 1.206 
0.0931167 0.179351 1.205 
0.141275 0.1795 1.206 
0.189512 0.179648 1.207 
0.23783 0.179797 1.208 
0.286227 0.179946 1.209 
0.333598 0.1795 1.206 
0.330838 0.145862 0.98 
0.333355 0.129043 0.867 
0.334396 0.117285 0.788 
0.333263 0.102699 0.69 
0.332015 0.0945126 0.635 
0.331601 0.0866242 0.582 
0.330561 0.0791822 0.532 
0.331273 0.0745682 0.501 
0.330306 0.0696566 0.468 
0.330323 0.0659356 0.443 
0.329917 0.0625123 0.42 
0.330979 0.0596844 0.401 
0.330527 0.0568564 0.382 
0.330369 0.0543262 0.365 
0.330405 0.0509029 0.342 
-1.03322 0.178548 1.181 
-0.984461 0.178246 1.179 
-0.939047 0.178548 1.181 
-0.888942 0.177944 1.177 
-0.840587 0.177641 1.175 
-0.796444 0.178246 1.179 
-0.750711 0.178548 1.181 
-0.702435 0.178246 1.179 
-0.655431 0.178246 1.179 
-0.608427 0.178246 1.179 
-0.560946 0.178095 1.178 
-0.515291 0.178548 1.181 
-0.468603 0.178699 1.182 
-0.423619 0.179607 1.188 
-0.376256 0.179607 1.188 
-0.329723 0.18006 1.191 
-0.280345 0.178851 1.183 
-0.235349 0.180514 1.194 
-0.18869 0.181421 1.2 
-0.140497 0.180967 1.197 
-0.0930849 0.181572 1.201 
-0.0452035 0.181572 1.201 
0.00268683 0.182177 1.205 
0.0507698 0.182328 1.206 
0.0988505 0.182328 1.206 
0.146931 0.182328 1.206 
0.195335 0.18263 1.208 
0.243496 0.18263 1.208 
0.292139 0.182933 1.21 
0.337566 0.181421 1.2 
0.335692 0.145288 0.961 
0.333155 0.125634 0.831 
0.336313 0.115353 0.763 
0.333425 0.103863 0.687 
0.331928 0.0955483 0.632 
0.33125 0.0875355 0.579 
0.32994 0.0802787 0.531 
0.330612 0.075592 0.5 
0.329513 0.0710565 0.47 
0.330027 0.0671257 0.444 
0.329917 0.0634973 0.42 
0.330979 0.0606248 0.401 
0.330527 0.0577523 0.382 
0.330369 0.0551822 0.365 
0.330746 0.0529144 0.35 
-1.05814 0.181318 1.181 
-1.01106 0.181318 1.181 
-0.963974 0.181318 1.181 
-0.91689 0.181318 1.181 
-0.867596 0.180857 1.178 
-0.818542 0.180397 1.175 
-0.774324 0.181011 1.179 
-0.72732 0.181011 1.179 
-0.679739 0.180857 1.178 
-0.6317 0.18055 1.176 
-0.587302 0.181318 1.181 
-0.540218 0.181318 1.181 
-0.493551 0.181471 1.182 
-0.44756 0.181932 1.185 
-0.401668 0.182546 1.189 
-0.354265 0.182546 1.189 
-0.305314 0.181625 1.183 
-0.259459 0.182546 1.189 
-0.213305 0.183621 1.196 
-0.165761 0.183774 1.197 
-0.118335 0.184235 1.2 
-0.0704937 0.184235 1.2 
-0.0227277 0.184849 1.204 
0.0252943 0.185003 1.205 
0.0733351 0.185003 1.205 
0.121477 0.185156 1.206 
0.169698 0.18531 1.207 
0.217999 0.185463 1.208 
0.26638 0.185617 1.209 
0.31458 0.185617 1.209 
0.352578 0.180397 1.175 
0.338667 0.142168 0.926 
0.333409 0.124052 0.808 
0.332039 0.112076 0.73 
0.333933 0.103632 0.675 
0.330388 0.0936528 0.61 
0.332515 0.086744 0.565 
0.329905 0.0806028 0.525 
0.330788 0.0759969 0.495 
0.330747 0.0712375 0.464 
0.330703 0.0672458 0.438 
0.330397 0.063254 0.412 
0.329986 0.0601834 0.392 
0.329744 0.0574199 0.374 
0.330832 0.055117 0.359 
0.329603 0.052507 0.342 
-1.0526 0.184088 1.181 
-1.00382 0.183776 1.179 
-0.958435 0.184088 1.181 
-0.911351 0.184088 1.181 
-0.861339 0.183464 1.177 
-0.813723 0.183308 1.176 
-0.768794 0.183776 1.179 
-0.72179 0.183776 1.179 
-0.674213 0.18362 1.178 
-0.626184 0.183308 1.176 
-0.581762 0.184088 1.181 
-0.534678 0.184088 1.181 
-0.48842 0.184399 1.183 
-0.442375 0.184867 1.186 
-0.396091 0.185335 1.189 
-0.348688 0.185335 1.189 
-0.299765 0.184399 1.183 
-0.25431 0.185646 1.191 
-0.207695 0.186426 1.196 
-0.160147 0.186582 1.197 
-0.112707 0.187049 1.2 
-0.0648653 0.187049 1.2 
-0.0170805 0.187673 1.204 
0.0309718 0.187984 1.206 
0.078987 0.187829 1.205 
0.127239 0.18814 1.207 
0.175359 0.18814 1.207 
0.223665 0.188296 1.208 
0.272276 0.188608 1.21 
0.320251 0.188452 1.209 
0.332381 0.158992 1.02 
0.332468 0.135611 0.87 
0.335518 0.121894 0.782 
0.331526 0.110203 0.707 
0.331214 0.101007 0.648 
0.3309 0.0932128 0.598 
0.331013 0.0869779 0.558 
0.330468 0.0813664 0.522 
0.331091 0.0766902 0.492 
0.33112 0.0721698 0.463 
0.329974 0.0674936 0.433 
0.330559 0.0640643 0.411 
0.330061 0.0609469 0.391 
0.329737 0.0581411 0.373 
0.33075 0.055803 0.358 
0.330238 0.0531531 0.341 
-1.04706 0.186857 1.181 
-0.998286 0.186541 1.179 
-0.952895 0.186857 1.181 
-0.905811 0.186857 1.181 
-0.855819 0.186224 1.177 
-0.808894 0.186224 1.177 
-0.763264 0.186541 1.179 
-0.71626 0.186541 1.179 
-0.668688 0.186383 1.178 
-0.621724 0.186383 1.178 
-0.576223 0.186857 1.181 
-0.529139 0.186857 1.181 
-0.482872 0.187174 1.183 
-0.436813 0.187648 1.186 
-0.390515 0.188123 1.189 
-0.343112 0.188123 1.189 
-0.293968 0.187015 1.182 
-0.24935 0.188914 1.194 
-0.202254 0.189389 1.197 
-0.154403 0.189231 1.196 
-0.107168 0.190022 1.201 
-0.0592369 0.189863 1.2 
-0.0114333 0.190496 1.204 
0.0366284 0.190813 1.206 
0.0847091 0.190813 1.206 
0.1329 0.190971 1.207 
0.18117 0.191129 1.208 
0.229521 0.191287 1.209 
0.277951 0.191446 1.21 
0.325652 0.191129 1.208 
0.33692 0.159011 1.005 
0.333141 0.135436 0.856 
0.335518 0.123728 0.782 
0.331057 0.111703 0.706 
0.33222 0.102368 0.647 
0.329799 0.0935077 0.591 
0.330137 0.0870207 0.55 
0.3303 0.0816413 0.516 
0.331612 0.0768947 0.486 
0.328798 0.0708823 0.448 
0.329635 0.0674015 0.426 
0.331298 0.0642371 0.406 
0.330367 0.0610727 0.386 
0.330528 0.058383 0.369 
0.329925 0.0553768 0.35 
0.332089 0.0534782 0.338 
-1.03132 0.189787 1.182 
-0.981696 0.189306 1.179 
-0.936277 0.189627 1.181 
-0.887688 0.189306 1.179 
-0.837831 0.188663 1.175 
-0.793006 0.189145 1.178 
-0.747941 0.189627 1.181 
-0.69967 0.189306 1.179 
-0.652666 0.189306 1.179 
-0.606689 0.189627 1.181 
-0.558658 0.189306 1.179 
-0.512955 0.189787 1.182 
-0.467014 0.190269 1.185 
-0.421187 0.190911 1.189 
-0.37347 0.190751 1.188 
-0.32693 0.191233 1.191 
-0.278744 0.190751 1.188 
-0.232939 0.192035 1.196 
-0.185721 0.192517 1.199 
-0.13769 0.192196 1.197 
-0.0902683 0.192838 1.201 
-0.0423869 0.192838 1.201 
0.00551276 0.19348 1.205 
0.0535981 0.193641 1.206 
0.101763 0.193802 1.207 
0.14976 0.193641 1.206 
0.198168 0.193962 1.208 
0.246533 0.194123 1.209 
0.294977 0.194283 1.21 
0.337828 0.191233 1.191 
0.337367 0.153018 0.953 
0.331924 0.129897 0.809 
0.332666 0.118657 0.739 
0.334428 0.108542 0.676 
0.330839 0.0968205 0.603 
0.331927 0.0905585 0.564 
0.330534 0.084457 0.526 
0.331569 0.0788373 0.491 
0.330405 0.0741809 0.462 
0.330225 0.0693639 0.432 
0.330868 0.0656709 0.409 
0.330315 0.0621385 0.387 
0.330556 0.0594089 0.37 
0.329801 0.0560371 0.349 
0.331897 0.0541103 0.337 
-1.02768 0.192397 1.181 
-0.978931 0.192071 1.179 
-0.933508 0.192397 1.181 
-0.884923 0.192071 1.179 
-0.835076 0.191419 1.175 
-0.790914 0.192071 1.179 
-0.745172 0.192397 1.181 
-0.696905 0.192071 1.179 
-0.64935 0.191908 1.178 
-0.604431 0.192559 1.182 
-0.556836 0.192397 1.181 
-0.510183 0.192559 1.182 
-0.464235 0.193048 1.185 
-0.418047 0.193537 1.188 
-0.370684 0.193537 1.188 
-0.324409 0.194189 1.192 
-0.276654 0.194026 1.191 
-0.230134 0.19484 1.196 
-0.182909 0.195329 1.199 
-0.135108 0.195329 1.199 
-0.0874518 0.195655 1.201 
-0.0396033 0.195818 1.202 
0.00833869 0.196306 1.205 
0.0564263 0.196469 1.206 
0.104594 0.196632 1.207 
0.152714 0.196632 1.207 
0.201168 0.196958 1.209 
0.249368 0.196958 1.209 
0.297814 0.197121 1.21 
0.340049 0.1937 1.189 
0.33103 0.142872 0.877 
0.33386 0.130328 0.8 
0.329489 0.116806 0.717 
0.330711 0.105891 0.65 
0.33032 0.0956281 0.587 
0.329692 0.0887859 0.545 
0.330141 0.0834098 0.512 
