# .PCD v.7 - Point Cloud Data file format
VERSION .7
FIELDS x y z
SIZE 4 4 4
TYPE F F F
COUNT 1 1 1
WIDTH 1894
HEIGHT 1
VIEWPOINT 0 0 0 1 0 0 0
POINTS 1894
DATA ascii
0.016356 0.281632 1.172 
0.0632426 0.282353 1.175 
0.110275 0.282834 1.177 
0.157867 0.284035 1.182 
0.205164 0.284276 1.183 
0.253395 0.285477 1.188 
0.300251 0.284996 1.186 
0.348414 0.285717 1.189 
0.398147 0.287399 1.196 
0.443965 0.286198 1.191 
0.491861 0.286438 1.192 
0.534858 0.284035 1.182 
0.573612 0.27995 1.165 
0.600897 0.271299 1.129 
0.628745 0.26409 1.099 
0.656649 0.257842 1.073 
0.683783 0.252075 1.049 
0.700703 0.243424 1.013 
0.722799 0.237417 0.988 
0.748303 0.233092 0.97 
0.769937 0.228045 0.949 
0.782236 0.220836 0.919 
0.793926 0.214108 0.891 
0.808968 0.208821 0.869 
0.824197 0.204015 0.849 
-0.701962 0.208675 0.86 
-0.680874 0.2128 0.877 
-0.679053 0.223719 0.922 
-0.686879 0.239249 0.986 
-0.680407 0.251381 1.036 
-0.665014 0.261572 1.078 
-0.639347 0.268851 1.108 
-0.598396 0.270307 1.114 
-0.563432 0.274918 1.133 
-0.516889 0.27419 1.13 
-0.475596 0.276373 1.139 
-0.43132 0.277101 1.142 
-0.386128 0.277344 1.143 
-0.342347 0.2788 1.149 
-0.297313 0.279528 1.152 
-0.252476 0.280741 1.157 
-0.207063 0.281712 1.161 
-0.161468 0.282925 1.166 
-0.11518 0.28341 1.168 
-0.0687901 0.284138 1.171 
-0.0221236 0.284381 1.172 
0.0246016 0.284381 1.172 
0.0715094 0.285109 1.175 
0.118656 0.285837 1.178 
0.166183 0.286807 1.182 
0.213488 0.28705 1.183 
0.261753 0.288263 1.188 
0.308596 0.287778 1.186 
0.358279 0.289719 1.194 
0.405202 0.289234 1.192 
0.452725 0.289234 1.192 
0.499827 0.288991 1.191 
0.539958 0.285109 1.175 
0.573818 0.2788 1.149 
0.600212 0.270065 1.113 
0.631265 0.264484 1.09 
0.658008 0.257932 1.063 
0.68128 0.250896 1.034 
0.70224 0.243859 1.005 
0.721626 0.237065 0.977 
0.749678 0.233668 0.963 
0.764339 0.226631 0.934 
0.783553 0.221536 0.913 
0.795704 0.214984 0.886 
0.812268 0.210131 0.866 
0.822348 0.204065 0.841 
-0.692675 0.209712 0.856 
-0.683167 0.217552 0.888 
-0.67986 0.228331 0.932 
-0.686148 0.243766 0.995 
-0.679616 0.25626 1.046 
-0.659869 0.26508 1.082 
-0.632121 0.271695 1.109 
-0.591619 0.27341 1.116 
-0.55497 0.27733 1.132 
-0.508939 0.27684 1.13 
-0.467583 0.279045 1.139 
-0.423656 0.280025 1.143 
-0.378748 0.280515 1.145 
-0.334263 0.281494 1.149 
-0.28971 0.282719 1.154 
-0.244548 0.283699 1.158 
-0.19958 0.285414 1.165 
-0.153396 0.285904 1.167 
-0.106962 0.286149 1.168 
-0.0605515 0.286884 1.171 
-0.013878 0.287129 1.172 
0.0328752 0.287374 1.173 
0.079844 0.288109 1.176 
0.126944 0.288599 1.178 
0.174499 0.289579 1.182 
0.221811 0.289824 1.183 
0.270111 0.291049 1.188 
0.317474 0.291049 1.188 
0.368523 0.293989 1.2 
0.413588 0.292029 1.192 
0.461111 0.292029 1.192 
0.507353 0.291294 1.189 
0.545891 0.286639 1.17 
0.577344 0.27929 1.14 
0.603126 0.27047 1.104 
0.633658 0.264835 1.081 
0.659852 0.25822 1.054 
0.680564 0.250381 1.022 
0.705781 0.244991 1 
0.724771 0.238131 0.972 
0.750169 0.233966 0.955 
0.764307 0.226862 0.926 
0.786515 0.222697 0.909 
0.795601 0.215347 0.879 
0.811745 0.210447 0.859 
0.82334 0.204812 0.836 
-0.684645 0.21172 0.856 
-0.684716 0.22285 0.901 
-0.685519 0.235464 0.952 
-0.681576 0.247831 1.002 
-0.673005 0.25995 1.051 
-0.65152 0.26836 1.085 
-0.622839 0.27479 1.111 
-0.584795 0.277758 1.123 
-0.54339 0.27949 1.13 
-0.497898 0.279242 1.129 
-0.457299 0.281963 1.14 
-0.413656 0.2832 1.145 
-0.36865 0.283694 1.147 
-0.324048 0.284684 1.151 
-0.279127 0.285673 1.155 
-0.23429 0.287157 1.161 
-0.188651 0.288146 1.165 
-0.142449 0.288641 1.167 
-0.0961699 0.289383 1.17 
-0.049609 0.289878 1.172 
-0.00288384 0.289878 1.172 
0.0439536 0.29062 1.175 
0.0908757 0.290867 1.176 
0.138112 0.291609 1.179 
0.185587 0.292351 1.182 
0.233302 0.293093 1.185 
0.280782 0.293341 1.186 
0.328895 0.294083 1.189 
0.380412 0.297298 1.202 
0.42477 0.294825 1.192 
0.472293 0.294825 1.192 
0.517199 0.293341 1.186 
0.5483 0.284931 1.152 
0.580816 0.2785 1.126 
0.60737 0.270338 1.093 
0.637247 0.26465 1.07 
0.666562 0.259456 1.049 
0.679346 0.24882 1.006 
0.707295 0.244615 0.989 
0.727849 0.238432 0.964 
0.753563 0.234475 0.948 
0.763811 0.226312 0.915 
0.788045 0.22285 0.901 
0.796531 0.21543 0.871 
0.814077 0.210978 0.853 
0.829194 0.206278 0.834 
-0.681794 0.214726 0.86 
-0.6844 0.22696 0.909 
-0.688804 0.241192 0.966 
-0.679912 0.252178 1.01 
-0.667511 0.263164 1.054 
-0.64626 0.271903 1.089 
-0.615577 0.277645 1.112 
-0.581518 0.282639 1.132 
-0.536861 0.282889 1.133 
-0.491257 0.282639 1.132 
-0.449673 0.284886 1.141 
-0.405601 0.285885 1.145 
-0.361209 0.286884 1.149 
-0.316225 0.287633 1.152 
-0.27147 0.288881 1.157 
-0.226317 0.29013 1.162 
-0.180455 0.290879 1.165 
-0.134354 0.291628 1.168 
-0.0880135 0.292377 1.171 
-0.0413987 0.292876 1.173 
0.00536179 0.292626 1.172 
0.0522648 0.293625 1.176 
0.0992338 0.293875 1.177 
0.146655 0.294874 1.181 
0.194395 0.295872 1.185 
0.24225 0.296621 1.188 
0.289614 0.296621 1.188 
0.337828 0.29737 1.191 
0.387898 0.299368 1.199 
0.433156 0.29762 1.192 
0.479469 0.296871 1.189 
0.523327 0.294874 1.181 
0.551575 0.285136 1.142 
0.580895 0.277396 1.111 
0.608869 0.270155 1.082 
0.637544 0.264163 1.058 
0.664305 0.25817 1.034 
0.683694 0.250181 1.002 
0.705587 0.243939 0.977 
0.728535 0.238695 0.956 
0.749006 0.233202 0.934 
0.765197 0.22696 0.909 
0.786449 0.222716 0.892 
0.800816 0.216973 0.869 
0.816233 0.211979 0.849 
-0.705616 0.217247 0.862 
-0.680595 0.220271 0.874 
-0.683431 0.233124 0.925 
-0.6829 0.24623 0.977 
-0.675587 0.258327 1.025 
-0.664445 0.270424 1.073 
-0.639628 0.278237 1.104 
-0.601009 0.280757 1.114 
-0.566588 0.285798 1.134 
-0.521378 0.285798 1.134 
-0.477848 0.286806 1.138 
-0.434378 0.288066 1.143 
-0.389489 0.28857 1.145 
-0.345642 0.290082 1.151 
-0.300015 0.290334 1.152 
-0.25541 0.291847 1.158 
-0.210508 0.293611 1.165 
-0.164203 0.293863 1.166 
-0.117818 0.294115 1.167 
-0.0715363 0.295123 1.171 
-0.0248934 0.295627 1.173 
0.0218717 0.295627 1.173 
0.0688123 0.296383 1.176 
0.115894 0.296887 1.178 
0.163411 0.297895 1.182 
0.211069 0.298651 1.185 
0.259185 0.299659 1.189 
0.30633 0.299407 1.188 
0.355479 0.30092 1.194 
0.402406 0.300415 1.192 
0.449929 0.300415 1.192 
0.493696 0.298147 1.183 
0.53263 0.293611 1.165 
0.561679 0.28479 1.13 
0.583642 0.273953 1.087 
0.620633 0.27118 1.076 
0.646881 0.264376 1.049 
0.665724 0.255555 1.014 
0.692919 0.250766 0.995 
0.710499 0.243205 0.965 
0.738106 0.239677 0.951 
0.749092 0.23136 0.918 
0.773709 0.227832 0.904 
0.790043 0.222287 0.882 
0.806494 0.217247 0.862 
0.815498 0.210694 0.836 
-0.68866 0.217742 0.856 
-0.688177 0.228934 0.9 
-0.687085 0.241144 0.948 
-0.678742 0.252082 0.991 
-0.674064 0.265818 1.045 
-0.654189 0.274976 1.081 
-0.62692 0.282098 1.109 
-0.590062 0.285659 1.123 
-0.549661 0.287949 1.132 
-0.50453 0.287949 1.132 
-0.462646 0.289984 1.14 
-0.419027 0.291255 1.145 
-0.373704 0.29151 1.146 
-0.329447 0.292782 1.151 
-0.284544 0.293799 1.155 
-0.239736 0.295325 1.161 
-0.194282 0.296597 1.166 
-0.147923 0.296852 1.167 
-0.101571 0.29736 1.169 
-0.0551061 0.298123 1.172 
-0.00838092 0.298123 1.172 
0.0384752 0.299141 1.176 
0.0854324 0.299395 1.177 
0.132807 0.300413 1.181 
0.180195 0.300922 1.183 
0.227936 0.301685 1.186 
0.275683 0.302193 1.188 
0.323318 0.302448 1.189 
0.373839 0.304991 1.199 
0.419179 0.303211 1.192 
0.465136 0.302193 1.188 
0.507753 0.299395 1.177 
0.537241 0.289984 1.14 
0.566845 0.282098 1.109 
0.594529 0.274467 1.079 
0.628683 0.270651 1.064 
0.650919 0.262511 1.032 
0.671274 0.254626 1.001 
0.694131 0.248521 0.977 
0.715824 0.24267 0.954 
0.738054 0.237583 0.934 
0.754539 0.231224 0.909 
0.777729 0.227408 0.894 
0.791536 0.221303 0.87 
0.809127 0.216725 0.852 
0.825282 0.212146 0.834 
-0.683379 0.22129 0.862 
-0.685906 0.233869 0.911 
-0.686665 0.247218 0.963 
-0.674526 0.25723 1.002 
-0.666877 0.270323 1.053 
-0.64448 0.278794 1.086 
-0.615577 0.285469 1.112 
-0.581518 0.290603 1.132 
-0.536861 0.29086 1.133 
-0.490389 0.29009 1.13 
-0.449673 0.292914 1.141 
-0.405955 0.294197 1.146 
-0.360895 0.294711 1.148 
-0.316225 0.295738 1.152 
-0.271705 0.297278 1.158 
-0.226901 0.299075 1.165 
-0.18061 0.299332 1.166 
-0.134469 0.300102 1.169 
-0.0880135 0.300615 1.171 
-0.0413634 0.300872 1.172 
0.00536636 0.301129 1.173 
0.0523092 0.302156 1.177 
0.0993181 0.302412 1.178 
0.146655 0.303182 1.181 
0.194559 0.304466 1.186 
0.24225 0.304979 1.188 
0.289614 0.304979 1.188 
0.337828 0.30575 1.191 
0.386928 0.307033 1.196 
0.433883 0.30652 1.194 
0.476646 0.303439 1.182 
0.51801 0.300102 1.169 
0.54433 0.28932 1.127 
0.567824 0.278794 1.086 
0.603242 0.2752 1.072 
0.632724 0.269553 1.05 
0.655311 0.261851 1.02 
0.680283 0.255947 0.997 
0.699087 0.248502 0.968 
0.721676 0.243111 0.947 
0.738581 0.236436 0.921 
0.758463 0.231302 0.901 
0.781159 0.227451 0.886 
0.795287 0.221547 0.863 
0.811426 0.216669 0.844 
-0.703979 0.222793 0.86 
-0.682931 0.227197 0.877 
-0.687126 0.240928 0.93 
-0.681502 0.252585 0.975 
-0.674268 0.26502 1.023 
-0.661349 0.276678 1.068 
-0.63789 0.285227 1.101 
-0.601548 0.288854 1.115 
-0.566588 0.293776 1.134 
-0.521838 0.294035 1.135 
-0.477848 0.294812 1.138 
-0.434758 0.296367 1.144 
-0.39017 0.297144 1.147 
-0.345042 0.297662 1.149 
-0.300536 0.298957 1.154 
-0.255631 0.300253 1.159 
-0.210689 0.302066 1.166 
-0.164344 0.302325 1.167 
-0.117919 0.302584 1.168 
-0.0715363 0.303361 1.171 
-0.0248722 0.303621 1.172 
0.021909 0.304398 1.175 
0.0688708 0.304916 1.177 
0.116189 0.305952 1.181 
0.163411 0.306211 1.182 
0.211248 0.307247 1.186 
0.259185 0.308025 1.189 
0.306588 0.308025 1.189 
0.354884 0.308802 1.192 
0.402406 0.308802 1.192 
0.449552 0.308543 1.191 
0.490357 0.304398 1.175 
0.522115 0.295849 1.142 
0.552235 0.287818 1.111 
0.577199 0.278492 1.075 
0.610828 0.274347 1.059 
0.636398 0.267352 1.032 
0.657189 0.259321 1.001 
0.683865 0.254399 0.982 
0.7024 0.247145 0.954 
0.724911 0.241964 0.934 
0.741748 0.235487 0.909 
0.763438 0.231083 0.892 
0.781086 0.225902 0.872 
0.799009 0.221239 0.854 
0.813547 0.216058 0.834 
-0.687844 0.22481 0.86 
-0.690036 0.237358 0.908 
-0.686959 0.249382 0.954 
-0.674774 0.259316 0.992 
-0.671084 0.273955 1.048 
-0.649719 0.282842 1.082 
-0.622279 0.290162 1.11 
-0.58844 0.29539 1.13 
-0.544832 0.296174 1.133 
-0.499221 0.295913 1.132 
-0.457299 0.298004 1.14 
-0.414379 0.299834 1.147 
-0.368972 0.300095 1.148 
-0.32433 0.301141 1.152 
-0.27961 0.302448 1.157 
-0.234492 0.303755 1.162 
-0.188813 0.304801 1.166 
-0.142571 0.305323 1.168 
-0.0961699 0.305846 1.17 
-0.049609 0.306369 1.172 
-0.0028863 0.30663 1.173 
0.0440284 0.307676 1.177 
0.0911075 0.308199 1.179 
0.138463 0.308983 1.182 
0.186058 0.309767 1.185 
0.233892 0.310552 1.188 
0.281492 0.310813 1.189 
0.329725 0.311597 1.192 
0.37788 0.31212 1.194 
0.425483 0.31212 1.194 
0.466746 0.307938 1.178 
0.504988 0.302709 1.158 
0.533069 0.292776 1.12 
0.55812 0.282842 1.082 
0.589588 0.277353 1.061 
0.622954 0.273432 1.046 
0.644322 0.265067 1.014 
0.671242 0.259839 0.994 
0.688701 0.251735 0.963 
0.708218 0.2452 0.938 
0.728921 0.23971 0.917 
0.74962 0.234744 0.898 
0.774051 0.231345 0.885 
0.785557 0.224549 0.859 
0.805488 0.220628 0.844 
0.827206 0.217491 0.832 
-0.682344 0.229728 0.871 
-0.689257 0.244498 0.927 
-0.683964 0.256367 0.972 
-0.67442 0.267972 1.016 
-0.658871 0.278522 1.056 
-0.640133 0.289072 1.096 
-0.606778 0.294084 1.115 
-0.572412 0.299359 1.135 
-0.527626 0.299623 1.136 
-0.481487 0.299095 1.134 
-0.440124 0.301733 1.144 
-0.395894 0.302788 1.148 
-0.350431 0.303051 1.149 
-0.305948 0.30437 1.154 
-0.260842 0.305425 1.158 
-0.216158 0.307535 1.166 
-0.169672 0.307535 1.166 
-0.123608 0.30859 1.17 
-0.0770287 0.308854 1.171 
-0.0303693 0.309118 1.172 
0.0163978 0.309909 1.175 
0.0633503 0.310436 1.177 
0.11065 0.311491 1.181 
0.157734 0.311491 1.181 
0.206032 0.313338 1.188 
0.253608 0.313601 1.189 
0.301011 0.313601 1.189 
0.349293 0.314393 1.192 
0.397481 0.31492 1.194 
0.44322 0.313601 1.189 
0.483195 0.308854 1.171 
0.514948 0.30015 1.138 
0.545054 0.291974 1.107 
0.567899 0.281424 1.067 
0.600712 0.27694 1.05 
0.628498 0.270874 1.027 
0.650539 0.263225 0.998 
0.676493 0.25795 0.978 
0.695731 0.250828 0.951 
0.717445 0.24529 0.93 
0.737485 0.239751 0.909 
0.758403 0.235003 0.891 
0.775213 0.229464 0.87 
0.792211 0.224453 0.851 
0.808665 0.219706 0.833 
-0.696306 0.228312 0.858 
-0.688336 0.237359 0.892 
-0.689364 0.250664 0.942 
-0.676027 0.259977 0.977 
-0.669679 0.273282 1.027 
-0.657508 0.285789 1.074 
-0.633005 0.294304 1.106 
-0.599028 0.29936 1.125 
-0.55861 0.301754 1.134 
-0.514305 0.302287 1.136 
-0.470254 0.303085 1.139 
-0.427455 0.304948 1.146 
-0.382433 0.30548 1.148 
-0.337545 0.306278 1.151 
-0.29267 0.307343 1.155 
-0.247904 0.308939 1.161 
-0.202485 0.31027 1.166 
-0.156133 0.310536 1.167 
-0.109795 0.311068 1.169 
-0.0632977 0.3116 1.171 
-0.0166265 0.311866 1.172 
0.0302271 0.313197 1.177 
0.0772172 0.313463 1.178 
0.124603 0.314527 1.182 
0.171872 0.314793 1.183 
0.219962 0.316124 1.188 
0.26755 0.31639 1.189 
0.314953 0.31639 1.189 
0.36327 0.317188 1.192 
0.410793 0.317188 1.192 
0.453317 0.313729 1.179 
0.48759 0.305746 1.149 
0.518543 0.297231 1.117 
0.547449 0.288982 1.086 
0.57497 0.281265 1.057 
0.606602 0.276475 1.039 
0.635551 0.271153 1.019 
0.656269 0.26317 0.989 
0.680223 0.257316 0.967 
0.697219 0.249599 0.938 
0.718169 0.244011 0.917 
0.73909 0.238955 0.898 
0.763673 0.235496 0.885 
0.773679 0.228045 0.857 
0.796534 0.224852 0.845 
0.814502 0.220595 0.829 
-0.691466 0.231398 0.862 
-0.692165 0.243746 0.908 
-0.687752 0.255557 0.952 
-0.673005 0.264684 0.986 
-0.667758 0.278912 1.039 
-0.651653 0.290186 1.081 
-0.624319 0.297703 1.109 
-0.592137 0.303877 1.132 
-0.547973 0.304414 1.134 
-0.502762 0.304414 1.134 
-0.459973 0.306025 1.14 
-0.417069 0.307904 1.147 
-0.371664 0.308172 1.148 
-0.327031 0.309246 1.152 
-0.282323 0.310588 1.157 
-0.237217 0.31193 1.162 
-0.191548 0.313004 1.166 
-0.145435 0.313809 1.169 
-0.0989983 0.314346 1.171 
-0.0523576 0.314615 1.172 
-0.00563719 0.314883 1.173 
0.0413032 0.316225 1.178 
0.0883425 0.316494 1.179 
0.135576 0.317031 1.181 
0.183279 0.318104 1.185 
0.231106 0.31891 1.188 
0.278704 0.319178 1.189 
0.326929 0.319984 1.192 
0.374138 0.319715 1.191 
0.420913 0.319178 1.189 
0.462014 0.314883 1.173 
0.493598 0.305488 1.138 
0.52618 0.29824 1.111 
0.551988 0.288576 1.075 
0.581566 0.282133 1.051 
0.608043 0.275154 1.025 
0.634347 0.268979 1.002 
0.65949 0.263074 0.98 
0.680027 0.256094 0.954 
0.699997 0.249652 0.93 
0.72043 0.244014 0.909 
0.741687 0.239182 0.891 
0.761508 0.23435 0.873 
0.777157 0.228713 0.852 
0.795892 0.224418 0.836 
0.819303 0.221734 0.826 
-0.689377 0.234773 0.867 
-0.687287 0.246417 0.91 
-0.682485 0.258332 0.954 
-0.674174 0.270246 0.998 
-0.665533 0.283515 1.047 
-0.646431 0.293805 1.085 
-0.618184 0.301116 1.112 
-0.58572 0.307344 1.135 
-0.540947 0.307615 1.136 
-0.494348 0.306803 1.133 
-0.452745 0.30924 1.142 
-0.408999 0.310594 1.147 
-0.363587 0.310864 1.148 
-0.31948 0.312489 1.154 
-0.274183 0.313301 1.157 
-0.229042 0.314655 1.162 
-0.183344 0.315738 1.166 
-0.13721 0.316551 1.169 
-0.0907597 0.317092 1.171 
-0.044112 0.317363 1.172 
0.0026177 0.317905 1.174 
0.049591 0.318988 1.178 
0.0968014 0.3198 1.181 
0.143885 0.3198 1.181 
0.192101 0.321696 1.188 
0.239464 0.321696 1.188 
0.287069 0.321967 1.189 
0.335878 0.323321 1.194 
0.382838 0.322779 1.192 
0.428195 0.321154 1.186 
0.465455 0.314385 1.161 
0.494552 0.303824 1.122 
0.532074 0.299762 1.107 
0.553305 0.287847 1.063 
0.584477 0.282432 1.043 
0.611653 0.275933 1.019 
0.638196 0.269975 0.997 
0.662305 0.263747 0.974 
0.68314 0.256978 0.949 
0.701222 0.249937 0.923 
0.722828 0.244792 0.904 
0.746277 0.24073 0.889 
0.763253 0.235044 0.868 
0.779475 0.229628 0.848 
0.798897 0.225566 0.833 
-0.706251 0.232982 0.853 
-0.686429 0.237899 0.871 
-0.684626 0.249917 0.915 
-0.680023 0.262208 0.96 
-0.671832 0.274499 1.005 
-0.660053 0.28679 1.05 
-0.643508 0.298534 1.093 
-0.612556 0.304816 1.116 
-0.578244 0.310279 1.136 
-0.533893 0.310825 1.138 
-0.486806 0.309733 1.134 
-0.4451 0.312191 1.143 
-0.401279 0.313557 1.148 
-0.35582 0.31383 1.149 
-0.31217 0.316015 1.157 
-0.266043 0.316015 1.157 
-0.220866 0.31738 1.162 
-0.175291 0.318746 1.167 
-0.129096 0.319566 1.17 
-0.0825211 0.319839 1.171 
-0.0358663 0.320112 1.172 
0.0108959 0.321204 1.176 
0.0578789 0.321751 1.178 
0.105199 0.322843 1.182 
0.152194 0.32257 1.181 
0.20046 0.324482 1.188 
0.247823 0.324482 1.188 
0.295434 0.324755 1.189 
0.344279 0.326121 1.194 
0.391225 0.325574 1.192 
0.434698 0.32257 1.181 
0.467096 0.312737 1.145 
0.49752 0.303451 1.111 
0.534498 0.299354 1.096 
0.558146 0.288975 1.058 
0.584439 0.281327 1.03 
0.613964 0.276137 1.011 
0.640033 0.270128 0.989 
0.665722 0.264666 0.969 
0.681821 0.256199 0.938 
0.701582 0.249917 0.915 
0.722735 0.244727 0.896 
0.749145 0.241723 0.885 
0.758724 0.233802 0.856 
0.78081 0.230251 0.843 
0.799927 0.226154 0.828 
-0.697881 0.235534 0.855 
-0.690967 0.245176 0.89 
-0.686418 0.256746 0.932 
-0.677822 0.26804 0.973 
-0.671869 0.281814 1.023 
-0.654526 0.292282 1.061 
-0.637039 0.304128 1.104 
-0.604842 0.310188 1.126 
-0.564924 0.312943 1.136 
-0.520549 0.313494 1.138 
-0.475179 0.313494 1.138 
-0.432831 0.315698 1.146 
-0.387818 0.316249 1.148 
-0.342943 0.317075 1.151 
-0.298087 0.318177 1.155 
-0.252695 0.319004 1.158 
-0.207241 0.320106 1.162 
-0.161884 0.322034 1.169 
-0.115475 0.322585 1.171 
-0.0688488 0.32286 1.172 
-0.0221425 0.323136 1.173 
0.0247275 0.324513 1.178 
0.0718745 0.32534 1.181 
0.119059 0.325615 1.182 
0.166324 0.325891 1.183 
0.214029 0.326717 1.186 
0.261973 0.327543 1.189 
0.309897 0.328094 1.191 
0.357379 0.328094 1.191 
0.403162 0.326717 1.186 
0.445128 0.32286 1.172 
0.475487 0.312117 1.133 
0.50779 0.304403 1.105 
0.53836 0.296965 1.078 
0.567856 0.290078 1.053 
0.592462 0.281814 1.023 
0.620248 0.276029 1.002 
0.643724 0.269142 0.977 
0.668001 0.263357 0.956 
0.686911 0.256195 0.93 
0.706083 0.249859 0.907 
0.727513 0.2449 0.889 
0.748366 0.240217 0.872 
0.763373 0.234156 0.85 
0.783191 0.230024 0.835 
0.803769 0.226443 0.822 
-0.69307 0.240039 0.864 
-0.69064 0.251708 0.906 
-0.685585 0.263654 0.949 
-0.670274 0.272822 0.982 
-0.662616 0.286436 1.031 
-0.651051 0.300049 1.08 
-0.624882 0.308384 1.11 
-0.59266 0.314774 1.133 
-0.548456 0.315329 1.135 
-0.504092 0.315885 1.137 
-0.460376 0.316996 1.141 
-0.416705 0.318385 1.146 
-0.371664 0.318941 1.148 
-0.327031 0.320052 1.152 
-0.281835 0.320886 1.155 
-0.237013 0.322553 1.161 
-0.191383 0.323664 1.165 
-0.145435 0.324775 1.169 
-0.0990828 0.325609 1.172 
-0.0523576 0.325609 1.172 
-0.00564199 0.326165 1.174 
0.0413383 0.327554 1.179 
0.0885673 0.328387 1.182 
0.135691 0.328387 1.182 
0.183434 0.329498 1.186 
0.230717 0.329498 1.186 
0.278704 0.330332 1.189 
0.327478 0.331721 1.194 
0.37351 0.330332 1.189 
0.416665 0.326998 1.177 
0.452167 0.318941 1.148 
0.481887 0.308662 1.111 
0.517181 0.303383 1.092 
0.543772 0.294215 1.059 
0.572159 0.287269 1.034 
0.598552 0.280324 1.009 
0.628016 0.275601 0.992 
0.650069 0.268377 0.966 
0.673612 0.262543 0.945 
0.690965 0.255042 0.918 
0.708542 0.248374 0.894 
0.73253 0.244484 0.88 
0.751913 0.239484 0.862 
0.768948 0.234205 0.843 
0.789228 0.230316 0.829 
0.813352 0.227815 0.82 
-0.691158 0.245708 0.877 
-0.68313 0.255794 0.913 
-0.67719 0.267841 0.956 
-0.671832 0.281569 1.005 
-0.658795 0.293617 1.048 
-0.643508 0.306224 1.093 
-0.612008 0.312388 1.115 
-0.578244 0.318271 1.136 
-0.533893 0.318832 1.138 
-0.487664 0.318271 1.136 
-0.4451 0.320233 1.143 
-0.400929 0.321353 1.147 
-0.35644 0.322474 1.151 
-0.31217 0.324155 1.157 
-0.266043 0.324155 1.157 
-0.220866 0.325556 1.162 
-0.175441 0.327237 1.168 
-0.129096 0.327797 1.17 
-0.0825915 0.328357 1.172 
-0.0358969 0.328638 1.173 
0.0108959 0.329478 1.176 
0.0580263 0.330879 1.181 
0.105288 0.331439 1.183 
0.152323 0.331159 1.182 
0.20046 0.33284 1.188 
0.247823 0.33284 1.188 
0.295434 0.33312 1.189 
0.343414 0.333681 1.191 
0.389255 0.33228 1.186 
0.431386 0.328357 1.172 
0.461793 0.317151 1.132 
0.491698 0.307625 1.098 
0.526207 0.302302 1.079 
0.557091 0.295858 1.056 
0.579899 0.286332 1.022 
0.607891 0.280449 1.001 
0.632268 0.273725 0.977 
0.656104 0.267561 0.955 
0.676006 0.260557 0.93 
0.696214 0.254393 0.908 
0.716282 0.24879 0.888 
0.736448 0.243747 0.87 
0.754292 0.238423 0.851 
0.7734 0.233941 0.835 
0.79413 0.230298 0.822 
-0.69669 0.241832 0.856 
-0.691202 0.252285 0.893 
-0.684232 0.263303 0.932 
-0.674846 0.274603 0.972 
-0.66947 0.289011 1.023 
-0.652038 0.299747 1.061 
-0.63445 0.311895 1.104 
-0.602736 0.318393 1.127 
-0.562259 0.320935 1.136 
-0.518335 0.321783 1.139 
-0.472925 0.321783 1.139 
-0.430518 0.324043 1.147 
-0.385461 0.324608 1.149 
-0.340539 0.325456 1.152 
-0.29589 0.326868 1.157 
-0.250195 0.327433 1.159 
-0.203988 0.327433 1.159 
-0.159278 0.330541 1.17 
-0.112826 0.331106 1.172 
-0.0661567 0.331389 1.173 
-0.0194082 0.331671 1.174 
0.0275135 0.333084 1.179 
0.0747074 0.333931 1.182 
0.121934 0.334214 1.183 
0.169384 0.334779 1.185 
0.21681 0.335061 1.186 
0.265207 0.336474 1.191 
0.31269 0.336474 1.191 
0.359568 0.335909 1.189 
0.402521 0.332236 1.176 
0.440234 0.325456 1.152 
0.469281 0.314155 1.112 
0.500682 0.306245 1.084 
0.532358 0.299747 1.061 
0.565992 0.295227 1.045 
0.586721 0.285056 1.009 
0.617006 0.280536 0.993 
0.638741 0.272908 0.966 
0.664634 0.267823 0.948 
0.679459 0.259065 0.917 
0.696497 0.252002 0.892 
0.718929 0.247482 0.876 
0.740084 0.242962 0.86 
0.757262 0.237594 0.841 
0.781388 0.234769 0.831 
0.800796 0.230814 0.817 
-0.695912 0.244979 0.86 
-0.69086 0.255803 0.898 
-0.681319 0.266058 0.934 
-0.671667 0.277452 0.974 
-0.665322 0.291695 1.024 
-0.651941 0.304514 1.069 
-0.630981 0.315339 1.107 
-0.59851 0.321606 1.129 
-0.556931 0.3236 1.136 
-0.512993 0.324454 1.139 
-0.467993 0.324739 1.14 
-0.424768 0.326448 1.146 
-0.380072 0.327303 1.149 
-0.335136 0.328157 1.152 
-0.290464 0.329582 1.157 
-0.245181 0.330721 1.161 
-0.198894 0.330721 1.161 
-0.153791 0.333285 1.17 
-0.10742 0.334139 1.173 
-0.0606549 0.334139 1.173 
-0.0139135 0.334709 1.175 
0.0330434 0.335848 1.179 
0.0802514 0.336703 1.182 
0.127483 0.336988 1.183 
0.17509 0.337843 1.186 
0.222373 0.337843 1.186 
0.270793 0.339267 1.191 
0.318543 0.339552 1.192 
0.364223 0.337843 1.186 
0.406649 0.333854 1.172 
0.441382 0.325024 1.141 
0.47279 0.315624 1.108 
0.503433 0.307363 1.079 
0.53379 0.300241 1.054 
0.562699 0.293405 1.03 
0.588522 0.285998 1.004 
0.614777 0.279731 0.982 
0.637279 0.27261 0.957 
0.662023 0.267198 0.938 
0.679287 0.259506 0.911 
0.698325 0.253239 0.889 
0.71891 0.248112 0.871 
0.738926 0.243269 0.854 
0.758491 0.238712 0.838 
0.779616 0.235008 0.825 
0.799704 0.231305 0.812 
-0.697122 0.248144 0.864 
-0.690288 0.258484 0.9 
-0.679856 0.268536 0.935 
-0.669382 0.279737 0.974 
-0.66292 0.294097 1.024 
-0.651864 0.30817 1.073 
-0.628385 0.317935 1.107 
-0.595863 0.324253 1.129 
-0.554267 0.326264 1.136 
-0.510321 0.327125 1.139 
-0.46532 0.327413 1.14 
-0.422449 0.329423 1.147 
-0.377377 0.329997 1.149 
-0.332435 0.330859 1.152 
-0.28775 0.332295 1.157 
-0.242667 0.333731 1.162 
-0.195834 0.332869 1.159 
-0.151047 0.336029 1.17 
-0.104669 0.33689 1.173 
-0.0579534 0.337177 1.174 
-0.0111674 0.337752 1.176 
0.0358691 0.339188 1.181 
0.0830233 0.339475 1.182 
0.130257 0.339762 1.183 
0.177871 0.340624 1.186 
0.225534 0.341198 1.188 
0.273586 0.34206 1.191 
0.321339 0.342347 1.192 
0.366076 0.339762 1.183 
0.407651 0.335167 1.167 
0.442112 0.326264 1.136 
0.473243 0.316786 1.103 
0.504088 0.308744 1.075 
0.534735 0.301851 1.051 
0.562371 0.294384 1.025 
0.589111 0.287491 1.001 
0.613938 0.280598 0.977 
0.637519 0.273993 0.954 
0.659974 0.267674 0.932 
0.679927 0.261068 0.909 
0.698834 0.25475 0.887 
0.719298 0.24958 0.869 
0.738326 0.244411 0.851 
0.759549 0.24039 0.837 
0.777761 0.235794 0.821 
0.796672 0.231774 0.807 
-0.697122 0.25017 0.864 
-0.689521 0.260305 0.899 
-0.678402 0.270149 0.933 
-0.668695 0.281731 0.973 
-0.66292 0.296498 1.024 
-0.651256 0.310397 1.072 
-0.628385 0.320531 1.107 
-0.594279 0.326032 1.126 
-0.554267 0.328928 1.136 
-0.510769 0.330086 1.14 
-0.465728 0.330376 1.141 
-0.422449 0.332113 1.147 
-0.377377 0.332692 1.149 
-0.332435 0.333561 1.152 
-0.287999 0.335298 1.158 
-0.242667 0.336456 1.162 
-0.195665 0.335298 1.158 
-0.151047 0.338772 1.17 
-0.104669 0.339641 1.173 
-0.0580028 0.34022 1.175 
-0.0111769 0.340799 1.177 
0.0358691 0.341958 1.181 
0.0830233 0.342247 1.182 
0.130478 0.343116 1.185 
0.177871 0.343405 1.186 
0.225534 0.343984 1.188 
0.273586 0.344853 1.191 
0.321339 0.345143 1.192 
0.365767 0.342247 1.182 
0.405555 0.336167 1.161 
0.439777 0.32719 1.13 
0.471527 0.318215 1.099 
0.500805 0.309238 1.068 
0.533717 0.303737 1.049 
0.561274 0.296209 1.023 
0.587934 0.28926 0.999 
0.612053 0.282021 0.974 
0.636182 0.275651 0.952 
0.658558 0.269281 0.93 
0.677683 0.262332 0.906 
0.695682 0.255672 0.883 
0.716814 0.25075 0.866 
0.737458 0.246117 0.85 
0.758642 0.242063 0.836 
0.775867 0.237141 0.819 
0.792723 0.232508 0.803 
-0.697122 0.252197 0.864 
-0.689521 0.262413 0.899 
-0.677675 0.272045 0.932 
-0.668008 0.283721 0.972 
-0.662273 0.298608 1.023 
-0.651256 0.312911 1.072 
-0.628385 0.323127 1.107 
-0.594279 0.328673 1.126 
-0.554755 0.331884 1.137 
-0.510321 0.332468 1.139 
-0.466136 0.333343 1.142 
-0.422449 0.334803 1.147 
-0.377377 0.335387 1.149 
-0.332435 0.336262 1.152 
-0.287999 0.338014 1.158 
-0.242667 0.339181 1.162 
-0.195665 0.338014 1.158 
-0.151047 0.341516 1.17 
-0.104758 0.342684 1.174 
-0.0580028 0.342976 1.175 
-0.0111769 0.34356 1.177 
0.0358691 0.344727 1.181 
0.0830233 0.345019 1.182 
0.130478 0.345895 1.185 
0.178171 0.34677 1.188 
0.225724 0.347062 1.189 
0.273586 0.347646 1.191 
0.321069 0.347646 1.191 
0.364838 0.344143 1.179 
0.403459 0.337138 1.155 
0.437053 0.327797 1.123 
0.469811 0.319624 1.095 
0.497523 0.3097 1.061 
0.5327 0.305613 1.047 
0.559628 0.297732 1.02 
0.587346 0.291311 0.998 
0.610796 0.283721 0.972 
0.634177 0.277008 0.949 
0.657141 0.270878 0.928 
0.675439 0.263581 0.903 
0.693319 0.256867 0.88 
0.713504 0.251613 0.862 
0.735723 0.247526 0.848 
0.757734 0.243732 0.835 
0.773972 0.238478 0.817 
0.789762 0.233515 0.8 
-0.698736 0.254811 0.866 
-0.687987 0.263933 0.897 
-0.677675 0.274231 0.932 
-0.667321 0.285707 0.971 
-0.660519 0.301301 1.024 
-0.650558 0.316307 1.075 
-0.626355 0.326017 1.108 
-0.592164 0.331608 1.127 
-0.552089 0.33455 1.137 
-0.508096 0.335433 1.14 
-0.463458 0.336021 1.142 
-0.419759 0.337493 1.147 
-0.374682 0.338081 1.149 
-0.330305 0.339552 1.154 
-0.28553 0.341024 1.159 
-0.239942 0.341906 1.162 
-0.192782 0.340435 1.157 
-0.14843 0.344554 1.171 
-0.102092 0.345731 1.175 
-0.0552472 0.345731 1.175 
-0.00842383 0.346614 1.178 
0.0386387 0.347497 1.181 
0.0858679 0.348085 1.183 
0.133369 0.348968 1.186 
0.180957 0.349557 1.188 
0.228512 0.349851 1.189 
0.276611 0.350733 1.192 
0.323318 0.349851 1.189 
0.366668 0.346026 1.176 
0.403354 0.337493 1.147 
0.436554 0.328077 1.115 
0.468496 0.319544 1.086 
0.497184 0.310423 1.055 
0.531577 0.306009 1.04 
0.558163 0.298065 1.013 
0.587914 0.292768 0.995 
0.608029 0.283647 0.964 
0.635062 0.278645 0.947 
0.653634 0.2707 0.92 
0.673805 0.264227 0.898 
0.692222 0.257754 0.876 
0.710545 0.251869 0.856 
0.733362 0.248044 0.843 
0.757873 0.245101 0.833 
0.77114 0.238922 0.812 
0.7857 0.233626 0.794 
-0.699119 0.257732 0.869 
-0.688177 0.266926 0.9 
-0.675489 0.276417 0.932 
-0.666413 0.288577 0.973 
-0.65459 0.304296 1.026 
-0.645985 0.320311 1.08 
-0.619676 0.329209 1.11 
-0.587864 0.336327 1.134 
-0.544568 0.337513 1.138 
-0.500075 0.338107 1.14 
-0.456221 0.339293 1.144 
-0.412407 0.340776 1.149 
-0.366599 0.340776 1.149 
-0.322466 0.342555 1.155 
-0.277854 0.344335 1.161 
-0.231767 0.344631 1.162 
-0.185281 0.344335 1.161 
-0.140191 0.347301 1.171 
-0.0937454 0.34819 1.174 
-0.0469805 0.348487 1.175 
-0.000136105 0.349673 1.179 
0.0469874 0.350563 1.182 
0.0943502 0.351453 1.185 
0.141594 0.351453 1.185 
0.189475 0.352639 1.189 
0.237276 0.353232 1.191 
0.284759 0.353232 1.191 
0.330847 0.351749 1.186 
0.373666 0.347597 1.172 
0.408555 0.33781 1.139 
0.442007 0.328912 1.109 
0.473068 0.320015 1.079 
0.502215 0.311414 1.05 
0.534749 0.306075 1.032 
0.559152 0.297178 1.002 
0.589533 0.292432 0.986 
0.608434 0.282942 0.954 
0.633593 0.277307 0.935 
0.653649 0.270189 0.911 
0.674821 0.264257 0.891 
0.694399 0.258325 0.871 
0.713219 0.25269 0.852 
0.733154 0.247945 0.836 
0.757316 0.244979 0.826 
0.767285 0.237861 0.802 
-0.710903 0.253791 0.849 
-0.696195 0.260966 0.873 
-0.686391 0.27083 0.906 
-0.674674 0.280994 0.94 
-0.662957 0.292353 0.978 
-0.65242 0.309093 1.034 
-0.641933 0.324638 1.086 
-0.612969 0.33241 1.112 
-0.581931 0.340182 1.138 
-0.537033 0.340481 1.139 
-0.492055 0.34078 1.14 
-0.449348 0.342873 1.147 
-0.404323 0.34347 1.149 
-0.359139 0.344068 1.151 
-0.31434 0.345264 1.155 
-0.269686 0.347058 1.161 
-0.224169 0.348253 1.165 
-0.178028 0.348851 1.167 
-0.131953 0.350047 1.171 
-0.0854857 0.350944 1.174 
-0.0387137 0.351243 1.175 
0.00817261 0.353036 1.181 
0.0553502 0.353634 1.183 
0.102687 0.354232 1.185 
0.150057 0.354531 1.186 
0.19784 0.355428 1.189 
0.245655 0.356025 1.191 
0.293138 0.356025 1.191 
0.337189 0.352438 1.179 
0.378327 0.347058 1.161 
0.414374 0.338687 1.133 
0.447782 0.330019 1.104 
0.477541 0.320453 1.072 
0.506205 0.311784 1.043 
0.537808 0.306104 1.024 
0.563941 0.298332 0.998 
0.591025 0.292054 0.977 
0.611922 0.283684 0.949 
0.636748 0.278005 0.93 
0.654987 0.270233 0.904 
0.677268 0.264852 0.886 
0.696505 0.258873 0.866 
0.715836 0.253493 0.848 
0.737268 0.249307 0.834 
0.755736 0.244525 0.818 
0.768109 0.238247 0.797 
-0.7041 0.255481 0.848 
-0.694795 0.264821 0.879 
-0.682269 0.273859 0.909 
-0.674457 0.28591 0.949 
-0.663455 0.297961 0.989 
-0.651881 0.312422 1.037 
-0.639975 0.327486 1.087 
-0.610361 0.335018 1.112 
-0.579262 0.342851 1.138 
-0.534831 0.343454 1.14 
-0.489381 0.343454 1.14 
-0.446658 0.345562 1.147 
-0.401628 0.346165 1.149 
-0.356749 0.347069 1.152 
-0.311631 0.347973 1.155 
-0.267193 0.350082 1.162 
-0.221437 0.350985 1.165 
-0.175441 0.351889 1.168 
-0.129317 0.353094 1.172 
-0.082662 0.353396 1.173 
-0.0359887 0.354299 1.176 
0.0109423 0.355806 1.181 
0.0581245 0.356408 1.183 
0.105466 0.357011 1.185 
0.152839 0.357312 1.186 
0.200628 0.358216 1.189 
0.248657 0.35912 1.192 
0.295186 0.357915 1.188 
0.339089 0.354299 1.176 
0.377768 0.346768 1.151 
0.412982 0.338031 1.122 
0.447515 0.330499 1.097 
0.476472 0.320557 1.064 
0.505237 0.312121 1.036 
0.537044 0.306698 1.018 
0.564579 0.299769 0.995 
0.590887 0.293141 0.973 
0.610264 0.284102 0.943 
0.635494 0.278679 0.925 
0.653472 0.270846 0.899 
0.677045 0.266026 0.883 
0.693696 0.259097 0.86 
0.712746 0.253674 0.842 
0.737451 0.250661 0.832 
0.753949 0.245238 0.814 
0.766114 0.238911 0.793 
-0.702939 0.257774 0.849 
-0.693522 0.267186 0.88 
-0.680885 0.276294 0.91 
-0.673648 0.288743 0.951 
-0.66381 0.301495 0.993 
-0.651881 0.314854 1.037 
-0.639386 0.329732 1.086 
-0.611459 0.338233 1.114 
-0.579771 0.345823 1.139 
-0.534831 0.346127 1.14 
-0.489811 0.346431 1.141 
-0.447047 0.348556 1.148 
-0.401628 0.34886 1.149 
-0.356749 0.34977 1.152 
-0.311631 0.350681 1.155 
-0.266963 0.352503 1.161 
-0.221437 0.353718 1.165 
-0.175441 0.354628 1.168 
-0.129317 0.355843 1.172 
-0.0827325 0.35645 1.174 
-0.0359887 0.357057 1.176 
0.0109515 0.358879 1.182 
0.0581245 0.359183 1.183 
0.105466 0.35979 1.185 
0.153096 0.360701 1.188 
0.200628 0.361004 1.189 
0.248657 0.361915 1.192 
0.294689 0.360094 1.186 
0.3388 0.356754 1.175 
0.375471 0.347341 1.144 
0.410773 0.33884 1.116 
0.44466 0.330946 1.09 
0.474233 0.321534 1.059 
0.502311 0.312729 1.03 
0.532824 0.306656 1.01 
0.561175 0.30028 0.989 
0.588458 0.294208 0.969 
0.607029 0.284796 0.938 
0.632058 0.279331 0.92 
0.650565 0.27174 0.895 
0.673978 0.266882 0.879 
0.689663 0.259595 0.855 
0.70936 0.254434 0.838 
0.734792 0.251701 0.829 
0.748392 0.245325 0.808 
0.762249 0.239556 0.789 
-0.70493 0.259765 0.849 
-0.693215 0.268332 0.877 
-0.682269 0.278123 0.909 
-0.673035 0.289749 0.947 
-0.661443 0.301682 0.986 
-0.650527 0.31545 1.031 
-0.64016 0.33136 1.083 
-0.614071 0.340845 1.114 
-0.582442 0.348495 1.139 
-0.537504 0.348801 1.14 
-0.492487 0.349106 1.141 
-0.44974 0.351248 1.148 
-0.405027 0.352166 1.151 
-0.359451 0.352472 1.152 
-0.31434 0.35339 1.155 
-0.269686 0.355226 1.161 
-0.224361 0.356756 1.166 
-0.177723 0.35645 1.165 
-0.132065 0.358591 1.172 
-0.0854857 0.359203 1.174 
-0.0387467 0.359815 1.176 
0.00817953 0.361651 1.182 
0.0553502 0.361957 1.183 
0.102687 0.362569 1.185 
0.15031 0.363487 1.188 
0.19784 0.363793 1.189 
0.245862 0.364711 1.192 
0.291907 0.362875 1.186 
0.335473 0.358897 1.173 
0.37181 0.349106 1.141 
0.407059 0.340539 1.113 
0.440481 0.332278 1.086 
0.470413 0.323099 1.056 
0.498439 0.314226 1.027 
0.527829 0.307495 1.005 
0.555465 0.300764 0.983 
0.584371 0.295563 0.966 
0.603539 0.286384 0.936 
0.626477 0.279958 0.915 
0.647741 0.273533 0.894 
0.670388 0.268332 0.877 
0.686854 0.261294 0.854 
0.705706 0.255787 0.836 
0.73108 0.253033 0.827 
0.743725 0.246302 0.805 
0.759435 0.241101 0.788 
-0.703767 0.262064 0.85 
-0.691158 0.270388 0.877 
-0.680137 0.280254 0.909 
-0.672231 0.292587 0.949 
-0.662473 0.305536 0.991 
-0.651252 0.31941 1.036 
-0.639386 0.334825 1.086 
-0.612556 0.344075 1.116 
-0.58028 0.351474 1.14 
-0.534831 0.351474 1.14 
-0.49024 0.352091 1.142 
-0.447047 0.35394 1.148 
-0.402328 0.354865 1.151 
-0.356749 0.355174 1.152 
-0.311631 0.356099 1.155 
-0.266963 0.357949 1.161 
-0.221627 0.35949 1.166 
-0.175291 0.359798 1.167 
-0.129317 0.36134 1.172 
-0.082803 0.362265 1.175 
-0.0360194 0.362881 1.177 
0.0109608 0.364731 1.183 
0.0582228 0.365348 1.185 
0.105733 0.366273 1.188 
0.153096 0.366273 1.188 
0.200628 0.366581 1.189 
0.248657 0.367506 1.192 
0.293943 0.364731 1.183 
0.337647 0.361032 1.171 
0.372845 0.350241 1.136 
0.407461 0.3413 1.107 
0.440988 0.333284 1.081 
0.470651 0.324034 1.051 
0.499872 0.316018 1.025 
0.527021 0.308002 0.999 
0.554366 0.301219 0.977 
0.581778 0.295361 0.958 
0.603146 0.287345 0.932 
0.625875 0.280871 0.911 
0.647657 0.274705 0.891 
0.669378 0.269155 0.873 
0.686437 0.262372 0.851 
0.705128 0.256823 0.833 
0.728588 0.253431 0.822 
0.741908 0.246957 0.801 
0.759351 0.242332 0.786 
-0.70225 0.264989 0.853 
-0.688611 0.273066 0.879 
-0.67736 0.283007 0.911 
-0.669187 0.295434 0.951 
-0.661808 0.309724 0.997 
-0.651384 0.324325 1.044 
-0.639549 0.340168 1.095 
-0.611131 0.348866 1.123 
-0.574933 0.354147 1.14 
-0.529948 0.354458 1.141 
-0.485308 0.355079 1.143 
-0.442047 0.356943 1.149 
-0.396929 0.357565 1.151 
-0.352261 0.358807 1.155 
-0.306744 0.359429 1.157 
-0.262419 0.361914 1.165 
-0.215972 0.361914 1.165 
-0.170399 0.363778 1.171 
-0.12382 0.364088 1.172 
-0.0772918 0.36502 1.175 
-0.0304988 0.365642 1.177 
0.0165095 0.367506 1.183 
0.0637809 0.368127 1.185 
0.111305 0.369059 1.188 
0.158802 0.36937 1.189 
0.206552 0.369991 1.191 
0.254248 0.370302 1.192 
0.298479 0.366263 1.179 
0.340209 0.360671 1.161 
0.374511 0.349488 1.125 
0.408925 0.340789 1.097 
0.443995 0.334266 1.076 
0.473318 0.324946 1.046 
0.502218 0.316869 1.02 
0.527448 0.30786 0.991 
0.557232 0.302579 0.974 
0.5826 0.295744 0.952 
0.604258 0.287978 0.927 
0.628073 0.282075 0.908 
0.649642 0.275862 0.888 
0.670387 0.26996 0.869 
0.684749 0.262193 0.844 
0.70563 0.257534 0.829 
0.72977 0.254427 0.819 
0.742872 0.247903 0.798 
0.759154 0.242933 0.782 
-0.70225 0.26699 0.853 
-0.687044 0.274502 0.877 
-0.67736 0.285144 0.911 
-0.669187 0.297664 0.951 
-0.661144 0.311749 0.996 
-0.650136 0.326147 1.042 
-0.638381 0.34211 1.093 
-0.613308 0.352752 1.127 
-0.575438 0.357134 1.141 
-0.530413 0.357447 1.142 
-0.485733 0.358073 1.144 
-0.442047 0.359638 1.149 
-0.397274 0.360577 1.152 
-0.352261 0.361516 1.155 
-0.306744 0.362142 1.157 
-0.262419 0.364646 1.165 
-0.216158 0.364959 1.166 
-0.170254 0.366211 1.17 
-0.12382 0.366837 1.172 
-0.0772918 0.367776 1.175 
-0.0305247 0.368715 1.178 
0.0165095 0.37028 1.183 
0.0638347 0.371219 1.186 
0.111305 0.371845 1.188 
0.158802 0.372158 1.189 
0.206552 0.372784 1.191 
0.254035 0.372784 1.191 
0.29772 0.368089 1.176 
0.338158 0.361203 1.154 
0.371515 0.349309 1.116 
0.405943 0.340858 1.089 
0.441519 0.334911 1.07 
0.470603 0.325521 1.04 
0.499264 0.317383 1.014 
0.522658 0.307367 0.982 
0.554943 0.303611 0.97 
0.580764 0.297038 0.949 
0.601651 0.2889 0.923 
0.62669 0.283579 0.906 
0.647447 0.277006 0.885 
0.668072 0.271059 0.866 
0.680692 0.262608 0.839 
0.701374 0.257913 0.824 
0.728879 0.256035 0.818 
0.74008 0.248836 0.795 
0.757213 0.244141 0.78 
-0.701071 0.269305 0.854 
-0.68655 0.277189 0.879 
-0.675224 0.28728 0.911 
-0.667658 0.300209 0.952 
-0.65947 0.3144 0.997 
-0.648936 0.329221 1.044 
-0.637563 0.345619 1.096 
-0.613916 0.357287 1.133 
-0.573264 0.360125 1.142 
-0.527735 0.360125 1.142 
-0.48305 0.360756 1.144 
-0.440118 0.362963 1.151 
-0.39423 0.362963 1.151 
-0.349552 0.364225 1.155 
-0.30403 0.364855 1.157 
-0.259909 0.367693 1.166 
-0.21324 0.367378 1.165 
-0.167653 0.36927 1.171 
-0.121174 0.369901 1.173 
-0.0745997 0.370847 1.176 
-0.0277621 0.371478 1.178 
0.0192675 0.372739 1.182 
0.0666161 0.374 1.186 
0.114188 0.374946 1.189 
0.161862 0.375577 1.191 
0.208993 0.374946 1.189 
0.256181 0.374631 1.188 
0.299967 0.370216 1.174 
0.337615 0.36044 1.143 
0.372792 0.350665 1.112 
0.405871 0.341204 1.082 
0.440294 0.334582 1.061 
0.468948 0.325122 1.031 
0.499168 0.318184 1.009 
0.522288 0.308093 0.977 
0.554346 0.304309 0.965 
0.580532 0.298002 0.945 
0.598582 0.288542 0.915 
0.625344 0.284127 0.901 
0.645853 0.277505 0.88 
0.665461 0.271198 0.86 
0.679406 0.263314 0.835 
0.699892 0.258584 0.82 
0.728117 0.257007 0.815 
0.738211 0.249439 0.791 
0.754176 0.244393 0.775 
-0.698318 0.272579 0.858 
-0.685784 0.281474 0.886 
-0.673954 0.291641 0.918 
-0.662349 0.303077 0.954 
-0.655727 0.318327 1.002 
-0.644663 0.333258 1.049 
-0.635024 0.351049 1.105 
-0.608619 0.361533 1.138 
-0.565229 0.362803 1.142 
-0.520155 0.363121 1.143 
-0.475832 0.364074 1.146 
-0.43202 0.365663 1.151 
-0.386132 0.365663 1.151 
-0.342017 0.367569 1.157 
-0.296913 0.368839 1.161 
-0.252138 0.371063 1.168 
-0.203988 0.368204 1.159 
-0.159551 0.372334 1.172 
-0.112922 0.372652 1.173 
-0.0663259 0.373605 1.176 
-0.0195239 0.375193 1.181 
0.0276068 0.375829 1.183 
0.0749602 0.376782 1.186 
0.122553 0.377735 1.189 
0.170242 0.37837 1.191 
0.217359 0.377735 1.189 
0.263426 0.375829 1.183 
0.306914 0.371381 1.169 
0.342633 0.359944 1.133 
0.378904 0.351684 1.107 
0.411955 0.342471 1.078 
0.444804 0.334846 1.054 
0.472969 0.325316 1.024 
0.503257 0.318644 1.003 
0.526454 0.308796 0.972 
0.556483 0.30403 0.957 
0.580967 0.297041 0.935 
0.601052 0.288781 0.909 
0.625373 0.283381 0.892 
0.646116 0.277027 0.872 
0.666826 0.271308 0.854 
0.682818 0.264319 0.832 
0.70394 0.259871 0.818 
0.724847 0.255741 0.805 
0.740015 0.250023 0.787 
0.755708 0.24494 0.771 
-0.697081 0.278112 0.869 
-0.679206 0.285152 0.891 
-0.671858 0.297634 0.93 
-0.662084 0.310435 0.97 
-0.652976 0.325157 1.016 
-0.639597 0.339559 1.061 
-0.626571 0.3562 1.113 
-0.596321 0.364841 1.14 
-0.551838 0.365482 1.142 
-0.507639 0.366442 1.145 
-0.462797 0.367082 1.147 
-0.418523 0.368362 1.151 
-0.372959 0.368682 1.152 
-0.328735 0.370602 1.158 
-0.283543 0.371882 1.162 
-0.238646 0.374123 1.169 
-0.188591 0.367402 1.148 
-0.145808 0.375083 1.172 
-0.0993364 0.376043 1.175 
-0.052581 0.376683 1.177 
-0.00568044 0.378283 1.182 
0.0414785 0.378603 1.183 
0.0890169 0.380203 1.188 
0.136495 0.380523 1.189 
0.184207 0.381163 1.191 
0.231301 0.380523 1.189 
0.275891 0.376683 1.177 
0.315684 0.368362 1.151 
0.349635 0.3562 1.113 
0.38445 0.34756 1.086 
0.421051 0.342119 1.069 
0.453694 0.334758 1.046 
0.479766 0.324197 1.013 
0.51245 0.319396 0.998 
0.533425 0.308515 0.964 
0.564146 0.304355 0.951 
0.588132 0.297314 0.929 
0.607 0.288673 0.902 
0.632269 0.283872 0.887 
0.65032 0.276511 0.864 
0.668914 0.270111 0.844 
0.685082 0.26339 0.823 
0.708298 0.25987 0.812 
0.726077 0.254749 0.796 
0.743531 0.249948 0.781 
0.761773 0.245788 0.768 
-0.688472 0.280794 0.871 
-0.677765 0.291111 0.903 
-0.665218 0.301749 0.936 
-0.657418 0.315934 0.98 
-0.647372 0.330763 1.026 
-0.637796 0.34785 1.079 
-0.625096 0.365581 1.134 
-0.583977 0.36816 1.142 
-0.538447 0.36816 1.142 
-0.494645 0.369449 1.146 
-0.450131 0.370416 1.149 
-0.405027 0.371061 1.151 
-0.360387 0.372351 1.155 
-0.314884 0.372995 1.157 
-0.269918 0.374607 1.162 
-0.224746 0.376542 1.168 
-0.176502 0.372995 1.157 
-0.132065 0.377831 1.172 
-0.0856314 0.379121 1.176 
-0.0388126 0.379765 1.178 
0.00818645 0.381377 1.183 
0.0554906 0.382345 1.186 
0.103034 0.383312 1.189 
0.150437 0.383312 1.189 
0.198173 0.383956 1.191 
0.244005 0.381377 1.183 
0.287477 0.376542 1.168 
0.325463 0.36687 1.138 
0.360079 0.356232 1.105 
0.393527 0.346883 1.076 
0.427096 0.339468 1.053 
0.45794 0.331408 1.028 
0.486306 0.323026 1.002 
0.511548 0.314 0.974 
0.540208 0.308197 0.956 
0.566223 0.301749 0.936 
0.589354 0.294657 0.914 
0.612099 0.288209 0.894 
0.63325 0.281761 0.874 
0.652807 0.275314 0.854 
0.669964 0.268544 0.833 
0.690512 0.263708 0.818 
0.711632 0.259517 0.805 
0.727095 0.253714 0.787 
0.744015 0.248879 0.772 
-0.697881 0.277641 0.855 
-0.684756 0.286409 0.882 
-0.672424 0.296475 0.913 
-0.663193 0.30914 0.952 
-0.656107 0.324402 0.999 
-0.643422 0.33869 1.043 
-0.635308 0.357524 1.101 
-0.612362 0.370188 1.14 
-0.568405 0.371163 1.143 
-0.522836 0.371163 1.143 
-0.478937 0.372462 1.147 
-0.434719 0.37376 1.151 
-0.388831 0.37376 1.151 
-0.344731 0.375709 1.157 
-0.299636 0.377008 1.161 
-0.255095 0.379606 1.169 
-0.207776 0.378307 1.165 
-0.162161 0.380255 1.171 
-0.115771 0.381229 1.174 
-0.0691426 0.382203 1.177 
-0.0222935 0.383502 1.181 
0.0248325 0.384152 1.183 
0.0723005 0.385775 1.188 
0.119764 0.3861 1.189 
0.167449 0.38675 1.191 
0.21457 0.3861 1.189 
0.258889 0.381554 1.175 
0.298188 0.372137 1.146 
0.334574 0.36207 1.115 
0.369169 0.352653 1.086 
0.40297 0.344535 1.061 
0.437297 0.338365 1.042 
0.466891 0.329922 1.016 
0.498907 0.324402 0.999 
0.517164 0.311413 0.959 
0.549606 0.308166 0.949 
0.57506 0.301671 0.929 
0.595626 0.293553 0.904 
0.620486 0.288357 0.888 
0.638162 0.280564 0.864 
0.658596 0.274719 0.846 
0.673502 0.26725 0.823 
0.696014 0.263353 0.811 
0.716672 0.259132 0.798 
0.73348 0.253936 0.782 
0.749011 0.248741 0.766 
-0.693443 0.283571 0.867 
-0.677117 0.291421 0.891 
-0.668957 0.30385 0.929 
-0.661849 0.318241 0.973 
-0.651874 0.332959 1.018 
-0.63831 0.347677 1.063 
-0.629006 0.366975 1.122 
-0.594689 0.373516 1.142 
-0.549641 0.373843 1.143 
-0.506277 0.375479 1.148 
-0.460509 0.375479 1.148 
-0.416185 0.376787 1.152 
-0.3709 0.377441 1.154 
-0.326019 0.378749 1.158 
-0.280818 0.380058 1.162 
-0.235904 0.382347 1.169 
-0.186384 0.37646 1.151 
-0.143059 0.383328 1.172 
-0.096663 0.384637 1.176 
-0.049863 0.385291 1.178 
-0.00291091 0.386926 1.183 
0.0443277 0.38758 1.185 
0.0918803 0.388888 1.189 
0.139283 0.388888 1.189 
0.187 0.389543 1.191 
0.233302 0.38758 1.185 
0.27581 0.381039 1.165 
0.313681 0.3709 1.134 
0.349397 0.361087 1.104 
0.383077 0.351602 1.075 
0.41603 0.343425 1.05 
0.447861 0.335903 1.027 
0.476906 0.327726 1.002 
0.503959 0.319549 0.977 
0.529573 0.3117 0.953 
0.557443 0.306139 0.936 
0.580144 0.298617 0.913 
0.602362 0.291748 0.892 
0.625052 0.285861 0.874 
0.644041 0.278992 0.853 
0.662945 0.272778 0.834 
0.682004 0.267218 0.817 
0.701456 0.262312 0.802 
0.718798 0.257078 0.786 
0.735819 0.252172 0.771 
0.755621 0.248575 0.76 
-0.686429 0.286922 0.871 
-0.676396 0.297793 0.904 
-0.663023 0.308334 0.936 
-0.657794 0.324146 0.984 
-0.644966 0.337982 1.026 
-0.635265 0.355441 1.079 
-0.62573 0.375535 1.14 
-0.581298 0.376194 1.142 
-0.536238 0.376524 1.143 
-0.492816 0.378171 1.148 
-0.448216 0.379159 1.151 
-0.402328 0.379159 1.151 
-0.358298 0.381136 1.157 
-0.31271 0.381794 1.159 
-0.268113 0.3841 1.166 
-0.222197 0.385089 1.169 
-0.173939 0.381465 1.158 
-0.129317 0.386077 1.172 
-0.0829439 0.387724 1.177 
-0.0360806 0.388383 1.179 
0.0109793 0.390359 1.185 
0.0583702 0.391347 1.188 
0.105822 0.391677 1.189 
0.153483 0.392336 1.191 
0.200628 0.391677 1.189 
0.244902 0.386736 1.174 
0.283756 0.376194 1.142 
0.321212 0.366971 1.114 
0.356435 0.357747 1.086 
0.391265 0.35017 1.063 
0.420183 0.3393 1.03 
0.454977 0.334688 1.016 
0.486217 0.328429 0.997 
0.505919 0.315911 0.959 
0.537343 0.311958 0.947 
0.564774 0.306358 0.93 
0.584378 0.297464 0.903 
0.609387 0.292193 0.887 
0.629485 0.285275 0.866 
0.650209 0.279346 0.848 
0.663045 0.270781 0.822 
0.686505 0.267157 0.811 
0.707315 0.262875 0.798 
0.723384 0.257275 0.781 
0.740029 0.252333 0.766 
-0.697881 0.283657 0.855 
-0.682427 0.291619 0.879 
-0.670951 0.302235 0.911 
-0.6618 0.315174 0.95 
-0.65545 0.331099 0.998 
-0.639721 0.344037 1.037 
-0.635308 0.36527 1.101 
-0.613437 0.378872 1.142 
-0.568405 0.379204 1.143 
-0.52375 0.379868 1.145 
-0.479354 0.380863 1.148 
-0.435097 0.38219 1.152 
-0.388831 0.381858 1.151 
-0.344731 0.383849 1.157 
-0.299636 0.385176 1.161 
-0.255095 0.38783 1.169 
-0.208133 0.387167 1.167 
-0.162161 0.388494 1.171 
-0.11587 0.389821 1.175 
-0.0692013 0.390816 1.178 
-0.0223124 0.392143 1.182 
0.0248745 0.393138 1.185 
0.0723005 0.394134 1.188 
0.119764 0.394465 1.189 
0.167449 0.395129 1.191 
0.214029 0.39347 1.186 
0.256024 0.385508 1.162 
0.294545 0.375555 1.132 
0.332174 0.367261 1.107 
0.36577 0.356976 1.076 
0.399172 0.348682 1.051 
0.430162 0.340056 1.025 
0.460917 0.332758 1.003 
0.493913 0.328113 0.989 
0.513389 0.315838 0.952 
0.542077 0.310529 0.936 
0.567013 0.303894 0.916 
0.589037 0.296595 0.894 
0.612101 0.290624 0.876 
0.630776 0.283325 0.854 
0.651589 0.277685 0.837 
0.66941 0.271381 0.818 
0.68829 0.266073 0.802 
0.706793 0.261097 0.787 
0.7241 0.25612 0.772 
0.741189 0.251476 0.758 
-0.69307 0.288669 0.864 
-0.677681 0.297022 0.889 
-0.668246 0.309049 0.925 
-0.662084 0.324084 0.97 
-0.649762 0.337783 1.011 
-0.635377 0.352149 1.054 
-0.633889 0.376205 1.126 
-0.597367 0.381551 1.142 
-0.552805 0.382219 1.144 
-0.508969 0.383555 1.148 
-0.463604 0.383889 1.149 
-0.419614 0.38556 1.154 
-0.373607 0.38556 1.154 
-0.328451 0.386562 1.157 
-0.28452 0.389569 1.166 
-0.238646 0.390572 1.169 
-0.190233 0.386896 1.158 
-0.145684 0.39124 1.171 
-0.099421 0.39291 1.176 
-0.0526256 0.393579 1.178 
-0.00568524 0.395249 1.183 
0.0415486 0.395917 1.185 
0.0890918 0.397254 1.189 
0.136495 0.397254 1.189 
0.183898 0.397254 1.189 
0.228772 0.39291 1.176 
0.267921 0.381885 1.143 
0.305811 0.37253 1.115 
0.342096 0.363843 1.089 
0.3756 0.354488 1.061 
0.406477 0.344799 1.032 
0.441549 0.340121 1.018 
0.471241 0.332437 0.995 
0.498586 0.324418 0.971 
0.522911 0.315731 0.945 
0.551688 0.31072 0.93 
0.573571 0.302701 0.906 
0.597579 0.296687 0.888 
0.618725 0.290005 0.868 
0.636771 0.282655 0.846 
0.655441 0.276307 0.827 
0.675926 0.271295 0.812 
0.693469 0.265615 0.795 
0.71057 0.26027 0.779 
0.728299 0.255592 0.765 
0.747887 0.251917 0.754 
-0.684387 0.29305 0.871 
-0.67353 0.303817 0.903 
-0.660827 0.31492 0.936 
-0.658817 0.332752 0.989 
-0.643186 0.345537 1.027 
-0.633908 0.363705 1.081 
-0.624149 0.384229 1.142 
-0.579127 0.384565 1.143 
-0.534491 0.385238 1.145 
-0.49055 0.386584 1.149 
-0.445903 0.387593 1.152 
-0.399628 0.387257 1.151 
-0.355584 0.389276 1.157 
-0.309725 0.389612 1.158 
-0.265606 0.39264 1.167 
-0.219455 0.393313 1.169 
-0.171667 0.390621 1.161 
-0.126676 0.394659 1.173 
-0.0802518 0.396341 1.178 
-0.0333156 0.396678 1.179 
0.01377 0.399033 1.186 
0.0611563 0.399706 1.188 
0.108611 0.400042 1.189 
0.156276 0.400715 1.191 
0.20239 0.398023 1.183 
0.24428 0.389612 1.158 
0.282421 0.378846 1.126 
0.320627 0.371107 1.103 
0.355345 0.361687 1.075 
0.389313 0.353612 1.051 
0.418495 0.343182 1.02 
0.451058 0.337126 1.002 
0.480715 0.33006 0.981 
0.504459 0.320303 0.952 
0.531018 0.313574 0.932 
0.560249 0.3092 0.919 
0.579352 0.300116 0.892 
