# .PCD v.7 - Point Cloud Data file format
VERSION .7
FIELDS x y z
SIZE 4 4 4
TYPE F F F
COUNT 1 1 1
WIDTH 1832
HEIGHT 1
VIEWPOINT 0 0 0 1 0 0 0
POINTS 1832
DATA ascii
0.566506 -0.312572 0.755 
0.574481 -0.30098 0.727 
0.583543 -0.291044 0.703 
0.58513 -0.276968 0.669 
0.620858 -0.272 0.657 
-15.4209 -6.83475 16.603 
-10.4654 -4.84644 11.773 
-11.4786 -5.61171 13.632 
-0.847649 -0.486167 1.181 
-0.733198 -0.471348 1.145 
-0.718856 -0.517042 1.256 
-0.655056 -0.527333 1.281 
-0.6087 -0.53145 1.291 
-0.572769 -0.546269 1.327 
-0.521431 -0.547916 1.331 
-0.472238 -0.552444 1.342 
-0.422168 -0.556972 1.353 
0.0666801 -0.134612 0.327 
0.50761 -0.45941 1.116 
0.542654 -0.351555 0.854 
0.553066 -0.337147 0.819 
0.562117 -0.323563 0.786 
0.567274 -0.308331 0.749 
0.573218 -0.295982 0.719 
0.584303 -0.287337 0.698 
0.587389 -0.274987 0.668 
0.605748 -0.271282 0.659 
0.630102 -0.270459 0.657 
-14.8836 -6.62595 16.188 
-9.11219 -4.24047 10.36 
-10.7665 -5.2482 12.822 
-0.845675 -0.485444 1.186 
-0.723088 -0.469072 1.146 
-0.710694 -0.512459 1.252 
-0.675557 -0.52392 1.28 
-0.625014 -0.524329 1.281 
-0.592761 -0.54152 1.323 
-0.542057 -0.543567 1.328 
-0.494269 -0.549297 1.342 
-0.443393 -0.552571 1.35 
0.0503918 -0.137529 0.336 
0.0666801 -0.133845 0.327 
0.581031 -0.614787 1.502 
0.486972 -0.376158 0.919 
0.546901 -0.342185 0.836 
0.558021 -0.329087 0.804 
0.567323 -0.316398 0.773 
0.573379 -0.3033 0.741 
0.578512 -0.291021 0.711 
0.579545 -0.277923 0.679 
0.593214 -0.271783 0.664 
0.611287 -0.268099 0.655 
0.64032 -0.269327 0.658 
-15.0316 -6.75687 16.603 
-8.30259 -3.90403 9.593 
-0.87627 -0.482663 1.186 
-0.817777 -0.485919 1.194 
-0.722862 -0.513999 1.263 
-0.678899 -0.518883 1.275 
-0.629052 -0.519697 1.277 
-0.597608 -0.537196 1.32 
-0.548286 -0.540452 1.328 
-0.502801 -0.548591 1.348 
-0.449725 -0.549405 1.35 
0.0488158 -0.136741 0.336 
0.061656 -0.13552 0.333 
0.573986 -0.611264 1.502 
0.519472 -0.455396 1.119 
0.546244 -0.341038 0.838 
0.556827 -0.327608 0.805 
0.568436 -0.316213 0.777 
0.572413 -0.301969 0.742 
0.578467 -0.290167 0.713 
0.579655 -0.277145 0.681 
0.592548 -0.270633 0.665 
0.607889 -0.265749 0.653 
0.638777 -0.267784 0.658 
-16.2415 -7.27753 17.986 
-8.28009 -3.88154 9.593 
-0.875698 -0.481095 1.189 
-0.828295 -0.481095 1.189 
-0.751189 -0.518321 1.281 
-0.680855 -0.510633 1.262 
-0.638037 -0.516702 1.277 
-0.599539 -0.527627 1.304 
-0.558469 -0.538147 1.33 
-0.513805 -0.547049 1.352 
-0.459904 -0.547049 1.352 
-0.409906 -0.552309 1.365 
0.0624369 -0.134739 0.333 
0.556373 -0.607742 1.502 
0.499675 -0.44913 1.11 
0.542743 -0.344333 0.851 
0.553631 -0.330576 0.817 
0.563961 -0.318033 0.786 
0.567511 -0.302252 0.747 
0.574104 -0.290518 0.718 
0.581743 -0.280403 0.693 
0.588268 -0.270692 0.669 
0.60299 -0.265432 0.656 
0.631061 -0.266241 0.658 
-17.8972 -8.01456 19.923 
-9.34426 -4.41499 10.975 
-0.848579 -0.480318 1.194 
-0.734184 -0.46463 1.155 
-0.73387 -0.513707 1.277 
-0.614559 -0.51411 1.278 
-0.585217 -0.533821 1.327 
-0.536725 -0.538246 1.338 
-0.488801 -0.54428 1.353 
-0.437109 -0.547096 1.36 
0.0554085 -0.133958 0.333 
0.0700831 -0.13074 0.325 
0.587277 -0.607035 1.509 
0.523574 -0.446929 1.111 
0.548186 -0.334694 0.832 
0.559695 -0.322224 0.801 
0.567994 -0.309351 0.769 
0.569849 -0.294466 0.732 
0.578573 -0.28441 0.707 
0.578439 -0.271134 0.674 
0.592736 -0.265503 0.66 
0.620858 -0.264296 0.657 
0.643112 -0.262687 0.653 
-8.35871 -3.89413 9.737 
-0.856325 -0.478718 1.197 
-0.73704 -0.460321 1.151 
-0.745763 -0.512712 1.282 
-0.623606 -0.508713 1.272 
-0.594513 -0.52791 1.32 
-0.548045 -0.533908 1.335 
-0.502976 -0.542707 1.357 
-0.449867 -0.543907 1.36 
0.0530656 -0.133177 0.333 
0.0677966 -0.129978 0.325 
0.578189 -0.605096 1.513 
0.515758 -0.444324 1.111 
0.549895 -0.327944 0.82 
0.561983 -0.316346 0.791 
0.565756 -0.301548 0.754 
0.57132 -0.28915 0.723 
0.581883 -0.280352 0.701 
0.582862 -0.267954 0.67 
0.597746 -0.262755 0.657 
0.629518 -0.263155 0.658 
-24.1135 -10.5078 26.429 
-9.62281 -4.55634 11.46 
-0.828986 -0.471537 1.186 
-0.738568 -0.455236 1.145 
-0.757234 -0.50732 1.276 
-0.640027 -0.506923 1.275 
-0.597976 -0.514477 1.294 
-0.56201 -0.529187 1.331 
-0.521182 -0.54191 1.363 
-0.466499 -0.541513 1.362 
-0.414318 -0.544296 1.369 
0.0608751 -0.132396 0.333 
0.538761 -0.597175 1.502 
0.603027 -0.601548 1.513 
0.544255 -0.33437 0.841 
0.553051 -0.320057 0.805 
0.570607 -0.312105 0.785 
0.568933 -0.295009 0.742 
0.576736 -0.284274 0.715 
0.578154 -0.271551 0.683 
0.589429 -0.264395 0.665 
0.609144 -0.260817 0.656 
0.636265 -0.261214 0.657 
-24.2357 -10.6632 26.979 
-0.83666 -0.469942 1.189 
-0.778636 -0.463618 1.173 
-0.740533 -0.476266 1.205 
-0.63354 -0.501166 1.268 
-0.594941 -0.511442 1.294 
-0.558889 -0.526066 1.331 
-0.518745 -0.539504 1.365 
-0.464326 -0.539504 1.365 
-0.411107 -0.541085 1.369 
0.0593132 -0.131615 0.333 
0.526436 -0.591676 1.497 
0.593165 -0.59879 1.515 
0.543572 -0.333188 0.843 
0.552533 -0.31896 0.807 
0.568766 -0.310264 0.785 
0.567957 -0.293664 0.743 
0.575863 -0.282993 0.716 
0.579929 -0.271531 0.687 
0.588754 -0.263231 0.666 
0.61563 -0.260069 0.658 
0.637961 -0.258488 0.654 
-23.4937 -10.3838 26.429 
-0.834549 -0.465975 1.186 
-0.778636 -0.460867 1.173 
-0.741762 -0.474225 1.207 
-0.663779 -0.467153 1.189 
-0.610308 -0.496228 1.263 
-0.586999 -0.520194 1.324 
-0.54188 -0.527659 1.343 
-0.49561 -0.535517 1.363 
-0.442565 -0.537089 1.367 
0.0519707 -0.130049 0.331 
0.0662722 -0.127691 0.325 
0.56942 -0.596416 1.518 
0.499878 -0.431793 1.099 
0.547528 -0.326497 0.831 
0.557599 -0.313531 0.798 
0.566517 -0.301351 0.767 
0.567513 -0.286421 0.729 
0.579392 -0.27817 0.708 
0.58174 -0.265598 0.676 
0.592483 -0.258526 0.658 
0.629288 -0.259704 0.661 
0.64473 -0.255382 0.65 
-0.82689 -0.462022 1.183 
-0.742639 -0.4464 1.143 
-0.746469 -0.478034 1.224 
-0.662104 -0.463193 1.186 
-0.60398 -0.490532 1.256 
-0.584335 -0.51748 1.325 
-0.539934 -0.525681 1.346 
-0.493136 -0.533102 1.365 
-0.439359 -0.533883 1.367 
-0.388801 -0.539351 1.381 
0.0651463 -0.12771 0.327 
0.56942 -0.592856 1.518 
0.481231 -0.424138 1.086 
0.546235 -0.324938 0.832 
0.556424 -0.31205 0.799 
0.566191 -0.300334 0.769 
0.56658 -0.285102 0.73 
0.579363 -0.277291 0.71 
0.581871 -0.264793 0.678 
0.59094 -0.256982 0.658 
0.63298 -0.257764 0.66 
-9.75719 -4.44884 11.46 
-0.822722 -0.458471 1.181 
-0.740606 -0.444107 1.144 
-0.752711 -0.480987 1.239 
-0.667104 -0.460024 1.185 
-0.600133 -0.484481 1.248 
-0.583894 -0.513984 1.324 
-0.539934 -0.522525 1.346 
-0.493136 -0.529901 1.365 
-0.439359 -0.530677 1.367 
-0.388801 -0.536112 1.381 
0.539871 -0.588131 1.515 
0.60146 -0.589296 1.518 
0.50315 -0.416545 1.073 
0.549799 -0.317164 0.817 
0.5617 -0.305906 0.788 
0.563761 -0.290766 0.749 
0.569845 -0.27912 0.719 
0.576867 -0.269026 0.693 
0.583561 -0.25971 0.669 
0.593814 -0.252722 0.651 
0.641227 -0.251557 0.648 
-0.836625 -0.457245 1.185 
-0.744038 -0.461875 1.197 
-0.745181 -0.494287 1.281 
-0.612664 -0.47538 1.232 
-0.58962 -0.497374 1.289 
-0.556185 -0.513966 1.332 
-0.511012 -0.522069 1.353 
-0.461462 -0.527085 1.366 
-0.408195 -0.528629 1.37 
0.523578 -0.582263 1.509 
0.587994 -0.586508 1.52 
0.496512 -0.419044 1.086 
0.543637 -0.321808 0.834 
0.555031 -0.307531 0.797 
0.565454 -0.296341 0.768 
0.56658 -0.281678 0.73 
0.579363 -0.273961 0.71 
0.581993 -0.262385 0.68 
0.588501 -0.25351 0.657 
0.638187 -0.250038 0.648 
-0.821329 -0.452164 1.179 
-0.748844 -0.489749 1.277 
-0.605204 -0.466738 1.217 
-0.58962 -0.494351 1.289 
-0.555767 -0.510459 1.331 
-0.508368 -0.516212 1.346 
-0.461462 -0.523882 1.366 
-0.408195 -0.525416 1.37 
0.451287 -0.527333 1.375 
0.568097 -0.584477 1.524 
0.629268 -0.584861 1.525 
0.509071 -0.404225 1.054 
0.551677 -0.307963 0.803 
0.568426 -0.299909 0.782 
0.568166 -0.284185 0.741 
0.578413 -0.274213 0.715 
0.579756 -0.261941 0.683 
0.584768 -0.252353 0.658 
0.599858 -0.247751 0.646 
-0.751838 -0.486754 1.277 
-0.589477 -0.462741 1.214 
-0.580349 -0.498952 1.309 
-0.538653 -0.508862 1.335 
-0.490883 -0.51458 1.35 
-0.440299 -0.518391 1.36 
-0.390621 -0.52449 1.376 
0.508285 -0.566038 1.485 
0.582775 -0.581284 1.525 
0.491572 -0.416238 1.092 
0.545551 -0.315609 0.828 
0.556862 -0.300743 0.789 
0.561474 -0.287021 0.753 
0.566473 -0.274061 0.719 
0.576928 -0.265676 0.697 
0.581291 -0.255384 0.67 
0.588946 -0.247379 0.649 
-13.9725 -6.13242 16.188 
-0.754861 -0.481865 1.272 
-0.596906 -0.456863 1.206 
-0.584026 -0.488684 1.29 
-0.549524 -0.504216 1.331 
-0.498325 -0.50611 1.336 
-0.452057 -0.514065 1.357 
-0.401769 -0.51899 1.37 
0.442577 -0.522021 1.378 
0.554891 -0.578466 1.527 
0.614963 -0.577708 1.525 
0.503781 -0.404964 1.069 
0.549427 -0.306091 0.808 
0.565084 -0.297378 0.785 
0.565992 -0.282225 0.745 
0.573305 -0.271617 0.717 
0.579225 -0.261389 0.69 
0.579475 -0.249646 0.659 
0.592879 -0.244342 0.645 
-8.29488 -3.75049 9.962 
-0.590269 -0.453282 1.204 
-0.581452 -0.486035 1.291 
-0.545992 -0.500718 1.33 
-0.494451 -0.502224 1.334 
-0.446559 -0.508248 1.35 
-0.398556 -0.515777 1.37 
0.44611 -0.52293 1.389 
0.554891 -0.574885 1.527 
0.615769 -0.574885 1.527 
0.504557 -0.405092 1.076 
0.54778 -0.306454 0.814 
0.560987 -0.29629 0.787 
0.562256 -0.28123 0.747 
0.569942 -0.269936 0.717 
0.577658 -0.260524 0.692 
0.578133 -0.248853 0.661 
0.590768 -0.243206 0.646 
-0.781607 -0.474028 1.267 
-0.589482 -0.445594 1.191 
-0.570267 -0.488994 1.307 
-0.527278 -0.497599 1.33 
-0.477106 -0.500592 1.338 
-0.42503 -0.502089 1.342 
-0.378171 -0.511068 1.366 
0.496256 -0.549978 1.47 
0.577887 -0.5728 1.531 
0.638925 -0.5728 1.531 
0.505725 -0.387978 1.037 
0.551677 -0.30043 0.803 
0.567699 -0.292199 0.781 
0.570466 -0.278356 0.744 
0.577656 -0.266384 0.712 
0.581252 -0.254786 0.681 
0.582494 -0.243936 0.652 
0.598222 -0.23982 0.641 
-0.769171 -0.472544 1.271 
-0.594849 -0.44057 1.185 
-0.572812 -0.480352 1.292 
-0.536635 -0.49448 1.33 
-0.483611 -0.49448 1.33 
-0.432205 -0.496339 1.335 
-0.387782 -0.507864 1.366 
0.468682 -0.530915 1.428 
0.564261 -0.569953 1.533 
0.625379 -0.569953 1.533 
0.507709 -0.398558 1.072 
0.546988 -0.301149 0.81 
0.562117 -0.292226 0.786 
0.563252 -0.277355 0.746 
0.573305 -0.266573 0.717 
0.579225 -0.256535 0.69 
0.577716 -0.244266 0.657 
0.590121 -0.238689 0.642 
-14.5163 -6.21331 16.818 
-0.772197 -0.471411 1.276 
-0.630834 -0.453678 1.228 
-0.567635 -0.449244 1.216 
-0.542057 -0.490622 1.328 
-0.488007 -0.489514 1.325 
-0.437153 -0.49173 1.331 
-0.392457 -0.502444 1.36 
0.466962 -0.529414 1.433 
0.561032 -0.566727 1.534 
0.622189 -0.566727 1.534 
0.508656 -0.396783 1.074 
0.503281 -0.35245 0.954 
0.555965 -0.292969 0.793 
0.560165 -0.2793 0.756 
0.567143 -0.266739 0.722 
0.575293 -0.257503 0.697 
0.577989 -0.246789 0.668 
0.586518 -0.2394 0.648 
0.606683 -0.237183 0.642 
-0.783623 -0.469887 1.28 
-0.650409 -0.458507 1.249 
-0.567137 -0.437215 1.191 
-0.547873 -0.48714 1.327 
-0.494222 -0.486406 1.325 
-0.442396 -0.487508 1.328 
-0.395317 -0.49485 1.348 
0.455605 -0.524585 1.429 
0.550957 -0.563864 1.536 
0.612991 -0.564598 1.538 
0.504366 -0.396834 1.081 
0.505518 -0.350213 0.954 
0.55099 -0.294413 0.802 
0.566973 -0.286337 0.78 
0.565866 -0.270919 0.738 
0.576795 -0.261742 0.713 
0.579756 -0.250729 0.683 
0.5816 -0.238981 0.651 
0.598222 -0.23531 0.641 
-16.8225 -7.26699 19.923 
-0.655742 -0.455213 1.248 
-0.564188 -0.430045 1.179 
-0.545171 -0.484393 1.328 
-0.490744 -0.482934 1.324 
-0.43829 -0.483299 1.325 
-0.390701 -0.489864 1.343 
0.462301 -0.528893 1.45 
0.552392 -0.561721 1.54 
0.615383 -0.56318 1.544 
0.676062 -0.56245 1.542 
0.515622 -0.347246 0.952 
0.553856 -0.291074 0.798 
0.563653 -0.280131 0.768 
0.565804 -0.265906 0.729 
0.575283 -0.257151 0.705 
0.579426 -0.246938 0.677 
0.583479 -0.236361 0.648 
0.603672 -0.234172 0.642 
-17.6855 -7.56963 20.887 
-0.657085 -0.451199 1.245 
-0.56047 -0.426555 1.177 
-0.548286 -0.481279 1.328 
-0.493476 -0.479467 1.323 
-0.440731 -0.479467 1.323 
-0.391505 -0.483816 1.335 
0.45707 -0.527305 1.455 
0.545877 -0.558834 1.542 
0.61011 -0.561371 1.549 
0.670998 -0.560646 1.547 
0.503281 -0.345738 0.954 
0.548747 -0.292464 0.807 
0.565084 -0.284491 0.785 
0.561444 -0.264558 0.73 
0.575177 -0.257673 0.711 
0.578907 -0.247163 0.682 
0.580965 -0.23629 0.652 
0.597649 -0.232666 0.642 
-17.5981 -7.40147 20.556 
-0.777643 -0.462682 1.285 
-0.580078 -0.421994 1.172 
-0.560885 -0.475644 1.321 
-0.509759 -0.477084 1.325 
-0.456589 -0.476724 1.324 
-0.404719 -0.477804 1.327 
-0.352079 -0.478164 1.328 
0.525742 -0.553058 1.536 
0.59424 -0.559899 1.555 
0.65539 -0.559179 1.553 
0.49222 -0.346741 0.963 
0.541598 -0.295972 0.822 
0.556418 -0.28481 0.791 
0.551035 -0.266087 0.739 
0.564787 -0.258886 0.719 
0.575293 -0.250964 0.697 
0.571932 -0.238002 0.661 
0.585613 -0.232961 0.647 
0.606683 -0.231161 0.642 
-18.5332 -7.85156 21.949 
-0.6301 -0.432839 1.21 
-0.575915 -0.464676 1.299 
-0.536635 -0.475765 1.33 
-0.477429 -0.469684 1.313 
-0.426054 -0.470757 1.316 
-0.377562 -0.475765 1.33 
0.481072 -0.531927 1.487 
0.565066 -0.556252 1.555 
0.629883 -0.558756 1.562 
0.686396 -0.554106 1.549 
0.503809 -0.341621 0.955 
0.548888 -0.289752 0.81 
0.563961 -0.281167 0.786 
0.559594 -0.257915 0.721 
0.574467 -0.251834 0.704 
0.57429 -0.240029 0.671 
0.581335 -0.232159 0.649 
0.600661 -0.229655 0.642 
-18.4818 -7.80009 21.949 
-0.665844 -0.44244 1.245 
-0.575071 -0.416853 1.173 
-0.55469 -0.469448 1.321 
-0.501264 -0.468737 1.319 
-0.446637 -0.466605 1.313 
-0.397294 -0.470159 1.323 
-0.345069 -0.470869 1.325 
0.523499 -0.547275 1.54 
0.593251 -0.555093 1.562 
0.657204 -0.556514 1.566 
0.707689 -0.547275 1.54 
0.515622 -0.338315 0.952 
0.553368 -0.284299 0.8 
0.549662 -0.258712 0.728 
0.568352 -0.254092 0.715 
0.576823 -0.245563 0.691 
0.578595 -0.233836 0.658 
0.59104 -0.228505 0.643 
-16.9817 -6.92676 19.621 
-20.964 -8.96409 25.392 
-0.590567 -0.413396 1.171 
-0.572869 -0.458583 1.299 
-0.533917 -0.46988 1.331 
-0.471099 -0.460349 1.304 
-0.418789 -0.459996 1.303 
-0.371909 -0.46635 1.321 
0.467762 -0.521775 1.478 
0.55662 -0.55143 1.562 
0.622856 -0.55496 1.572 
0.679423 -0.550018 1.558 
0.495705 -0.33926 0.961 
0.542864 -0.289836 0.821 
0.556666 -0.280304 0.794 
0.552831 -0.254533 0.721 
0.569476 -0.249238 0.706 
0.575614 -0.240059 0.68 
0.582102 -0.231233 0.655 
0.596144 -0.226644 0.642 
-19.9601 -8.10954 23.125 
-21.7582 -9.2682 26.429 
-0.603266 -0.409948 1.169 
-0.559994 -0.412403 1.176 
-0.546634 -0.464304 1.324 
-0.484897 -0.455888 1.3 
-0.430404 -0.453082 1.292 
-0.385053 -0.460447 1.313 
0.0492063 -0.527427 1.504 
0.500518 -0.534791 1.525 
0.576408 -0.549169 1.566 
0.642513 -0.552325 1.575 
0.692766 -0.542506 1.547 
0.504336 -0.335253 0.956 
0.547883 -0.286508 0.817 
0.559852 -0.276338 0.788 
0.561534 -0.25144 0.717 
0.574468 -0.244075 0.696 
0.572798 -0.232152 0.662 
0.585613 -0.226892 0.647 
-15.4629 -5.85834 16.818 
-20.5169 -8.51128 24.434 
-0.731491 -0.406858 1.168 
-0.594024 -0.40651 1.167 
-0.579768 -0.450749 1.294 
-0.540832 -0.461547 1.325 
-0.475853 -0.450052 1.292 
-0.423359 -0.449007 1.289 
-0.377452 -0.455626 1.308 
0.0492063 -0.5239 1.504 
0.49013 -0.527732 1.515 
0.56979 -0.546193 1.568 
0.636738 -0.550025 1.579 
0.690384 -0.54271 1.558 
0.499692 -0.334404 0.96 
0.542864 -0.285985 0.821 
0.555264 -0.275883 0.792 
0.564208 -0.248713 0.714 
0.575203 -0.240701 0.691 
0.576384 -0.229555 0.659 
0.587699 -0.223284 0.641 
-22.416 -8.96121 25.9 
-21.8202 -9.14424 26.429 
-0.723002 -0.405503 1.172 
-0.588323 -0.405503 1.172 
-0.568507 -0.448406 1.296 
-0.528004 -0.458094 1.324 
-0.462657 -0.445984 1.289 
-0.411267 -0.445984 1.289 
-0.361552 -0.44806 1.295 
0.0635254 -0.522103 1.509 
0.500518 -0.527639 1.525 
0.577144 -0.542516 1.568 
0.644144 -0.546322 1.579 
0.695453 -0.537326 1.553 
0.504864 -0.331115 0.957 
0.544717 -0.283022 0.818 
0.556156 -0.272642 0.788 
0.563651 -0.244617 0.707 
0.572584 -0.236659 0.684 
0.578595 -0.227663 0.658 
0.590007 -0.220397 0.637 
-37.0373 -14.3559 41.775 
-22.378 -9.08226 26.429 
-21.7681 -9.27126 26.979 
-0.600571 -0.392789 1.143 
-0.574425 -0.406535 1.183 
-0.557637 -0.446398 1.299 
-0.492121 -0.442274 1.287 
-0.439099 -0.440556 1.282 
-0.390409 -0.443305 1.29 
0.0281181 -0.51822 1.508 
0.452976 -0.50688 1.475 
0.539538 -0.534372 1.555 
0.608883 -0.540901 1.574 
0.672915 -0.541932 1.577 
0.715724 -0.527155 1.534 
0.541598 -0.282478 0.822 
0.552708 -0.271825 0.791 
0.555582 -0.246739 0.718 
0.572845 -0.240553 0.7 
0.573834 -0.228525 0.665 
0.583193 -0.221996 0.646 
-16.5992 -6.22535 18.24 
-24.101 -9.60834 28.152 
-22.9787 -9.60834 28.152 
-0.596321 -0.389084 1.14 
-0.574066 -0.405467 1.188 
-0.556349 -0.442328 1.296 
-0.484574 -0.437891 1.283 
-0.431734 -0.436184 1.278 
-0.384061 -0.439938 1.289 
0.0281181 -0.514684 1.508 
0.457363 -0.504445 1.478 
0.54859 -0.532431 1.56 
0.616657 -0.537551 1.575 
0.679018 -0.53721 1.574 
0.722448 -0.523216 1.533 
0.547883 -0.278844 0.817 
0.558431 -0.268263 0.786 
0.560751 -0.244372 0.716 
0.572752 -0.235499 0.69 
0.576384 -0.224918 0.659 
-18.3621 -6.65067 19.621 
-38.069 -14.6318 43.167 
-24.232 -9.7545 28.778 
-21.6416 -9.14472 26.979 
-0.586074 -0.397597 1.173 
-0.574505 -0.436916 1.289 
-0.534478 -0.446406 1.317 
-0.467334 -0.432848 1.277 
-0.416749 -0.433187 1.278 
-0.368946 -0.436916 1.289 
0.0351911 -0.511147 1.508 
0.45891 -0.502673 1.483 
0.558045 -0.530807 1.566 
0.624837 -0.534535 1.577 
0.683784 -0.531485 1.568 
0.728686 -0.518943 1.531 
0.547107 -0.275572 0.813 
0.557423 -0.265064 0.782 
0.559853 -0.243032 0.717 
0.571167 -0.234558 0.692 
0.57435 -0.22439 0.662 
0.576483 -0.214221 0.632 
-50.1836 -18.9529 56.305 
-25.642 -10.1377 30.117 
-23.3546 -9.68702 28.778 
-0.580985 -0.387777 1.152 
-0.576632 -0.433219 1.287 
-0.528995 -0.436249 1.296 
-0.466968 -0.429517 1.276 
-0.41577 -0.42918 1.275 
-0.368373 -0.433219 1.287 
0.021059 -0.507947 1.509 
0.0817041 -0.510977 1.518 
0.504756 -0.514006 1.527 
0.580821 -0.527807 1.568 
0.649489 -0.532857 1.583 
0.701346 -0.524441 1.558 
0.507108 -0.322138 0.957 
0.546313 -0.272319 0.809 
0.556396 -0.261884 0.778 
0.561534 -0.241351 0.717 
0.569432 -0.230916 0.686 
0.57571 -0.222164 0.66 
-18.6914 -6.65959 19.923 
-50.0515 -18.8209 56.305 
-27.4886 -10.8219 32.375 
-23.8164 -9.83814 29.432 
-0.580793 -0.386747 1.157 
-0.570595 -0.430201 1.287 
-0.497671 -0.427193 1.278 
-0.442525 -0.423182 1.266 
-0.396388 -0.427861 1.28 
-0.345897 -0.42853 1.282 
0.0316756 -0.504408 1.509 
0.435157 -0.500397 1.497 
0.513259 -0.511762 1.531 
0.588176 -0.52413 1.568 
0.656913 -0.529144 1.583 
0.707289 -0.519785 1.555 
0.513304 -0.319559 0.956 
0.544962 -0.269753 0.807 
0.554251 -0.259057 0.775 
0.564208 -0.238666 0.714 
0.566878 -0.227636 0.681 
0.574838 -0.220282 0.659 
-20.7907 -7.41114 22.328 
-47.5865 -17.9102 53.959 
-37.2876 -14.8223 44.656 
-0.726703 -0.391004 1.178 
-0.578663 -0.393659 1.186 
-0.55331 -0.43017 1.296 
-0.454401 -0.420213 1.266 
-0.403928 -0.420213 1.266 
-0.35876 -0.426519 1.285 
0.0140183 -0.502197 1.513 
0.0744368 -0.502861 1.515 
0.482387 -0.502197 1.513 
0.559566 -0.517797 1.56 
0.629332 -0.524104 1.579 
0.687461 -0.520453 1.568 
0.733233 -0.508836 1.533 
0.544051 -0.27118 0.817 
0.549098 -0.258235 0.778 
0.557904 -0.239315 0.721 
0.571189 -0.233009 0.702 
0.570156 -0.221724 0.668 
0.581959 -0.215085 0.648 
-24.552 -8.89164 26.979 
-31.0497 -11.8558 35.973 
-0.730085 -0.38857 1.179 
-0.57558 -0.374399 1.136 
-0.560166 -0.395492 1.2 
-0.477436 -0.419221 1.272 
-0.420686 -0.413289 1.254 
-0.379855 -0.423506 1.285 
-0.325045 -0.418891 1.271 
0.0424043 -0.498649 1.513 
0.448964 -0.497001 1.508 
0.525742 -0.506229 1.536 
0.598443 -0.516116 1.566 
0.667207 -0.52106 1.581 
0.718229 -0.512491 1.555 
0.537769 -0.274867 0.834 
0.545001 -0.262343 0.796 
0.557898 -0.253774 0.77 
0.561414 -0.236965 0.719 
0.567921 -0.228067 0.692 
0.571414 -0.218839 0.664 
0.575971 -0.21027 0.638 
-25.139 -9.0162 27.553 
-51.4917 -20.1794 61.667 
-0.70136 -0.382206 1.168 
-0.579583 -0.383188 1.171 
-0.508911 -0.410348 1.254 
-0.46221 -0.413293 1.263 
-0.40827 -0.409693 1.252 
-0.368373 -0.421146 1.287 
-0.31189 -0.414275 1.266 
0.0566721 -0.495755 1.515 
0.461267 -0.491501 1.502 
0.535028 -0.50459 1.542 
0.605788 -0.512444 1.566 
0.672915 -0.516043 1.577 
0.724589 -0.50819 1.553 
0.537769 -0.272911 0.834 
0.543632 -0.259822 0.794 
0.557173 -0.251641 0.769 
0.562976 -0.235934 0.721 
0.5671 -0.226117 0.691 
0.570382 -0.2163 0.661 
0.573847 -0.207465 0.634 
-31.6873 -11.371 35 
-33.9642 -12.7495 39.243 
-0.726086 -0.382391 1.177 
-0.576984 -0.359974 1.108 
-0.574166 -0.387914 1.194 
-0.481797 -0.409356 1.26 
-0.427796 -0.405783 1.249 
-0.386172 -0.414554 1.276 
-0.335563 -0.414879 1.277 
0.0282672 -0.492527 1.516 
0.42973 -0.492202 1.515 
0.50019 -0.495126 1.524 
0.571623 -0.504548 1.553 
0.644144 -0.512995 1.579 
0.703961 -0.510721 1.572 
0.747614 -0.49805 1.533 
0.539705 -0.268031 0.825 
0.540669 -0.253086 0.779 
0.545497 -0.236192 0.727 
0.565789 -0.232618 0.716 
0.565214 -0.220598 0.679 
0.579475 -0.2141 0.659 
-24.8051 -8.70183 26.979 
-43.6921 -16.0651 49.808 
-53.3383 -21.1377 65.535 
-0.692768 -0.378018 1.172 
-0.578663 -0.382533 1.186 
-0.479602 -0.407046 1.262 
-0.424526 -0.402531 1.248 
-0.38348 -0.411885 1.277 
-0.332569 -0.411885 1.277 
0.0140461 -0.488972 1.516 
0.0737489 -0.484134 1.501 
0.469636 -0.482198 1.495 
0.546585 -0.498003 1.544 
0.614443 -0.503164 1.56 
0.683143 -0.508002 1.575 
0.735515 -0.500906 1.553 
0.521431 -0.285771 0.886 
0.539836 -0.259645 0.805 
0.546353 -0.248034 0.769 
0.558198 -0.23481 0.728 
0.567863 -0.227069 0.704 
0.570715 -0.21449 0.665 
0.583894 -0.203846 0.632 
-42.4111 -15.3575 47.963 
-53.6457 -20.984 65.535 
-0.704363 -0.375589 1.173 
-0.580126 -0.380713 1.189 
-0.49358 -0.398643 1.245 
-0.447153 -0.401525 1.254 
-0.394309 -0.398643 1.245 
-0.3563 -0.412092 1.287 
0.00338473 -0.486057 1.518 
0.063778 -0.485096 1.515 
0.457582 -0.477091 1.49 
0.53364 -0.492461 1.538 
0.599212 -0.495983 1.549 
0.672915 -0.504948 1.577 
0.733454 -0.503347 1.572 
0.775362 -0.490219 1.531 
0.539725 -0.267043 0.834 
0.543433 -0.253275 0.791 
0.560051 -0.24591 0.768 
0.564001 -0.2299 0.718 
0.564451 -0.217733 0.68 
0.577258 -0.211329 0.66 
-40.0105 -14.1939 44.656 
-53.9531 -20.8303 65.535 
-0.700052 -0.373474 1.175 
-0.580285 -0.374428 1.178 
-0.49066 -0.395724 1.245 
-0.443504 -0.397949 1.252 
-0.391074 -0.395406 1.244 
-0.353831 -0.409709 1.289 
0.00338473 -0.482497 1.518 
0.0635254 -0.479636 1.509 
0.458601 -0.471054 1.482 
0.5355 -0.487265 1.533 
0.600899 -0.490761 1.544 
0.676614 -0.50125 1.577 
0.738078 -0.500297 1.574 
0.7759 -0.484722 1.525 
0.53171 -0.267948 0.843 
0.540378 -0.255234 0.803 
0.550328 -0.243791 0.767 
0.561613 -0.231395 0.728 
0.564675 -0.221224 0.696 
0.569441 -0.212642 0.669 
-37.7231 -13.1802 41.775 
-53.9531 -20.6766 65.535 
-0.704223 -0.372927 1.182 
-0.582552 -0.37135 1.177 
-0.518519 -0.38744 1.228 
-0.478355 -0.394697 1.251 
-0.426083 -0.392489 1.244 
-0.381027 -0.397221 1.259 
-0.338191 -0.406055 1.287 
-0.0108838 -0.480199 1.522 
0.0496644 -0.478937 1.518 
0.445094 -0.47168 1.495 
0.514486 -0.48083 1.524 
0.579774 -0.484616 1.536 
0.654366 -0.494712 1.568 
0.721908 -0.498183 1.579 
0.757521 -0.48083 1.524 
0.518468 -0.275752 0.874 
0.541031 -0.262816 0.833 
0.539711 -0.244517 0.775 
0.548907 -0.229372 0.727 
0.567557 -0.225271 0.714 
0.567561 -0.213913 0.678 
0.569986 -0.201292 0.638 
-37.7231 -13.0823 41.775 
-0.737201 -0.371408 1.186 
-0.703938 -0.38049 1.215 
-0.569566 -0.378297 1.208 
-0.501532 -0.389258 1.243 
-0.456703 -0.393329 1.256 
-0.398212 -0.385187 1.23 
-0.367626 -0.405542 1.295 
-0.312581 -0.401158 1.281 
0.00338473 -0.475377 1.518 
0.0633149 -0.470993 1.504 
0.445599 -0.465043 1.485 
0.516021 -0.475377 1.518 
0.582237 -0.480074 1.533 
0.657204 -0.490409 1.566 
0.727449 -0.495732 1.583 
0.7566 -0.474438 1.515 
0.519922 -0.273389 0.873 
0.537769 -0.261176 0.834 
0.546371 -0.249902 0.798 
0.558926 -0.239254 0.764 
0.566762 -0.223283 0.713 
0.566806 -0.212636 0.679 
0.571561 -0.203554 0.65 
0.586444 -0.199796 0.638 
0.600219 -0.190401 0.608 
-0.725801 -0.374221 1.204 
-0.577959 -0.356194 1.146 
-0.560603 -0.375154 1.207 
-0.487348 -0.386654 1.244 
-0.43916 -0.387897 1.248 
-0.384725 -0.383235 1.233 
-0.352441 -0.402505 1.295 
-0.298954 -0.400019 1.287 
0.0104908 -0.471195 1.516 
0.0695738 -0.462182 1.487 
0.442116 -0.46156 1.485 
0.505371 -0.46529 1.497 
0.577887 -0.475858 1.531 
0.650193 -0.48425 1.558 
0.723737 -0.49202 1.583 
0.752053 -0.470263 1.513 
0.515828 -0.271341 0.873 
0.535137 -0.259841 0.836 
0.545864 -0.248652 0.8 
0.558194 -0.237152 0.763 
0.565967 -0.2213 0.712 
0.566633 -0.2098 0.675 
0.569093 -0.197989 0.637 
0.590507 -0.195192 0.628 
0.600219 -0.188975 0.608 
-0.718067 -0.373248 1.21 
-0.575708 -0.37294 1.209 
-0.499018 -0.383736 1.244 
-0.453758 -0.387438 1.256 
-0.388614 -0.375716 1.218 
-0.359623 -0.400702 1.299 
-0.302858 -0.394224 1.278 
-0.0108194 -0.466715 1.513 
0.0495008 -0.466715 1.513 
0.130296 -0.381269 1.236 
0.461782 -0.453451 1.47 
0.53738 -0.468257 1.518 
0.602233 -0.47165 1.529 
0.681841 -0.484914 1.572 
0.749724 -0.488308 1.583 
0.758406 -0.45561 1.477 
0.524482 -0.267443 0.867 
0.537769 -0.257264 0.834 
0.547055 -0.246467 0.799 
0.558516 -0.234745 0.761 
0.56291 -0.217163 0.704 
0.565578 -0.206675 0.67 
0.566708 -0.196187 0.636 
0.587409 -0.194644 0.631 
0.595493 -0.187858 0.609 
-0.731226 -0.371329 1.213 
-0.58186 -0.370411 1.21 
-0.490266 -0.380819 1.244 
-0.44315 -0.382962 1.251 
-0.377405 -0.375921 1.228 
-0.34333 -0.396431 1.295 
-0.0246652 -0.456738 1.492 
0.0352144 -0.461942 1.509 
0.113087 -0.378982 1.238 
0.438043 -0.453983 1.483 
0.495491 -0.452452 1.478 
0.572796 -0.467452 1.527 
0.638239 -0.47082 1.538 
0.720024 -0.484595 1.583 
0.751968 -0.465309 1.52 
0.511147 -0.266941 0.872 
0.531619 -0.258981 0.846 
0.545967 -0.250104 0.817 
0.546368 -0.232349 0.759 
0.564897 -0.219491 0.717 
0.565281 -0.208471 0.681 
0.561623 -0.195001 0.637 
0.587019 -0.195001 0.637 
0.592226 -0.188573 0.616 
-0.747061 -0.367877 1.211 
-0.709744 -0.373649 1.23 
-0.473522 -0.378509 1.246 
-0.391737 -0.367573 1.21 
-0.365715 -0.394609 1.299 
-0.286435 -0.390357 1.285 
-0.0314085 -0.449594 1.48 
0.0280435 -0.456884 1.504 
0.0864198 -0.431367 1.42 
0.431069 -0.45415 1.495 
0.483451 -0.447467 1.473 
0.560949 -0.46296 1.524 
0.622931 -0.463871 1.527 
0.708887 -0.480883 1.583 
0.752003 -0.468428 1.542 
0.510561 -0.264592 0.871 
0.532972 -0.256694 0.845 
0.547883 -0.248188 0.817 
0.549203 -0.230265 0.758 
0.564998 -0.217202 0.715 
0.565281 -0.206874 0.681 
0.561349 -0.1929 0.635 
0.587589 -0.193204 0.636 
0.592706 -0.186824 0.615 
-0.742383 -0.368353 1.222 
-0.471355 -0.37619 1.248 
-0.398926 -0.36353 1.206 
-0.367626 -0.390357 1.295 
-0.292007 -0.38674 1.283 
-0.0382725 -0.445218 1.477 
0.0209473 -0.452453 1.501 
0.0780441 -0.43708 1.45 
0.139709 -0.366845 1.217 
0.469315 -0.443711 1.472 
0.538402 -0.452453 1.501 
0.607411 -0.459386 1.524 
0.69053 -0.474759 1.575 
0.757148 -0.47717 1.583 
0.757561 -0.440697 1.462 
0.526632 -0.257425 0.854 
0.543574 -0.248683 0.825 
0.537117 -0.227884 0.756 
0.560999 -0.21854 0.725 
0.562206 -0.207085 0.687 
0.575716 -0.20166 0.669 
0.581956 -0.192315 0.638 
0.591207 -0.187191 0.621 
0.604062 -0.183573 0.609 
-0.464798 -0.375058 1.254 
-0.390442 -0.360701 1.206 
-0.357685 -0.386423 1.292 
-0.296399 -0.381638 1.276 
-0.254571 -0.395695 1.323 
-0.000172007 -0.445643 1.49 
0.0587144 -0.441755 1.477 
0.120419 -0.366085 1.224 
0.311213 -0.385526 1.289 
0.469634 -0.440558 1.473 
0.534457 -0.445643 1.49 
0.606614 -0.455214 1.522 
0.69053 -0.471065 1.575 
0.757148 -0.473458 1.583 
0.752898 -0.434576 1.453 
0.524462 -0.256319 0.857 
0.541681 -0.248543 0.831 
0.546451 -0.23628 0.79 
0.556491 -0.217737 0.728 
0.559807 -0.206371 0.69 
0.571863 -0.20039 0.67 
0.578056 -0.19052 0.637 
0.590189 -0.186332 0.623 
0.602193 -0.182444 0.61 
-0.436774 -0.365885 1.233 
-0.37502 -0.359357 1.211 
-0.313702 -0.367369 1.238 
-0.269264 -0.386954 1.304 
-0.0243842 -0.437697 1.475 
0.0346544 -0.440665 1.485 
0.101555 -0.367666 1.239 
0.2636 -0.379239 1.278 
0.317997 -0.383393 1.292 
0.480649 -0.437697 1.475 
0.548963 -0.445413 1.501 
0.618133 -0.452238 1.524 
0.705175 -0.469746 1.583 
0.758094 -0.463514 1.562 
0.770473 -0.435323 1.467 
0.526015 -0.253123 0.853 
0.543609 -0.245704 0.828 
0.53889 -0.224338 0.756 
0.556491 -0.21603 0.728 
0.559807 -0.204753 0.69 
0.571143 -0.199115 0.671 
0.575068 -0.189026 0.637 
0.58821 -0.185168 0.624 
0.600315 -0.181311 0.611 
-0.419106 -0.352984 1.199 
-0.371873 -0.356222 1.21 
-0.322347 -0.367704 1.249 
-0.271278 -0.382424 1.299 
-0.038143 -0.433355 1.472 
0.0206822 -0.436299 1.482 
0.101555 -0.36476 1.239 
0.146688 -0.354456 1.204 
0.304693 -0.378891 1.287 
0.460517 -0.434827 1.477 
0.513424 -0.429822 1.46 
0.59434 -0.446897 1.518 
0.669958 -0.457201 1.553 
0.747896 -0.467211 1.587 
0.738075 -0.425112 1.444 
0.52385 -0.252005 0.856 
0.541681 -0.244645 0.831 
0.543489 -0.222271 0.755 
0.557432 -0.214028 0.727 
0.559807 -0.203135 0.69 
0.571994 -0.197836 0.672 
0.576562 -0.187532 0.637 
0.587783 -0.183116 0.622 
0.602732 -0.180172 0.612 
-0.416309 -0.347836 1.191 
-0.374091 -0.352801 1.208 
-0.341553 -0.372952 1.277 
-0.282539 -0.374121 1.281 
-0.239419 -0.386971 1.325 
-0.0139878 -0.430195 1.473 
0.0447984 -0.430779 1.475 
0.111534 -0.356597 1.221 
0.259175 -0.3712 1.271 
0.314236 -0.376457 1.289 
0.467445 -0.431363 1.477 
0.51849 -0.424938 1.455 
0.602252 -0.443921 1.52 
0.679423 -0.455019 1.558 
0.753436 -0.462321 1.583 
0.738142 -0.417929 1.431 
0.526778 -0.248538 0.851 
0.538318 -0.225757 0.773 
0.561923 -0.211447 0.724 
0.566279 -0.201517 0.69 
0.556612 -0.18487 0.633 
0.583687 -0.185454 0.635 
0.59174 -0.180197 0.617 
-32.2156 -11.369 39.243 
-0.417343 -0.343594 1.186 
-0.374091 -0.349968 1.208 
-0.329782 -0.363584 1.255 
-0.27761 -0.372565 1.286 
-0.234084 -0.385312 1.33 
-0.0208541 -0.425871 1.47 
0.0378288 -0.42674 1.473 
0.104292 -0.358369 1.237 
0.147897 -0.345043 1.191 
0.291963 -0.368219 1.271 
0.448174 -0.429348 1.482 
0.495963 -0.419787 1.449 
0.573986 -0.435142 1.502 
0.64695 -0.444123 1.533 
0.731161 -0.458608 1.583 
0.746104 -0.430796 1.487 
0.820553 -0.438908 1.515 
0.558198 -0.210908 0.728 
0.558998 -0.200188 0.691 
0.572116 -0.195263 0.674 
0.57955 -0.184544 0.637 
0.587851 -0.179329 0.619 
0.606592 -0.177591 0.613 
-0.407614 -0.337364 1.174 
-0.371873 -0.347709 1.21 
-0.308393 -0.35633 1.24 
-0.264964 -0.377308 1.313 
-0.0572962 -0.411792 1.433 
-0.000169929 -0.422999 1.472 
0.0578399 -0.418113 1.455 
0.108759 -0.351158 1.222 
0.151808 -0.338514 1.178 
0.292855 -0.362652 1.262 
0.360429 -0.374434 1.303 
0.500569 -0.411792 1.433 
0.589612 -0.435355 1.515 
0.659022 -0.44139 1.536 
0.739485 -0.453172 1.577 
0.729897 -0.410355 1.428 
0.532875 -0.243684 0.848 
0.559906 -0.2092 0.728 
0.562239 -0.198568 0.691 
0.556612 -0.181901 0.633 
0.583687 -0.182476 0.635 
0.592699 -0.17759 0.618 
-0.565096 -0.287298 1.008 
-0.393512 -0.334326 1.173 
-0.364228 -0.356843 1.252 
-0.298722 -0.366533 1.286 
-0.254956 -0.377649 1.325 
-0.0408038 -0.411566 1.444 
0.0170673 -0.418977 1.47 
0.0706283 -0.391045 1.372 
0.129423 -0.342307 1.201 
0.256728 -0.358838 1.259 
0.314551 -0.364253 1.278 
0.472984 -0.416696 1.462 
0.52473 -0.411566 1.444 
0.616576 -0.435793 1.529 
0.68551 -0.440923 1.547 
0.753464 -0.444628 1.56 
0.751756 -0.406151 1.425 
0.53904 -0.225164 0.79 
0.562699 -0.206638 0.725 
0.563859 -0.196947 0.691 
0.566708 -0.181271 0.636 
0.584616 -0.178991 0.628 
0.598004 -0.175571 0.616 
-0.556021 -0.286348 1.013 
-0.380729 -0.332423 1.176 
-0.35192 -0.353341 1.25 
-0.287327 -0.364365 1.289 
-0.240323 -0.375955 1.33 
-0.0241031 -0.412137 1.458 
0.0341876 -0.414116 1.465 
0.0827343 -0.370019 1.309 
0.126185 -0.338359 1.197 
0.25297 -0.354754 1.255 
0.313074 -0.35956 1.272 
0.460562 -0.405353 1.434 
0.514484 -0.402809 1.425 
0.61299 -0.432207 1.529 
0.676152 -0.43362 1.534 
0.747403 -0.439556 1.555 
0.719587 -0.382174 1.352 
0.535148 -0.222464 0.787 
0.562546 -0.205503 0.727 
0.563052 -0.19561 0.692 
0.570587 -0.180063 0.637 
0.585691 -0.176953 0.626 
0.600893 -0.174126 0.616 
-17.8641 -6.15291 21.949 
-0.396293 -0.326582 1.165 
-0.370267 -0.345644 1.233 
-0.309205 -0.362183 1.292 
-0.262483 -0.368911 1.316 
-0.0717724 -0.389095 1.388 
-0.00358019 -0.407877 1.455 
0.0540162 -0.404793 1.444 
0.100799 -0.354895 1.266 
0.141116 -0.331067 1.181 
0.258237 -0.35097 1.252 
0.310859 -0.354054 1.263 
0.468722 -0.394701 1.408 
0.53343 -0.401149 1.431 
0.632569 -0.429742 1.533 
0.696854 -0.431705 1.54 
0.754804 -0.429742 1.533 
0.710605 -0.36779 1.312 
0.565484 -0.211928 0.756 
0.556476 -0.195669 0.698 
0.570073 -0.190903 0.681 
0.583523 -0.176606 0.63 
0.596081 -0.172962 0.617 
-16.3553 -5.53825 19.923 
-0.408286 -0.31829 1.145 
-0.374356 -0.328575 1.182 
-0.344673 -0.346088 1.245 
-0.278224 -0.362211 1.303 
-0.230097 -0.368327 1.325 
-0.0495867 -0.390565 1.405 
0.00663361 -0.403075 1.45 
0.0648014 -0.385006 1.385 
0.108314 -0.338305 1.217 
0.151034 -0.325796 1.172 
0.266619 -0.347478 1.25 
0.324555 -0.356374 1.282 
0.477138 -0.387508 1.394 
0.571321 -0.408078 1.468 
0.653874 -0.423645 1.524 
0.723073 -0.428649 1.542 
0.731127 -0.399461 1.437 
0.533302 -0.218772 0.787 
0.559382 -0.197368 0.71 
0.567823 -0.190696 0.686 
0.583894 -0.175685 0.632 
0.595598 -0.171793 0.618 
-16.402 -5.49152 19.923 
-0.6431 -0.262407 0.952 
-0.548886 -0.275637 1 
-0.37911 -0.322771 1.171 
-0.353148 -0.342893 1.244 
-0.284336 -0.359155 1.303 
-0.237204 -0.366598 1.33 
-0.081009 -0.380104 1.379 
-0.0235245 -0.392232 1.423 
0.0338143 -0.399399 1.449 
0.084952 -0.357226 1.296 
0.129707 -0.324701 1.178 
0.176319 -0.314227 1.14 
0.285531 -0.342617 1.243 
0.348836 -0.356675 1.294 
0.480554 -0.381758 1.385 
0.577812 -0.40436 1.467 
0.659287 -0.418969 1.52 
0.728411 -0.42393 1.538 
0.72503 -0.3892 1.412 
0.535148 -0.216927 0.787 
0.55875 -0.194324 0.705 
0.567711 -0.187985 0.682 
0.583144 -0.1731 0.628 
0.598496 -0.170344 0.618 
-16.8749 -5.61779 20.556 
-0.6431 -0.260174 0.952 
-0.552586 -0.271652 0.994 
-0.386132 -0.314559 1.151 
-0.36537 -0.337789 1.236 
-0.292828 -0.35528 1.3 
-0.245634 -0.362112 1.325 
-0.103121 -0.374957 1.372 
-0.0491985 -0.380969 1.394 
0.00656041 -0.391901 1.434 
0.0624422 -0.383976 1.405 
0.111587 -0.325491 1.191 
0.156154 -0.314013 1.149 
0.263266 -0.341069 1.248 
0.316783 -0.345168 1.263 
0.410637 -0.362659 1.327 
0.484588 -0.376597 1.378 
0.583896 -0.400373 1.465 
0.666416 -0.415404 1.52 
0.734668 -0.419777 1.536 
0.667876 -0.345988 1.266 
0.551369 -0.198957 0.728 
0.560462 -0.192124 0.703 
0.571482 -0.17436 0.638 
0.586626 -0.171354 0.627 
0.601869 -0.168621 0.617 
-16.9997 -5.65927 20.887 
-0.639976 -0.258483 0.954 
-0.547487 -0.267967 0.989 
-0.379019 -0.312673 1.154 
-0.358406 -0.336516 1.242 
-0.279506 -0.35467 1.309 
-0.214054 -0.353044 1.303 
-0.0811852 -0.374449 1.382 
-0.0266541 -0.382577 1.412 
0.0301012 -0.388538 1.434 
0.0876519 -0.349793 1.291 
0.137292 -0.31755 1.172 
0.242778 -0.338142 1.248 
0.291361 -0.336787 1.243 
0.355453 -0.351147 1.296 
0.46216 -0.370926 1.369 
0.527308 -0.378513 1.397 
0.646459 -0.410485 1.515 
0.713391 -0.414278 1.529 
0.752066 -0.402356 1.485 
0.549854 -0.196708 0.726 
0.560462 -0.190476 0.703 
0.569986 -0.172864 0.638 
0.586089 -0.170155 0.628 
0.601395 -0.167445 0.618 
-17.2789 -5.70242 21.23 
-0.639976 -0.256246 0.954 
-0.562602 -0.261887 0.975 
-0.40383 -0.306206 1.14 
-0.370012 -0.316144 1.177 
-0.282575 -0.3516 1.309 
-0.0717724 -0.372819 1.388 
-0.0167791 -0.380609 1.417 
0.039966 -0.383026 1.426 
0.0966598 -0.346496 1.29 
0.144668 -0.312921 1.165 
0.254689 -0.335484 1.249 
0.303509 -0.334409 1.245 
0.408161 -0.354286 1.319 
0.484988 -0.367985 1.37 
0.551029 -0.375774 1.399 
0.655874 -0.403977 1.504 
0.729638 -0.411767 1.533 
0.656008 -0.332529 1.238 
0.64497 -0.304057 1.132 
0.560403 -0.189364 0.705 
0.567641 -0.182649 0.68 
0.584072 -0.168951 0.629 
0.599465 -0.166265 0.619 
-18.8212 -6.15719 23.125 
-0.642214 -0.254009 0.954 
-0.602825 -0.266257 1 
-0.537796 -0.261997 0.984 
-0.374682 -0.305929 1.149 
-0.352013 -0.330158 1.24 
-0.11039 -0.357583 1.343 
-0.058752 -0.369564 1.388 
-0.00348669 -0.377286 1.417 
0.0531184 -0.378084 1.42 
0.112523 -0.319774 1.201 
0.152124 -0.303266 1.139 
0.257618 -0.332555 1.249 
0.306429 -0.33149 1.245 
0.411566 -0.351459 1.32 
0.48072 -0.363973 1.367 
0.538743 -0.366369 1.376 
0.640623 -0.395391 1.485 
0.720563 -0.407106 1.529 
0.65627 -0.331223 1.244 
0.543996 -0.193036 0.725 
0.562628 -0.189575 0.712 
0.565281 -0.181321 0.681 
0.567599 -0.169605 0.637 
0.584616 -0.167209 0.628 
0.600916 -0.164813 0.619 
-0.655818 -0.245965 0.932 
-0.637911 -0.253619 0.961 
-0.607709 -0.25705 0.974 
-0.554591 -0.257841 0.977 
-0.397434 -0.300067 1.137 
-0.371614 -0.316694 1.2 
-0.263955 -0.345196 1.308 
-0.0555369 -0.366573 1.389 
-0.000163349 -0.373435 1.415 
0.0563293 -0.373963 1.417 
0.108171 -0.338598 1.283 
0.151857 -0.300067 1.137 
0.28622 -0.328834 1.246 
0.401974 -0.348099 1.319 
0.469379 -0.359447 1.362 
0.527524 -0.362087 1.372 
0.617445 -0.383991 1.455 
0.705628 -0.401145 1.52 
0.779837 -0.408271 1.547 
0.657635 -0.305873 1.159 
0.559853 -0.189225 0.717 
0.566279 -0.182099 0.69 
0.577438 -0.177085 0.671 
0.579794 -0.16732 0.634 
0.597435 -0.165209 0.626 
0.610462 -0.162042 0.614 
-0.648078 -0.246657 0.943 
-0.627961 -0.253719 0.97 
-0.577504 -0.25555 0.977 
-0.540206 -0.256335 0.98 
-0.379102 -0.297662 1.138 
-0.359246 -0.320419 1.225 
-0.270296 -0.34239 1.309 
-0.21116 -0.341082 1.304 
-0.0750816 -0.363316 1.389 
-0.0199036 -0.366978 1.403 
0.0363393 -0.370116 1.415 
0.0936345 -0.337421 1.29 
0.138009 -0.302109 1.155 
0.179913 -0.295308 1.129 
0.313163 -0.323558 1.237 
0.438159 -0.349191 1.335 
0.503897 -0.358084 1.369 
0.562555 -0.3607 1.379 
0.664106 -0.387903 1.483 
0.758343 -0.406736 1.555 
0.664181 -0.319372 1.221 
0.549611 -0.188066 0.719 
0.564604 -0.18362 0.702 
0.567266 -0.175773 0.672 
0.569093 -0.166618 0.637 
0.586089 -0.164264 0.628 
0.603341 -0.162171 0.62 
-20.4443 -6.45564 24.904 
-0.645524 -0.246001 0.949 
-0.621777 -0.251704 0.971 
-0.568339 -0.253259 0.977 
-0.532639 -0.254814 0.983 
-0.371748 -0.295512 1.14 
-0.352059 -0.318842 1.23 
-0.254764 -0.343209 1.324 
-0.197097 -0.334914 1.292 
-0.0815377 -0.359799 1.388 
-0.0264087 -0.36265 1.399 
0.0296394 -0.36602 1.412 
0.0844931 -0.334136 1.289 
0.132477 -0.299141 1.154 
0.172762 -0.28955 1.117 
0.250349 -0.321953 1.242 
0.299141 -0.321175 1.239 
0.399184 -0.342172 1.32 
0.464474 -0.351763 1.357 
0.524307 -0.355651 1.372 
0.597996 -0.367316 1.417 
0.68913 -0.386758 1.492 
0.795276 -0.410866 1.585 
0.673578 -0.311584 1.202 
0.559072 -0.185602 0.716 
0.5671 -0.179122 0.691 
0.580019 -0.174715 0.674 
0.57682 -0.164346 0.634 
0.595449 -0.162532 0.627 
0.609561 -0.15968 0.616 
-0.65441 -0.238895 0.93 
-0.636583 -0.246344 0.959 
-0.601473 -0.250454 0.975 
-0.561465 -0.250968 0.977 
-0.404152 -0.289242 1.126 
-0.368513 -0.296692 1.155 
-0.344242 -0.316728 1.233 
-0.242527 -0.340361 1.325 
-0.183975 -0.330086 1.285 
-0.0815377 -0.356544 1.388 
-0.0263143 -0.358085 1.394 
0.0294925 -0.360911 1.405 
0.0846898 -0.331884 1.292 
0.131903 -0.29515 1.149 
0.172452 -0.286417 1.115 
0.249341 -0.317756 1.237 
0.298658 -0.317756 1.237 
0.396088 -0.339076 1.32 
0.470838 -0.348581 1.357 
0.530742 -0.352434 1.372 
0.604642 -0.363993 1.417 
0.692862 -0.381461 1.485 
0.804736 -0.408176 1.589 
0.675271 -0.308251 1.2 
0.561838 -0.182639 0.711 
0.566112 -0.175189 0.682 
0.587923 -0.173134 0.674 
0.580568 -0.161832 0.63 
0.60184 -0.160804 0.626 
-23.3748 -7.16555 28.152 
-0.645462 -0.238241 0.936 
-0.630236 -0.246895 0.97 
-0.592327 -0.248168 0.975 
-0.552865 -0.248931 0.978 
-0.391142 -0.28482 1.119 
-0.369756 -0.30391 1.194 
-0.264677 -0.337762 1.327 
-0.206825 -0.329872 1.296 
-0.0845484 -0.352271 1.384 
-0.029541 -0.354307 1.392 
0.0260857 -0.356089 1.399 
0.0790559 -0.330635 1.299 
0.126514 -0.292456 1.149 
0.166473 -0.282529 1.11 
0.233125 -0.308746 1.213 
0.288214 -0.316127 1.242 
0.334472 -0.302637 1.189 
0.44675 -0.34158 1.342 
0.510318 -0.348453 1.369 
0.566135 -0.349216 1.372 
0.659749 -0.371106 1.458 
0.778438 -0.402413 1.581 
0.672868 -0.309509 1.216 
0.558291 -0.18199 0.715 
0.5671 -0.175881 0.691 
0.585629 -0.171808 0.675 
0.579447 -0.160863 0.632 
0.59986 -0.159591 0.627 
-0.663859 -0.230245 0.913 
-0.644641 -0.23655 0.938 
-0.627961 -0.24462 0.97 
-0.59172 -0.245629 0.974 
-0.554591 -0.246385 0.977 
-0.394619 -0.280935 1.114 
-0.36844 -0.295562 1.172 
-0.270901 -0.33465 1.327 
-0.207463 -0.327841 1.3 
-0.0712553 -0.347512 1.378 
-0.0164831 -0.351042 1.392 
0.0387328 -0.348521 1.382 
0.0912414 -0.327589 1.299 
0.139134 -0.287996 1.142 
0.181429 -0.282952 1.122 
0.254937 -0.311701 1.236 
0.299537 -0.30691 1.217 
0.402584 -0.333137 1.321 
0.465244 -0.340451 1.35 
0.527524 -0.345999 1.372 
0.587315 -0.349025 1.384 
0.679166 -0.368948 1.463 
0.805749 -0.401227 1.591 
0.675167 -0.29884 1.185 
0.565408 -0.177286 0.703 
0.568111 -0.169721 0.673 
0.575657 -0.16039 0.636 
0.593453 -0.158373 0.628 
0.610611 -0.156355 0.62 
-0.645581 -0.233101 0.933 
-0.629251 -0.241096 0.965 
-0.595064 -0.242845 0.972 
-0.559174 -0.244094 0.977 
-0.526612 -0.247092 0.989 
-0.380872 -0.277823 1.112 
-0.351718 -0.302057 1.209 
-0.218609 -0.327791 1.312 
-0.064651 -0.343531 1.375 
-0.00995413 -0.347778 1.392 
0.0450186 -0.34378 1.376 
0.108677 -0.322044 1.289 
0.152213 -0.279821 1.12 
0.21681 -0.296311 1.186 
0.279476 -0.310302 1.242 
0.318132 -0.300058 1.201 
0.423404 -0.331788 1.328 
0.484957 -0.337784 1.352 
0.542047 -0.339783 1.36 
0.613366 -0.349527 1.399 
0.705492 -0.368515 1.475 
0.823368 -0.396996 1.589 
0.549764 -0.179136 0.717 
0.567056 -0.175638 0.703 
0.569689 -0.168143 0.673 
0.57864 -0.158899 0.636 
0.596399 -0.1569 0.628 
-0.658132 -0.225468 0.911 
-0.643655 -0.233388 0.943 
-0.622769 -0.239823 0.969 
-0.58474 -0.24007 0.97 
-0.550009 -0.241803 0.977 
-0.520698 -0.249723 1.009 
-0.377584 -0.27472 1.11 
-0.353967 -0.298727 1.207 
-0.246561 -0.329169 1.33 
-0.0740545 -0.339069 1.37 
-0.0196483 -0.342781 1.385 
0.035312 -0.340306 1.375 
0.0854764 -0.322734 1.304 
0.133309 -0.28165 1.138 
0.172241 -0.271502 1.097 
0.278801 -0.306647 1.239 
0.315748 -0.295014 1.192 
0.442612 -0.331396 1.339 
0.504885 -0.337336 1.363 
0.556353 -0.335604 1.356 
0.634272 -0.348721 1.409 
0.767114 -0.385598 1.558 
0.830292 -0.386093 1.56 
0.559288 -0.176217 0.712 
0.569516 -0.170772 0.69 
0.573574 -0.157654 0.637 
0.59198 -0.155427 0.628 
-0.663083 -0.222841 0.909 
-0.644083 -0.22897 0.934 
-0.626988 -0.23657 0.965 
-0.592174 -0.238041 0.971 
-0.555742 -0.239021 0.975 
-0.522281 -0.243679 0.994 
-0.386598 -0.271136 1.106 
-0.369107 -0.294425 1.201 
-0.0453033 -0.337081 1.375 
0.00963274 -0.341249 1.392 
0.0636317 -0.333404 1.36 
0.115332 -0.280697 1.145 
0.15592 -0.271871 1.109 
0.284966 -0.301044 1.228 
0.320599 -0.289032 1.179 
0.478615 -0.331443 1.352 
0.532517 -0.331443 1.352 
0.596828 -0.337327 1.376 
0.674893 -0.349339 1.425 
0.822332 -0.389053 1.587 
0.548997 -0.175527 0.716 
0.567863 -0.172586 0.704 
0.582538 -0.156161 0.637 
0.600298 -0.154199 0.629 
-0.662353 -0.220467 0.908 
-0.643393 -0.226537 0.933 
-0.627637 -0.23455 0.966 
-0.592784 -0.236006 0.972 
-0.555172 -0.236492 0.974 
-0.522703 -0.239406 0.986 
-0.486606 -0.255674 1.053 
-0.369441 -0.269271 1.109 
-0.240503 -0.323173 1.331 
-0.0547372 -0.3324 1.369 
-0.000160347 -0.337256 1.389 
0.0543416 -0.331914 1.367 
0.108147 -0.303021 1.248 
0.14472 -0.27267 1.123 
0.291173 -0.292823 1.206 
0.329971 -0.28481 1.173 
0.488489 -0.328515 1.353 
0.536817 -0.325116 1.339 
0.606068 -0.333857 1.375 
0.691648 -0.349396 1.439 
0.82873 -0.384846 1.585 
0.549907 -0.173606 0.715 
0.569478 -0.16705 0.688 
0.569986 -0.15491 0.638 
0.589822 -0.153453 0.632 
0.610153 -0.152239 0.627 
-0.653836 -0.218337 0.908 
-0.644164 -0.227715 0.947 
-0.622418 -0.233727 0.972 
-0.579463 -0.232044 0.965 
-0.546596 -0.234448 0.975 
-0.518661 -0.239498 0.996 
-0.486144 -0.252964 1.052 
-0.397035 -0.259216 1.078 
-0.363269 -0.267872 1.114 
-0.265674 -0.320292 1.332 
-0.21257 -0.320292 1.332 
-0.0419257 -0.32943 1.37 
0.0128324 -0.333037 1.385 
0.0661333 -0.323659 1.346 
0.108403 -0.29288 1.218 
0.143947 -0.268594 1.117 
0.297219 -0.284945 1.185 
0.338649 -0.280136 1.165 
0.501181 -0.325342 1.353 
0.548968 -0.321735 1.338 
0.618967 -0.330632 1.375 
0.725238 -0.35588 1.48 
0.830873 -0.377041 1.568 
0.554938 -0.171929 0.715 
0.564954 -0.161829 0.673 
0.56727 -0.153894 0.64 
0.589081 -0.152932 0.636 
0.607674 -0.151249 0.629 
-0.660092 -0.214779 0.902 
-0.643505 -0.221447 0.93 
-0.629903 -0.230019 0.966 
-0.596288 -0.231924 0.974 
-0.551161 -0.229304 0.963 
-0.52182 -0.233352 0.98 
-0.495233 -0.247639 1.04 
-0.456661 -0.251925 1.058 
-0.387248 -0.258592 1.086 
-0.363271 -0.273117 1.147 
-0.279815 -0.315502 1.325 
-0.227332 -0.315978 1.327 
-0.0701177 -0.322883 1.356 
-0.0163292 -0.32836 1.379 
0.0380321 -0.323122 1.357 
0.0875161 -0.30693 1.289 
0.121987 -0.269546 1.132 
0.160179 -0.258354 1.085 
0.305733 -0.279785 1.175 
0.450344 -0.317645 1.334 
0.521516 -0.317169 1.332 
0.588856 -0.325026 1.365 
0.65977 -0.33336 1.4 
0.810144 -0.377412 1.585 
0.824847 -0.356458 1.497 
0.564208 -0.170014 0.714 
0.572274 -0.158346 0.665 
0.578963 -0.151917 0.638 
0.60061 -0.150965 0.634 
0.618976 -0.149298 0.627 
-0.649577 -0.214079 0.908 
-0.642424 -0.224217 0.951 
-0.61913 -0.229639 0.974 
-0.569574 -0.225396 0.956 
-0.541467 -0.229639 0.974 
-0.511925 -0.233883 0.992 
-0.494757 -0.244964 1.039 
-0.460751 -0.248972 1.056 
-0.385821 -0.255103 1.082 
-0.366554 -0.274907 1.166 
-0.261171 -0.312394 1.325 
-0.210075 -0.314988 1.336 
-0.0575668 -0.320646 1.36 
-0.00339319 -0.325126 1.379 
0.0504999 -0.318289 1.35 
0.0982168 -0.299663 1.271 
0.130849 -0.263354 1.117 
0.167374 -0.25133 1.066 
0.320073 -0.275143 1.167 
0.493737 -0.318289 1.35 
0.539853 -0.313809 1.331 
0.608063 -0.321825 1.365 
0.690632 -0.3355 1.423 
0.828245 -0.371808 1.577 
0.830654 -0.346581 1.47 
0.565883 -0.168339 0.714 
0.572274 -0.156787 0.665 
0.579871 -0.150657 0.639 
0.60061 -0.149478 0.634 
0.618976 -0.147827 0.627 
-0.650908 -0.210315 0.901 
-0.643655 -0.220119 0.943 
-0.625983 -0.227355 0.974 
-0.58052 -0.224788 0.963 
-0.542127 -0.224788 0.963 
-0.51315 -0.228989 0.981 
-0.493852 -0.23856 1.022 
-0.466851 -0.245796 1.053 
-0.431325 -0.249531 1.069 
-0.378908 -0.253032 1.084 
-0.296657 -0.30742 1.317 
-0.247673 -0.311855 1.336 
-0.0943601 -0.312555 1.339 
-0.0416809 -0.317924 1.362 
0.012749 -0.321192 1.376 
0.0655928 -0.311621 1.335 
0.109026 -0.285945 1.225 
0.143045 -0.259101 1.11 
0.288708 -0.273807 1.173 
0.329181 -0.268671 1.151 
0.509021 -0.310921 1.332 
0.565079 -0.312555 1.339 
0.63278 -0.319791 1.37 
0.768243 -0.355739 1.524 
0.825738 -0.354338 1.518 
0.560751 -0.167132 0.716 
0.572274 -0.155227 0.665 
0.579277 -0.149392 0.64 
0.599123 -0.147991 0.634 
0.617505 -0.146357 0.627 
-0.652774 -0.206123 0.892 
-0.643505 -0.214904 0.93 
-0.631207 -0.223685 0.968 
-0.595064 -0.224609 0.972 
-0.544865 -0.219987 0.952 
-0.520223 -0.225764 0.977 
-0.490139 -0.229924 0.995 
-0.472457 -0.242402 1.049 
-0.437615 -0.24633 1.066 
-0.388367 -0.24841 1.075 
-0.356116 -0.256036 1.108 
-0.256303 -0.307797 1.332 
-0.100641 -0.309415 1.339 
-0.0478926 -0.313574 1.357 
0.00626762 -0.316578 1.37 
0.0594645 -0.309184 1.338 
0.1078 -0.287462 1.244 
0.14785 -0.255805 1.107 
0.290962 -0.270594 1.171 
0.330438 -0.264817 1.146 
0.500626 -0.310339 1.343 
0.547566 -0.306642 1.327 
0.613594 -0.313343 1.356 
0.703105 -0.329981 1.428 
0.82219 -0.3554 1.538 
0.853563 -0.337838 1.462 
0.565789 -0.165453 0.716 
0.573834 -0.153668 0.665 
0.579277 -0.147891 0.64 
0.599123 -0.146504 0.634 
0.61652 -0.144655 0.626 
-0.652042 -0.203802 0.891 
-0.644889 -0.21318 0.932 
-0.631859 -0.221643 0.969 
-0.593839 -0.221872 0.97 
-0.543148 -0.217068 0.949 
-0.51969 -0.223244 0.976 
-0.488661 -0.226904 0.992 
-0.472201 -0.238569 1.043 
-0.435986 -0.241543 1.056 
-0.394259 -0.241772 1.057 
-0.36078 -0.247719 1.083 
-0.23514 -0.305588 1.336 
-0.0665427 -0.308333 1.348 
-0.0128483 -0.309477 1.353 
0.0467729 -0.305131 1.334 
