# .PCD v.7 - Point Cloud Data file format
VERSION .7
FIELDS x y z
SIZE 4 4 4
TYPE F F F
COUNT 1 1 1
WIDTH 1891
HEIGHT 1
VIEWPOINT 0 0 0 1 0 0 0
POINTS 1891
DATA ascii
0.285277 0.316541 0.72 
0.307005 0.309507 0.704 
0.312226 0.288404 0.656 
0.315046 0.267301 0.608 
0.321658 0.252353 0.574 
0.327135 0.239604 0.545 
0.347583 0.238725 0.543 
0.371272 0.240044 0.546 
0.393039 0.240044 0.546 
0.414048 0.239604 0.545 
0.438174 0.240923 0.548 
0.460022 0.240923 0.548 
0.48187 0.240923 0.548 
0.503717 0.240923 0.548 
0.527483 0.241802 0.55 
-0.591909 0.309832 0.701 
-0.559134 0.30718 0.695 
-0.535249 0.30939 0.7 
-0.508791 0.310274 0.702 
-0.480804 0.310274 0.702 
-0.471523 0.323091 0.731 
-0.407959 0.312484 0.707 
-0.378161 0.311158 0.704 
-0.350591 0.3116 0.705 
-0.322484 0.3116 0.705 
-0.294795 0.312042 0.706 
-0.266648 0.312042 0.706 
-0.239852 0.31381 0.71 
-0.211546 0.31381 0.71 
-0.182724 0.312926 0.708 
-0.154934 0.31381 0.71 
-0.127519 0.31602 0.715 
-0.0985982 0.314694 0.712 
-0.0699164 0.313368 0.709 
-0.0420612 0.316462 0.716 
-0.0134969 0.31602 0.715 
0.0150296 0.316462 0.716 
0.0436968 0.317345 0.718 
0.0722212 0.316903 0.717 
0.101228 0.318229 0.72 
0.129753 0.317787 0.719 
0.159079 0.319113 0.722 
0.187863 0.319113 0.722 
0.217548 0.320439 0.725 
0.247132 0.321323 0.727 
0.274597 0.319555 0.723 
0.299645 0.315578 0.714 
0.312486 0.30055 0.68 
0.313922 0.272705 0.617 
0.317671 0.25591 0.579 
0.323099 0.24265 0.549 
0.341216 0.239998 0.543 
0.364201 0.240882 0.545 
0.388053 0.242208 0.548 
0.406909 0.24044 0.544 
0.430961 0.241766 0.547 
0.454424 0.24265 0.549 
0.475444 0.242208 0.548 
0.496384 0.241766 0.547 
0.521034 0.243092 0.55 
0.543948 0.243534 0.551 
-0.568913 0.30881 0.695 
-0.543541 0.310143 0.698 
-0.518669 0.31192 0.702 
-0.490682 0.31192 0.702 
-0.472581 0.318585 0.717 
-0.419781 0.316808 0.713 
-0.385318 0.31192 0.702 
-0.358858 0.313253 0.705 
-0.330751 0.313253 0.705 
-0.303073 0.313697 0.706 
-0.274926 0.313697 0.706 
-0.247828 0.31503 0.709 
-0.219252 0.314586 0.708 
-0.191295 0.31503 0.709 
-0.163259 0.315475 0.71 
-0.135713 0.317252 0.714 
-0.106947 0.316363 0.712 
-0.0781197 0.314586 0.708 
-0.0503865 0.317696 0.715 
-0.0219115 0.318141 0.716 
0.00663392 0.318141 0.716 
0.0352285 0.318585 0.717 
0.0638138 0.318585 0.717 
0.0926568 0.319474 0.719 
0.121322 0.319474 0.719 
0.150613 0.320807 0.722 
0.1789 0.319918 0.72 
0.208759 0.321695 0.724 
0.238279 0.322584 0.726 
0.266856 0.32214 0.725 
0.292088 0.318141 0.716 
0.309886 0.307477 0.692 
0.310652 0.283039 0.637 
0.316529 0.266598 0.6 
0.322668 0.250602 0.564 
0.335466 0.241716 0.544 
0.357154 0.241716 0.544 
0.380931 0.243049 0.547 
0.401266 0.24216 0.545 
0.423771 0.242604 0.546 
0.44717 0.243493 0.548 
0.468162 0.243049 0.547 
0.489074 0.242604 0.546 
0.513649 0.243937 0.549 
0.536512 0.244382 0.55 
-0.577089 0.311333 0.697 
-0.549301 0.311333 0.697 
-0.523758 0.312673 0.7 
-0.497267 0.313566 0.702 
-0.475964 0.318033 0.712 
-0.422045 0.318926 0.714 
-0.386964 0.313566 0.702 
-0.360511 0.314906 0.705 
-0.331933 0.31446 0.704 
-0.304729 0.315353 0.706 
-0.276582 0.315353 0.706 
-0.249139 0.316246 0.708 
-0.220913 0.316246 0.708 
-0.192686 0.316246 0.708 
-0.164692 0.316693 0.709 
-0.13758 0.319373 0.715 
-0.108617 0.318033 0.712 
-0.0797801 0.316246 0.708 
-0.0519905 0.318926 0.714 
-0.0235907 0.31982 0.716 
0.00495477 0.31982 0.716 
0.033547 0.320266 0.717 
0.0621323 0.320266 0.717 
0.0908441 0.320713 0.718 
0.119802 0.321606 0.72 
0.14892 0.3225 0.722 
0.176966 0.32116 0.719 
0.207347 0.32384 0.725 
0.236251 0.32384 0.725 
0.265155 0.32384 0.725 
0.290815 0.320266 0.717 
0.308709 0.309546 0.693 
0.310615 0.285872 0.64 
0.315647 0.268452 0.601 
0.322485 0.252818 0.566 
0.333526 0.243438 0.545 
0.354602 0.242992 0.544 
0.377674 0.243885 0.546 
0.399442 0.243885 0.546 
0.42121 0.243885 0.546 
0.445411 0.245225 0.549 
0.464745 0.243885 0.546 
0.486513 0.243885 0.546 
0.511074 0.245225 0.549 
0.533932 0.245672 0.55 
-0.578724 0.312968 0.697 
-0.550936 0.312968 0.697 
-0.525399 0.314315 0.7 
-0.498913 0.315213 0.702 
-0.476963 0.319254 0.711 
-0.427666 0.32105 0.715 
-0.391903 0.315213 0.702 
-0.365471 0.31656 0.705 
-0.336886 0.316111 0.704 
-0.309696 0.317009 0.706 
-0.281549 0.317009 0.706 
-0.253761 0.317458 0.707 
-0.225894 0.317907 0.708 
-0.197946 0.318356 0.709 
-0.169919 0.318805 0.71 
-0.142411 0.320601 0.714 
-0.113626 0.319703 0.712 
-0.0847612 0.317907 0.708 
-0.0568541 0.319703 0.712 
-0.0286681 0.321948 0.717 
-8.26556e-05 0.321499 0.716 
0.0285025 0.321948 0.717 
0.0570878 0.321948 0.717 
0.0857926 0.322397 0.718 
0.114737 0.323295 0.72 
0.143641 0.323744 0.721 
0.171907 0.322846 0.719 
0.202246 0.32554 0.725 
0.230513 0.324642 0.723 
0.260413 0.325989 0.726 
0.286567 0.322846 0.719 
0.307341 0.314764 0.701 
0.311458 0.290965 0.648 
0.315431 0.272107 0.606 
0.320538 0.25684 0.572 
0.328414 0.244716 0.545 
0.348857 0.243818 0.543 
0.372552 0.245165 0.546 
0.395042 0.245614 0.547 
0.415326 0.244716 0.545 
0.43946 0.246063 0.548 
0.460465 0.245614 0.547 
0.482273 0.245614 0.547 
0.505002 0.246063 0.548 
0.528773 0.246961 0.55 
-0.591064 0.315956 0.7 
-0.559134 0.313699 0.695 
-0.532955 0.314602 0.697 
-0.508791 0.316859 0.702 
-0.481489 0.31731 0.703 
-0.471523 0.329949 0.731 
-0.397407 0.31731 0.703 
-0.370431 0.318213 0.705 
-0.341839 0.317762 0.704 
-0.314663 0.318664 0.706 
-0.28611 0.318213 0.705 
-0.258369 0.318664 0.706 
-0.231201 0.320019 0.709 
-0.202648 0.319567 0.708 
-0.174668 0.320019 0.709 
-0.147434 0.322275 0.714 
-0.118969 0.322275 0.714 
-0.0896156 0.319116 0.707 
-0.0618634 0.321373 0.712 
-0.0336655 0.323178 0.716 
-0.00512009 0.323178 0.716 
0.0234581 0.323629 0.717 
0.0521885 0.324532 0.719 
0.0806287 0.323629 0.717 
0.109976 0.325886 0.722 
0.13876 0.325886 0.722 
0.166849 0.324532 0.719 
0.196601 0.326338 0.723 
0.225114 0.325886 0.722 
0.254602 0.326789 0.724 
0.282683 0.325886 0.722 
0.304566 0.318664 0.706 
0.312919 0.299707 0.664 
0.313324 0.276687 0.613 
0.318966 0.259084 0.574 
0.325857 0.245994 0.545 
0.34631 0.245092 0.543 
0.369313 0.245994 0.545 
0.393194 0.247349 0.548 
0.412769 0.245994 0.545 
0.436092 0.246897 0.547 
0.4579 0.246897 0.547 
0.479707 0.246897 0.547 
0.501515 0.246897 0.547 
0.526193 0.248251 0.55 
-0.593553 0.318052 0.701 
-0.560764 0.315329 0.695 
-0.533823 0.315783 0.696 
-0.510437 0.318505 0.702 
-0.483137 0.318959 0.703 
-0.47259 0.331209 0.73 
-0.399056 0.318959 0.703 
-0.372084 0.319866 0.705 
-0.34349 0.319413 0.704 
-0.315871 0.319866 0.705 
-0.287764 0.319866 0.705 
-0.260025 0.32032 0.706 
-0.232535 0.321227 0.708 
-0.204309 0.321227 0.708 
-0.176331 0.321681 0.709 
-0.149109 0.32395 0.714 
-0.120812 0.324403 0.715 
-0.0912736 0.320774 0.707 
-0.0634439 0.322589 0.711 
-0.0353447 0.324857 0.716 
-0.00678973 0.324403 0.715 
0.0217462 0.324857 0.716 
0.0505024 0.326218 0.719 
0.0789472 0.325311 0.717 
0.108282 0.327579 0.722 
0.137067 0.327579 0.722 
0.165163 0.326218 0.719 
0.194636 0.327579 0.722 
0.223111 0.327126 0.721 
0.252555 0.328033 0.723 
0.28099 0.327579 0.722 
0.303768 0.321227 0.708 
0.313238 0.303079 0.668 
0.313324 0.278125 0.613 
0.318727 0.261338 0.576 
0.323301 0.247273 0.545 
0.343763 0.246365 0.543 
0.366757 0.247273 0.545 
0.390624 0.248634 0.548 
0.410213 0.247273 0.545 
0.433526 0.24818 0.547 
0.455334 0.24818 0.547 
0.477142 0.24818 0.547 
0.49895 0.24818 0.547 
0.522661 0.249087 0.549 
0.545541 0.249541 0.55 
-0.564835 0.317415 0.696 
-0.537087 0.317415 0.696 
-0.512998 0.319696 0.701 
-0.486435 0.320608 0.703 
-0.473405 0.331097 0.726 
-0.390257 0.320152 0.702 
-0.363302 0.321064 0.704 
-0.335235 0.321064 0.704 
-0.307604 0.32152 0.705 
-0.279497 0.32152 0.705 
-0.251747 0.321976 0.706 
-0.224233 0.322888 0.708 
-0.19573 0.322432 0.707 
-0.168017 0.323344 0.709 
-0.140736 0.325624 0.714 
-0.111956 0.324712 0.712 
-0.0829834 0.322432 0.707 
-0.0551844 0.324712 0.712 
-0.0269489 0.326536 0.716 
0.00159426 0.32608 0.715 
0.030184 0.326992 0.717 
0.0587693 0.326992 0.717 
0.0875983 0.327905 0.719 
0.116748 0.329273 0.722 
0.145332 0.328817 0.721 
0.173352 0.327448 0.718 
0.203665 0.330185 0.724 
0.231887 0.329273 0.722 
0.260672 0.329273 0.722 
0.287452 0.326992 0.717 
0.307662 0.318327 0.698 
0.312012 0.294612 0.646 
0.31476 0.274546 0.602 
0.321525 0.259496 0.569 
0.329087 0.248095 0.544 
0.350775 0.248095 0.544 
0.373148 0.248551 0.545 
0.397049 0.249919 0.548 
0.417368 0.249007 0.546 
0.43994 0.249463 0.547 
0.460904 0.249007 0.546 
0.483556 0.249463 0.547 
0.506288 0.249919 0.548 
0.530063 0.250831 0.55 
-0.589423 0.320881 0.7 
-0.558306 0.319047 0.696 
-0.530558 0.319047 0.696 
-0.506422 0.321339 0.701 
-0.480523 0.322715 0.704 
-0.468523 0.334175 0.729 
-0.385318 0.321798 0.702 
-0.358349 0.322715 0.704 
-0.330281 0.322715 0.704 
-0.302644 0.323173 0.705 
-0.274537 0.323173 0.705 
-0.24678 0.323631 0.706 
-0.218942 0.32409 0.707 
-0.190486 0.323631 0.706 
-0.162569 0.32409 0.707 
-0.135903 0.327757 0.715 
-0.106346 0.324548 0.708 
-0.0780093 0.32409 0.707 
-0.050316 0.327299 0.714 
-0.0219115 0.328215 0.716 
0.00662465 0.327757 0.715 
0.0352776 0.329132 0.718 
0.0638138 0.328674 0.717 
0.0930434 0.330966 0.722 
0.121828 0.330966 0.722 
0.150404 0.330507 0.721 
0.178403 0.329132 0.718 
0.20847 0.331424 0.723 
0.236967 0.330966 0.722 
0.265383 0.330507 0.721 
0.292088 0.328215 0.716 
0.309886 0.317214 0.692 
0.312146 0.292002 0.637 
0.316346 0.273666 0.597 
0.321524 0.257622 0.562 
0.332914 0.24937 0.544 
0.355254 0.249829 0.545 
0.377674 0.250287 0.546 
0.400905 0.251204 0.548 
0.42121 0.250287 0.546 
0.443789 0.250746 0.547 
0.464745 0.250287 0.546 
0.487404 0.250746 0.547 
0.511074 0.251662 0.549 
0.533932 0.252121 0.55 
-0.583663 0.322062 0.699 
-0.554205 0.32114 0.697 
-0.526417 0.32114 0.697 
-0.50149 0.322983 0.701 
-0.476921 0.325287 0.706 
-0.435946 0.324366 0.704 
-0.397407 0.323905 0.703 
-0.369906 0.324366 0.704 
-0.341839 0.324366 0.704 
-0.314217 0.324826 0.705 
-0.28611 0.324826 0.705 
-0.258369 0.325287 0.706 
-0.230549 0.325748 0.707 
-0.202076 0.325287 0.706 
-0.174668 0.326669 0.709 
-0.147021 0.328052 0.712 
-0.118969 0.328973 0.714 
-0.0897423 0.326209 0.708 
-0.0618634 0.328052 0.712 
-0.0336185 0.329434 0.715 
-0.00511293 0.329434 0.715 
0.0234581 0.330355 0.717 
0.052116 0.330816 0.718 
0.0807411 0.330816 0.718 
0.109823 0.332198 0.721 
0.13876 0.332659 0.722 
0.166617 0.330816 0.718 
0.19633 0.332659 0.722 
0.224802 0.332198 0.721 
0.252844 0.331277 0.719 
0.282292 0.332198 0.721 
0.304134 0.324826 0.705 
0.312226 0.30225 0.656 
0.31362 0.280134 0.608 
0.319522 0.264929 0.575 
0.323984 0.250646 0.544 
0.345672 0.250646 0.544 
0.368711 0.251568 0.546 
0.391194 0.252028 0.547 
0.412246 0.251568 0.546 
0.434014 0.251568 0.546 
0.455782 0.251568 0.546 
0.478425 0.252028 0.547 
0.499318 0.251568 0.546 
0.523949 0.25295 0.549 
0.546831 0.253411 0.55 
-0.564835 0.322312 0.696 
-0.537859 0.322775 0.697 
-0.512266 0.324164 0.7 
-0.486435 0.325554 0.703 
-0.470145 0.333889 0.721 
-0.420031 0.32648 0.705 
-0.384769 0.324627 0.701 
-0.358349 0.326017 0.704 
-0.330281 0.326017 0.704 
-0.302644 0.32648 0.705 
-0.274926 0.326943 0.706 
-0.24678 0.326943 0.706 
-0.218942 0.327406 0.707 
-0.190486 0.326943 0.706 
-0.162569 0.327406 0.707 
-0.135713 0.330648 0.714 
-0.106496 0.328332 0.709 
-0.0780093 0.327406 0.707 
-0.050316 0.330648 0.714 
-0.0218809 0.331111 0.715 
0.00662465 0.331111 0.715 
0.0352285 0.332037 0.717 
0.0638138 0.332037 0.717 
0.0933012 0.335279 0.724 
0.121659 0.333889 0.721 
0.150196 0.333426 0.72 
0.178155 0.332037 0.717 
0.208182 0.334352 0.722 
0.236638 0.333889 0.721 
0.265383 0.333889 0.721 
0.29168 0.331111 0.715 
0.309886 0.32046 0.692 
0.312636 0.295453 0.638 
0.315287 0.27554 0.595 
0.322485 0.26211 0.566 
0.331638 0.251922 0.544 
0.354625 0.252848 0.546 
0.375704 0.252385 0.545 
0.39889 0.253311 0.547 
0.41916 0.252385 0.545 
0.442506 0.253311 0.547 
0.463465 0.252848 0.546 
0.486122 0.253311 0.547 
0.507929 0.253311 0.547 
0.532642 0.254701 0.55 
-0.586139 0.325806 0.7 
-0.555839 0.32441 0.697 
-0.528809 0.324875 0.698 
-0.502417 0.325806 0.7 
-0.477898 0.328133 0.705 
-0.453451 0.333253 0.716 
-0.416725 0.328133 0.705 
-0.385862 0.325806 0.7 
-0.36 0.327668 0.704 
-0.331933 0.327668 0.704 
-0.304297 0.328133 0.705 
-0.276582 0.328599 0.706 
-0.248435 0.328599 0.706 
-0.220913 0.329529 0.708 
-0.19187 0.328133 0.705 
-0.164227 0.329064 0.707 
-0.137388 0.332322 0.714 
-0.108312 0.33046 0.71 
-0.0797801 0.329529 0.708 
-0.0519905 0.332322 0.714 
-0.0235577 0.332787 0.715 
0.00494785 0.332787 0.715 
0.033547 0.333718 0.717 
0.0621323 0.333718 0.717 
0.0916033 0.336976 0.724 
0.119968 0.33558 0.721 
0.148507 0.335115 0.72 
0.176473 0.333718 0.717 
0.206203 0.33558 0.721 
0.234948 0.33558 0.721 
0.262961 0.334649 0.719 
0.290409 0.333253 0.716 
0.309154 0.323013 0.694 
0.312115 0.29788 0.64 
0.315474 0.278331 0.598 
0.321725 0.263903 0.567 
0.330363 0.253198 0.544 
0.353345 0.254129 0.546 
0.374426 0.253663 0.545 
0.397608 0.254594 0.547 
0.418649 0.254129 0.546 
0.440417 0.254129 0.546 
0.462184 0.254129 0.546 
0.484839 0.254594 0.547 
0.506647 0.254594 0.547 
0.531352 0.25599 0.55 
-0.587781 0.327448 0.7 
-0.557474 0.326044 0.697 
-0.530446 0.326512 0.698 
-0.503338 0.32698 0.699 
-0.478872 0.329319 0.704 
-0.45513 0.334932 0.716 
-0.421223 0.330722 0.707 
-0.387503 0.327448 0.7 
-0.361651 0.329319 0.704 
-0.333584 0.329319 0.704 
-0.30595 0.329786 0.705 
-0.278238 0.330254 0.706 
-0.250091 0.330254 0.706 
-0.222573 0.33119 0.708 
-0.193523 0.329786 0.705 
-0.16612 0.33119 0.708 
-0.138672 0.333061 0.712 
-0.109977 0.332125 0.71 
-0.0814404 0.33119 0.708 
-0.0535898 0.333529 0.713 
-0.0252345 0.334464 0.715 
0.00327106 0.334464 0.715 
0.0318655 0.3354 0.717 
0.0604508 0.3354 0.717 
0.0897812 0.338207 0.723 
0.118114 0.336803 0.72 
0.146615 0.336335 0.719 
0.175036 0.335868 0.718 
0.204512 0.337271 0.721 
0.233257 0.337271 0.721 
0.261275 0.336335 0.719 
0.28873 0.334932 0.716 
0.308856 0.326044 0.697 
0.312495 0.302655 0.647 
0.313715 0.280669 0.6 
0.321316 0.267104 0.571 
0.327811 0.254474 0.544 
0.350142 0.254941 0.545 
0.37187 0.254941 0.545 
0.395042 0.255877 0.547 
0.416088 0.255409 0.546 
0.437054 0.254941 0.545 
0.459624 0.255409 0.546 
0.482273 0.255877 0.547 
0.503159 0.255409 0.546 
0.527811 0.256812 0.549 
-0.591909 0.329559 0.701 
-0.560743 0.327679 0.697 
-0.53372 0.328149 0.698 
-0.505892 0.328149 0.698 
-0.481489 0.3305 0.703 
-0.462492 0.337081 0.717 
-0.425139 0.33285 0.708 
-0.392989 0.329559 0.701 
-0.366604 0.33097 0.704 
-0.338537 0.33097 0.704 
-0.31091 0.33144 0.705 
-0.283205 0.33191 0.706 
-0.255058 0.33191 0.706 
-0.227554 0.33285 0.708 
-0.198483 0.33144 0.705 
-0.171101 0.33285 0.708 
-0.143278 0.33379 0.71 
-0.114972 0.33379 0.71 
-0.0864216 0.33285 0.708 
-0.0585239 0.334731 0.712 
-0.0302226 0.335671 0.714 
-0.0017618 0.336611 0.716 
0.026821 0.337081 0.717 
0.0554063 0.337081 0.717 
0.0844602 0.338962 0.721 
0.112891 0.338022 0.719 
0.141556 0.338022 0.719 
0.169984 0.337551 0.718 
0.199163 0.338492 0.72 
0.227868 0.338492 0.72 
0.25586 0.337551 0.718 
0.284485 0.337551 0.718 
0.306569 0.3305 0.703 
0.312226 0.308404 0.656 
0.313104 0.285367 0.607 
0.319522 0.270323 0.575 
0.323984 0.255749 0.544 
0.345672 0.255749 0.544 
0.368035 0.256219 0.545 
0.390478 0.25669 0.546 
0.412246 0.25669 0.546 
0.433219 0.256219 0.545 
0.454947 0.256219 0.545 
0.478425 0.25716 0.547 
0.499318 0.25669 0.546 
0.522995 0.25763 0.548 
0.546831 0.25857 0.55 
-0.564012 0.329313 0.697 
-0.536994 0.329786 0.698 
-0.509166 0.329786 0.698 
-0.484786 0.332148 0.703 
-0.465855 0.338763 0.717 
-0.431171 0.334038 0.707 
-0.400705 0.332148 0.703 
-0.373208 0.332621 0.704 
-0.34465 0.332148 0.703 
-0.317524 0.333093 0.705 
-0.289417 0.333093 0.705 
-0.261681 0.333566 0.706 
-0.233865 0.334038 0.707 
-0.205387 0.333566 0.706 
-0.177743 0.334511 0.708 
-0.149516 0.334511 0.708 
-0.121804 0.335928 0.711 
-0.093326 0.335456 0.71 
-0.0652029 0.3364 0.712 
-0.0369204 0.337345 0.714 
-0.00846653 0.337818 0.715 
0.0200951 0.338763 0.717 
0.0486804 0.338763 0.717 
0.0772657 0.338763 0.717 
0.106146 0.339708 0.719 
0.134811 0.339708 0.719 
0.163476 0.339708 0.719 
0.192141 0.339708 0.719 
0.220806 0.339708 0.719 
0.249124 0.339235 0.718 
0.279297 0.341125 0.722 
0.301681 0.334038 0.707 
0.312138 0.316084 0.669 
0.312475 0.291516 0.617 
0.317671 0.273562 0.579 
0.322708 0.257025 0.544 
0.343763 0.256553 0.543 
0.366757 0.257498 0.545 
0.389198 0.25797 0.546 
0.410966 0.25797 0.546 
0.431149 0.257025 0.544 
0.453669 0.257498 0.545 
0.477142 0.258443 0.547 
0.498037 0.25797 0.546 
0.521709 0.258915 0.548 
0.544549 0.259387 0.549 
-0.568095 0.331423 0.698 
-0.540268 0.331423 0.698 
-0.51244 0.331423 0.698 
-0.487389 0.333322 0.702 
-0.469218 0.340444 0.717 
-0.434054 0.336646 0.709 
-0.400705 0.333797 0.703 
-0.373208 0.334272 0.704 
-0.34465 0.333797 0.703 
-0.317524 0.334746 0.705 
-0.289417 0.334746 0.705 
-0.261681 0.335221 0.706 
-0.233865 0.335696 0.707 
-0.205387 0.335221 0.706 
-0.177743 0.336171 0.708 
-0.149516 0.336171 0.708 
-0.121632 0.337121 0.71 
-0.093326 0.337121 0.71 
-0.0652029 0.33807 0.712 
-0.0369204 0.33902 0.714 
-0.00846653 0.339495 0.715 
0.0200951 0.340444 0.717 
0.0486804 0.340444 0.717 
0.0772657 0.340444 0.717 
0.106146 0.341394 0.719 
0.134811 0.341394 0.719 
0.163476 0.341394 0.719 
0.192141 0.341394 0.719 
0.220806 0.341394 0.719 
0.249124 0.340919 0.718 
0.279297 0.342818 0.722 
0.301681 0.335696 0.707 
0.311034 0.31338 0.66 
0.311791 0.289639 0.61 
0.318173 0.27302 0.575 
0.322708 0.258301 0.544 
0.343763 0.257826 0.543 
0.366757 0.258776 0.545 
0.388485 0.258776 0.545 
0.410966 0.25925 0.546 
0.431149 0.258301 0.544 
0.453669 0.258776 0.545 
0.477142 0.259725 0.547 
0.498037 0.25925 0.546 
0.520757 0.259725 0.547 
0.544549 0.260675 0.549 
-0.566458 0.33306 0.698 
-0.537859 0.332583 0.697 
-0.510803 0.33306 0.698 
-0.485743 0.334968 0.702 
-0.467537 0.342126 0.717 
-0.432551 0.33974 0.712 
-0.395196 0.334968 0.702 
-0.368255 0.335923 0.704 
-0.339704 0.335445 0.703 
-0.312564 0.3364 0.705 
-0.28486 0.336877 0.706 
-0.256714 0.336877 0.706 
-0.229862 0.338786 0.71 
-0.200136 0.3364 0.705 
-0.173005 0.338308 0.709 
-0.144739 0.338308 0.709 
-0.116473 0.338308 0.709 
-0.0882064 0.338308 0.709 
-0.0601936 0.33974 0.712 
-0.031897 0.340694 0.714 
-0.00343614 0.341171 0.715 
0.0251396 0.342126 0.717 
0.0537998 0.342603 0.718 
0.0825398 0.34308 0.719 
0.111205 0.34308 0.719 
0.13987 0.34308 0.719 
0.168535 0.34308 0.719 
0.196926 0.342603 0.718 
0.225865 0.34308 0.719 
0.253822 0.342126 0.717 
0.283195 0.34308 0.719 
0.305354 0.335923 0.704 
0.311635 0.313973 0.658 
0.312073 0.288684 0.605 
0.318966 0.273891 0.574 
0.323984 0.259577 0.544 
0.345036 0.259099 0.543 
0.368035 0.260054 0.545 
0.389763 0.260054 0.545 
0.411491 0.260054 0.545 
0.432424 0.259577 0.544 
0.454947 0.260054 0.545 
0.478425 0.261008 0.547 
0.499318 0.260531 0.546 
0.52204 0.261008 0.547 
0.545836 0.261962 0.549 
-0.566458 0.334697 0.698 
-0.537859 0.334217 0.697 
-0.510071 0.334217 0.697 
-0.485743 0.336615 0.702 
-0.468189 0.344287 0.718 
-0.433766 0.342369 0.714 
-0.396842 0.336615 0.702 
-0.370431 0.338053 0.705 
-0.340867 0.336615 0.702 
-0.314217 0.338053 0.705 
-0.28611 0.338053 0.705 
-0.258369 0.338533 0.706 
-0.231527 0.340451 0.71 
-0.202076 0.338533 0.706 
-0.174915 0.340451 0.71 
-0.146195 0.339492 0.708 
-0.118135 0.339971 0.709 
-0.0899959 0.340451 0.71 
-0.0618634 0.34141 0.712 
-0.0335245 0.341889 0.713 
-0.00511293 0.342848 0.715 
0.0251396 0.343807 0.717 
0.0537998 0.344287 0.718 
0.082425 0.344287 0.718 
0.11105 0.344287 0.718 
0.13987 0.344766 0.719 
0.168535 0.344766 0.719 
0.196926 0.344287 0.718 
0.225865 0.344766 0.719 
0.253822 0.343807 0.717 
0.283195 0.344766 0.719 
0.305354 0.337574 0.704 
0.311635 0.315516 0.658 
0.312073 0.290102 0.605 
0.318966 0.275238 0.574 
0.324662 0.260373 0.543 
0.34631 0.260373 0.543 
0.369313 0.261332 0.545 
0.391041 0.261332 0.545 
0.413527 0.261811 0.546 
0.434497 0.261332 0.545 
0.456225 0.261332 0.545 
0.479707 0.262291 0.547 
0.500598 0.261811 0.546 
0.523323 0.262291 0.547 
-0.593553 0.337779 0.701 
-0.563991 0.336815 0.699 
-0.53459 0.335852 0.697 
-0.506802 0.335852 0.697 
-0.48245 0.338261 0.702 
-0.466763 0.347416 0.721 
-0.419193 0.34308 0.712 
-0.384769 0.337779 0.701 
-0.357839 0.338743 0.703 
-0.330281 0.339225 0.704 
-0.302644 0.339707 0.705 
-0.274926 0.340188 0.706 
-0.24678 0.340188 0.706 
-0.220181 0.342598 0.711 
-0.190486 0.340188 0.706 
-0.163029 0.341634 0.709 
-0.135143 0.342598 0.711 
-0.106947 0.34308 0.712 
-0.07823 0.341634 0.709 
-0.0500341 0.342116 0.71 
-0.0218503 0.344043 0.714 
0.00662465 0.344525 0.715 
0.0368585 0.345007 0.716 
0.0654953 0.345489 0.717 
0.0942118 0.345971 0.718 
0.123008 0.346452 0.719 
0.151673 0.346452 0.719 
0.180338 0.346452 0.719 
0.209003 0.346452 0.719 
0.237007 0.345489 0.717 
0.266704 0.346934 0.72 
0.292537 0.343561 0.713 
0.311059 0.332961 0.691 
0.312166 0.304049 0.631 
0.316554 0.282848 0.587 
0.321108 0.265019 0.55 
0.338669 0.261646 0.543 
0.361645 0.26261 0.545 
0.383373 0.26261 0.545 
0.405101 0.26261 0.545 
0.426829 0.26261 0.545 
0.448557 0.26261 0.545 
0.471148 0.263092 0.546 
0.493818 0.263574 0.547 
0.513741 0.26261 0.545 
0.539399 0.264537 0.549 
-0.571369 0.33797 0.698 
-0.543541 0.33797 0.698 
-0.514975 0.337486 0.697 
-0.490682 0.339907 0.702 
-0.47324 0.347654 0.718 
-0.44108 0.346202 0.715 
-0.402353 0.340391 0.703 
-0.375391 0.34136 0.705 
-0.345806 0.339907 0.702 
-0.318725 0.340876 0.704 
-0.29107 0.34136 0.705 
-0.263336 0.341844 0.706 
-0.235856 0.342812 0.708 
-0.207336 0.342328 0.707 
-0.17991 0.343781 0.71 
-0.151176 0.342812 0.708 
-0.123297 0.343781 0.71 
-0.0952587 0.344749 0.712 
-0.0668727 0.344749 0.712 
-0.0384327 0.344265 0.711 
-0.0101291 0.345718 0.714 
0.0183879 0.346686 0.716 
0.0469989 0.34717 0.717 
0.0754788 0.346686 0.716 
0.104315 0.347654 0.718 
0.133125 0.348139 0.719 
0.16179 0.348139 0.719 
0.190455 0.348139 0.719 
0.21912 0.348139 0.719 
0.247441 0.347654 0.718 
0.277988 0.350075 0.723 
0.300447 0.342812 0.708 
0.309487 0.319571 0.66 
0.311279 0.294877 0.609 
0.318173 0.278414 0.575 
0.325935 0.26292 0.543 
0.347583 0.26292 0.543 
0.370592 0.263888 0.545 
0.39232 0.263888 0.545 
0.414048 0.263888 0.545 
0.435776 0.263888 0.545 
0.457504 0.263888 0.545 
0.48099 0.264857 0.547 
0.501879 0.264372 0.546 
0.524606 0.264857 0.547 
-0.587781 0.340581 0.7 
-0.559873 0.340581 0.7 
-0.528926 0.338634 0.696 
-0.502618 0.339607 0.698 
-0.478872 0.342527 0.704 
-0.457037 0.349825 0.719 
-0.424906 0.348365 0.716 
-0.388057 0.341067 0.701 
-0.361651 0.342527 0.704 
-0.33311 0.34204 0.703 
-0.305517 0.342527 0.704 
-0.277844 0.343013 0.705 
-0.250091 0.3435 0.706 
-0.22383 0.346419 0.712 
-0.193797 0.3435 0.706 
-0.166589 0.345446 0.71 
-0.138283 0.345446 0.71 
-0.110132 0.345932 0.711 
-0.0816705 0.345446 0.71 
-0.0533643 0.345446 0.71 
-0.0251639 0.346906 0.713 
0.00327106 0.347879 0.715 
0.0318211 0.348365 0.716 
0.0605351 0.349338 0.718 
0.0890361 0.348852 0.717 
0.117785 0.349338 0.718 
0.146615 0.349825 0.719 
0.17528 0.349825 0.719 
0.203945 0.349825 0.719 
0.231963 0.348852 0.717 
0.261275 0.349825 0.719 
0.288327 0.347879 0.715 
0.308413 0.338634 0.696 
0.3111 0.311874 0.641 
0.314071 0.290953 0.598 
0.322656 0.277816 0.571 
0.331029 0.264193 0.543 
0.353326 0.26468 0.544 
0.375704 0.265166 0.545 
0.397432 0.265166 0.545 
0.41916 0.265166 0.545 
0.440888 0.265166 0.545 
0.462616 0.265166 0.545 
0.486122 0.266139 0.547 
0.507001 0.265653 0.546 
0.531674 0.267112 0.549 
-0.584498 0.342222 0.7 
-0.55659 0.342222 0.7 
-0.525662 0.340267 0.696 
-0.500775 0.342222 0.7 
-0.476921 0.345155 0.706 
-0.448414 0.350044 0.716 
-0.404002 0.343689 0.703 
-0.377044 0.344667 0.705 
-0.347453 0.3432 0.702 
-0.320376 0.344178 0.704 
-0.292724 0.344667 0.705 
-0.264617 0.344667 0.705 
-0.237181 0.345644 0.707 
-0.20929 0.346133 0.708 
-0.181575 0.347111 0.71 
-0.152621 0.345644 0.707 
-0.124962 0.347111 0.71 
-0.0967923 0.3476 0.711 
-0.0685425 0.348089 0.712 
-0.0399309 0.346133 0.708 
-0.0117705 0.348089 0.712 
0.0167088 0.350044 0.716 
0.0452542 0.350044 0.716 
0.0736966 0.349555 0.715 
0.102631 0.351022 0.718 
0.131439 0.351511 0.719 
0.159881 0.351022 0.718 
0.188769 0.351511 0.719 
0.217434 0.351511 0.719 
0.246099 0.351511 0.719 
0.276675 0.353955 0.724 
0.299209 0.346622 0.709 
0.30964 0.326089 0.667 
0.312475 0.301644 0.617 
0.31686 0.283555 0.58 
0.323388 0.265467 0.543 
0.345036 0.265467 0.543 
0.36736 0.265955 0.544 
0.389763 0.266444 0.545 
0.411491 0.266444 0.545 
0.433219 0.266444 0.545 
0.454947 0.266444 0.545 
0.478425 0.267422 0.547 
0.499318 0.266933 0.546 
0.52204 0.267422 0.547 
0.546831 0.268889 0.55 
-0.568081 0.343864 0.7 
-0.537859 0.34239 0.697 
-0.510071 0.34239 0.697 
-0.485051 0.344355 0.701 
-0.473405 0.356636 0.726 
-0.430657 0.353688 0.72 
-0.386964 0.344846 0.702 
-0.36 0.345829 0.704 
-0.331461 0.345337 0.703 
-0.303865 0.345829 0.704 
-0.27619 0.34632 0.705 
-0.248435 0.346811 0.706 
-0.221849 0.349267 0.711 
-0.192142 0.346811 0.706 
-0.164924 0.348776 0.71 
-0.136233 0.347794 0.708 
-0.108312 0.348776 0.71 
-0.0800054 0.348776 0.71 
-0.0516992 0.348776 0.71 
-0.0234918 0.35025 0.713 
0.00494785 0.351232 0.715 
0.0334534 0.351232 0.715 
0.0621323 0.352215 0.717 
0.0907176 0.352215 0.717 
0.119469 0.352706 0.718 
0.148301 0.353197 0.719 
0.176966 0.353197 0.719 
0.205631 0.353197 0.719 
0.23397 0.352706 0.718 
0.263327 0.353688 0.72 
0.290004 0.351232 0.715 
0.308263 0.339934 0.692 
0.310129 0.313899 0.639 
0.313546 0.293267 0.597 
0.322091 0.280003 0.57 
0.332302 0.26674 0.543 
0.354602 0.267231 0.544 
0.376982 0.267722 0.545 
0.39871 0.267722 0.545 
0.420438 0.267722 0.545 
0.442166 0.267722 0.545 
0.463894 0.267722 0.545 
0.486513 0.268214 0.546 
0.508281 0.268214 0.546 
0.532961 0.269687 0.549 
-0.584498 0.345505 0.7 
-0.55659 0.345505 0.7 
-0.525662 0.343531 0.696 
-0.50149 0.345999 0.701 
-0.476921 0.348467 0.706 
-0.457673 0.355377 0.72 
-0.414685 0.350441 0.71 
-0.382569 0.346986 0.703 
-0.354542 0.346986 0.703 
-0.326515 0.346986 0.703 
-0.298912 0.34748 0.704 
-0.270845 0.34748 0.704 
-0.243468 0.348467 0.706 
-0.216541 0.350441 0.71 
-0.18744 0.34896 0.707 
-0.159478 0.349454 0.708 
-0.131252 0.349454 0.708 
-0.103462 0.350935 0.711 
-0.0751159 0.350935 0.711 
-0.0466382 0.349948 0.709 
-0.0184755 0.351922 0.713 
0.00997825 0.352909 0.715 
0.0384838 0.352909 0.715 
0.0670831 0.353403 0.716 
0.0958956 0.35439 0.718 
0.124521 0.35439 0.718 
0.153359 0.354883 0.719 
0.182024 0.354883 0.719 
0.210689 0.354883 0.719 
0.239354 0.354883 0.719 
0.269511 0.356858 0.723 
0.293796 0.351428 0.712 
0.308607 0.336621 0.682 
0.311178 0.311942 0.632 
0.314553 0.291705 0.591 
0.32324 0.278872 0.565 
0.334849 0.268013 0.543 
0.357154 0.268507 0.544 
0.378842 0.268507 0.544 
0.40053 0.268507 0.544 
0.422218 0.268507 0.544 
0.444722 0.269001 0.545 
0.46645 0.269001 0.545 
0.489074 0.269494 0.546 
0.510842 0.269494 0.546 
0.536512 0.271468 0.55 
-0.579554 0.346155 0.698 
-0.551726 0.346155 0.698 
-0.522397 0.345163 0.696 
-0.498203 0.347643 0.701 
-0.477634 0.353098 0.712 
-0.450722 0.355578 0.717 
-0.406805 0.349627 0.705 
-0.378161 0.349131 0.704 
-0.349596 0.348635 0.703 
-0.321569 0.348635 0.703 
-0.293959 0.349131 0.704 
-0.265892 0.349131 0.704 
-0.238501 0.350123 0.706 
-0.21095 0.351114 0.708 
-0.182724 0.351114 0.708 
-0.154279 0.350618 0.707 
-0.126627 0.352106 0.71 
-0.0985982 0.353098 0.712 
-0.0702122 0.353098 0.712 
-0.0415913 0.351114 0.708 
-0.0134403 0.353098 0.712 
0.0150086 0.354586 0.715 
0.0435142 0.354586 0.715 
0.0719191 0.35409 0.714 
0.100947 0.356074 0.718 
0.129572 0.356074 0.718 
0.158197 0.356074 0.718 
0.187083 0.35657 0.719 
0.215748 0.35657 0.719 
0.245093 0.357561 0.721 
0.274977 0.359049 0.724 
0.297546 0.35161 0.709 
0.309729 0.334253 0.674 
0.311086 0.307473 0.62 
0.315222 0.288628 0.582 
0.320156 0.269783 0.544 
0.341216 0.269287 0.543 
0.363533 0.269783 0.544 
0.385221 0.269783 0.544 
0.406909 0.269783 0.544 
0.429385 0.270279 0.545 
0.451113 0.270279 0.545 
0.473709 0.270775 0.546 
0.494569 0.270279 0.545 
0.517244 0.270775 0.546 
0.542961 0.272758 0.55 
-0.571369 0.347792 0.698 
-0.541984 0.346796 0.696 
-0.514236 0.346796 0.696 
-0.488585 0.34829 0.699 
-0.475217 0.359252 0.721 
-0.442314 0.357259 0.717 
-0.399056 0.350283 0.703 
-0.372084 0.35128 0.705 
-0.342514 0.349785 0.702 
-0.314974 0.350283 0.703 
-0.287355 0.350782 0.704 
-0.259657 0.35128 0.705 
-0.232207 0.352277 0.707 
-0.203732 0.351778 0.706 
-0.17658 0.353771 0.71 
-0.147647 0.352277 0.707 
-0.120305 0.354768 0.712 
-0.0919191 0.354768 0.712 
-0.0635332 0.354768 0.712 
-0.0350485 0.353771 0.71 
-0.00675175 0.35427 0.711 
0.0217158 0.356263 0.715 
0.0502916 0.356761 0.716 
0.0786169 0.355764 0.714 
0.107682 0.357757 0.718 
0.136497 0.358256 0.719 
0.165163 0.358256 0.719 
0.194097 0.358754 0.72 
0.222493 0.358256 0.719 
0.252206 0.359751 0.722 
0.28099 0.359751 0.722 
0.302481 0.35128 0.705 
0.308549 0.327861 0.658 
0.310869 0.304443 0.611 
0.317122 0.288 0.578 
0.323388 0.27056 0.543 
0.345036 0.27056 0.543 
0.366685 0.27056 0.543 
0.389048 0.271059 0.544 
0.410736 0.271059 0.544 
0.433219 0.271557 0.545 
0.454947 0.271557 0.545 
0.47755 0.272055 0.546 
0.499318 0.272055 0.546 
0.521086 0.272055 0.546 
0.546831 0.274048 0.55 
-0.569723 0.35043 0.7 
-0.539494 0.348928 0.697 
-0.511706 0.348928 0.697 
-0.485306 0.34993 0.699 
-0.474453 0.362946 0.725 
-0.436196 0.359441 0.718 
-0.396842 0.351431 0.702 
-0.369906 0.352433 0.704 
-0.340867 0.351431 0.702 
-0.313326 0.351932 0.703 
-0.285704 0.352433 0.704 
-0.257637 0.352433 0.704 
-0.230223 0.353434 0.706 
-0.202076 0.353434 0.706 
-0.174915 0.355436 0.71 
-0.146195 0.354435 0.708 
-0.118635 0.356438 0.712 
-0.0902494 0.356438 0.712 
-0.0618634 0.356438 0.712 
-0.0334774 0.356438 0.712 
-0.00507718 0.355436 0.71 
0.0233926 0.357939 0.715 
0.0518982 0.357939 0.715 
0.0802913 0.357439 0.714 
0.109366 0.359441 0.718 
0.138184 0.359942 0.719 
0.166849 0.359942 0.719 
0.195786 0.360443 0.72 
0.224179 0.359942 0.719 
0.253899 0.361444 0.722 
0.2819 0.360443 0.72 
0.303272 0.351932 0.703 
0.307372 0.324899 0.649 
0.312073 0.302872 0.605 
0.319754 0.286852 0.573 
0.325935 0.271834 0.543 
0.347583 0.271834 0.543 
0.369232 0.271834 0.543 
0.3916 0.272334 0.544 
0.413288 0.272334 0.544 
0.435776 0.272835 0.545 
0.457504 0.272835 0.545 
0.479232 0.272835 0.545 
0.501879 0.273336 0.546 
0.524606 0.273836 0.547 
-0.592706 0.352072 0.7 
-0.564798 0.352072 0.7 
-0.533823 0.35006 0.696 
-0.508256 0.351569 0.699 
-0.481076 0.352072 0.7 
-0.469353 0.364646 0.725 
-0.428372 0.361628 0.719 
-0.389701 0.352575 0.701 
-0.363302 0.354084 0.704 
-0.334282 0.353078 0.702 
-0.306295 0.353078 0.702 
-0.2791 0.354084 0.704 
-0.25139 0.354587 0.705 
-0.223917 0.355593 0.707 
-0.195176 0.354587 0.705 
-0.168491 0.357604 0.711 
-0.139554 0.356096 0.708 
-0.111956 0.358107 0.712 
-0.0833356 0.357101 0.71 
-0.0551844 0.358107 0.712 
-0.0267984 0.358107 0.712 
0.00158534 0.357604 0.711 
0.0300577 0.359113 0.714 
0.0586874 0.360119 0.716 
0.0872328 0.360119 0.716 
0.116102 0.361125 0.718 
0.144928 0.361628 0.719 
0.174076 0.362634 0.721 
0.202821 0.362634 0.721 
0.231245 0.362131 0.72 
0.260311 0.362634 0.721 
0.28665 0.359616 0.715 
0.306197 0.347545 0.691 
0.310165 0.319882 0.636 
0.311781 0.297249 0.591 
0.322485 0.284675 0.566 
0.331029 0.273107 0.543 
0.352677 0.273107 0.543 
0.375015 0.27361 0.544 
0.396703 0.27361 0.544 
0.418391 0.27361 0.544 
0.440888 0.274113 0.545 
0.462616 0.274113 0.545 
0.484344 0.274113 0.545 
0.507001 0.274616 0.546 
0.530705 0.275622 0.548 
-0.582828 0.352703 0.698 
-0.555 0.352703 0.698 
-0.525662 0.351692 0.696 
-0.50149 0.354219 0.701 
-0.477596 0.357251 0.707 
-0.454085 0.362304 0.717 
-0.426093 0.362809 0.718 
-0.38861 0.354724 0.702 
-0.361137 0.355229 0.703 
-0.332636 0.354724 0.702 
-0.304649 0.354724 0.702 
-0.277449 0.355735 0.704 
-0.249737 0.35624 0.705 
-0.222259 0.357251 0.707 
-0.193523 0.35624 0.705 
-0.166589 0.358767 0.71 
-0.137893 0.357756 0.708 
-0.110287 0.359777 0.712 
-0.0815555 0.358261 0.709 
-0.0535146 0.359777 0.712 
-0.0251286 0.359777 0.712 
0.00324818 0.358767 0.71 
0.0317322 0.360788 0.714 
0.0602822 0.361293 0.715 
0.0890361 0.362304 0.717 
0.117785 0.362809 0.718 
0.146615 0.363314 0.719 
0.175767 0.364325 0.721 
0.204512 0.364325 0.721 
0.232933 0.36382 0.72 
0.262001 0.364325 0.721 
0.288327 0.361293 0.715 
0.305754 0.34866 0.69 
0.310682 0.317332 0.628 
0.312732 0.295603 0.585 
0.321119 0.282465 0.559 
0.334849 0.274381 0.543 
0.356497 0.274381 0.543 
0.378842 0.274886 0.544 
0.40053 0.274886 0.544 
0.422218 0.274886 0.544 
0.444722 0.275391 0.545 
0.46645 0.275391 0.545 
0.488178 0.275391 0.545 
0.510842 0.275896 0.546 
0.534561 0.276907 0.548 
-0.576261 0.353325 0.696 
-0.548513 0.353325 0.696 
-0.520765 0.353325 0.696 
-0.49585 0.355355 0.7 
-0.47797 0.36297 0.715 
-0.44904 0.363985 0.717 
-0.420455 0.363985 0.717 
-0.383671 0.35637 0.702 
-0.356191 0.356878 0.703 
-0.32723 0.355863 0.701 
-0.29971 0.35637 0.702 
-0.272496 0.357386 0.704 
-0.244777 0.357893 0.705 
-0.216977 0.358401 0.706 
-0.188563 0.357893 0.705 
-0.161594 0.360432 0.71 
-0.133475 0.360939 0.711 
-0.105129 0.360939 0.711 
-0.0764593 0.359416 0.708 
-0.0485053 0.361447 0.712 
-0.0201193 0.361447 0.712 
0.00826662 0.361447 0.712 
0.0367555 0.362462 0.714 
0.0654039 0.363477 0.716 
0.0940806 0.363985 0.717 
0.122837 0.364493 0.718 
0.151673 0.365 0.719 
0.18084 0.366016 0.721 
0.209003 0.365 0.719 
0.238329 0.366016 0.721 
0.267074 0.366016 0.721 
0.291306 0.360432 0.71 
0.306557 0.34571 0.681 
0.310131 0.315251 0.621 
0.314397 0.29596 0.583 
0.319686 0.280223 0.552 
0.336122 0.275654 0.543 
0.357771 0.275654 0.543 
0.380118 0.276162 0.544 
0.401806 0.276162 0.544 
0.423494 0.276162 0.544 
0.446001 0.276669 0.545 
0.467729 0.276669 0.545 
0.489457 0.276669 0.545 
0.512123 0.277177 0.546 
0.534868 0.277685 0.547 
-0.576261 0.354957 0.696 
-0.549301 0.355467 0.697 
-0.520765 0.354957 0.696 
-0.495142 0.356487 0.699 
-0.47797 0.364647 0.715 
-0.44904 0.365667 0.717 
-0.420455 0.365667 0.717 
-0.383671 0.358017 0.702 
-0.356191 0.358527 0.703 
-0.32723 0.357507 0.701 
-0.29971 0.358017 0.702 
-0.272496 0.359037 0.704 
-0.244777 0.359547 0.705 
-0.216977 0.360057 0.706 
-0.188563 0.359547 0.705 
-0.161594 0.362097 0.71 
-0.133663 0.363117 0.712 
-0.105129 0.362607 0.711 
-0.0764593 0.361077 0.708 
-0.0485053 0.363117 0.712 
-0.0201193 0.363117 0.712 
0.00826662 0.363117 0.712 
0.0367555 0.364137 0.714 
0.0653126 0.364647 0.715 
0.0940806 0.365667 0.717 
0.122837 0.366177 0.718 
0.151673 0.366687 0.719 
0.18084 0.367707 0.721 
0.209003 0.366687 0.719 
0.238329 0.367707 0.721 
0.267074 0.367707 0.721 
0.291306 0.362097 0.71 
0.307702 0.346797 0.68 
0.310194 0.321297 0.63 
0.312197 0.297837 0.584 
0.319686 0.281517 0.552 
0.336122 0.276927 0.543 
0.357771 0.276927 0.543 
0.380118 0.277437 0.544 
0.401806 0.277437 0.544 
0.423494 0.277437 0.544 
0.446001 0.277947 0.545 
0.467729 0.277947 0.545 
0.488559 0.277437 0.544 
0.512123 0.278457 0.546 
0.534868 0.278967 0.547 
-0.57382 0.357101 0.697 
-0.545248 0.356589 0.696 
-0.518244 0.357101 0.697 
-0.49116 0.357614 0.698 
-0.475944 0.367348 0.717 
-0.446299 0.36786 0.718 
-0.415928 0.366323 0.715 
-0.380921 0.360175 0.703 
-0.352894 0.360175 0.703 
-0.323942 0.359151 0.701 
-0.296839 0.360175 0.703 
-0.269194 0.360688 0.704 
-0.24147 0.3612 0.705 
-0.213666 0.361712 0.706 
-0.185256 0.3612 0.705 
-0.158264 0.363762 0.71 
-0.130507 0.365299 0.713 
-0.101651 0.363762 0.71 
-0.0731385 0.362737 0.708 
-0.0451658 0.364786 0.712 
-0.0167563 0.364274 0.711 
0.0116061 0.364786 0.712 
0.0401044 0.365811 0.714 
0.0686662 0.366323 0.715 
0.0974436 0.367348 0.717 
0.126205 0.36786 0.718 
0.15483 0.36786 0.718 
0.183966 0.368885 0.72 
0.21208 0.36786 0.718 
0.241711 0.369397 0.721 
0.270831 0.36991 0.722 
0.293806 0.362737 0.708 
0.309063 0.346342 0.676 
0.31116 0.320725 0.626 
0.313858 0.298182 0.582 
0.319467 0.279226 0.545 
0.339943 0.278201 0.543 
0.361591 0.278201 0.543 
0.383945 0.278713 0.544 
0.405633 0.278713 0.544 
0.427321 0.278713 0.544 
0.449835 0.279226 0.545 
0.471563 0.279226 0.545 
0.492386 0.278713 0.544 
0.515019 0.279226 0.545 
0.536747 0.279226 0.545 
-0.571369 0.359251 0.698 
-0.542763 0.358736 0.697 
-0.514236 0.358221 0.696 
-0.487886 0.359251 0.698 
-0.472581 0.36903 0.717 
-0.444165 0.370574 0.72 
-0.40969 0.365427 0.71 
-0.377623 0.361824 0.703 
-0.349099 0.361309 0.702 
-0.320654 0.360795 0.701 
-0.293542 0.361824 0.703 
-0.265892 0.362339 0.704 
-0.238163 0.362853 0.705 
-0.210354 0.363368 0.706 
-0.182208 0.363368 0.706 
-0.155152 0.365941 0.711 
-0.127341 0.367486 0.714 
-0.0983212 0.365427 0.71 
-0.0698178 0.364397 0.708 
-0.0418263 0.366456 0.712 
-0.0134025 0.365427 0.71 
0.0149667 0.366971 0.713 
0.0434534 0.367486 0.714 
0.0721205 0.368515 0.716 
0.100807 0.36903 0.717 
0.129572 0.369544 0.718 
0.157977 0.36903 0.717 
0.187343 0.370574 0.72 
0.215148 0.36903 0.717 
0.245093 0.371088 0.721 
0.273838 0.371088 0.721 
0.297127 0.364397 0.708 
0.308712 0.342266 0.665 
0.310449 0.315502 0.613 
0.316574 0.296974 0.577 
0.323388 0.279474 0.543 
0.345036 0.279474 0.543 
0.366685 0.279474 0.543 
0.389048 0.279989 0.544 
0.410736 0.279989 0.544 
0.433219 0.280504 0.545 
0.454947 0.280504 0.545 
0.475801 0.279989 0.544 
0.498403 0.280504 0.545 
0.520131 0.280504 0.545 
0.541859 0.280504 0.545 
-0.56644 0.361922 0.7 
-0.536224 0.36037 0.697 
-0.509166 0.360887 0.698 
-0.483407 0.362439 0.701 
-0.465855 0.370711 0.717 
-0.437411 0.372262 0.72 
-0.399624 0.36399 0.704 
-0.371029 0.363473 0.703 
-0.342026 0.362439 0.701 
-0.298488 0.363473 0.703 
-0.270845 0.36399 0.704 
-0.243468 0.365024 0.706 
-0.215321 0.365024 0.706 
-0.18691 0.364507 0.705 
-0.160154 0.367609 0.711 
-0.132364 0.36916 0.714 
-0.103316 0.367092 0.71 
-0.0746933 0.365541 0.707 
-0.0468355 0.368126 0.712 
-0.0184496 0.368126 0.712 
0.00992243 0.367609 0.711 
0.03843 0.36916 0.714 
0.0669894 0.369677 0.715 
0.0956285 0.370194 0.716 
0.124347 0.370711 0.717 
0.152933 0.370711 0.717 
0.182024 0.371745 0.719 
0.210396 0.371228 0.718 
0.239354 0.371745 0.719 
0.268765 0.372779 0.721 
0.292971 0.367092 0.71 
0.308605 0.348996 0.675 
0.310131 0.321076 0.621 
0.313858 0.300912 0.582 
0.318881 0.281265 0.544 
0.339317 0.280231 0.542 
0.361591 0.280748 0.543 
0.383945 0.281265 0.544 
0.405633 0.281265 0.544 
0.427321 0.281265 0.544 
0.449835 0.281782 0.545 
0.470698 0.281265 0.544 
0.492386 0.281265 0.544 
0.515964 0.282299 0.546 
0.536747 0.281782 0.545 
-0.573006 0.362524 0.698 
-0.545178 0.362524 0.698 
-0.515868 0.361486 0.696 
-0.490925 0.363563 0.7 
-0.47294 0.371354 0.715 
-0.444935 0.376028 0.724 
-0.406301 0.367199 0.707 
-0.375975 0.365121 0.703 
-0.298488 0.365121 0.703 
-0.270845 0.365641 0.704 
-0.243468 0.366679 0.706 
-0.215321 0.366679 0.706 
-0.18691 0.36616 0.705 
-0.160154 0.369276 0.711 
-0.132364 0.370834 0.714 
-0.103316 0.368757 0.71 
-0.0745876 0.366679 0.706 
-0.0467698 0.369276 0.711 
-0.0184237 0.369276 0.711 
0.00992243 0.369276 0.711 
0.03843 0.370834 0.714 
0.0669894 0.371354 0.715 
0.0956285 0.371873 0.716 
0.124347 0.372393 0.717 
0.152933 0.372393 0.717 
0.182024 0.373431 0.719 
0.210103 0.372393 0.717 
0.239354 0.373431 0.719 
0.268765 0.37447 0.721 
0.292971 0.368757 0.71 
0.308605 0.350579 0.675 
0.310131 0.322533 0.621 
0.313858 0.302277 0.582 
0.318189 0.28306 0.545 
0.338046 0.281502 0.542 
0.360318 0.282021 0.543 
0.382669 0.282541 0.544 
0.404357 0.282541 0.544 
0.426046 0.282541 0.544 
0.448557 0.28306 0.545 
0.469422 0.282541 0.544 
0.49111 0.282541 0.544 
0.513741 0.28306 0.545 
0.535469 0.28306 0.545 
-0.573006 0.364161 0.698 
-0.545178 0.364161 0.698 
-0.516609 0.36364 0.697 
-0.491627 0.365727 0.701 
-0.47294 0.373031 0.715 
-0.438018 0.376161 0.721 
-0.399624 0.367292 0.704 
-0.371029 0.36677 0.703 
-0.280751 0.367292 0.704 
-0.253402 0.368335 0.706 
-0.225256 0.368335 0.706 
-0.197109 0.368335 0.706 
-0.169919 0.370422 0.71 
-0.142012 0.371465 0.712 
-0.113307 0.370422 0.71 
-0.0845218 0.368335 0.706 
-0.0566944 0.370422 0.71 
-0.0284682 0.371465 0.712 
-8.17321e-05 0.369379 0.708 
0.0283435 0.371987 0.713 
0.0566897 0.371465 0.712 
0.0854342 0.373031 0.715 
0.114099 0.373552 0.716 
0.142844 0.374074 0.717 
0.171429 0.374074 0.717 
0.200572 0.375118 0.719 
0.228918 0.374596 0.718 
0.257902 0.375118 0.719 
0.285372 0.373552 0.716 
0.305754 0.359988 0.69 
0.309114 0.333902 0.64 
0.310395 0.308337 0.591 
0.32096 0.296338 0.568 
0.327877 0.282773 0.542 
0.35013 0.283295 0.543 
0.371778 0.283295 0.543 
0.394151 0.283816 0.544 
0.416604 0.284338 0.545 
0.438332 0.284338 0.545 
0.459216 0.283816 0.544 
0.481788 0.284338 0.545 
0.503516 0.284338 0.545 
0.526208 0.28486 0.546 
-0.586977 0.367371 0.701 
-0.558232 0.366846 0.7 
-0.528809 0.365798 0.698 
-0.502417 0.366846 0.7 
-0.477898 0.369467 0.705 
-0.456618 0.377852 0.721 
-0.425499 0.375756 0.717 
-0.389164 0.368419 0.703 
-0.295191 0.368419 0.703 
-0.267543 0.368943 0.704 
-0.240157 0.369991 0.706 
-0.212611 0.371039 0.708 
-0.183603 0.369467 0.705 
-0.156599 0.372087 0.71 
-0.129015 0.374183 0.714 
-0.0999863 0.372087 0.71 
-0.0711753 0.369467 0.705 
-0.0433738 0.372087 0.71 
-0.0150888 0.372611 0.711 
0.0132759 0.373135 0.712 
0.0417789 0.374183 0.714 
0.0702446 0.374183 0.714 
0.0988485 0.374707 0.715 
0.12771 0.375756 0.717 
0.156078 0.375232 0.716 
0.185397 0.376804 0.719 
0.213466 0.375756 0.717 
0.242727 0.376804 0.719 
0.272147 0.377852 0.721 
0.296718 0.372611 0.711 
0.309462 0.351124 0.67 
0.310082 0.323873 0.618 
0.315499 0.303959 0.58 
0.319568 0.284568 0.543 
0.339959 0.28352 0.541 
0.362864 0.284568 0.543 
0.384513 0.284568 0.543 
0.406909 0.285092 0.544 
0.429385 0.285616 0.545 
0.451113 0.285616 0.545 
0.471973 0.285092 0.544 
0.494569 0.285616 0.545 
0.517244 0.28614 0.546 
0.538025 0.285616 0.545 
-0.56727 0.367962 0.699 
-0.538631 0.367435 0.698 
-0.510803 0.367435 0.698 
-0.485743 0.369541 0.702 
-0.468189 0.377963 0.718 
-0.438018 0.379543 0.721 
-0.399624 0.370594 0.704 
-0.300137 0.370067 0.703 
-0.272496 0.370594 0.704 
-0.245471 0.372173 0.707 
-0.216977 0.371647 0.706 
-0.18883 0.371647 0.706 
-0.161139 0.372699 0.708 
-0.134039 0.375858 0.714 
-0.104982 0.373752 0.71 
-0.0760273 0.370594 0.704 
-0.0483691 0.373752 0.71 
-0.0201193 0.374805 0.712 
0.0082434 0.373752 0.71 
0.0367555 0.375858 0.714 
0.0652212 0.375858 0.714 
0.0938182 0.376384 0.715 
0.122495 0.376911 0.716 
0.15104 0.376911 0.716 
0.179836 0.377437 0.717 
0.208422 0.377437 0.717 
0.237668 0.37849 0.719 
0.267074 0.379543 0.721 
0.292126 0.374805 0.712 
0.308387 0.356907 0.678 
0.310187 0.33006 0.627 
0.311662 0.306898 0.583 
0.320544 0.293738 0.558 
0.333616 0.284789 0.541 
0.356497 0.285841 0.543 
0.378146 0.285841 0.543 
0.40053 0.286368 0.544 
0.422218 0.286368 0.544 
0.445538 0.287421 0.546 
0.465595 0.286368 0.544 
0.488178 0.286894 0.545 
0.509906 0.286894 0.545 
0.53261 0.287421 0.546 
-0.574643 0.369072 0.698 
-0.547599 0.369601 0.699 
-0.518244 0.368543 0.697 
-0.493271 0.370658 0.701 
-0.472625 0.376475 0.712 
-0.447866 0.383877 0.726 
-0.407959 0.373831 0.707 
-0.378161 0.372245 0.704 
-0.258003 0.372773 0.705 
-0.218633 0.373302 0.706 
-0.190756 0.373831 0.707 
-0.162799 0.37436 0.708 
-0.135713 0.377532 0.714 
-0.106647 0.375417 0.71 
-0.0776783 0.372245 0.704 
-0.0498932 0.37436 0.708 
-0.0218197 0.377004 0.713 
0.00658759 0.375946 0.711 
0.0350811 0.377532 0.714 
0.0635468 0.377532 0.714 
0.0921413 0.378061 0.715 
0.120816 0.37859 0.716 
0.149152 0.378061 0.715 
0.178155 0.379119 0.717 
0.20674 0.379119 0.717 
0.235982 0.380176 0.719 
0.265015 0.380705 0.72 
0.291272 0.377532 0.714 
0.305856 0.361141 0.683 
0.308716 0.333117 0.63 
0.310827 0.308794 0.584 
0.318189 0.288172 0.545 
0.336798 0.285529 0.54 
0.360318 0.287115 0.543 
0.381966 0.287115 0.543 
0.404357 0.287644 0.544 
0.426046 0.287644 0.544 
0.448557 0.288172 0.545 
0.469422 0.287644 0.544 
0.492013 0.288172 0.545 
0.514683 0.288701 0.546 
0.536451 0.288701 0.546 
-0.567281 0.370178 0.697 
-0.541042 0.37124 0.699 
-0.51244 0.370709 0.698 
-0.487389 0.372833 0.702 
-0.469218 0.3808 0.717 
-0.445549 0.385049 0.725 
-0.405151 0.374427 0.705 
-0.26627 0.374427 0.705 
-0.209585 0.376551 0.709 
-0.180552 0.374958 0.706 
-0.153484 0.377613 0.711 
-0.12549 0.378676 0.713 
-0.0967923 0.377613 0.711 
-0.0677723 0.373896 0.704 
-0.0399309 0.37602 0.708 
-0.0117705 0.378145 0.712 
0.0166154 0.378145 0.712 
0.0451278 0.379207 0.714 
0.0735935 0.379207 0.714 
0.102202 0.379738 0.715 
0.130891 0.380269 0.716 
0.159213 0.379738 0.715 
0.188506 0.381331 0.718 
0.216829 0.3808 0.717 
0.246099 0.381862 0.719 
0.275528 0.382924 0.721 
0.298787 0.37602 0.708 
0.309924 0.356369 0.671 
0.311279 0.323441 0.609 
0.31762 0.304852 0.574 
0.324734 0.287326 0.541 
0.345663 0.286795 0.54 
0.369232 0.288388 0.543 
0.39088 0.288388 0.543 
0.413288 0.288919 0.544 
0.435776 0.28945 0.545 
0.456664 0.288919 0.544 
0.479232 0.28945 0.545 
0.50096 0.28945 0.545 
0.523647 0.289982 0.546 
-0.585333 0.373946 0.701 
-0.555 0.372346 0.698 
-0.527172 0.372346 0.698 
-0.50149 0.373946 0.701 
-0.476245 0.37608 0.705 
-0.461487 0.387283 0.726 
-0.426585 0.381948 0.716 
-0.389701 0.373946 0.701 
-0.23519 0.376614 0.706 
-0.207923 0.378214 0.709 
-0.178896 0.376614 0.706 
-0.152031 0.379814 0.712 
-0.123645 0.379814 0.712 
-0.0951249 0.379281 0.711 
-0.0661213 0.375547 0.704 
-0.0382705 0.377681 0.708 
-0.0101008 0.379814 0.712 
0.0182852 0.379814 0.712 
0.0468023 0.380881 0.714 
0.075268 0.380881 0.714 
0.103879 0.381415 0.715 
0.13257 0.381948 0.716 
0.16089 0.381415 0.715 
0.19019 0.383015 0.718 
0.218511 0.382482 0.717 
0.247785 0.383548 0.719 
0.277219 0.384615 0.721 
0.300023 0.377147 0.707 
0.310569 0.356876 0.669 
0.310525 0.321135 0.602 
0.318638 0.304598 0.571 
0.325335 0.289128 0.542 
0.345663 0.288061 0.54 
0.369232 0.289662 0.543 
0.39088 0.289662 0.543 
0.413288 0.290195 0.544 
0.435776 0.290729 0.545 
0.456664 0.290195 0.544 
0.479232 0.290729 0.545 
0.50096 0.290729 0.545 
0.523647 0.291262 0.546 
-0.587814 0.376126 0.702 
-0.555839 0.373447 0.697 
-0.528809 0.373983 0.698 
-0.503134 0.37559 0.701 
-0.477221 0.377198 0.704 
-0.463828 0.389521 0.727 
-0.428862 0.384163 0.717 
-0.391345 0.37559 0.701 
-0.217284 0.378805 0.707 
-0.189365 0.379341 0.708 
-0.161139 0.379341 0.708 
-0.134039 0.382556 0.714 
-0.105129 0.380948 0.711 
-0.0760273 0.377198 0.704 
-0.0481647 0.378805 0.707 
-0.0201476 0.38202 0.713 
0.00826662 0.381484 0.712 
0.0366526 0.381484 0.712 
0.0652212 0.382556 0.714 
0.0938182 0.383091 0.715 
0.122324 0.383091 0.715 
0.150618 0.382556 0.714 
0.179836 0.384163 0.717 
0.208422 0.384163 0.717 
0.238329 0.386306 0.721 
0.266704 0.38577 0.72 
0.292126 0.381484 0.712 
0.307007 0.36541 0.682 
0.310082 0.33112 0.618 
0.315767 0.309688 0.578 
0.319568 0.290935 0.543 
0.338074 0.288256 0.538 
0.362864 0.290935 0.543 
0.384513 0.290935 0.543 
0.406161 0.290935 0.543 
0.428597 0.291471 0.544 
0.450285 0.291471 0.544 
0.472841 0.292007 0.545 
0.494569 0.292007 0.545 
0.517244 0.292543 0.546 
0.54 0.293078 0.547 
-0.562394 0.374005 0.695 
-0.536994 0.37562 0.698 
-0.509895 0.376158 0.699 
-0.484096 0.377772 0.702 
-0.470403 0.389611 0.724 
-0.439709 0.387997 0.721 
-0.400705 0.378311 0.703 
-0.248083 0.379387 0.705 
-0.220288 0.379925 0.706 
-0.19323 0.382078 0.71 
-0.16446 0.381001 0.708 
-0.137388 0.38423 0.714 
-0.108464 0.382616 0.711 
-0.079442 0.379387 0.705 
-0.0514079 0.379925 0.706 
-0.0235248 0.38423 0.714 
0.00492709 0.383154 0.712 
0.0332663 0.382616 0.711 
0.0618723 0.38423 0.714 
0.0904646 0.384768 0.715 
0.11897 0.384768 0.715 
0.147063 0.383692 0.713 
0.176227 0.385306 0.716 
0.205059 0.385844 0.717 
0.234948 0.387997 0.721 
0.262961 0.386921 0.719 
0.289598 0.38423 0.714 
0.306481 0.370239 0.688 
0.308703 0.335798 0.624 
0.311662 0.313734 0.583 
0.320544 0.300281 0.558 
0.333646 0.290056 0.539 
