# .PCD v.7 - Point Cloud Data file format
VERSION .7
FIELDS x y z
SIZE 4 4 4
TYPE F F F
COUNT 1 1 1
WIDTH 229
HEIGHT 1
VIEWPOINT 0 0 0 1 0 0 0
POINTS 229
DATA ascii
-0.0898357 -0.59361 1.1 
-0.0682328 -0.597281 1.11 
-0.0813644 -0.589017 1.101 
-0.0377935 -0.601709 1.128 
-0.100796 -0.597674 1.127 
-0.03268 -0.600856 1.133 
-0.0627712 -0.600682 1.136 
-0.0875175 -0.587318 1.114 
-7.93775 -4.39138 8.354 
-0.080739 -0.586639 1.116 
-7.94071 -4.41614 8.426 
-0.0763495 -0.591194 1.128 
-0.122294 -0.599893 1.148 
-0.0399667 -0.595712 1.14 
-0.0972074 -0.586647 1.126 
-0.104668 -0.587495 1.131 
-0.100706 -0.583148 1.126 
-0.102456 -0.581399 1.126 
-7.55008 -4.07815 7.946 
-7.76734 -4.23824 8.283 
-0.100527 -0.573381 1.124 
-0.0892483 -0.566549 1.114 
-0.185205 -0.555 1.098 
-0.174368 -0.556821 1.105 
-0.169524 -0.556109 1.107 
-0.109745 -0.565407 1.129 
-0.0894085 -0.557162 1.116 
-0.104298 -0.557401 1.127 
-2.92267 -1.48849 3.148 
-2.89876 -1.47401 3.138 
-2.9278 -1.46659 3.143 
-2.98987 -1.48021 3.215 
-0.0566763 -0.64679 1.485 
0.0252325 -0.289992 0.693 
0.0284626 -0.287838 0.693 
0.0273859 -0.285685 0.693 
0.0316927 -0.283531 0.693 
-0.397198 -0.287582 0.711 
0.0316927 -0.279225 0.693 
-0.0427178 -0.410592 1.035 
-0.0489126 -0.402207 1.03 
-0.153829 -0.259452 0.725 
-0.148401 -0.256426 0.726 
-0.463437 -0.238517 0.723 
-0.463437 -0.235147 0.723 
0.478703 -0.163179 0.514 
0.170429 -0.153612 0.598 
0.170714 -0.151077 0.599 
0.172864 -0.148532 0.6 
-0.0764047 -0.123454 0.543 
-0.0252095 -0.181056 0.874 
-0.0279253 -0.176983 0.874 
-0.240089 -0.193731 0.987 
-0.039127 -0.163983 0.948 
-0.034745 -0.159732 0.949 
-2.55406 -0.375942 2.975 
-2.53672 -0.368283 3.026 
-2.57631 -0.361133 3.045 
-2.5905 -0.351671 3.045 
-2.59272 -0.340636 3.031 
-2.57686 -0.328595 3.007 
-2.5383 -0.300668 2.962 
-0.00906075 -0.0543173 0.552 
-0.0133489 -0.0508868 0.552 
-1.0546 -0.146005 1.867 
-0.149865 -0.041982 0.787 
-0.228512 -0.0198458 0.833 
-0.22436 -0.0172366 0.832 
-0.231101 -0.0146689 0.833 
-0.227218 -0.0120805 0.833 
-0.229807 -0.00819788 0.833 
-0.141194 0.00200054 0.773 
0.0255354 0.0095781 0.578 
0.0255354 0.0122722 0.578 
-1.26361 0.0667614 1.499 
-0.149014 0.0607834 0.729 
-0.147882 0.0630487 0.729 
-0.149219 0.0654036 0.73 
-0.691475 0.234998 2.535 
-0.716778 0.244791 2.555 
0.235737 0.0578332 0.594 
-0.688991 0.2567 2.555 
-0.0890169 0.0965141 0.946 
-0.0936238 0.0996639 0.948 
0.28579 0.0633192 0.585 
0.288931 0.0650257 0.584 
0.288024 0.0668404 0.584 
0.294777 0.0676317 0.583 
0.300212 0.0685375 0.583 
0.305263 0.0695624 0.584 
0.281672 0.0722845 0.584 
0.294668 0.0737185 0.581 
0.292863 0.0755239 0.581 
0.230733 0.0789264 0.593 
0.28975 0.0783666 0.582 
0.295571 0.0791346 0.581 
0.295571 0.0800373 0.581 
0.28975 0.0810793 0.582 
0.543295 0.0780145 0.56 
0.524154 0.0788845 0.56 
0.661018 0.520399 3.654 
0.530952 0.0794698 0.558 
0.289252 0.0836481 0.581 
0.540685 0.0806246 0.56 
0.522475 0.0816402 0.561 
0.546668 0.0813492 0.559 
0.524955 0.0822177 0.559 
0.550025 0.0820706 0.558 
0.529298 0.0830862 0.559 
0.292902 0.0862075 0.574 
0.287551 0.0879911 0.574 
0.306092 0.0865602 0.559 
0.29035 0.0898768 0.569 
0.285269 0.0922891 0.573 
0.291092 0.0922037 0.567 
0.297069 0.0919354 0.56 
0.297939 0.0928055 0.56 
0.304572 0.0938428 0.561 
0.312335 0.0952209 0.564 
0.307734 0.0957564 0.562 
-0.128765 0.122248 0.711 
0.316716 0.0969735 0.564 
0.29254 0.0968088 0.558 
-31.5934 5.60935 32.045 
0.299679 0.0980258 0.56 
-33.3312 6.05631 34.294 
0.315522 0.0997789 0.565 
-0.122722 0.126133 0.708 
-0.128222 0.127233 0.708 
0.314322 0.102594 0.566 
-28.0283 5.29985 28.746 
-28.6279 5.60558 29.175 
-26.8436 5.37526 27.531 
-29.1076 5.87457 29.617 
-25.2908 5.21012 26.063 
-25.3861 5.32153 26.415 
-24.9669 5.29111 26.063 
0.766517 1.02528 5.012 
0.381615 0.109243 0.53 
0.38316 0.1111 0.531 
0.399518 0.115085 0.542 
0.755151 1.00267 4.654 
0.780515 1.01467 4.676 
0.789802 1.02456 4.688 
0.775007 1.02194 4.643 
-0.402489 0.171119 0.772 
0.366163 0.119694 0.54 
0.347745 0.121426 0.544 
-0.174459 0.156211 0.695 
0.367841 0.121372 0.54 
0.3469 0.123117 0.544 
0.377908 0.122211 0.54 
0.357948 0.122823 0.539 
-0.399054 0.176657 0.77 
0.369672 0.12366 0.539 
-0.399054 0.177853 0.77 
0.371347 0.124497 0.539 
-0.180321 0.163005 0.701 
0.374696 0.125335 0.539 
-0.0923934 0.16269 0.695 
-0.40025 0.181442 0.77 
-0.40212 0.182402 0.769 
-0.0942809 0.165452 0.693 
-0.0932042 0.167605 0.693 
-0.0411341 0.1514 0.622 
-0.0411341 0.153332 0.622 
-0.0421005 0.156232 0.622 
0.238132 0.126624 0.489 
0.460399 0.142471 0.525 
0.455394 0.143554 0.523 
0.466179 0.145194 0.526 
0.453769 0.145991 0.523 
-0.946603 0.672884 2.384 
-33.1181 9.83932 34.294 
-33.4378 9.8926 34.294 
-0.949111 0.686834 2.381 
-36.6611 11.3383 39.095 
-31.9435 9.66007 33.131 
-32.0693 9.54974 32.579 
-38.8716 12.1911 41.59 
-31.4113 9.60035 32.579 
0.268508 0.231028 0.784 
-32.5853 10.159 34.294 
-30.9858 9.38862 31.528 
0.257142 0.262946 0.883 
-31.31 9.75221 32.579 
-29.4623 9.04878 30.073 
0.410729 0.157067 0.522 
0.413162 0.157878 0.522 
0.410729 0.158689 0.522 
-0.074824 0.193171 0.629 
0.398728 0.159887 0.518 
-0.0700489 0.196415 0.63 
0.408368 0.162615 0.519 
0.364025 0.166443 0.526 
-0.515637 0.403896 1.264 
0.406794 0.166808 0.517 
0.401999 0.168088 0.516 
0.410016 0.16889 0.516 
0.40124 0.169833 0.514 
0.408418 0.170096 0.51 
0.398045 0.173027 0.514 
0.406835 0.173487 0.513 
0.411552 0.172586 0.508 
0.405241 0.175879 0.513 
0.403635 0.177819 0.514 
0.402837 0.179416 0.514 
0.413202 0.179513 0.512 
0.466035 0.191862 0.524 
0.465221 0.194304 0.524 
0.386202 0.653383 1.733 
-0.0546788 0.282955 0.696 
-0.0568415 0.286199 0.696 
-61.1496 27.2538 65.535 
-60.4369 27.4574 65.535 
-60.946 27.9665 65.535 
-0.186627 0.267016 0.608 
-0.180014 0.267961 0.608 
-0.182848 0.268905 0.608 
-0.186627 0.26985 0.608 
-0.190405 0.270795 0.608 
-0.227581 0.274421 0.614 
-0.230818 0.275823 0.615 
-0.233107 0.277229 0.616 
0.128845 0.44531 0.834 
0.128845 0.449198 0.834 
0.12869 0.451248 0.833 
0.131279 0.453836 0.833 
0.118621 0.458818 0.835 
