# .PCD v.7 - Point Cloud Data file format
VERSION .7
FIELDS x y z
SIZE 4 4 4
TYPE F F F
COUNT 1 1 1
WIDTH 1926
HEIGHT 1
VIEWPOINT 0 0 0 1 0 0 0
POINTS 1926
DATA ascii
3.92522 0.646289 4.745 
4.04764 0.630898 4.632 
4.62527 0.684426 5.025 
4.73764 0.667264 4.899 
-0.4585 0.0796241 0.578 
-0.438517 0.0821037 0.596 
-0.422453 0.0844456 0.613 
-0.402234 0.0862364 0.626 
-0.38557 0.0891294 0.647 
-0.3664 0.0918845 0.667 
-0.347879 0.0953285 0.692 
-0.322121 0.0986346 0.716 
-0.299234 0.102216 0.742 
-0.268216 0.103594 0.752 
-0.244336 0.109104 0.792 
-0.214754 0.112961 0.82 
-0.183208 0.117232 0.851 
-0.150627 0.123018 0.893 
-0.11352 0.128115 0.93 
-0.0730396 0.13335 0.968 
-0.0290169 0.138584 1.006 
0.0207112 0.147676 1.072 
0.0735124 0.1536 1.115 
0.136696 0.16283 1.182 
0.202985 0.172335 1.251 
0.275289 0.181565 1.318 
0.34924 0.188315 1.367 
0.44105 0.201127 1.46 
1.47583 0.577894 4.195 
1.68929 0.584093 4.24 
1.8709 0.579134 4.204 
2.20942 0.619084 4.494 
2.49909 0.63961 4.643 
2.68392 0.632171 4.589 
2.89781 0.632171 4.589 
3.19375 0.64884 4.71 
3.58338 0.650493 4.722 
3.43779 0.587951 4.268 
4.05254 0.655177 4.756 
4.50429 0.690443 5.012 
4.72561 0.688652 4.999 
4.47753 0.621839 4.514 
-0.451047 0.0817759 0.587 
-0.432425 0.0840049 0.603 
-0.415047 0.0862339 0.619 
-0.395554 0.0883235 0.634 
-0.377549 0.0911098 0.654 
-0.359802 0.0944532 0.678 
-0.338366 0.0973788 0.699 
-0.315409 0.100444 0.721 
-0.291184 0.103787 0.745 
-0.26059 0.105459 0.757 
-0.236318 0.110613 0.794 
-0.208597 0.115768 0.831 
-0.176201 0.120087 0.862 
-0.141861 0.125241 0.899 
-0.104073 0.130396 0.936 
-0.0631577 0.136247 0.978 
-0.0181837 0.140983 1.012 
0.0309049 0.150317 1.079 
0.0850353 0.157422 1.13 
0.148465 0.165502 1.188 
0.218079 0.177065 1.271 
0.288448 0.18417 1.322 
0.364366 0.191693 1.376 
0.45902 0.205345 1.474 
1.51803 0.578143 4.15 
1.80755 0.610603 4.383 
1.96319 0.595836 4.277 
2.31473 0.637768 4.578 
2.48173 0.626066 4.494 
2.81396 0.654625 4.699 
2.86774 0.618961 4.443 
3.35428 0.640694 4.599 
3.65477 0.656157 4.71 
3.75668 0.636236 4.567 
3.96955 0.636236 4.567 
4.6742 0.711046 5.104 
4.73887 0.68597 4.924 
-0.464073 0.0811384 0.576 
-0.446334 0.0828288 0.588 
-0.42845 0.0850826 0.604 
-0.410599 0.0874773 0.621 
-0.391487 0.0897311 0.637 
-0.372809 0.092971 0.66 
-0.354484 0.0963518 0.684 
-0.332036 0.0991691 0.704 
-0.309848 0.102691 0.729 
-0.281167 0.104663 0.743 
-0.252508 0.107198 0.761 
-0.228446 0.112833 0.801 
-0.199939 0.118045 0.838 
-0.16779 0.123116 0.874 
-0.132286 0.128187 0.91 
-0.0921509 0.13354 0.948 
-0.0501399 0.139597 0.991 
-0.00416033 0.147063 1.044 
0.046419 0.153402 1.089 
0.102086 0.16115 1.144 
0.162879 0.168897 1.199 
0.234091 0.18073 1.283 
0.305346 0.187773 1.333 
0.384018 0.196225 1.393 
0.483108 0.211157 1.499 
1.53077 0.572476 4.064 
1.84294 0.613327 4.354 
2.07784 0.622906 4.422 
2.36452 0.644881 4.578 
2.48443 0.621497 4.412 
2.93579 0.678266 4.815 
2.99023 0.641782 4.556 
3.52469 0.665166 4.722 
3.69086 0.655587 4.654 
3.91702 0.657136 4.665 
4.24613 0.674885 4.791 
4.76143 0.718976 5.104 
4.55856 0.655587 4.654 
-0.454795 0.0824606 0.579 
-0.438891 0.0845968 0.594 
-0.4215 0.0873028 0.613 
-0.401261 0.0891542 0.626 
-0.384565 0.092145 0.647 
-0.361838 0.0957055 0.672 
-0.340051 0.0994084 0.698 
-0.31765 0.102684 0.721 
-0.292317 0.105675 0.742 
-0.259816 0.106529 0.748 
-0.236079 0.111799 0.785 
-0.210163 0.11778 0.827 
-0.177842 0.122053 0.857 
-0.144333 0.12775 0.897 
-0.106638 0.132877 0.933 
-0.0659259 0.138716 0.974 
-0.0212651 0.143701 1.009 
0.02745 0.1531 1.075 
0.0810912 0.160079 1.124 
0.140488 0.168482 1.183 
0.206873 0.178166 1.251 
0.280444 0.18842 1.323 
0.35478 0.195399 1.372 
0.444061 0.20722 1.455 
1.50842 0.597447 4.195 
1.83799 0.644446 4.525 
1.94521 0.611832 4.296 
2.34122 0.66766 4.688 
2.52314 0.658118 4.621 
2.83216 0.68062 4.779 
2.93346 0.65356 4.589 
3.51974 0.675778 4.745 
3.7961 0.685747 4.815 
3.83182 0.65356 4.589 
4.14269 0.669226 4.699 
4.82582 0.740436 5.199 
4.69381 0.685747 4.815 
-0.453779 0.0835041 0.58 
-0.437045 0.0855197 0.594 
-0.42028 0.0883992 0.614 
-0.400592 0.0904148 0.628 
-0.383146 0.0932942 0.648 
-0.357168 0.0977574 0.679 
-0.335108 0.100637 0.699 
-0.312653 0.10438 0.725 
-0.2854 0.106828 0.742 
-0.254871 0.108555 0.754 
-0.229635 0.11345 0.788 
-0.204657 0.120361 0.836 
-0.172033 0.124968 0.868 
-0.137184 0.130295 0.905 
-0.0984656 0.135046 0.938 
-0.0573715 0.141525 0.983 
-0.0119414 0.146276 1.016 
0.0410773 0.155778 1.082 
0.0961613 0.163697 1.137 
0.156241 0.171471 1.191 
0.226333 0.183277 1.273 
0.298684 0.191628 1.331 
0.374815 0.199114 1.383 
0.467546 0.211928 1.472 
1.51801 0.592447 4.115 
1.89596 0.654499 4.546 
2.05036 0.636647 4.422 
2.38047 0.671632 4.665 
2.50824 0.648453 4.504 
2.90586 0.693228 4.815 
2.97622 0.659106 4.578 
3.55982 0.688045 4.779 
3.86805 0.703594 4.887 
3.83686 0.659106 4.578 
4.22807 0.688045 4.779 
4.84198 0.748513 5.199 
4.34894 0.635207 4.412 
-0.452503 0.0848418 0.583 
-0.434083 0.0865881 0.595 
-0.418372 0.0893531 0.614 
-0.399275 0.091536 0.629 
-0.381721 0.0944465 0.649 
-0.358726 0.0980847 0.674 
-0.336194 0.101723 0.699 
-0.309423 0.105943 0.728 
-0.278518 0.107107 0.736 
-0.251181 0.110163 0.757 
-0.226449 0.115548 0.794 
-0.1997 0.121805 0.837 
-0.167406 0.126899 0.872 
-0.13185 0.131992 0.907 
-0.09313 0.137231 0.943 
-0.0516275 0.144071 0.99 
-0.00569929 0.149747 1.029 
0.0498943 0.158769 1.091 
0.10601 0.167064 1.148 
0.1673 0.175214 1.204 
0.237892 0.186565 1.282 
0.311577 0.195296 1.342 
0.390577 0.203882 1.401 
0.485489 0.217125 1.492 
1.53083 0.593893 4.081 
1.89944 0.65545 4.504 
2.10469 0.653995 4.494 
2.39654 0.677279 4.654 
2.53485 0.656906 4.514 
2.9575 0.707694 4.863 
3.04011 0.675678 4.643 
3.64648 0.700709 4.815 
3.82348 0.692123 4.756 
3.91162 0.669275 4.599 
4.65171 0.754554 5.185 
4.85469 0.748587 5.144 
-0.458703 0.084718 0.576 
-0.439429 0.0869242 0.591 
-0.42373 0.0894246 0.608 
-0.403206 0.092072 0.626 
-0.384783 0.0947195 0.644 
-0.362843 0.0985436 0.67 
-0.342812 0.102515 0.697 
-0.315161 0.106339 0.723 
-0.28808 0.108839 0.74 
-0.256329 0.110016 0.748 
-0.230643 0.114575 0.779 
-0.208055 0.122665 0.834 
-0.17405 0.126195 0.858 
-0.140777 0.132519 0.901 
-0.102289 0.137226 0.933 
-0.0616382 0.143844 0.978 
-0.0166114 0.148845 1.012 
0.0410394 0.158993 1.081 
0.0961613 0.16723 1.137 
0.156372 0.175319 1.192 
0.225444 0.186497 1.268 
0.298908 0.19591 1.332 
0.375357 0.203706 1.385 
0.465322 0.215472 1.465 
1.51486 0.611705 4.159 
1.92112 0.687746 4.676 
2.03706 0.654947 4.453 
2.3918 0.697894 4.745 
2.53862 0.678038 4.61 
2.91895 0.71878 4.887 
2.9967 0.68451 4.654 
3.59248 0.746725 5.077 
3.69136 0.70819 4.815 
3.69703 0.668625 4.546 
3.85475 0.659359 4.483 
4.84145 0.785554 5.341 
4.83879 0.746725 5.077 
-0.453779 0.0862075 0.58 
-0.437045 0.0882884 0.594 
-0.421764 0.0909638 0.612 
-0.401902 0.0931933 0.627 
-0.382782 0.0957201 0.644 
-0.362342 0.0997332 0.671 
-0.342812 0.103598 0.697 
-0.319675 0.106719 0.718 
-0.294978 0.109989 0.74 
-0.26119 0.110286 0.742 
-0.237294 0.115488 0.777 
-0.210136 0.120691 0.812 
-0.180775 0.126636 0.852 
-0.148348 0.133176 0.896 
-0.110154 0.137635 0.926 
-0.0699593 0.143729 0.967 
-0.0259938 0.15012 1.01 
0.0222515 0.158443 1.066 
0.0752448 0.165726 1.115 
0.134061 0.174645 1.175 
0.19831 0.183414 1.234 
0.273034 0.19575 1.317 
0.348386 0.203925 1.372 
0.433673 0.214478 1.443 
1.50464 0.641354 4.315 
1.76427 0.663352 4.463 
1.93089 0.647151 4.354 
2.29163 0.695011 4.676 
2.48597 0.688471 4.632 
2.89377 0.737371 4.961 
2.99588 0.706901 4.756 
3.17155 0.696794 4.688 
3.58057 0.717454 4.827 
3.96166 0.746884 5.025 
3.80426 0.677175 4.556 
4.15239 0.700064 4.71 
4.97062 0.795933 5.355 
-0.463267 0.0863577 0.575 
-0.444816 0.0880098 0.586 
-0.428189 0.0902626 0.601 
-0.412162 0.0929659 0.619 
-0.393218 0.0953689 0.635 
-0.373928 0.0980723 0.653 
-0.356116 0.101677 0.677 
-0.335108 0.104981 0.699 
-0.312914 0.108585 0.723 
-0.284235 0.110538 0.736 
-0.254005 0.11234 0.748 
-0.228516 0.117146 0.78 
-0.205463 0.125256 0.834 
-0.170249 0.129011 0.859 
-0.136881 0.135619 0.903 
-0.0982556 0.140575 0.936 
-0.0573131 0.147484 0.982 
-0.0119649 0.152891 1.018 
0.037506 0.161602 1.076 
0.0919765 0.169561 1.129 
0.15254 0.178873 1.191 
0.219932 0.189086 1.259 
0.293663 0.199299 1.327 
0.371857 0.20846 1.388 
0.458883 0.219123 1.459 
1.52145 0.630036 4.195 
1.95924 0.710836 4.733 
2.08866 0.681099 4.535 
2.41821 0.716093 4.768 
2.57122 0.69732 4.643 
2.95635 0.739522 4.924 
3.0254 0.702276 4.676 
3.62873 0.768508 5.117 
3.75083 0.730361 4.863 
3.74439 0.687557 4.578 
3.87564 0.67329 4.483 
4.96111 0.81777 5.445 
4.8749 0.764453 5.09 
-0.450822 0.0883132 0.582 
-0.433159 0.0902859 0.595 
-0.418372 0.093169 0.614 
-0.39991 0.0955968 0.63 
-0.379539 0.0981764 0.647 
-0.362342 0.101818 0.671 
-0.342908 0.10546 0.695 
-0.319896 0.108647 0.716 
-0.295327 0.111985 0.738 
-0.26199 0.11244 0.741 
-0.237274 0.117296 0.773 
-0.209315 0.122 0.804 
-0.181885 0.129132 0.851 
-0.149406 0.135656 0.894 
-0.111111 0.139905 0.922 
-0.07124 0.146278 0.964 
-0.027563 0.153258 1.01 
0.0205373 0.161301 1.063 
0.0732487 0.168584 1.111 
0.133719 0.17784 1.172 
0.197988 0.186945 1.232 
0.272205 0.199236 1.313 
0.349655 0.208947 1.377 
0.432471 0.218355 1.439 
1.53166 0.663563 4.373 
1.863 0.709541 4.676 
1.95946 0.668116 4.403 
2.31021 0.713031 4.699 
2.49909 0.704533 4.643 
2.91669 0.756732 4.987 
3.01084 0.723501 4.768 
3.16324 0.707872 4.665 
3.6188 0.734123 4.838 
4.06599 0.776459 5.117 
3.88725 0.701195 4.621 
4.34946 0.743379 4.899 
5.03194 0.817125 5.385 
-0.454334 0.0881444 0.575 
-0.440173 0.0907504 0.592 
-0.423033 0.0930499 0.607 
-0.405146 0.0955026 0.623 
-0.385978 0.0982619 0.641 
-0.367768 0.101481 0.662 
-0.348617 0.105007 0.685 
-0.32686 0.108379 0.707 
-0.303052 0.111752 0.729 
-0.269442 0.111905 0.73 
-0.245414 0.116657 0.761 
-0.21822 0.121256 0.791 
-0.191963 0.129227 0.843 
-0.159009 0.134593 0.878 
-0.122389 0.139498 0.91 
-0.0833136 0.145323 0.948 
-0.0411907 0.152988 0.998 
0.00551319 0.158353 1.033 
0.0572979 0.169084 1.103 
0.117626 0.177362 1.157 
0.18399 0.188246 1.228 
0.253603 0.197903 1.291 
0.329332 0.207714 1.355 
0.410738 0.217372 1.418 
1.46781 0.662999 4.325 
1.68792 0.670357 4.373 
1.91771 0.679555 4.433 
2.17321 0.695191 4.535 
2.45873 0.716806 4.676 
2.70931 0.725544 4.733 
3.01039 0.745472 4.863 
3.12789 0.720332 4.699 
3.70589 0.790694 5.158 
3.74327 0.745472 4.863 
3.85483 0.723857 4.722 
3.90492 0.693658 4.525 
4.939 0.83239 5.43 
4.94444 0.792687 5.171 
-0.445875 0.0905863 0.585 
-0.428626 0.0927541 0.599 
-0.412078 0.0953866 0.616 
-0.393946 0.098019 0.633 
-0.375381 0.100961 0.652 
-0.356632 0.104368 0.674 
-0.336797 0.108084 0.698 
-0.313853 0.111491 0.72 
-0.286522 0.113968 0.736 
-0.255301 0.115362 0.745 
-0.228867 0.119698 0.773 
-0.206511 0.128989 0.833 
-0.170905 0.131466 0.849 
-0.139222 0.139363 0.9 
-0.10084 0.144473 0.933 
-0.0601187 0.151442 0.978 
-0.0151134 0.157481 1.017 
0.0340038 0.165843 1.071 
0.0876063 0.17312 1.118 
0.161151 0.185818 1.2 
0.228118 0.195264 1.261 
0.302365 0.205793 1.329 
0.382128 0.215859 1.394 
0.472761 0.228246 1.474 
1.57775 0.659499 4.259 
1.98354 0.736459 4.756 
2.11759 0.707192 4.567 
2.46313 0.747453 4.827 
2.62965 0.731194 4.722 
2.98673 0.766344 4.949 
3.03993 0.724071 4.676 
3.51534 0.7761 5.012 
3.60159 0.745595 4.815 
4.05566 0.790346 5.104 
3.97222 0.731194 4.722 
4.38231 0.764331 4.936 
5.05997 0.838504 5.415 
-0.451431 0.090244 0.577 
-0.437045 0.0929028 0.594 
-0.420125 0.0955616 0.611 
-0.401902 0.0980641 0.627 
-0.380999 0.100254 0.641 
-0.365364 0.10432 0.667 
-0.3453 0.107761 0.689 
-0.322731 0.111045 0.71 
-0.297389 0.114017 0.729 
-0.265217 0.114799 0.734 
-0.240446 0.119491 0.764 
-0.211003 0.123088 0.787 
-0.181458 0.132785 0.849 
-0.148905 0.139354 0.891 
-0.110749 0.143733 0.919 
-0.07124 0.150772 0.964 
-0.0275085 0.157653 1.008 
0.0204021 0.165161 1.056 
0.0729191 0.172981 1.106 
0.134846 0.182365 1.166 
0.199902 0.192687 1.232 
0.272574 0.204105 1.305 
0.353072 0.216148 1.382 
0.435613 0.225532 1.442 
1.59853 0.704435 4.504 
1.9237 0.749322 4.791 
2.01392 0.702871 4.494 
2.34163 0.740251 4.733 
2.54383 0.734933 4.699 
2.93219 0.779977 4.987 
3.01106 0.742128 4.745 
3.22406 0.740251 4.733 
3.59592 0.766213 4.899 
3.89296 0.779977 4.987 
4.02283 0.760583 4.863 
4.1359 0.740251 4.733 
5.0542 0.858803 5.491 
-0.457205 0.0905086 0.573 
-0.44402 0.0933518 0.591 
-0.424696 0.0954052 0.604 
-0.407705 0.0980905 0.621 
-0.389128 0.100776 0.638 
-0.368323 0.104725 0.663 
-0.34709 0.107726 0.682 
-0.32686 0.111675 0.707 
-0.302221 0.114834 0.727 
-0.268704 0.114992 0.728 
-0.244446 0.11973 0.758 
-0.216565 0.123995 0.785 
-0.186734 0.134104 0.849 
-0.151684 0.139475 0.883 
-0.114532 0.144529 0.915 
-0.0753404 0.151479 0.959 
-0.0305191 0.158588 1.004 
0.0169424 0.165064 1.045 
0.0692939 0.174225 1.103 
0.126614 0.182755 1.157 
0.19974 0.194443 1.231 
0.271738 0.2055 1.301 
0.353072 0.218295 1.382 
0.435915 0.22793 1.443 
1.59225 0.718067 4.546 
1.87836 0.747604 4.733 
1.99741 0.711432 4.504 
2.28624 0.736863 4.665 
2.54017 0.747604 4.733 
2.85061 0.771929 4.887 
3.0406 0.762452 4.827 
3.21011 0.7495 4.745 
3.65881 0.795781 5.038 
3.79548 0.77572 4.911 
4.07601 0.785672 4.974 
4.06015 0.740496 4.688 
4.96957 0.860069 5.445 
-0.46475 0.0904418 0.567 
-0.44602 0.0931535 0.584 
-0.428839 0.0953866 0.598 
-0.411409 0.0980982 0.615 
-0.393324 0.10081 0.632 
-0.36942 0.104319 0.654 
-0.350338 0.107828 0.676 
-0.32938 0.112135 0.703 
-0.305051 0.115325 0.723 
-0.272102 0.115644 0.725 
-0.247514 0.120111 0.753 
-0.220879 0.124896 0.783 
-0.192646 0.134945 0.846 
-0.157107 0.139571 0.875 
-0.120976 0.145154 0.91 
-0.081927 0.151374 0.949 
-0.0394018 0.158233 0.992 
0.00868931 0.164135 1.029 
0.0674576 0.17562 1.101 
0.124709 0.184393 1.156 
0.203731 0.196516 1.232 
0.276205 0.207841 1.303 
0.358659 0.221239 1.387 
0.442535 0.231289 1.45 
1.62407 0.726725 4.556 
1.94566 0.769952 4.827 
2.04428 0.725129 4.546 
2.37777 0.764209 4.791 
2.59456 0.762295 4.779 
2.97 0.803608 5.038 
3.0477 0.764209 4.791 
3.28739 0.768037 4.815 
3.61427 0.785424 4.924 
3.90233 0.797387 4.999 
4.14609 0.799461 5.012 
4.29144 0.78335 4.911 
5.06801 0.878258 5.506 
-0.461292 0.0911617 0.566 
-0.444816 0.0943829 0.586 
-0.426096 0.0969599 0.602 
-0.408616 0.0995369 0.618 
-0.390258 0.102275 0.635 
-0.368323 0.106785 0.663 
-0.346072 0.109523 0.68 
-0.322922 0.114033 0.708 
-0.297293 0.116932 0.726 
-0.265631 0.117898 0.732 
-0.240052 0.122247 0.759 
-0.210338 0.125629 0.78 
-0.176246 0.135776 0.843 
-0.144427 0.143185 0.889 
-0.101741 0.149466 0.928 
-0.061323 0.156714 0.973 
-0.0166114 0.162996 1.012 
0.0425213 0.173304 1.076 
0.096722 0.180874 1.123 
0.175653 0.194886 1.21 
0.242408 0.203584 1.264 
0.320156 0.216308 1.343 
0.403273 0.227904 1.415 
0.494761 0.240306 1.492 
1.74152 0.735575 4.567 
1.99633 0.751359 4.665 
2.17248 0.737346 4.578 
2.54064 0.785182 4.875 
2.68725 0.762311 4.733 
3.03257 0.795007 4.936 
3.19786 0.779223 4.838 
3.63866 0.826414 5.131 
3.64807 0.777451 4.827 
4.08408 0.819811 5.09 
4.16936 0.790981 4.911 
4.68127 0.841876 5.227 
4.99408 0.850896 5.283 
-0.448622 0.0939925 0.578 
-0.433354 0.0965943 0.594 
-0.41796 0.0995214 0.612 
-0.398343 0.101798 0.626 
-0.376523 0.105213 0.647 
-0.355533 0.108628 0.668 
-0.333669 0.113181 0.696 
-0.310317 0.116596 0.717 
-0.281918 0.11871 0.73 
-0.252307 0.120824 0.743 
-0.226172 0.12554 0.772 
-0.195044 0.137411 0.845 
-0.15567 0.140989 0.867 
-0.12071 0.147656 0.908 
-0.0817544 0.153998 0.947 
-0.0392429 0.160665 0.988 
0.00707679 0.167007 1.027 
0.0618164 0.177577 1.092 
0.118598 0.186847 1.149 
0.192742 0.19888 1.223 
0.262611 0.209125 1.286 
0.34337 0.222622 1.369 
0.426512 0.233192 1.434 
1.61901 0.755029 4.643 
1.87575 0.771616 4.745 
2.04697 0.753241 4.632 
2.32345 0.773405 4.756 
2.60239 0.790805 4.863 
2.84302 0.794708 4.887 
3.10976 0.80479 4.949 
3.30669 0.796659 4.899 
3.7313 0.840891 5.171 
3.77259 0.798611 4.911 
4.23616 0.845444 5.199 
4.28467 0.808856 4.974 
4.86246 0.870812 5.355 
5.18617 0.88057 5.415 
-0.44734 0.095383 0.581 
-0.430386 0.0976814 0.595 
-0.414834 0.100636 0.613 
-0.395083 0.102935 0.627 
-0.376099 0.106382 0.648 
-0.355001 0.109502 0.667 
-0.332588 0.114263 0.696 
-0.309203 0.11771 0.717 
-0.278501 0.119352 0.727 
-0.250671 0.122307 0.745 
-0.224353 0.127068 0.774 
-0.195044 0.138724 0.845 
-0.158053 0.140858 0.858 
-0.124116 0.148082 0.902 
-0.0855314 0.15432 0.94 
-0.0436261 0.161379 0.983 
0.00228768 0.168439 1.026 
0.0529426 0.177961 1.084 
0.108241 0.186169 1.134 
0.174782 0.197661 1.204 
0.241832 0.207019 1.261 
0.319917 0.220317 1.342 
0.404698 0.233122 1.42 
0.492108 0.243629 1.484 
1.78614 0.765855 4.665 
2.02806 0.775213 4.722 
2.18959 0.75502 4.599 
2.57383 0.808375 4.924 
2.72079 0.78457 4.779 
3.07904 0.820688 4.999 
3.26236 0.808375 4.924 
3.63866 0.842358 5.131 
3.71155 0.806241 4.911 
4.16031 0.851223 5.185 
4.40198 0.851223 5.185 
4.76993 0.874371 5.326 
5.04625 0.872073 5.312 
-0.451653 0.0952913 0.575 
-0.436675 0.0979429 0.591 
-0.420896 0.10076 0.608 
-0.401596 0.10308 0.622 
-0.380207 0.105732 0.638 
-0.364752 0.110041 0.664 
-0.342852 0.113024 0.682 
-0.322466 0.117167 0.707 
-0.296884 0.12015 0.725 
-0.264906 0.120979 0.73 
-0.239419 0.125453 0.757 
-0.209798 0.128933 0.778 
-0.180389 0.139871 0.844 
-0.145368 0.145506 0.878 
-0.109084 0.151969 0.917 
-0.0696699 0.159592 0.963 
-0.0257365 0.165724 1 
0.0218132 0.173182 1.045 
0.0741651 0.182131 1.099 
0.131893 0.191577 1.156 
0.198929 0.203178 1.226 
0.269649 0.21395 1.291 
0.351539 0.228036 1.376 
0.436821 0.239637 1.446 
1.65958 0.774926 4.676 
1.96707 0.811882 4.899 
2.10086 0.776914 4.688 
2.40595 0.805916 4.863 
2.6586 0.813871 4.911 
2.96982 0.837072 5.051 
3.16463 0.826466 4.987 
3.40525 0.828455 4.999 
3.6761 0.837072 5.051 
3.91153 0.837072 5.051 
4.33743 0.87552 5.283 
4.46308 0.852485 5.144 
5.06213 0.917614 5.537 
5.55817 0.955565 5.766 
-0.449754 0.096352 0.576 
-0.433002 0.0988611 0.591 
-0.41849 0.102039 0.61 
-0.39901 0.104381 0.624 
-0.377193 0.10756 0.643 
-0.359102 0.11124 0.665 
-0.338468 0.114753 0.686 
-0.317663 0.118934 0.711 
-0.291726 0.121945 0.729 
-0.259161 0.122615 0.733 
-0.233283 0.127131 0.76 
-0.203066 0.130477 0.78 
-0.169864 0.139008 0.831 
-0.13981 0.148208 0.886 
-0.102738 0.154565 0.924 
-0.0625765 0.162092 0.969 
-0.0180939 0.168449 1.007 
0.0303321 0.177147 1.059 
0.083455 0.185511 1.109 
0.141848 0.194711 1.164 
0.207727 0.206253 1.233 
0.279393 0.217294 1.299 
0.363231 0.232181 1.388 
0.449816 0.244058 1.459 
1.68964 0.786038 4.699 
2.01509 0.829865 4.961 
2.10731 0.778511 4.654 
2.45908 0.823676 4.924 
2.68859 0.823676 4.924 
3.02477 0.853786 5.104 
3.13929 0.821501 4.911 
3.44638 0.840571 5.025 
3.63372 0.829865 4.961 
4.00753 0.860477 5.144 
4.40995 0.89343 5.341 
4.57166 0.876703 5.241 
5.19178 0.945119 5.65 
5.63375 0.976066 5.835 
-0.449754 0.0972469 0.576 
-0.432083 0.0997794 0.591 
-0.417542 0.102987 0.61 
-0.39804 0.105351 0.624 
-0.377193 0.108559 0.643 
-0.359102 0.112273 0.665 
-0.337974 0.11565 0.685 
-0.317216 0.11987 0.71 
-0.291326 0.122909 0.728 
-0.258808 0.123585 0.732 
-0.233283 0.128312 0.76 
-0.202372 0.132026 0.782 
-0.172446 0.140299 0.831 
-0.141437 0.148403 0.879 
-0.105038 0.155156 0.919 
-0.0653167 0.162922 0.965 
-0.0211387 0.169338 1.003 
0.0269137 0.177948 1.054 
0.0796482 0.18639 1.104 
0.139559 0.195844 1.16 
0.205645 0.208 1.232 
0.276521 0.218637 1.295 
0.360294 0.233832 1.385 
0.446322 0.24565 1.455 
1.68324 0.797222 4.722 
2.00491 0.839768 4.974 
2.11309 0.793339 4.699 
2.43732 0.829131 4.911 
2.67328 0.831326 4.924 
2.97766 0.852767 5.051 
3.18828 0.846183 5.012 
3.4574 0.854962 5.064 
3.6555 0.846183 5.012 
4.01249 0.873027 5.171 
4.44188 0.91169 5.4 
4.59188 0.891936 5.283 
5.144 0.948326 5.617 
5.50109 0.96504 5.716 
-0.452547 0.0979714 0.575 
-0.436112 0.100357 0.589 
-0.420453 0.103253 0.606 
-0.401268 0.105639 0.62 
-0.379611 0.108535 0.637 
-0.363653 0.112795 0.662 
-0.342349 0.116032 0.681 
-0.32201 0.120292 0.706 
-0.296474 0.123359 0.724 
-0.26418 0.12404 0.728 
-0.238558 0.129152 0.758 
-0.209126 0.1329 0.78 
-0.184095 0.142612 0.837 
-0.146874 0.145679 0.855 
-0.11303 0.153858 0.903 
-0.0733884 0.162377 0.953 
-0.0301847 0.169192 0.993 
0.0167802 0.176349 1.035 
0.0683515 0.185379 1.088 
0.12552 0.195432 1.147 
0.189749 0.207188 1.216 
0.258586 0.217411 1.276 
0.33875 0.231553 1.359 
0.425468 0.245014 1.438 
1.63189 0.804558 4.722 
1.93591 0.841021 4.936 
2.10762 0.81836 4.803 
2.33731 0.820404 4.815 
2.61973 0.838976 4.924 
2.82783 0.832672 4.887 
3.18254 0.86726 5.09 
3.41979 0.86726 5.09 
3.75547 0.890603 5.227 
4.03123 0.897759 5.269 
4.43186 0.930303 5.46 
4.71296 0.935584 5.491 
4.98247 0.93814 5.506 
5.2391 0.93814 5.506 
-0.455696 0.0980051 0.57 
-0.438604 0.100584 0.585 
-0.42329 0.103507 0.602 
-0.403765 0.105742 0.615 
-0.386079 0.108837 0.633 
-0.367277 0.112104 0.652 
-0.348255 0.115887 0.674 
-0.329532 0.120529 0.701 
-0.304057 0.123452 0.718 
-0.272475 0.124312 0.723 
-0.247032 0.12861 0.748 
-0.219543 0.133081 0.774 
-0.189392 0.137379 0.799 
-0.158097 0.145116 0.844 
-0.123964 0.151478 0.881 
-0.0852585 0.161107 0.937 
-0.0433155 0.167812 0.976 
0.00227877 0.175721 1.022 
0.0523077 0.184146 1.071 
0.107477 0.193603 1.126 
0.16891 0.204435 1.189 
0.237537 0.216471 1.259 
0.313159 0.228851 1.331 
0.397749 0.242606 1.411 
0.48684 0.254813 1.482 
1.86235 0.846627 4.924 
2.07104 0.838201 4.875 
2.12337 0.774412 4.504 
2.61667 0.868463 5.051 
2.75272 0.838201 4.875 
3.09548 0.870698 5.064 
3.4019 0.889095 5.171 
3.5767 0.872933 5.077 
3.81334 0.872933 5.077 
4.23745 0.913339 5.312 
4.85401 0.988476 5.749 
4.83776 0.933628 5.43 
5.16211 0.946695 5.506 
-0.459465 0.0983702 0.567 
-0.440876 0.100973 0.582 
-0.42468 0.104095 0.6 
-0.405971 0.106524 0.614 
-0.388414 0.109647 0.632 
-0.36918 0.11277 0.65 
-0.348789 0.116066 0.669 
-0.3309 0.120924 0.697 
-0.306547 0.124221 0.716 
-0.275082 0.125088 0.721 
-0.247504 0.128211 0.739 
-0.221374 0.133936 0.772 
-0.190914 0.137926 0.795 
-0.160339 0.146081 0.842 
-0.126127 0.152153 0.877 
-0.0905956 0.161695 0.932 
-0.0490268 0.168114 0.969 
-0.00404875 0.176268 1.016 
0.0454386 0.184943 1.066 
0.100033 0.194485 1.121 
0.164937 0.205936 1.187 
0.232882 0.217733 1.255 
0.307166 0.22953 1.323 
0.391413 0.243583 1.404 
0.480933 0.256422 1.478 
1.85155 0.856359 4.936 
2.06602 0.849939 4.899 
2.10469 0.779675 4.494 
2.60767 0.878566 5.064 
2.74431 0.847858 4.887 
3.07974 0.878566 5.064 
3.40417 0.901987 5.199 
3.54269 0.87631 5.051 
3.7684 0.874055 5.038 
4.23206 0.924021 5.326 
4.83615 0.997408 5.749 
4.80757 0.939462 5.415 
5.17397 0.960628 5.537 
-0.462988 0.0992512 0.567 
-0.4458 0.101352 0.579 
-0.424903 0.104853 0.599 
-0.406925 0.107478 0.614 
-0.38878 0.110454 0.631 
-0.369621 0.113605 0.649 
-0.34826 0.116581 0.666 
-0.331507 0.121832 0.696 
-0.30723 0.125158 0.715 
-0.275819 0.126033 0.72 
-0.243269 0.132685 0.758 
-0.213425 0.136186 0.778 
-0.186498 0.143363 0.819 
-0.152671 0.147564 0.843 
-0.117817 0.15334 0.876 
-0.0824348 0.164193 0.938 
-0.0403239 0.17102 0.977 
0.00545448 0.178897 1.022 
0.0555317 0.187124 1.069 
0.111074 0.197277 1.127 
0.179195 0.209355 1.196 
0.248496 0.221433 1.265 
0.327145 0.235612 1.346 
0.412765 0.249441 1.425 
0.500706 0.260644 1.489 
1.91717 0.872955 4.987 
2.10651 0.85545 4.887 
2.21775 0.812739 4.643 
2.63443 0.879607 5.025 
2.79672 0.857551 4.899 
3.09484 0.877331 5.012 
3.50842 0.924769 5.283 
3.63668 0.895711 5.117 
4.02287 0.929845 5.312 
4.37738 0.953126 5.445 
4.87528 1.00336 5.732 
4.93969 0.963804 5.506 
5.22559 0.96923 5.537 
-0.458584 0.100132 0.567 
-0.442064 0.102428 0.58 
-0.425339 0.10543 0.597 
-0.407879 0.108432 0.614 
-0.389143 0.111258 0.63 
-0.370058 0.114437 0.648 
-0.34877 0.117439 0.665 
-0.331632 0.12256 0.694 
-0.30791 0.126092 0.714 
-0.276553 0.126975 0.719 
-0.247097 0.129094 0.731 
-0.214633 0.137395 0.778 
-0.185936 0.143222 0.811 
-0.153615 0.14852 0.841 
-0.118633 0.153995 0.872 
-0.0837132 0.165297 0.936 
-0.0416706 0.171832 0.973 
0.00385906 0.180132 1.02 
0.0537197 0.188255 1.066 
0.109129 0.198675 1.125 
0.17047 0.209624 1.187 
0.239683 0.222516 1.26 
0.315227 0.235054 1.331 
0.399374 0.248829 1.409 
0.489472 0.261897 1.483 
1.88126 0.878407 4.974 
2.08634 0.867282 4.911 
2.14788 0.804589 4.556 
2.64413 0.901365 5.104 
2.77305 0.867282 4.911 
3.05574 0.882822 4.999 
3.52295 0.945692 5.355 
3.55839 0.892006 5.051 
3.84339 0.903661 5.117 
4.28371 0.948341 5.37 
4.79744 1.00344 5.682 
4.87786 0.966884 5.475 
5.20618 0.980659 5.553 
6.4777 1.16238 6.582 
-0.447724 0.102973 0.578 
-0.430247 0.105289 0.591 
-0.413073 0.108495 0.609 
-0.393531 0.11099 0.623 
-0.375609 0.114375 0.642 
-0.352872 0.118116 0.663 
-0.333139 0.122213 0.686 
-0.3117 0.126489 0.71 
-0.282923 0.128449 0.721 
-0.251392 0.129518 0.727 
-0.218975 0.137534 0.772 
-0.189155 0.142166 0.798 
-0.159958 0.149649 0.84 
-0.124545 0.154281 0.866 
-0.090304 0.165505 0.929 
-0.0488245 0.171918 0.965 
-0.00404078 0.180648 1.014 
0.0453533 0.189555 1.064 
0.0998546 0.199354 1.119 
0.160842 0.210934 1.184 
0.227523 0.222157 1.247 
0.301222 0.234272 1.315 
0.386223 0.249593 1.401 
0.474407 0.262242 1.472 
1.83175 0.877228 4.924 
2.06126 0.877228 4.924 
2.11957 0.811667 4.556 
2.61906 0.911611 5.117 
2.75649 0.879366 4.936 
3.03254 0.892905 5.012 
3.49945 0.956684 5.37 
3.53607 0.902169 5.064 
3.69538 0.883819 4.961 
4.23847 0.954012 5.355 
4.70765 1.00069 5.617 
4.87126 0.980913 5.506 
5.23127 1.00069 5.617 
6.14634 1.11969 6.285 
-0.45076 0.103332 0.575 
-0.433544 0.105668 0.588 
-0.414546 0.109082 0.607 
-0.395162 0.111598 0.621 
-0.376832 0.114833 0.639 
-0.353368 0.118966 0.662 
-0.332743 0.12274 0.683 
-0.311261 0.127412 0.709 
-0.282531 0.129389 0.72 
-0.251046 0.130467 0.726 
-0.216214 0.139273 0.775 
-0.1859 0.143766 0.8 
-0.155857 0.150774 0.839 
-0.120508 0.155626 0.866 
-0.0835343 0.167846 0.934 
-0.0416278 0.174675 0.972 
0.00385906 0.183301 1.02 
0.0535181 0.190849 1.062 
0.108935 0.201811 1.123 
0.17047 0.213312 1.187 
0.239493 0.226251 1.259 
0.31428 0.238471 1.327 
0.398524 0.252668 1.406 
0.487162 0.265248 1.476 
1.88126 0.893863 4.974 
2.08634 0.882542 4.911 
2.19927 0.838334 4.665 
2.6721 0.92693 5.158 
2.80862 0.893863 4.974 
3.03252 0.891527 4.961 
3.58216 0.978505 5.445 
3.54923 0.905365 5.038 
3.93169 0.936813 5.213 
4.33644 0.973114 5.415 
4.69222 0.995038 5.537 
4.99321 1.00366 5.585 
5.28363 1.00942 5.617 
6.51987 1.18679 6.604 
-0.44503 0.104769 0.578 
-0.427492 0.107125 0.591 
-0.411024 0.111113 0.613 
-0.390563 0.113469 0.626 
-0.367277 0.118182 0.652 
-0.344638 0.120901 0.667 
-0.325771 0.125614 0.693 
-0.302787 0.129601 0.715 
-0.270214 0.129964 0.717 
-0.23267 0.137396 0.758 
-0.203847 0.141927 0.783 
-0.174618 0.14809 0.817 
-0.142387 0.154434 0.852 
-0.106942 0.162953 0.899 
-0.0673242 0.172379 0.951 
-0.0239651 0.179629 0.991 
0.023347 0.188693 1.041 
0.0769447 0.197574 1.09 
0.133258 0.206094 1.137 
0.20067 0.222044 1.225 
0.271445 0.233826 1.29 
0.351878 0.248146 1.369 
0.43846 0.261741 1.444 
1.66195 0.860083 4.745 
2.06329 0.942375 5.199 
2.15085 0.879115 4.85 
2.48179 0.917905 5.064 
2.71084 0.915548 5.051 
2.93111 0.910836 5.025 
3.2491 0.934943 5.158 
3.61332 0.968114 5.341 
3.45401 0.862076 4.756 
4.45627 1.04515 5.766 
4.60293 1.01814 5.617 
4.85088 1.01524 5.601 
5.26254 1.04515 5.766 
5.53129 1.04515 5.766 
-0.45506 0.103656 0.567 
-0.439215 0.106215 0.581 
-0.424194 0.109323 0.598 
-0.406925 0.112248 0.614 
-0.387548 0.11499 0.629 
-0.364797 0.119378 0.653 
-0.342553 0.122303 0.669 
-0.322541 0.12669 0.693 
-0.299454 0.130712 0.715 
-0.267244 0.131261 0.718 
-0.229136 0.138573 0.758 
-0.200454 0.143327 0.784 
-0.171229 0.149725 0.819 
-0.139228 0.156672 0.857 
-0.102257 0.165813 0.907 
-0.0631561 0.174588 0.955 
-0.0194242 0.1819 0.995 
0.0351349 0.192869 1.055 
0.0874254 0.199999 1.094 
0.146515 0.211699 1.158 
0.213301 0.225227 1.232 
0.285228 0.237293 1.298 
0.3697 0.253747 1.388 
0.456616 0.266726 1.459 
1.72273 0.875864 4.791 
2.11176 0.950453 5.199 
2.19063 0.884457 4.838 
2.56245 0.938021 5.131 
2.75793 0.923396 5.051 
2.99336 0.923396 5.051 
3.42311 0.978972 5.355 
3.54652 0.945334 5.171 
3.45867 0.86325 4.722 
4.37602 1.02687 5.617 
4.5594 1.0095 5.522 
4.94239 1.03583 5.666 
5.28275 1.051 5.749 
5.66754 1.07312 5.87 
-0.452332 0.104721 0.568 
-0.437104 0.107487 0.583 
-0.421181 0.110437 0.599 
-0.403765 0.113386 0.615 
-0.384859 0.116336 0.631 
-0.362307 0.120577 0.654 
-0.340957 0.123895 0.672 
-0.319311 0.127767 0.693 
-0.29695 0.132192 0.717 
-0.264633 0.132745 0.72 
-0.225901 0.139935 0.759 
-0.19705 0.144729 0.785 
-0.168024 0.151551 0.822 
-0.135234 0.158004 0.857 
-0.0981378 0.167406 0.908 
-0.0589507 0.176809 0.959 
-0.014831 0.183999 0.998 
0.0384132 0.194508 1.055 
0.0908249 0.201699 1.094 
0.15128 0.215158 1.167 
0.216601 0.226588 1.229 
0.28993 0.239863 1.301 
0.375361 0.256825 1.393 
0.461466 0.269178 1.46 
1.75817 0.889945 4.827 
2.1023 0.943412 5.117 
2.20814 0.889945 4.827 
2.59292 0.94839 5.144 
2.78147 0.931244 5.051 
3.05632 0.943412 5.117 
3.50603 1.00388 5.445 
3.55198 0.94839 5.144 
3.50574 0.876855 4.756 
4.24389 0.998354 5.415 
4.50874 1.00112 5.43 
4.99774 1.05071 5.699 
5.29385 1.0568 5.732 
5.9452 1.12981 6.128 
-0.449084 0.106719 0.574 
-0.431895 0.109136 0.587 
-0.41625 0.112297 0.604 
-0.397736 0.115086 0.619 
-0.378419 0.11806 0.635 
-0.356886 0.122523 0.659 
-0.336564 0.126427 0.68 
-0.314284 0.130331 0.701 
-0.289645 0.13405 0.721 
-0.256394 0.134236 0.722 
-0.219319 0.142974 0.769 
-0.189202 0.147436 0.793 
-0.157142 0.154687 0.832 
-0.122345 0.159893 0.86 
-0.0848634 0.17049 0.917 
-0.0444184 0.179786 0.967 
0.0006855 0.188525 1.014 
0.0531653 0.196148 1.055 
0.108741 0.208418 1.121 
0.170039 0.220131 1.184 
0.23702 0.231659 1.246 
0.312385 0.245231 1.319 
0.397107 0.260476 1.401 
0.480891 0.270888 1.457 
1.89564 0.93184 5.012 
2.09696 0.91771 4.936 
2.35107 0.927192 4.987 
2.69334 0.966608 5.199 
2.89727 0.953965 5.131 
3.11137 0.946342 5.09 
3.63282 1.02666 5.522 
3.60488 0.951362 5.117 
3.75476 0.929423 4.999 
4.30405 1.00119 5.385 
4.49329 0.987617 5.312 
5.10145 1.06273 5.716 
5.3829 1.0657 5.732 
-0.454333 0.105924 0.565 
-0.438459 0.108736 0.58 
-0.423484 0.111923 0.597 
-0.406925 0.11511 0.614 
-0.386932 0.117735 0.628 
-0.366773 0.120734 0.644 
-0.347737 0.124671 0.665 
-0.32722 0.128796 0.687 
-0.305082 0.133108 0.71 
-0.274287 0.134232 0.716 
-0.23604 0.140607 0.75 
-0.208321 0.145668 0.777 
-0.177421 0.150168 0.801 
-0.144013 0.158604 0.846 
-0.108166 0.164041 0.875 
-0.0715402 0.174165 0.929 
-0.0298503 0.184101 0.982 
0.0166343 0.19235 1.026 
0.0670951 0.200224 1.068 
0.122675 0.21016 1.121 
0.187408 0.225158 1.201 
0.258789 0.239406 1.277 
0.336008 0.252717 1.348 
0.423988 0.268652 1.433 
0.50311 0.275402 1.469 
2.05833 0.987809 5.269 
2.16924 0.930066 4.961 
2.43144 0.942064 5.025 
2.76539 0.97731 5.213 
3.00837 0.97731 5.213 
3.21705 0.966999 5.158 
3.68068 1.02943 5.491 
3.50359 0.916193 4.887 
4.40252 1.08098 5.766 
4.55501 1.05005 5.601 
4.63034 1.00956 5.385 
5.28925 1.09392 5.835 
5.64509 1.11042 5.923 
-0.449497 0.107747 0.57 
-0.434059 0.110582 0.585 
-0.41506 0.114363 0.605 
-0.395813 0.117009 0.619 
-0.376446 0.120034 0.635 
-0.358319 0.124003 0.656 
-0.338235 0.127973 0.677 
-0.31438 0.131186 0.694 
-0.291786 0.135723 0.718 
-0.259399 0.13629 0.721 
-0.221454 0.144418 0.764 
-0.191925 0.149144 0.789 
-0.158054 0.156894 0.83 
-0.12325 0.161998 0.857 
-0.0881655 0.171449 0.907 
-0.0486727 0.181846 0.962 
-0.0040089 0.190163 1.006 
0.0448844 0.199048 1.053 
0.0984269 0.208499 1.103 
0.160026 0.222676 1.178 
0.222779 0.230805 1.221 
0.299161 0.246872 1.306 
0.384018 0.263318 1.393 
0.467316 0.274092 1.45 
1.83781 0.937774 4.961 
2.10116 0.952329 5.038 
2.34201 0.954787 5.051 
2.61111 0.967262 5.117 
2.84962 0.967262 5.117 
3.1883 0.998641 5.283 
3.55937 1.03493 5.475 
3.63202 0.985409 5.213 
3.57915 0.910176 4.815 
4.28248 1.02076 5.4 
4.46028 1.00412 5.312 
5.09518 1.08673 5.749 
5.51111 1.113 5.888 
6.44311 1.23171 6.516 
-0.4417 0.109776 0.576 
-0.424627 0.113587 0.596 
-0.407501 0.116637 0.612 
-0.387645 0.119305 0.626 
-0.367056 0.122164 0.641 
-0.349804 0.126738 0.665 
-0.328396 0.130549 0.685 
-0.306422 0.134933 0.708 
-0.276512 0.136457 0.716 
-0.246874 0.138554 0.727 
-0.212876 0.147892 0.776 
-0.181716 0.152085 0.798 
-0.145429 0.159899 0.839 
-0.110378 0.165998 0.871 
-0.0733054 0.174383 0.915 
-0.0328012 0.186581 0.979 
0.0133545 0.194204 1.019 
0.0668438 0.20278 1.064 
0.122237 0.212881 1.117 
0.186784 0.228128 1.197 
0.257776 0.242421 1.272 
0.333266 0.254809 1.337 
0.423988 0.273105 1.433 
0.500713 0.278632 1.462 
2.09192 1.02057 5.355 
2.18061 0.950437 4.987 
2.42515 0.955201 5.012 
2.78024 0.998845 5.241 
3.0655 1.01238 5.312 
3.28628 1.00418 5.269 
3.69073 1.04935 5.506 
3.57528 0.950437 4.987 
4.59225 1.1393 5.978 
4.59853 1.07355 5.633 
4.69885 1.03772 5.445 
5.32375 1.11548 5.853 
5.91501 1.17513 6.166 
-0.450821 0.108557 0.565 
-0.437259 0.111823 0.582 
-0.417918 0.115474 0.601 
-0.398988 0.118164 0.615 
-0.381161 0.121622 0.633 
-0.361101 0.124889 0.65 
-0.340983 0.128731 0.67 
-0.317614 0.131998 0.687 
-0.295985 0.136801 0.712 
-0.264644 0.137762 0.717 
-0.231924 0.143718 0.748 
-0.20391 0.148714 0.774 
-0.173254 0.153517 0.799 
-0.143332 0.161779 0.842 
-0.107671 0.167351 0.871 
-0.0705391 0.175997 0.916 
-0.0298199 0.188486 0.981 
0.0165533 0.196171 1.021 
0.0704137 0.205202 1.068 
0.125595 0.214424 1.116 
0.190663 0.23018 1.198 
0.266308 0.244974 1.275 
0.343364 0.258232 1.344 
0.437123 0.278022 1.447 
1.72465 0.94608 4.924 
2.14306 1.03754 5.4 
2.23422 0.967984 5.038 
2.4563 0.962988 5.012 
2.82033 1.00968 5.255 
3.10668 1.02332 5.326 
3.40154 1.03754 5.4 
3.69383 1.04907 5.46 
3.53286 0.936666 4.875 
4.66791 1.16281 6.052 
4.5942 1.07923 5.617 
4.74708 1.05502 5.491 
5.34834 1.12784 5.87 
5.95338 1.1924 6.206 
-0.450821 0.109435 0.565 
-0.437259 0.112728 0.582 
-0.418155 0.116214 0.6 
-0.399293 0.118926 0.614 
-0.381541 0.122412 0.632 
-0.361554 0.125705 0.649 
-0.341003 0.129385 0.668 
-0.318217 0.132872 0.686 
-0.296674 0.137714 0.711 
-0.265387 0.138682 0.716 
-0.235703 0.142943 0.738 
-0.209922 0.149916 0.774 
-0.179012 0.154371 0.797 
-0.148271 0.161344 0.833 
-0.113649 0.167542 0.865 
-0.0765529 0.174902 0.903 
-0.0342522 0.189235 0.977 
0.0117135 0.196402 1.014 
0.061361 0.204343 1.055 
0.116926 0.216158 1.116 
0.183689 0.230298 1.189 
0.254191 0.244824 1.264 
0.327969 0.256446 1.324 
0.418524 0.275428 1.422 
0.496055 0.281819 1.455 
2.11536 1.04883 5.415 
2.2086 0.978329 5.051 
2.43773 0.975811 5.038 
2.7951 1.02055 5.269 
3.08224 1.0345 5.341 
3.36798 1.04593 5.4 
3.69073 1.06646 5.506 
3.7072 1.00157 5.171 
4.49567 1.14045 5.888 
4.6575 1.11353 5.749 
4.51423 1.02055 5.269 
5.35061 1.14723 5.923 
5.73118 1.16853 6.033 
-0.453667 0.109727 0.562 
-0.437845 0.112851 0.578 
-0.421629 0.116561 0.597 
-0.403698 0.119489 0.612 
-0.385593 0.122808 0.629 
-0.364772 0.125737 0.644 
-0.346191 0.130032 0.666 
-0.325085 0.134133 0.687 
-0.302022 0.138233 0.708 
-0.271302 0.139404 0.714 
-0.243023 0.142333 0.729 
-0.21994 0.149752 0.767 
-0.189714 0.154243 0.79 
-0.159472 0.160881 0.824 
-0.125326 0.166543 0.853 
-0.0894791 0.174158 0.892 
-0.0481161 0.185677 0.951 
-0.00398898 0.195439 1.001 
0.0447139 0.204811 1.049 
0.0979807 0.214378 1.098 
0.158668 0.228045 1.168 
0.223388 0.237026 1.214 
0.300498 0.254403 1.303 
0.382301 0.269241 1.379 
0.468243 0.280956 1.439 
1.95782 1.02327 5.241 
2.13866 0.993792 5.09 
2.38851 0.999063 5.117 
2.62034 0.996525 5.104 
2.92712 1.02054 5.227 
3.26659 1.05139 5.385 
3.61688 1.08107 5.537 
3.68741 1.02874 5.269 
3.82999 1.0018 5.131 
4.5196 1.1127 5.699 
4.63661 1.07814 5.522 
5.1714 1.13925 5.835 
5.62808 1.17791 6.033 
6.3187 1.25952 6.451 
-0.444963 0.112371 0.571 
-0.427517 0.115323 0.586 
-0.41318 0.119063 0.605 
-0.393253 0.121621 0.618 
-0.3725 0.124966 0.635 
-0.355322 0.129493 0.658 
-0.332414 0.133429 0.678 
-0.311016 0.137955 0.701 
-0.28549 0.141497 0.719 
-0.253729 0.142481 0.724 
-0.22758 0.147401 0.749 
-0.198842 0.152125 0.773 
-0.16892 0.157832 0.802 
-0.138592 0.166294 0.845 
-0.102493 0.171804 0.873 
-0.0647049 0.179873 0.914 
-0.02382 0.193846 0.985 
0.023033 0.202111 1.027 
0.0736633 0.209983 1.067 
0.131383 0.22061 1.121 
0.195428 0.23478 1.193 
0.270969 0.249736 1.269 
0.349628 0.264496 1.344 
0.446195 0.283389 1.44 
1.8674 1.01764 5.171 
2.14267 1.03417 5.255 
2.33127 1.00977 5.131 
2.52384 0.991466 5.038 
2.86982 1.03142 5.241 
3.19966 1.05975 5.385 
3.54806 1.08967 5.537 
3.6611 1.04814 5.326 
3.64143 0.976313 4.961 
4.69544 1.18374 6.015 
4.64656 1.10541 5.617 
4.99488 1.12489 5.716 
5.40306 1.1552 5.87 
6.23852 1.26954 6.451 
-0.450023 0.11187 0.564 
-0.435756 0.115044 0.58 
-0.419997 0.118217 0.596 
-0.402089 0.121193 0.611 
-0.378211 0.125556 0.633 
-0.358071 0.128928 0.65 
-0.338869 0.133292 0.672 
-0.313496 0.135871 0.685 
-0.293077 0.141424 0.713 
-0.261302 0.142218 0.717 
-0.234239 0.146185 0.737 
-0.20938 0.153127 0.772 
-0.178787 0.157888 0.796 
-0.147559 0.164433 0.829 
-0.113124 0.17078 0.861 
-0.0762138 0.178318 0.899 
-0.0369064 0.191806 0.967 
0.00852042 0.200136 1.009 
0.0580827 0.209261 1.055 
0.118447 0.220963 1.114 
0.180159 0.233658 1.178 
0.25823 0.248931 1.255 
0.33515 0.26341 1.328 
0.425451 0.282254 1.423 
0.504565 0.289593 1.46 
2.10542 1.05642 5.326 
2.26749 1.01774 5.131 
2.48027 1.00703 5.077 
2.86568 1.06217 5.355 
3.13273 1.06812 5.385 
3.51945 1.11097 5.601 
3.6651 1.07705 5.43 
4.05313 1.11414 5.617 
4.68775 1.20796 6.09 
4.74956 1.15401 5.818 
4.7653 1.0953 5.522 
5.32375 1.16095 5.853 
5.91497 1.227 6.186 
-0.454603 0.112147 0.561 
-0.43736 0.114945 0.575 
-0.424125 0.118744 0.594 
-0.405782 0.121542 0.608 
-0.383639 0.12574 0.629 
-0.363334 0.128939 0.645 
-0.343604 0.132937 0.665 
-0.32201 0.136935 0.685 
-0.299399 0.141333 0.707 
-0.26833 0.142332 0.712 
-0.241088 0.145931 0.73 
-0.217273 0.153127 0.766 
-0.187733 0.158325 0.792 
-0.154875 0.163922 0.82 
-0.121492 0.170719 0.854 
-0.0852259 0.178115 0.891 
-0.0461972 0.18831 0.942 
-0.00243375 0.200105 1.001 
0.0462554 0.2093 1.047 
0.106332 0.222694 1.114 
0.165643 0.233089 1.166 
0.229235 0.242885 1.215 
0.313604 0.261276 1.307 
0.400314 0.279267 1.397 
0.480318 0.286864 1.435 
2.07018 1.07649 5.385 
2.22333 1.03111 5.158 
2.44416 1.02291 5.117 
2.79224 1.06469 5.326 
3.0656 1.07349 5.37 
3.41902 1.10687 5.537 
3.6771 1.10687 5.537 
4.00341 1.12606 5.633 
4.45985 1.17004 5.853 
4.77552 1.18064 5.906 
4.65655 1.08848 5.445 
5.39101 1.19503 5.978 
5.68672 1.19863 5.996 
-0.458089 0.113018 0.561 
-0.43736 0.115839 0.575 
-0.423411 0.119465 0.593 
-0.405782 0.122487 0.608 
-0.384005 0.126516 0.628 
-0.364336 0.129941 0.645 
-0.344638 0.13397 0.665 
-0.323075 0.137999 0.685 
-0.299647 0.142028 0.705 
-0.269057 0.143237 0.711 
-0.242222 0.147065 0.73 
-0.217608 0.153713 0.763 
-0.188725 0.159354 0.791 
-0.154309 0.164592 0.817 
-0.121492 0.172046 0.854 
-0.0850345 0.179097 0.889 
-0.0446387 0.189371 0.94 
-0.000878519 0.20166 1.001 
0.0478821 0.210927 1.047 
0.103944 0.223015 1.107 
0.165501 0.234699 1.165 
0.228858 0.244369 1.213 
0.306101 0.262098 1.301 
0.389574 0.278416 1.382 
0.475196 0.28869 1.433 
2.05607 1.08183 5.37 
2.2209 1.04174 5.171 
2.45573 1.03912 5.158 
2.78396 1.07297 5.326 
3.0658 1.08485 5.385 
3.42027 1.1187 5.553 
3.6897 1.12192 5.569 
4.04146 1.14811 5.699 
4.47281 1.18256 5.87 
4.78927 1.19324 5.923 
4.70872 1.10923 5.506 
5.39101 1.20432 5.978 
5.68672 1.20795 5.996 
6.27465 1.2704 6.306 
-0.435436 0.116935 0.576 
-0.420647 0.120386 0.593 
-0.403611 0.123634 0.609 
-0.384367 0.127289 0.627 
-0.364336 0.130943 0.645 
-0.344119 0.1348 0.664 
-0.322603 0.13886 0.684 
-0.297878 0.143327 0.706 
-0.266848 0.144342 0.711 
-0.240282 0.148402 0.731 
-0.215237 0.154898 0.763 
-0.186738 0.160989 0.793 
-0.151399 0.165455 0.815 
-0.118838 0.173373 0.854 
-0.0823647 0.180681 0.89 
-0.0431323 0.190629 0.939 
0.000676711 0.203215 1.001 
0.0495561 0.212757 1.048 
0.105663 0.224735 1.107 
0.165216 0.236103 1.163 
0.228669 0.246051 1.212 
0.305395 0.26351 1.298 
0.389292 0.28036 1.381 
0.474864 0.290714 1.432 
2.03368 1.08713 5.355 
2.21677 1.05546 5.199 
2.45247 1.05262 5.185 
2.76741 1.08124 5.326 
3.05756 1.09627 5.4 
3.38402 1.12103 5.522 
3.69349 1.13707 5.601 
4.00045 1.15027 5.666 
4.35381 1.16712 5.749 
4.73352 1.19534 5.888 
4.77747 1.14032 5.617 
5.48067 1.2402 6.109 
5.53986 1.19168 5.87 
6.28587 1.28852 6.347 
-0.436466 0.117625 0.575 
-0.421777 0.121103 0.592 
-0.401719 0.124581 0.609 
-0.384367 0.128263 0.627 
-0.363897 0.13215 0.646 
-0.343088 0.135832 0.664 
-0.32201 0.140128 0.685 
-0.297456 0.144219 0.705 
-0.266848 0.145446 0.711 
-0.239953 0.149333 0.73 
-0.214955 0.155879 0.762 
-0.186738 0.162221 0.793 
-0.15229 0.166312 0.813 
-0.120024 0.174495 0.853 
-0.0835592 0.181655 0.888 
-0.0442588 0.190655 0.932 
-0.000876764 0.204361 0.999 
0.0477906 0.213771 1.045 
0.101393 0.224613 1.098 
0.162848 0.237092 1.159 
0.226412 0.247525 1.21 
0.302677 0.264913 1.295 
0.385745 0.281483 1.376 
0.472639 0.292938 1.432 
2.01166 1.08359 5.297 
2.22274 1.0664 5.213 
2.46572 1.0664 5.213 
2.78248 1.09545 5.355 
3.08304 1.11386 5.445 
3.40302 1.13595 5.553 
3.70405 1.14905 5.617 
4.10777 1.19016 5.818 
4.32702 1.17605 5.749 
4.66372 1.19364 5.835 
4.83503 1.1693 5.716 
5.4522 1.24969 6.109 
5.3829 1.17257 5.732 
6.40118 1.32845 6.494 
-0.436466 0.118519 0.575 
-0.421065 0.121817 0.591 
-0.400772 0.125527 0.609 
-0.383393 0.129237 0.627 
-0.364336 0.132947 0.645 
-0.344119 0.136863 0.664 
-0.322603 0.140986 0.684 
-0.298797 0.144902 0.703 
-0.268301 0.146139 0.709 
-0.242222 0.150467 0.73 
-0.216752 0.156651 0.76 
-0.188009 0.162422 0.788 
-0.153364 0.167369 0.812 
-0.121207 0.175614 0.852 
-0.0847476 0.182622 0.886 
-0.0454616 0.191073 0.927 
-0.00242159 0.205295 0.996 
0.0460345 0.214777 1.042 
0.0992327 0.225289 1.093 
0.158422 0.237656 1.153 
0.222652 0.249405 1.21 
0.297269 0.265688 1.289 
0.378142 0.281147 1.364 
0.467863 0.294957 1.431 
1.97938 1.08316 5.255 
2.20654 1.0745 5.213 
2.47583 1.08604 5.269 
2.77359 1.10686 5.37 
3.07456 1.12541 5.46 
3.3571 1.13489 5.506 
3.72925 1.17117 5.682 
4.07704 1.19549 5.8 
4.34738 1.19549 5.8 
4.60418 1.19199 5.783 
4.81727 1.17818 5.716 
5.43322 1.25918 6.109 
5.21252 1.14788 5.569 
6.42287 1.34308 6.516 
-0.433502 0.119828 0.577 
-0.416474 0.122735 0.591 
-0.396091 0.127096 0.612 
-0.377775 0.130627 0.629 
-0.358429 0.134365 0.647 
-0.338927 0.138726 0.668 
-0.317007 0.142879 0.688 
-0.29405 0.147448 0.71 
-0.261325 0.147656 0.711 
-0.235887 0.15264 0.735 
-0.209584 0.158662 0.764 
-0.181261 0.165308 0.796 
-0.147419 0.169046 0.814 
-0.114992 0.177561 0.855 
-0.0782163 0.184829 0.89 
-0.0385079 0.193759 0.933 
0.00532639 0.207258 0.998 
0.0547525 0.218888 1.054 
0.108611 0.228856 1.102 
0.168685 0.241316 1.162 
0.232819 0.252115 1.214 
0.309667 0.269768 1.299 
0.393583 0.286797 1.381 
0.474201 0.296973 1.43 
1.98252 1.07969 5.199 
2.23084 1.0826 5.213 
2.50039 1.09423 5.269 
2.8377 1.13078 5.445 
3.14373 1.14989 5.537 
3.45096 1.1665 5.617 
3.72335 1.16982 5.633 
4.32272 1.26868 6.109 
4.40081 1.21177 5.835 
4.57748 1.18706 5.716 
4.97257 1.20097 5.783 
5.30557 1.21551 5.853 
6.29297 1.36234 6.56 
-0.451182 0.117167 0.56 
-0.426408 0.12177 0.582 
-0.410257 0.125118 0.598 
-0.38908 0.129512 0.619 
-0.370704 0.133278 0.637 
-0.350649 0.137044 0.655 
-0.329405 0.141019 0.674 
-0.309043 0.14625 0.699 
-0.281209 0.14876 0.711 
-0.252256 0.151271 0.723 
-0.226416 0.156711 0.749 
-0.198152 0.162151 0.775 
-0.167256 0.167382 0.8 
-0.136141 0.175332 0.838 
-0.10021 0.180981 0.865 
-0.0623847 0.188514 0.901 
-0.0221313 0.204624 0.978 
0.0242929 0.211947 1.013 
0.0757447 0.224501 1.073 
0.131032 0.233916 1.118 
0.194117 0.247934 1.185 
0.260924 0.259441 1.24 
0.340311 0.277017 1.324 
0.426618 0.293964 1.405 
1.89755 1.12355 5.37 
2.10185 1.09949 5.255 
2.33428 1.09363 5.227 
2.60553 1.10535 5.283 
3.0407 1.17858 5.633 
3.20181 1.14238 5.46 
3.78421 1.25076 5.978 
3.73186 1.14887 5.491 
4.45042 1.28214 6.128 
4.70668 1.27419 6.09 
4.64308 1.18548 5.666 
5.35431 1.26624 6.052 
5.04314 1.13296 5.415 
6.50231 1.39115 6.649 
-0.44029 0.120777 0.573 
-0.422965 0.123517 0.586 
-0.405104 0.126468 0.6 
-0.385787 0.131316 0.623 
-0.367056 0.13511 0.641 
-0.346647 0.138904 0.659 
-0.32504 0.142909 0.678 
-0.303393 0.147757 0.701 
-0.273808 0.149444 0.709 
-0.246534 0.153027 0.726 
-0.220606 0.158718 0.753 
-0.191667 0.163987 0.778 
-0.160797 0.169678 0.805 
-0.129095 0.177688 0.843 
-0.0923595 0.182747 0.867 
-0.054345 0.191178 0.907 
-0.0116006 0.208041 0.987 
0.0356935 0.215839 1.024 
0.088229 0.228275 1.083 
0.14524 0.239025 1.134 
0.211547 0.255255 1.211 
0.279057 0.265794 1.261 
0.359801 0.283078 1.343 
0.445988 0.298887 1.418 
1.92223 1.10765 5.255 
2.15562 1.10175 5.227 
2.46489 1.13189 5.37 
2.72277 1.13505 5.385 
3.09305 1.18058 5.601 
3.26967 1.15086 5.46 
3.80042 1.24108 5.888 
3.95583 1.20482 5.716 
4.54062 1.29567 6.147 
4.56877 1.22632 5.818 
4.60619 1.16709 5.537 
5.43894 1.27564 6.052 
5.99989 1.33782 6.347 
6.29573 1.33782 6.347 
-0.438383 0.12188 0.574 
-0.421668 0.124853 0.588 
-0.402978 0.127613 0.601 
-0.386819 0.131647 0.62 
-0.368312 0.135469 0.638 
-0.348127 0.139291 0.656 
-0.326264 0.143113 0.674 
-0.305785 0.148422 0.699 
-0.277113 0.150545 0.709 
-0.24923 0.15373 0.724 
-0.223222 0.159251 0.75 
-0.194791 0.164771 0.776 
-0.163936 0.170292 0.802 
-0.132078 0.177724 0.837 
-0.0961782 0.183669 0.865 
-0.0583143 0.191738 0.903 
-0.0161518 0.208937 0.984 
0.0306488 0.215519 1.015 
0.0829507 0.229321 1.08 
0.138844 0.238876 1.125 
0.204712 0.255651 1.204 
0.27058 0.265206 1.249 
0.351699 0.283679 1.336 
0.43566 0.298542 1.406 
1.90784 1.12176 5.283 
2.13125 1.10987 5.227 
2.41351 1.12792 5.312 
2.70518 1.14661 5.4 
3.10253 1.20309 5.666 
3.27156 1.16911 5.506 
3.84218 1.27316 5.996 
3.9175 1.21009 5.699 
4.55527 1.31775 6.206 
4.56898 1.24279 5.853 
4.55474 1.16911 5.506 
5.4522 1.29715 6.109 
6.36952 1.42137 6.694 
-0.453792 0.119777 0.56 
-0.437491 0.122772 0.574 
-0.420754 0.125766 0.588 
-0.402044 0.128547 0.601 
-0.385856 0.132611 0.62 
-0.367897 0.136674 0.639 
-0.344618 0.14138 0.661 
-0.323304 0.145658 0.681 
-0.299697 0.149722 0.7 
-0.269741 0.151219 0.707 
-0.243485 0.155497 0.727 
-0.217384 0.161272 0.754 
-0.188282 0.166619 0.779 
-0.157045 0.17218 0.805 
-0.125018 0.180094 0.842 
-0.0884202 0.185655 0.868 
-0.0501727 0.19421 0.908 
-0.00545559 0.21068 0.985 
0.0420163 0.218807 1.023 
0.0951349 0.232069 1.085 
0.153227 0.244046 1.141 
0.219435 0.259446 1.213 
0.288486 0.27121 1.268 
0.36897 0.287893 1.346 
0.456404 0.304363 1.423 
1.89871 1.09168 5.104 
2.19396 1.12099 5.241 
2.48477 1.14238 5.341 
2.81817 1.17767 5.506 
3.20101 1.22601 5.732 
3.35988 1.18772 5.553 
3.80247 1.24804 5.835 
4.33351 1.32739 6.206 
4.56467 1.31071 6.128 
4.47196 1.20847 5.65 
4.55092 1.16141 5.43 
5.51676 1.31071 6.128 
6.46855 1.45166 6.787 
-0.452922 0.120647 0.56 
-0.437491 0.123664 0.574 
-0.420754 0.12668 0.588 
-0.402044 0.12948 0.601 
-0.385234 0.133358 0.619 
-0.367321 0.137452 0.638 
-0.3446 0.141976 0.659 
-0.323409 0.146285 0.679 
-0.29861 0.150809 0.7 
-0.268262 0.152102 0.706 
-0.242689 0.156842 0.728 
-0.216499 0.162658 0.755 
-0.187312 0.168045 0.78 
-0.155988 0.173646 0.806 
-0.123562 0.181186 0.841 
-0.0870716 0.187003 0.868 
-0.0488157 0.195837 0.909 
-0.00390928 0.211348 0.981 
0.0435204 0.219966 1.021 
0.0968206 0.233754 1.085 
0.155136 0.246034 1.142 
0.221319 0.261331 1.213 
0.290227 0.272965 1.267 
0.371061 0.289985 1.346 
0.458614 0.306574 1.423 
1.8917 1.091 5.064 
2.2021 1.12913 5.241 
2.47253 1.14119 5.297 
2.87549 1.20669 5.601 
3.248 1.24956 5.8 
3.38792 1.20324 5.585 
3.8344 1.26464 5.87 
4.45582 1.37172 6.367 
4.58837 1.32432 6.147 
4.46726 1.21358 5.633 
4.58455 1.17631 5.46 
5.51265 1.32841 6.166 
6.20159 1.41804 6.582 
6.46487 1.40856 6.538 
