# .PCD v.7 - Point Cloud Data file format
VERSION .7
FIELDS x y z
SIZE 4 4 4
TYPE F F F
COUNT 1 1 1
WIDTH 1906
HEIGHT 1
VIEWPOINT 0 0 0 1 0 0 0
POINTS 1906
DATA ascii
0.0404884 0.338313 0.829 
0.0784601 0.335456 0.822 
0.126218 0.333416 0.817 
0.161081 0.326886 0.801 
0.201156 0.327294 0.802 
0.294695 0.249348 0.611 
0.351088 0.25098 0.615 
0.387038 0.246491 0.604 
0.417252 0.247715 0.607 
0.439132 0.243634 0.597 
0.46383 0.242002 0.593 
0.48484 0.238737 0.585 
0.506854 0.236289 0.579 
0.52831 0.23384 0.573 
0.549206 0.231391 0.567 
-2.77285 1.40715 3.435 
-2.65002 1.42722 3.484 
-0.653812 0.417844 1.02 
-0.595571 0.410471 1.002 
-0.541746 0.405145 0.989 
-0.48763 0.398591 0.973 
-0.44046 0.396952 0.969 
-1.11081 1.42477 3.478 
-1.02535 1.53988 3.759 
-0.858553 2.4194 5.906 
0.0214237 0.343697 0.839 
0.0675363 0.339601 0.829 
0.115779 0.333866 0.815 
0.152069 0.330179 0.806 
0.19368 0.32854 0.802 
0.332766 0.308467 0.753 
0.340578 0.251936 0.615 
0.368643 0.251526 0.614 
0.412004 0.249478 0.609 
0.432639 0.244562 0.597 
0.458152 0.243333 0.594 
0.479295 0.240056 0.586 
0.501422 0.237598 0.58 
0.522989 0.23514 0.574 
0.543997 0.232682 0.568 
-1.61208 0.769364 1.871 
-2.6881 1.41002 3.429 
-2.54228 1.41783 3.448 
-0.630765 0.415728 1.011 
-0.577869 0.411616 1.001 
-0.516884 0.400514 0.974 
-0.465676 0.395579 0.962 
-0.420837 0.395579 0.962 
-1.06882 1.46142 3.554 
-0.955263 1.54572 3.759 
0.011061 0.347057 0.844 
0.0588027 0.342534 0.833 
0.0965153 0.325674 0.792 
0.137306 0.335132 0.815 
0.171421 0.32773 0.797 
0.210687 0.325263 0.791 
0.339622 0.252891 0.615 
0.366491 0.251657 0.612 
0.406046 0.250835 0.61 
0.427574 0.246312 0.599 
0.452452 0.244667 0.595 
0.474536 0.241789 0.588 
0.496821 0.239321 0.582 
0.517646 0.236443 0.575 
0.539713 0.234387 0.57 
0.56032 0.23192 0.564 
-2.69944 1.391 3.37 
-2.60573 1.42567 3.454 
-0.65253 0.420188 1.018 
-0.595571 0.413584 1.002 
-0.542842 0.409044 0.991 
-0.487129 0.401201 0.972 
-0.439551 0.399138 0.967 
-1.06882 1.46694 3.554 
-0.942557 1.53092 3.709 
0.0136512 0.347543 0.842 
0.0575775 0.344241 0.834 
0.0978693 0.327318 0.793 
0.138402 0.335986 0.814 
0.172443 0.328556 0.796 
0.212606 0.325667 0.789 
0.346311 0.253847 0.615 
0.373147 0.252608 0.612 
0.408493 0.250957 0.608 
0.430784 0.246417 0.597 
0.457074 0.245591 0.595 
0.478289 0.242289 0.587 
0.499619 0.2394 0.58 
0.521205 0.236923 0.574 
0.543186 0.23486 0.569 
-0.980382 0.457401 1.104 
-2.67062 1.3867 3.347 
-2.57622 1.42068 3.429 
-0.645876 0.420527 1.015 
-0.59208 0.41597 1.004 
-0.535507 0.408512 0.986 
-0.480612 0.401054 0.968 
-0.432794 0.398568 0.962 
-1.07986 1.47247 3.554 
-0.938133 1.511 3.647 
0.0175549 0.348437 0.841 
0.0650387 0.343879 0.83 
0.106855 0.333521 0.805 
0.145631 0.336422 0.812 
0.181959 0.326892 0.789 
0.218735 0.326892 0.789 
0.348222 0.254802 0.615 
0.374844 0.249002 0.601 
0.408493 0.251902 0.608 
0.429857 0.247344 0.597 
0.45615 0.246516 0.595 
0.477377 0.243201 0.587 
0.498718 0.240301 0.58 
0.52122 0.23823 0.575 
0.542302 0.235744 0.569 
-0.983812 0.459116 1.104 
-2.65743 1.38234 3.324 
-2.56189 1.42101 3.417 
-0.641456 0.421272 1.013 
-0.590133 0.418361 1.006 
-0.528663 0.407133 0.979 
-0.475631 0.400895 0.964 
-0.428912 0.399231 0.96 
-1.0209 1.47258 3.541 
-0.871803 1.50003 3.607 
0.0321178 0.351823 0.846 
0.077183 0.341842 0.822 
0.130974 0.338931 0.815 
0.165645 0.332277 0.799 
0.20314 0.332693 0.8 
0.326612 0.313979 0.755 
0.359471 0.254926 0.613 
0.381042 0.249104 0.599 
0.414682 0.252015 0.606 
0.437277 0.248272 0.597 
0.461987 0.246609 0.593 
0.483022 0.243282 0.585 
0.505055 0.240786 0.579 
0.527448 0.238707 0.574 
0.547444 0.235796 0.567 
-0.970925 0.460414 1.103 
-2.61734 1.38542 3.319 
-2.51058 1.42131 3.405 
-0.622956 0.419924 1.006 
-0.575494 0.419507 1.005 
-0.509714 0.40448 0.969 
-0.460234 0.400723 0.96 
-0.390549 0.393627 0.943 
-0.950806 1.48894 3.567 
-0.382105 1.51941 3.64 
0.0255155 0.35272 0.845 
0.0759059 0.343119 0.822 
0.129708 0.340197 0.815 
0.164403 0.333518 0.799 
0.201897 0.333936 0.8 
0.330865 0.314734 0.754 
0.360786 0.255461 0.612 
0.382903 0.250034 0.599 
0.416565 0.252956 0.606 
0.439868 0.249617 0.598 
0.46383 0.24753 0.593 
0.48484 0.24419 0.585 
0.505979 0.241269 0.578 
0.529232 0.239599 0.574 
0.548237 0.23626 0.566 
-0.964866 0.460871 1.1 
-2.59202 1.37172 3.274 
-2.52883 1.422 3.394 
-0.632025 0.422325 1.008 
-0.582721 0.420649 1.004 
-0.51423 0.405985 0.969 
-0.465676 0.403052 0.962 
-0.391377 0.39593 0.945 
-0.92187 1.48358 3.541 
-0.387761 1.52506 3.64 
0.0242313 0.354451 0.846 
0.0628358 0.349843 0.835 
0.112691 0.339787 0.811 
0.149564 0.337693 0.806 
0.184346 0.332665 0.794 
0.219961 0.33057 0.789 
0.352425 0.25725 0.614 
0.373288 0.251384 0.6 
0.409974 0.253898 0.606 
0.433567 0.250127 0.597 
0.459075 0.24887 0.594 
0.479386 0.245099 0.585 
0.501457 0.242586 0.579 
0.523881 0.240491 0.574 
0.544879 0.237977 0.568 
-0.97778 0.463841 1.103 
-2.64516 1.37008 3.258 
-2.67621 1.47058 3.497 
-0.654693 0.426414 1.014 
-0.588542 0.419686 0.998 
-0.516174 0.40665 0.967 
-0.468666 0.404547 0.962 
-0.3964 0.399501 0.95 
-0.951373 1.48362 3.528 
-0.759497 1.43189 3.405 
-0.290578 1.52525 3.627 
0.0457434 0.359551 0.855 
0.0819912 0.344412 0.819 
0.138232 0.341888 0.813 
0.172876 0.335581 0.798 
0.207965 0.332216 0.79 
0.330426 0.316657 0.753 
0.36328 0.257783 0.613 
0.401672 0.257363 0.612 
0.424574 0.253998 0.604 
0.449509 0.250634 0.596 
0.471683 0.24769 0.589 
0.493204 0.244747 0.582 
0.514967 0.242224 0.576 
0.538052 0.240541 0.572 
0.555828 0.236757 0.563 
-0.932339 0.45838 1.086 
-2.56923 1.37514 3.258 
-2.50048 1.42241 3.37 
-0.595449 0.419548 0.994 
-0.514999 0.406042 0.962 
-0.425194 0.403087 0.955 
-0.38387 0.406464 0.963 
-0.891731 1.48108 3.509 
-0.470364 1.51105 3.58 
-0.296213 1.53089 3.627 
0.0445189 0.361723 0.857 
0.0865494 0.343574 0.814 
0.14635 0.341463 0.809 
0.1811 0.335976 0.796 
0.216283 0.333022 0.789 
0.295668 0.261268 0.619 
0.360423 0.258735 0.613 
0.401077 0.259158 0.614 
0.429648 0.252404 0.598 
0.455226 0.251138 0.595 
0.476465 0.247761 0.587 
0.497817 0.244807 0.58 
0.520327 0.242696 0.575 
0.541418 0.240164 0.569 
-0.985528 0.467692 1.104 
-2.61971 1.34631 3.178 
-2.63024 1.43273 3.382 
-2.46383 1.42765 3.37 
-0.588542 0.422787 0.998 
-0.506471 0.406689 0.96 
-0.409684 0.402453 0.95 
-1.0136 1.5056 3.554 
-0.847949 1.5056 3.554 
-0.432995 1.52212 3.593 
-0.267002 1.53059 3.613 
0.0573615 0.360089 0.85 
0.1368 0.343991 0.812 
0.172067 0.338907 0.8 
0.207 0.335095 0.791 
0.321596 0.320691 0.757 
0.348788 0.260959 0.616 
0.371372 0.256722 0.606 
0.427574 0.253757 0.599 
0.452452 0.252062 0.595 
0.474536 0.249097 0.588 
0.495967 0.246132 0.581 
0.517646 0.24359 0.575 
0.539713 0.241472 0.57 
0.559327 0.238506 0.563 
-0.921328 0.459628 1.081 
-2.63895 1.44564 3.4 
-2.46734 1.43799 3.382 
-0.571076 0.429865 1.011 
-0.419421 0.404779 0.952 
-0.380169 0.410306 0.965 
-0.883853 1.4788 3.478 
-0.486234 1.51962 3.574 
-0.320511 1.55066 3.647 
0.0472369 0.364811 0.858 
0.134112 0.344828 0.811 
0.169581 0.34015 0.8 
0.204283 0.335899 0.79 
0.314881 0.321017 0.755 
0.346064 0.268719 0.632 
0.366015 0.261916 0.616 
0.416377 0.256388 0.603 
0.447657 0.253412 0.596 
0.47065 0.250861 0.59 
0.491396 0.247459 0.582 
0.513177 0.244908 0.576 
0.536275 0.243208 0.572 
0.554078 0.239381 0.563 
-0.936575 0.463868 1.087 
-2.6355 1.48165 3.472 
-0.64967 0.43357 1.016 
-0.483803 0.401991 0.942 
-0.387149 0.409672 0.96 
-0.938412 1.47653 3.46 
-0.551505 1.17823 2.761 
-0.353828 1.55334 3.64 
0.0308762 0.361877 0.848 
0.121212 0.345234 0.809 
0.157348 0.34182 0.801 
0.193711 0.340113 0.797 
0.235976 0.321763 0.754 
0.331596 0.321337 0.753 
0.347478 0.269274 0.631 
0.368527 0.2633 0.617 
0.427626 0.259032 0.607 
0.451361 0.254338 0.596 
0.473513 0.251351 0.589 
0.494162 0.247937 0.581 
0.51586 0.245376 0.575 
0.538886 0.24367 0.571 
0.557577 0.240256 0.563 
-0.925543 0.463416 1.082 
-2.49753 1.43864 3.359 
-0.53443 0.41202 0.962 
-0.415588 0.406881 0.95 
-0.378343 0.41459 0.968 
-0.920958 1.47119 3.435 
-0.645352 1.3123 3.064 
-0.373658 1.54743 3.613 
0.0255759 0.362766 0.847 
0.118551 0.346063 0.808 
0.155246 0.343921 0.803 
0.191474 0.34178 0.798 
0.224371 0.335355 0.783 
0.321171 0.323791 0.756 
0.336855 0.271968 0.635 
0.355661 0.262545 0.613 
0.41544 0.258262 0.603 
0.442655 0.256121 0.598 
0.46502 0.253123 0.591 
0.485899 0.249696 0.583 
0.507793 0.247126 0.577 
0.53098 0.245413 0.573 
0.549902 0.241987 0.565 
-0.951063 0.469395 1.092 
-0.878732 0.458219 1.066 
-0.661736 0.438446 1.02 
-0.513783 0.406637 0.946 
-0.39214 0.410076 0.954 
-0.317785 0.395031 0.919 
-0.815405 1.50834 3.509 
-0.427413 1.54445 3.593 
-0.244142 1.55047 3.607 
0.0627177 0.365802 0.851 
0.149564 0.346458 0.806 
0.185971 0.344309 0.801 
0.219124 0.337861 0.786 
0.288326 0.322387 0.75 
0.325007 0.324106 0.754 
0.338294 0.272524 0.634 
0.357566 0.263498 0.613 
0.425039 0.260489 0.606 
0.449335 0.25662 0.597 
0.470768 0.253181 0.589 
0.491454 0.249742 0.581 
0.514072 0.247593 0.576 
0.537163 0.245874 0.572 
0.554953 0.242005 0.563 
-0.930622 0.467641 1.084 
-0.865482 0.459875 1.066 
-0.649367 0.439168 1.018 
-0.581709 0.443051 1.027 
-0.451284 0.414147 0.96 
-0.333864 0.402067 0.932 
-0.864518 1.55305 3.6 
-0.479739 1.53881 3.567 
-0.296703 1.56729 3.633 
0.0484002 0.368849 0.855 
0.135372 0.349868 0.811 
0.178504 0.345554 0.801 
0.214512 0.339514 0.787 
0.264222 0.331317 0.768 
0.305858 0.324846 0.753 
0.306787 0.272647 0.632 
0.34944 0.269195 0.624 
0.403731 0.269195 0.624 
0.43761 0.258842 0.6 
0.460145 0.255822 0.593 
0.480381 0.251939 0.584 
0.502387 0.249351 0.578 
0.525664 0.247625 0.574 
0.545682 0.244605 0.567 
-0.966524 0.475386 1.098 
-0.89117 0.46283 1.069 
-0.844492 0.464562 1.073 
-0.654453 0.442048 1.021 
-0.586609 0.445945 1.03 
-0.35727 0.410443 0.948 
-0.670182 1.34779 3.113 
-0.30293 1.57596 3.64 
0.0417094 0.369745 0.854 
0.125137 0.350695 0.81 
0.168759 0.347231 0.802 
0.202285 0.340737 0.787 
0.263028 0.332511 0.768 
0.306264 0.326449 0.754 
0.304824 0.273628 0.632 
0.346801 0.271897 0.628 
0.374046 0.269732 0.623 
0.436472 0.260207 0.601 
0.459075 0.257176 0.594 
0.478567 0.252847 0.584 
0.500591 0.250249 0.578 
0.523881 0.248517 0.574 
0.544879 0.245919 0.568 
-0.969112 0.477527 1.099 
-0.893666 0.464926 1.07 
-0.844582 0.46536 1.071 
-0.72015 0.440159 1.013 
-0.610361 0.449718 1.035 
-0.498667 0.411916 0.948 
-0.361356 0.413219 0.951 
-0.303939 0.398011 0.916 
0.0151193 0.369768 0.851 
0.0545915 0.368465 0.848 
0.142932 0.352388 0.811 
0.178504 0.348043 0.801 
0.212067 0.341959 0.787 
0.257062 0.333704 0.768 
0.298441 0.326752 0.752 
0.333049 0.326317 0.751 
0.34399 0.273741 0.63 
0.365651 0.268093 0.617 
0.439475 0.260706 0.6 
0.461987 0.257665 0.593 
0.48137 0.253319 0.583 
0.503311 0.250712 0.577 
0.526529 0.248974 0.573 
0.547444 0.246367 0.567 
-0.962282 0.479234 1.099 
-0.8837 0.464844 1.066 
-0.837926 0.467024 1.071 
-0.788006 0.467024 1.071 
-0.62001 0.451326 1.035 
-0.50443 0.41208 0.945 
-0.38861 0.413825 0.949 
-0.305028 0.398998 0.915 
-0.352764 1.6082 3.688 
0.0308762 0.369782 0.848 
0.0695715 0.365421 0.838 
0.150306 0.353212 0.81 
0.185971 0.349287 0.801 
0.218846 0.34231 0.785 
0.258592 0.335333 0.769 
0.296105 0.32792 0.752 
0.330275 0.327048 0.75 
0.345399 0.274284 0.629 
0.416863 0.262074 0.601 
0.443395 0.261202 0.599 
0.46502 0.257714 0.591 
0.485066 0.253789 0.582 
0.506913 0.251173 0.576 
0.53098 0.249865 0.573 
0.550875 0.246812 0.566 
-0.949465 0.480504 1.098 
-0.871289 0.466063 1.065 
-0.824735 0.467813 1.069 
-0.727734 0.445057 1.017 
-0.611969 0.452934 1.035 
-0.498243 0.415737 0.95 
-0.398511 0.414861 0.948 
-0.336399 0.407422 0.931 
-0.286395 0.398232 0.91 
-0.329844 1.61393 3.688 
0.0362315 0.371975 0.85 
0.122923 0.355345 0.812 
0.15978 0.353157 0.807 
0.194215 0.347468 0.794 
0.227729 0.342217 0.782 
0.26491 0.336965 0.77 
0.300778 0.329088 0.752 
0.304341 0.276137 0.631 
0.348396 0.27001 0.617 
0.431085 0.26257 0.6 
0.456756 0.261258 0.597 
0.474842 0.256006 0.585 
0.496959 0.253381 0.579 
0.519422 0.251192 0.574 
0.541418 0.249004 0.569 
-0.971702 0.483088 1.1 
-0.897002 0.470791 1.072 
-0.842295 0.468156 1.066 
-0.794095 0.469035 1.068 
-0.668224 0.452346 1.03 
-0.505756 0.413699 0.942 
-0.447275 0.422043 0.961 
-0.363978 0.418969 0.954 
-0.30578 0.400963 0.913 
-0.654202 1.32498 3.017 
-0.256686 1.55818 3.548 
0.0502807 0.369782 0.842 
0.132852 0.356168 0.811 
0.168969 0.352654 0.803 
0.203056 0.346945 0.79 
0.241032 0.339918 0.774 
0.275319 0.337723 0.769 
0.312462 0.330257 0.752 
0.335181 0.276678 0.63 
0.359471 0.269212 0.613 
0.443395 0.263064 0.599 
0.46502 0.25955 0.591 
0.485066 0.255598 0.582 
0.506913 0.252963 0.576 
0.53098 0.251645 0.573 
0.550875 0.248571 0.566 
-0.946927 0.485238 1.101 
-0.865511 0.468931 1.064 
-0.816685 0.469372 1.065 
-0.721572 0.447336 1.015 
-0.65894 0.453065 1.028 
-0.497813 0.41957 0.952 
-0.389674 0.417807 0.948 
-0.341114 0.412518 0.936 
-0.288905 0.400619 0.909 
-0.601781 1.29749 2.944 
-0.261681 1.56061 3.541 
0.0501612 0.370209 0.84 
0.117876 0.357869 0.812 
0.15534 0.356987 0.81 
0.190234 0.351698 0.798 
0.224009 0.34641 0.786 
0.258401 0.34024 0.772 
0.291432 0.330103 0.749 
0.326343 0.330103 0.749 
0.34704 0.272368 0.618 
0.383248 0.264876 0.601 
0.449159 0.263553 0.598 
0.469852 0.259587 0.589 
0.490551 0.256061 0.581 
0.513177 0.253857 0.576 
0.535337 0.251654 0.571 
0.555062 0.248569 0.564 
-0.926461 0.482526 1.091 
-0.851532 0.469258 1.061 
-0.804346 0.470584 1.064 
-0.714559 0.44847 1.014 
-0.667271 0.455989 1.031 
-0.496855 0.421491 0.953 
-0.377609 0.420607 0.951 
-0.31571 0.4038 0.913 
-0.273155 0.4038 0.913 
-0.572478 1.26757 2.866 
0.015066 0.375052 0.848 
0.0629111 0.369745 0.836 
0.121661 0.35913 0.812 
0.158919 0.357803 0.809 
0.193711 0.352496 0.797 
0.227729 0.345862 0.782 
0.263881 0.342324 0.774 
0.295317 0.331709 0.75 
0.329394 0.330824 0.748 
0.342898 0.277751 0.628 
0.380446 0.265809 0.601 
0.439868 0.264483 0.598 
0.463048 0.261829 0.592 
0.482353 0.257406 0.582 
0.505103 0.255195 0.577 
0.52831 0.253426 0.573 
0.549206 0.250772 0.567 
-0.957253 0.49221 1.109 
-0.869634 0.472681 1.065 
-0.816914 0.470906 1.061 
-0.74055 0.455372 1.026 
-0.6799 0.446939 1.007 
-0.498859 0.423416 0.954 
-0.372871 0.423416 0.954 
-0.309357 0.404331 0.911 
-0.266602 0.403887 0.91 
-0.499035 1.4318 3.226 
-0.339396 1.65549 3.73 
0.0448874 0.372375 0.839 
0.0834929 0.370156 0.834 
0.135205 0.359504 0.81 
0.171464 0.356397 0.803 
0.206291 0.351959 0.793 
0.241094 0.347077 0.782 
0.277815 0.339975 0.766 
0.310537 0.334206 0.753 
0.324414 0.279614 0.63 
0.347266 0.272957 0.615 
0.389497 0.267187 0.602 
0.456756 0.264968 0.597 
0.475936 0.258754 0.583 
0.498795 0.256535 0.578 
0.522097 0.25476 0.574 
0.543114 0.252097 0.568 
-0.972811 0.495714 1.113 
-0.883699 0.475672 1.068 
-0.829234 0.473 1.062 
-0.767987 0.465874 1.046 
-0.688793 0.447167 1.004 
-0.655108 0.457411 1.027 
-0.362876 0.425343 0.955 
-0.286228 0.403074 0.905 
-0.242697 0.400847 0.9 
-0.430999 1.41098 3.168 
-0.259317 1.56286 3.509 
0.0536902 0.371452 0.834 
0.0927852 0.372343 0.836 
0.143108 0.361653 0.812 
0.178504 0.356754 0.801 
0.212336 0.350964 0.788 
0.248806 0.343838 0.772 
0.279624 0.337602 0.758 
0.313213 0.334485 0.751 
0.324876 0.280148 0.629 
0.349564 0.273467 0.614 
0.388562 0.268122 0.602 
0.454733 0.266341 0.598 
0.48333 0.258769 0.581 
0.506896 0.256988 0.577 
0.529165 0.254761 0.572 
0.549996 0.252088 0.566 
-0.950361 0.495656 1.109 
-0.861395 0.475097 1.063 
-0.804974 0.471074 1.054 
-0.733616 0.457219 1.023 
-0.679899 0.453197 1.014 
-0.390734 0.423252 0.947 
-0.29499 0.404927 0.906 
-0.25025 0.400905 0.897 
-0.46431 1.42752 3.194 
-0.320197 1.6577 3.709 
0.0459707 0.373194 0.835 
0.0848903 0.373194 0.835 
0.135205 0.362021 0.81 
0.171464 0.358892 0.803 
0.206291 0.354423 0.793 
0.242309 0.349507 0.782 
0.276873 0.344143 0.77 
0.308546 0.335652 0.751 
0.316124 0.282913 0.633 
0.344301 0.280231 0.627 
0.384821 0.269058 0.602 
0.455663 0.26727 0.598 
0.488806 0.259225 0.58 
0.512282 0.257437 0.576 
0.53445 0.255202 0.571 
0.554186 0.252074 0.564 
-0.923071 0.489306 1.091 
-0.845837 0.474506 1.058 
-0.789747 0.470469 1.049 
-0.720372 0.457463 1.02 
-0.676127 0.459706 1.025 
-0.37248 0.427414 0.953 
-0.273671 0.408129 0.91 
-0.229222 0.404541 0.902 
-0.403053 1.44415 3.22 
0.0216536 0.380322 0.848 
0.0599526 0.372698 0.831 
0.110579 0.365073 0.814 
0.148337 0.364625 0.813 
0.183024 0.358346 0.799 
0.216958 0.352964 0.787 
0.267834 0.347582 0.775 
0.302608 0.334127 0.745 
0.332352 0.329194 0.734 
0.337376 0.280308 0.625 
0.368995 0.274926 0.613 
0.422436 0.26775 0.597 
0.451946 0.268199 0.598 
0.486102 0.260126 0.58 
0.509598 0.258332 0.576 
0.53272 0.256538 0.572 
0.552535 0.253399 0.565 
-0.938365 0.496402 1.103 
-0.851572 0.4766 1.059 
-0.793879 0.471649 1.048 
-0.726548 0.459948 1.022 
-0.678248 0.459498 1.021 
-0.377891 0.426644 0.948 
-0.27448 0.408643 0.908 
-0.230624 0.405942 0.902 
-0.392437 1.4469 3.215 
0.0547882 0.373989 0.831 
0.0939715 0.375789 0.835 
0.154272 0.364988 0.811 
0.220237 0.349686 0.777 
0.276035 0.346986 0.771 
0.322718 0.335735 0.746 
0.3243 0.281729 0.626 
0.353756 0.275879 0.613 
0.391081 0.271378 0.603 
0.437812 0.269578 0.599 
0.461066 0.266878 0.593 
0.49426 0.260577 0.579 
0.517646 0.258777 0.575 
0.538766 0.256077 0.569 
0.558333 0.252926 0.562 
-0.869634 0.480955 1.065 
-0.812295 0.476439 1.055 
-0.743591 0.464245 1.028 
-0.686201 0.457923 1.014 
-1.63289 1.44015 3.189 
-0.294664 0.408698 0.905 
-0.247192 0.402376 0.891 
-0.457047 1.43519 3.178 
-0.30809 1.67183 3.702 
0.0717448 0.376183 0.833 
0.146893 0.3667 0.812 
0.222459 0.346829 0.768 
0.3108 0.337797 0.748 
0.313165 0.28496 0.631 
0.33769 0.280896 0.622 
0.383284 0.272767 0.604 
0.433881 0.27096 0.6 
0.457999 0.268702 0.595 
0.489762 0.261477 0.579 
0.514072 0.260122 0.576 
0.535285 0.257412 0.57 
0.554953 0.254251 0.563 
-0.867164 0.482156 1.064 
-0.809119 0.477171 1.053 
-0.741272 0.465389 1.027 
-0.686651 0.460858 1.017 
-1.67447 1.46414 3.231 
-0.294664 0.410105 0.905 
-0.232909 0.407839 0.9 
-0.417412 1.45689 3.215 
0.0446199 0.377931 0.834 
0.0873802 0.377931 0.834 
0.200635 0.360258 0.795 
0.289838 0.334881 0.739 
0.33142 0.333975 0.737 
0.329521 0.282315 0.623 
0.353756 0.277784 0.613 
0.39939 0.271893 0.6 
0.448408 0.270533 0.597 
0.479641 0.263736 0.582 
0.502414 0.26147 0.577 
0.526556 0.260111 0.574 
0.546563 0.256938 0.567 
-0.954667 0.504726 1.11 
-0.832534 0.4829 1.062 
-0.761652 0.469713 1.033 
-0.702452 0.462438 1.017 
-0.656982 0.463802 1.02 
-0.384849 0.430608 0.947 
-0.233526 0.407873 0.897 
-0.427403 1.46189 3.215 
0.0458606 0.378772 0.833 
0.093859 0.379226 0.834 
0.220977 0.348761 0.767 
0.291343 0.33512 0.737 
0.331663 0.33421 0.735 
0.330925 0.282828 0.622 
0.354709 0.278736 0.613 
0.397254 0.273279 0.601 
0.441534 0.27237 0.599 
0.460049 0.266914 0.587 
0.49426 0.263276 0.579 
0.517646 0.261457 0.575 
0.538766 0.258729 0.569 
0.55734 0.255091 0.561 
-0.844879 0.485006 1.063 
-0.777376 0.474056 1.039 
-0.714214 0.464474 1.018 
-0.67004 0.466756 1.023 
-1.53052 1.40209 3.073 
-0.233611 0.406985 0.892 
-0.356112 1.69866 3.723 
0.0584497 0.377785 0.828 
0.189231 0.364553 0.799 
0.266286 0.353146 0.774 
0.318508 0.340827 0.747 
0.318362 0.283795 0.622 
0.342886 0.280145 0.614 
0.386691 0.274669 0.602 
0.427356 0.273757 0.6 
0.452287 0.271932 0.596 
0.483182 0.266 0.583 
0.504228 0.262807 0.576 
0.52831 0.261438 0.573 
0.547268 0.257788 0.565 
-0.885326 0.491694 1.074 
-0.826712 0.486658 1.063 
-0.753039 0.47155 1.03 
-0.698185 0.466972 1.02 
-0.646177 0.463767 1.013 
-0.373472 0.434009 0.948 
-0.182071 0.404709 0.884 
-0.0501568 0.685349 1.497 
0.144014 0.37083 0.81 
0.220977 0.351144 0.767 
0.269893 0.354349 0.774 
0.32199 0.341988 0.747 
0.320228 0.283845 0.62 
0.346702 0.281099 0.614 
0.393239 0.275605 0.602 
0.426201 0.275147 0.601 
0.449679 0.2724 0.595 
0.478736 0.266448 0.582 
0.500648 0.263702 0.576 
0.525664 0.262786 0.574 
0.543757 0.258666 0.565 
-0.956382 0.508062 1.106 
-0.838112 0.490147 1.067 
-0.764735 0.475447 1.035 
-0.704724 0.467638 1.018 
-0.65663 0.467178 1.017 
-1.51881 1.39648 3.04 
-0.222403 0.407001 0.886 
-0.152362 0.403785 0.879 
0.0609489 0.379898 0.827 
0.187449 0.368414 0.802 
0.242327 0.361064 0.786 
0.283691 0.343149 0.747 
0.328954 0.343149 0.747 
0.326008 0.284809 0.62 
0.350327 0.281134 0.612 
0.398835 0.273325 0.595 
0.430869 0.276081 0.601 
0.451247 0.271487 0.591 
0.483182 0.267812 0.583 
0.504228 0.264597 0.576 
0.529165 0.262759 0.572 
0.547081 0.258625 0.563 
-0.881989 0.495031 1.074 
-0.824183 0.490422 1.064 
-0.747654 0.473368 1.027 
-0.696379 0.471063 1.022 
-0.636682 0.462305 1.003 
-2.30379 2.32812 5.051 
-0.217667 0.40469 0.878 
-0.16147 0.407456 0.884 
0.0508536 0.382566 0.83 
0.140973 0.371965 0.807 
0.223038 0.35491 0.77 
0.262489 0.358137 0.777 
0.309638 0.34477 0.748 
0.307209 0.285311 0.619 
0.335518 0.28485 0.618 
0.377189 0.288077 0.625 
0.411066 0.275632 0.598 
0.439673 0.276093 0.599 
0.460651 0.268257 0.582 
0.496101 0.266413 0.578 
0.530857 0.262726 0.57 
0.550367 0.258578 0.561 
-0.872054 0.49485 1.07 
-0.814497 0.490225 1.06 
-0.737663 0.472651 1.022 
-0.688002 0.471263 1.019 
-0.620739 0.457852 0.99 
-1.50937 1.38003 2.984 
-0.228373 0.403279 0.872 
-0.162659 0.408367 0.883 
-0.057516 0.696952 1.507 
0.234103 0.362119 0.783 
0.267834 0.358419 0.775 
0.322852 0.346395 0.749 
0.319637 0.285348 0.617 
0.352228 0.283035 0.612 
0.398059 0.276561 0.598 
0.428068 0.277948 0.601 
0.452254 0.270086 0.584 
0.487779 0.269161 0.582 
0.508713 0.265924 0.575 
0.541832 0.260374 0.563 
-0.888624 0.500224 1.078 
-0.829823 0.49512 1.067 
-0.752308 0.477487 1.029 
-0.699554 0.474239 1.022 
-0.642988 0.467742 1.008 
-1.61646 1.42596 3.073 
-0.24746 0.411595 0.887 
-0.167956 0.409274 0.882 
-0.126127 0.406954 0.877 
0.0831925 0.385609 0.831 
0.249065 0.365656 0.788 
0.303151 0.350343 0.755 
0.333919 0.343382 0.74 
0.334016 0.286307 0.617 
0.380344 0.290947 0.627 
0.413615 0.277954 0.599 
0.440797 0.27749 0.598 
0.459747 0.270065 0.582 
0.488806 0.269137 0.58 
0.510504 0.266353 0.574 
0.539124 0.260785 0.562 
-0.889448 0.502365 1.079 
-0.830601 0.497243 1.068 
-0.752308 0.479086 1.029 
-0.699554 0.475827 1.022 
-0.64235 0.468843 1.007 
-1.55899 1.34414 2.887 
-2.01957 2.06859 4.443 
-0.177904 0.408317 0.877 
-0.135355 0.407386 0.875 
0.012387 0.393418 0.845 
0.10259 0.372933 0.801 
0.25364 0.366414 0.787 
0.304727 0.351981 0.756 
0.334616 0.344066 0.739 
0.332518 0.2868 0.616 
0.376072 0.292387 0.628 
0.403702 0.276557 0.594 
0.43502 0.278885 0.599 
0.455102 0.271435 0.583 
0.481449 0.27097 0.582 
0.502459 0.267711 0.575 
0.528351 0.259796 0.558 
0.554359 0.259796 0.558 
-0.844582 0.500304 1.071 
-0.771661 0.485823 1.04 
-0.708583 0.476013 1.019 
-0.655897 0.472276 1.011 
-0.581072 0.453123 0.97 
-1.33424 1.27528 2.73 
-0.176139 0.408745 0.875 
-0.1352 0.408278 0.874 
-0.0517686 0.403607 0.864 
0.0216025 0.395198 0.846 
0.122231 0.39333 0.842 
0.258202 0.36717 0.786 
0.311215 0.349886 0.749 
0.308993 0.286355 0.613 
0.340978 0.286822 0.614 
0.380951 0.293362 0.628 
0.411066 0.279348 0.598 
0.438205 0.278881 0.597 
0.462234 0.272808 0.584 
0.486941 0.271407 0.581 
0.507828 0.268137 0.574 
0.534509 0.26113 0.559 
-0.881924 0.505249 1.078 
-0.821649 0.499156 1.065 
-0.743013 0.480408 1.025 
-0.691846 0.478065 1.02 
-0.632302 0.46916 1.001 
-1.5642 1.36155 2.905 
-1.31764 1.27578 2.722 
-0.175334 0.40823 0.871 
-0.135046 0.409167 0.873 
-0.0935984 0.405886 0.866 
-0.00597176 0.394638 0.842 
0.0639796 0.39042 0.833 
0.124996 0.395106 0.843 
0.2612 0.367454 0.784 
0.321689 0.35105 0.749 
0.323807 0.287776 0.614 
0.356982 0.286839 0.612 
0.398579 0.27934 0.596 
0.42922 0.281215 0.6 
0.448762 0.273247 0.583 
0.475119 0.272778 0.582 
0.497069 0.269966 0.576 
0.521274 0.260592 0.556 
0.549158 0.26153 0.558 
-0.823303 0.500811 1.065 
-0.746059 0.482941 1.027 
-0.694111 0.48012 1.021 
-0.635124 0.471655 1.003 
-0.574881 0.46084 0.98 
-1.40872 1.30963 2.785 
-0.243877 0.415696 0.884 
-0.157999 0.406762 0.865 
-0.116068 0.405821 0.863 
-0.0582774 0.404881 0.861 
-0.000737219 0.395006 0.84 
0.0704506 0.391714 0.833 
0.119047 0.394065 0.838 
0.305159 0.357386 0.76 
0.305137 0.287319 0.611 
0.347474 0.28779 0.612 
0.392864 0.282147 0.6 
0.421532 0.282617 0.601 
0.445057 0.279796 0.595 
0.466878 0.274153 0.583 
0.490662 0.272272 0.579 
0.513179 0.26992 0.574 
0.543194 0.262867 0.559 
-0.825733 0.502937 1.066 
-0.74911 0.485481 1.029 
-0.696379 0.482178 1.022 
-0.638586 0.474629 1.006 
-0.575816 0.461891 0.979 
-1.4462 1.3366 2.833 
-1.7572 1.85558 3.933 
-0.163576 0.405275 0.859 
-0.124976 0.409993 0.869 
-0.0820693 0.404803 0.858 
-0.0420777 0.404803 0.858 
0.00973814 0.397726 0.843 
0.0814086 0.389705 0.826 
0.13039 0.398198 0.844 
0.295192 0.290628 0.616 
0.327506 0.288741 0.612 
0.383834 0.282607 0.599 
0.411753 0.282607 0.599 
0.438205 0.281664 0.597 
0.458481 0.276002 0.585 
0.482427 0.274115 0.581 
0.501615 0.269869 0.572 
0.532596 0.262792 0.557 
-0.838022 0.506013 1.069 
-0.762389 0.489446 1.034 
-0.705906 0.483766 1.022 
-0.648608 0.476665 1.007 
-0.581955 0.461045 0.974 
-1.57123 1.38929 2.935 
-1.32074 1.28326 2.711 
-0.224706 0.406136 0.858 
-0.151475 0.402823 0.851 
-0.111678 0.402349 0.85 
-0.0695002 0.402823 0.851 
-0.0247768 0.406609 0.859 
0.0149949 0.399509 0.844 
0.084949 0.389569 0.823 
0.312535 0.357381 0.755 
0.300935 0.291585 0.616 
0.327506 0.289691 0.612 
0.374412 0.294425 0.622 
0.406668 0.282591 0.597 
0.435222 0.283065 0.598 
0.456534 0.277384 0.586 
0.480545 0.275491 0.582 
0.498949 0.270757 0.572 
0.534327 0.263657 0.557 
-0.824958 0.505775 1.065 
-0.748382 0.488203 1.028 
-0.695016 0.484404 1.02 
-0.638586 0.477755 1.006 
-0.575816 0.464933 0.979 
-1.57382 1.4043 2.957 
-1.91789 1.95044 4.107 
-0.214371 0.405569 0.854 
-0.140732 0.40367 0.85 
-0.0999103 0.404145 0.851 
-0.055602 0.408894 0.861 
-0.0154166 0.407469 0.858 
0.0240881 0.399396 0.841 
0.105408 0.390847 0.823 
0.322852 0.355704 0.749 
0.307418 0.288743 0.608 
0.343109 0.290167 0.611 
0.369476 0.279245 0.588 
0.408961 0.284469 0.599 
0.436152 0.283994 0.598 
0.455623 0.278295 0.586 
0.479641 0.276395 0.582 
0.498976 0.270696 0.57 
0.536923 0.264522 0.557 
-0.805949 0.500759 1.051 
-0.740396 0.4898 1.028 
-0.683724 0.483606 1.015 
-0.629517 0.478365 1.004 
-0.56705 0.465501 0.977 
-1.33581 1.26214 2.649 
-0.234068 0.413567 0.868 
-0.149094 0.402608 0.845 
-0.104769 0.398796 0.837 
-0.0633327 0.408326 0.857 
-0.0234149 0.408802 0.858 
0.0162676 0.401179 0.842 
0.115331 0.395461 0.83 
0.331718 0.356392 0.748 
0.315493 0.290164 0.609 
0.352228 0.291593 0.612 
0.391652 0.286352 0.601 
0.421061 0.287305 0.603 
0.443953 0.28397 0.596 
0.463817 0.279205 0.586 
0.486102 0.276346 0.58 
0.511393 0.273964 0.575 
0.545577 0.265388 0.557 
-0.756974 0.492831 1.031 
-0.70273 0.488529 1.022 
-0.645479 0.481359 1.007 
-0.581306 0.467497 0.978 
-0.521479 0.455068 0.952 
-1.77553 1.88003 3.933 
-0.19121 0.398663 0.834 
-0.132261 0.408701 0.855 
-0.0886312 0.409657 0.857 
-0.0443788 0.406789 0.851 
-0.00464695 0.401053 0.839 
0.033843 0.393883 0.824 
0.319573 0.3609 0.755 
0.304188 0.292066 0.611 
0.337966 0.292544 0.612 
0.368819 0.290632 0.608 
0.405239 0.28633 0.599 
0.433158 0.28633 0.599 
0.452611 0.281072 0.588 
0.476752 0.27916 0.584 
0.497069 0.275336 0.576 
0.530952 0.266731 0.558 
-0.794093 0.500668 1.044 
-0.71594 0.491556 1.025 
-0.658387 0.484362 1.01 
-0.594968 0.471414 0.983 
-0.540212 0.463741 0.967 
-1.32377 1.29483 2.7 
-1.03358 1.43342 2.989 
-0.150463 0.401877 0.838 
-0.107113 0.400438 0.835 
-0.0631849 0.41003 0.855 
-0.0234149 0.411468 0.858 
0.0175131 0.402356 0.839 
0.309513 0.36543 0.762 
0.299036 0.297331 0.62 
0.32454 0.292536 0.61 
0.359607 0.292536 0.61 
0.397254 0.28822 0.601 
0.425975 0.288699 0.602 
0.449509 0.285822 0.596 
0.46928 0.281026 0.586 
0.490662 0.277669 0.579 
0.517654 0.27671 0.577 
0.545577 0.267119 0.557 
-0.734548 0.496035 1.031 
-0.66769 0.489299 1.017 
-0.6026 0.475347 0.988 
-0.548099 0.46813 0.973 
-0.488939 0.458027 0.952 
-1.09732 1.46742 3.05 
-0.163802 0.400773 0.833 
-0.125032 0.409433 0.851 
-0.0748589 0.402698 0.837 
-0.0336425 0.407509 0.847 
0.00576066 0.402217 0.836 
0.0435498 0.391632 0.814 
0.329394 0.359878 0.748 
0.316864 0.292521 0.608 
0.347474 0.294446 0.612 
0.384181 0.289153 0.601 
0.414252 0.290597 0.604 
0.43801 0.28771 0.598 
0.457313 0.282418 0.587 
0.48137 0.280493 0.583 
0.499838 0.275201 0.572 
0.531191 0.269909 0.561 
-0.746926 0.495224 1.026 
-0.682377 0.488949 1.013 
-0.630771 0.48557 1.006 
-0.564728 0.469642 0.973 
-0.509234 0.460471 0.954 
-1.53494 1.68164 3.484 
-0.202543 0.404481 0.838 
-0.135966 0.40786 0.845 
-0.0874936 0.408342 0.846 
-0.0233331 0.412686 0.855 
0.018727 0.403033 0.835 
0.30992 0.36828 0.763 
0.298068 0.300223 0.622 
0.326136 0.295879 0.613 
0.35413 0.295397 0.612 
0.386691 0.29057 0.602 
0.417507 0.2925 0.606 
0.439868 0.288639 0.598 
0.459137 0.28333 0.587 
0.482353 0.280916 0.582 
0.501602 0.276572 0.573 
0.532279 0.272228 0.564 
0.552625 0.269332 0.558 
-0.674148 0.494881 1.022 
-0.608122 0.480354 0.992 
-0.552822 0.472606 0.976 
-0.495895 0.461953 0.954 
-1.49403 1.70836 3.528 
-0.160826 0.402393 0.831 
-0.0931761 0.405783 0.838 
-0.0310105 0.410141 0.847 
0.0135215 0.403846 0.834 
0.051138 0.394161 0.814 
0.294149 0.303127 0.626 
0.321275 0.295863 0.611 
0.353179 0.296347 0.612 
0.38261 0.290537 0.6 
0.413998 0.292958 0.605 
0.437081 0.289568 0.598 
0.457178 0.284726 0.588 
0.480465 0.282305 0.583 
0.500673 0.278431 0.575 
0.524721 0.276978 0.572 
0.546668 0.270683 0.559 
-0.687098 0.492097 1.013 
-0.637355 0.490153 1.009 
-0.569848 0.473151 0.974 
-0.514219 0.463921 0.955 
-1.52718 1.69586 3.491 
-1.01644 1.46074 3.007 
-0.105816 0.405627 0.835 
-0.0463601 0.407571 0.839 
-0.00725401 0.407571 0.839 
0.0310927 0.397855 0.819 
0.317729 0.368708 0.759 
0.303832 0.300213 0.618 
0.333889 0.298756 0.615 
0.35426 0.283696 0.584 
0.394545 0.293412 0.604 
0.424337 0.293898 0.605 
0.446731 0.289526 0.596 
0.466549 0.284668 0.586 
0.488806 0.281753 0.58 
0.512282 0.27981 0.576 
0.532578 0.27641 0.569 
-0.960687 0.53948 1.107 
-0.678381 0.500006 1.026 
-0.611507 0.484898 0.995 
-0.554338 0.475639 0.976 
-0.497377 0.464918 0.954 
-1.16071 1.539 3.158 
-0.13334 0.411798 0.845 
-0.0941768 0.412773 0.847 
-0.0347933 0.410823 0.843 
0.00444577 0.40595 0.833 
0.0422332 0.396203 0.813 
0.32518 0.365014 0.749 
0.316439 0.296787 0.609 
0.349376 0.298249 0.612 
0.381042 0.291914 0.599 
0.417252 0.295812 0.607 
0.440797 0.291426 0.598 
0.460833 0.286553 0.588 
0.484088 0.284116 0.583 
0.505123 0.280705 0.576 
0.526429 0.277781 0.57 
-0.98142 0.543155 1.111 
-0.677825 0.503555 1.03 
-0.606581 0.484978 0.992 
-0.55187 0.477644 0.977 
-0.493894 0.465911 0.953 
-1.17608 1.55124 3.173 
-0.141229 0.417022 0.853 
-0.1004 0.412622 0.844 
-0.0544396 0.412133 0.843 
-0.0152369 0.414578 0.848 
0.0236012 0.402844 0.824 
0.0627507 0.399422 0.817 
0.294113 0.307022 0.628 
0.327733 0.301156 0.616 
0.356982 0.2992 0.612 
0.390144 0.2948 0.603 
0.421718 0.297244 0.608 
0.445625 0.291867 0.597 
0.465521 0.286978 0.587 
0.487004 0.283556 0.58 
0.510492 0.2816 0.576 
0.53081 0.278178 0.569 
-0.974484 0.543901 1.109 
-0.672728 0.506137 1.032 
-0.597389 0.484067 0.987 
-0.545799 0.479162 0.977 
-0.488484 0.467882 0.954 
-1.46269 1.69399 3.454 
-0.136931 0.417367 0.851 
-0.0866704 0.423742 0.864 
-0.0385848 0.411972 0.84 
0.000563813 0.409029 0.834 
0.0383965 0.398239 0.812 
0.960276 1.60865 3.28 
0.298547 0.305546 0.623 
0.346137 0.300641 0.613 
0.373247 0.291323 0.594 
0.416995 0.298189 0.608 
0.446553 0.292794 0.597 
0.467459 0.287399 0.586 
0.489707 0.284457 0.58 
0.512286 0.282004 0.575 
0.533462 0.279062 0.569 
-0.968441 0.545132 1.108 
-0.671775 0.508232 1.033 
-0.595856 0.4856 0.987 
-0.544281 0.48068 0.977 
-0.487512 0.469856 0.955 
-1.52953 1.71411 3.484 
-1.04999 1.50748 3.064 
-0.0990515 0.420657 0.855 
-0.0462495 0.411801 0.837 
-0.00722808 0.411309 0.836 
0.030865 0.399993 0.813 
0.16884 0.386217 0.785 
0.296064 0.308974 0.628 
0.347089 0.301594 0.613 
0.375092 0.292246 0.594 
0.419573 0.299626 0.609 
0.444326 0.294706 0.599 
0.464609 0.288802 0.587 
0.486941 0.28585 0.581 
0.509598 0.28339 0.576 
0.529926 0.279946 0.569 
-0.974446 0.54636 1.107 
-0.681301 0.507369 1.028 
-0.61675 0.494043 1.001 
-0.555855 0.481705 0.976 
-0.499905 0.471834 0.956 
-0.448387 0.472327 0.957 
-1.1044 1.52161 3.083 
-0.102675 0.420504 0.852 
-0.0529407 0.414582 0.84 
-0.0138373 0.416063 0.843 
0.0247002 0.403724 0.818 
0.0636282 0.400762 0.812 
0.316473 0.373124 0.756 
0.329757 0.305014 0.618 
0.350011 0.28922 0.586 
0.397639 0.297611 0.603 
0.431399 0.299585 0.607 
0.447733 0.291194 0.59 
0.470401 0.288233 0.584 
0.493361 0.285765 0.579 
0.515854 0.283298 0.574 
0.538827 0.281323 0.57 
-0.956368 0.546594 1.104 
-0.681404 0.511442 1.033 
-0.610574 0.493123 0.996 
-0.552822 0.483221 0.976 
-0.495895 0.472329 0.954 
-0.450889 0.473319 0.956 
-1.11037 1.52145 3.073 
-0.112999 0.420838 0.85 
-0.0742437 0.425789 0.86 
-0.0309373 0.418362 0.845 
0.00833841 0.412916 0.834 
0.0461924 0.404004 0.816 
0.165553 0.386676 0.781 
0.319472 0.372318 0.752 
0.334558 0.305974 0.618 
0.353951 0.28815 0.582 
0.399786 0.298052 0.602 
0.436988 0.298547 0.603 
0.457041 0.291616 0.589 
0.479559 0.288645 0.583 
0.502387 0.28617 0.578 
0.523833 0.283199 0.572 
0.549531 0.282704 0.571 
-0.74686 0.519503 1.046 
-0.669859 0.51404 1.035 
-0.592188 0.489704 0.986 
-0.539029 0.483247 0.973 
-0.486574 0.476294 0.959 
-0.439466 0.475301 0.957 
-1.03734 1.53119 3.083 
-0.0835041 0.433582 0.873 
-0.041244 0.417689 0.841 
-0.00202043 0.412722 0.831 
0.0357408 0.401796 0.809 
0.0783792 0.401299 0.808 
0.173602 0.386896 0.779 
0.322852 0.371996 0.749 
0.343671 0.303954 0.612 
0.359704 0.290048 0.584 
0.418627 0.302464 0.609 
0.450783 0.292034 0.588 
0.474124 0.289551 0.583 
0.497858 0.287565 0.579 
0.519407 0.284585 0.573 
0.543256 0.283095 0.57 
-0.95806 0.549028 1.102 
-0.676081 0.504688 1.013 
-0.621099 0.499705 1.003 
-0.557742 0.485257 0.974 
-0.503927 0.477286 0.958 
-0.456878 0.474795 0.953 
-1.09014 1.47769 2.966 
-0.103639 0.428461 0.86 
-0.063111 0.425472 0.854 
-0.0230329 0.42049 0.844 
0.0158812 0.409529 0.822 
0.053997 0.408035 0.819 
0.096018 0.387608 0.778 
0.149136 0.390597 0.784 
0.935481 1.61769 3.247 
0.297513 0.313375 0.629 
0.348425 0.304905 0.612 
0.365488 0.291952 0.586 
0.442075 0.299425 0.601 
0.464609 0.29245 0.587 
0.486102 0.288962 0.58 
0.508713 0.286471 0.575 
0.529926 0.283482 0.569 
0.551557 0.280991 0.564 
-0.947759 0.548741 1.098 
-0.682064 0.516757 1.034 
-0.611187 0.498265 0.997 
-0.551123 0.486271 0.973 
-0.496934 0.477775 0.956 
-0.453321 0.478774 0.958 
-1.07371 1.45381 2.909 
-0.104853 0.429298 0.859 
-0.0645887 0.427798 0.856 
-0.024373 0.422301 0.845 
0.0145863 0.410307 0.821 
0.0526602 0.408807 0.818 
0.0939614 0.390316 0.781 
0.13366 0.385818 0.772 
0.175796 0.388817 0.778 
0.322852 0.374324 0.749 
0.349947 0.306356 0.613 
0.366399 0.292862 0.586 
0.446975 0.294361 0.589 
0.470401 0.291862 0.584 
0.493361 0.289364 0.579 
0.514956 0.286365 0.573 
0.536937 0.283866 0.568 
0.55746 0.280868 0.562 
-0.931556 0.547941 1.093 
-0.681569 0.514352 1.026 
-0.618923 0.502321 1.002 
-0.555087 0.487281 0.972 
-0.502439 0.480263 0.958 
-0.456353 0.478759 0.955 
-0.388688 0.468733 0.935 
-1.06781 1.54807 3.088 
-0.0892352 0.439155 0.876 
-0.0454861 0.424617 0.847 
-0.00588665 0.416094 0.83 
0.0343134 0.403561 0.805 
0.0712992 0.400553 0.799 
0.105009 0.387519 0.773 
0.148484 0.394537 0.787 
0.907173 1.62227 3.236 
0.329394 0.374986 0.748 
0.354256 0.294274 0.587 
0.441875 0.301794 0.602 
0.460833 0.294775 0.588 
0.482427 0.291266 0.581 
0.505123 0.288759 0.576 
0.526429 0.285751 0.57 
0.549116 0.283746 0.566 
-0.95533 0.549639 1.093 
-0.901035 0.548633 1.091 
-0.677598 0.521478 1.037 
-0.600137 0.49734 0.989 
-0.542835 0.487283 0.969 
-0.49202 0.481751 0.958 
-0.449235 0.483763 0.962 
-0.389081 0.467168 0.929 
-1.07187 1.53124 3.045 
-0.0904928 0.440013 0.875 
-0.0442223 0.426435 0.848 
-0.00459156 0.416881 0.829 
0.0355199 0.404309 0.804 
0.0727222 0.4028 0.801 
0.11087 0.388217 0.772 
0.151766 0.394754 0.785 
0.919406 1.62226 3.226 
0.332162 0.376651 0.749 
0.360668 0.305243 0.607 
0.391439 0.299209 0.595 
0.457956 0.296192 0.589 
0.479641 0.292671 0.582 
0.501543 0.289654 0.576 
0.522887 0.286637 0.57 
0.546563 0.285128 0.567 
-0.966466 0.55285 1.096 
-0.907009 0.548815 1.088 
-0.682724 0.52208 1.035 
-0.610574 0.502408 0.996 
-0.547158 0.487275 0.966 
-0.497454 0.482735 0.957 
-0.454741 0.484753 0.961 
-0.393154 0.466594 0.925 
-1.06062 1.48705 2.948 
-0.0864144 0.441372 0.875 
-0.0402223 0.427248 0.847 
-0.000727565 0.418169 0.829 
0.0380182 0.405558 0.804 
0.0769329 0.406567 0.806 
0.113416 0.389921 0.773 
0.153812 0.394965 0.783 
0.909382 1.62728 3.226 
0.327507 0.377815 0.749 
0.356613 0.309213 0.613 
0.37468 0.297107 0.589 
0.450635 0.297107 0.589 
0.473218 0.29408 0.583 
0.496101 0.291558 0.578 
0.517612 0.288531 0.572 
0.539515 0.286009 0.567 
-0.985454 0.557589 1.102 
-0.921375 0.549999 1.087 
-0.861098 0.543928 1.075 
-0.626398 0.508003 1.004 
-0.556163 0.488776 0.966 
-0.506375 0.484222 0.957 
-0.460322 0.482704 0.954 
-0.408727 0.476126 0.941 
-1.04747 1.44811 2.862 
-0.0890314 0.442226 0.874 
-0.0443266 0.430082 0.85 
-0.0045971 0.419963 0.83 
0.0328573 0.404783 0.8 
0.0797331 0.409337 0.809 
0.115968 0.391628 0.774 
0.159054 0.391122 0.773 
0.953453 1.61357 3.189 
0.3014 0.319273 0.631 
0.361502 0.308647 0.61 
0.392364 0.301058 0.595 
0.453233 0.298528 0.59 
0.47503 0.294986 0.583 
0.497035 0.29195 0.577 
0.518481 0.288914 0.571 
0.540323 0.286384 0.566 
-0.982921 0.559809 1.103 
-0.916309 0.550673 1.085 
-0.681477 0.526819 1.038 
-0.601065 0.501442 0.988 
-0.540408 0.488247 0.962 
-0.493508 0.486217 0.958 
-0.45073 0.488247 0.962 
-0.387857 0.473528 0.933 
-0.128428 0.453227 0.893 
-0.0778998 0.442061 0.871 
-0.0269987 0.428865 0.845 
0.0193528 0.409579 0.807 
0.0589591 0.406026 0.8 
0.0973518 0.395368 0.779 
0.138502 0.395368 0.779 
0.863522 1.64542 3.242 
0.710221 1.09729 2.162 
0.343444 0.312133 0.615 
0.367874 0.30858 0.608 
0.435396 0.307565 0.606 
0.453233 0.299444 0.59 
0.47503 0.295892 0.583 
0.497035 0.292847 0.577 
0.518481 0.289801 0.571 
0.540323 0.287264 0.566 
-0.982921 0.561522 1.103 
-0.915464 0.55185 1.084 
-0.620479 0.510105 1.002 
-0.549725 0.488723 0.96 
-0.503927 0.487705 0.958 
-0.458316 0.486687 0.956 
-0.405966 0.477523 0.938 
-0.12704 0.454614 0.893 
-0.0761071 0.440869 0.866 
-0.0190763 0.42916 0.843 
0.0303714 0.407269 0.8 
0.0717454 0.409306 0.804 
0.111014 0.393524 0.773 
0.157444 0.392506 0.771 
0.939783 1.63417 3.21 
0.329834 0.381306 0.749 
0.360196 0.311052 0.611 
0.398059 0.304434 0.598 
0.452774 0.301888 0.593 
0.473123 0.297307 0.584 
0.494346 0.293743 0.577 
0.51582 0.290688 0.571 
0.538634 0.288652 0.567 
-0.988958 0.563747 1.104 
-0.921366 0.554045 1.085 
-0.859558 0.546896 1.071 
-0.545034 0.488683 0.957 
-0.500428 0.488683 0.957 
-0.456298 0.489193 0.958 
-0.400903 0.476427 0.933 
-0.11109 0.442214 0.866 
-0.0656876 0.435576 0.853 
-0.0256555 0.43098 0.844 
0.0133756 0.421278 0.825 
0.0539873 0.408512 0.8 
0.094202 0.399831 0.783 
0.139354 0.396767 0.777 
0.188835 0.401874 0.787 
0.693897 1.11013 2.174 
0.300923 0.321703 0.63 
0.363748 0.31098 0.609 
0.400585 0.305874 0.599 
0.448049 0.305874 0.599 
0.464844 0.298725 0.585 
0.487064 0.295661 0.579 
0.509612 0.293107 0.574 
0.532628 0.291065 0.57 
0.552329 0.28749 0.563 
-0.934764 0.553682 1.081 
-0.881924 0.552145 1.078 
-0.569934 0.496316 0.969 
-0.514479 0.486584 0.95 
-0.469704 0.486072 0.949 
-0.425023 0.48556 0.948 
-0.375362 0.480438 0.938 
-0.107424 0.445097 0.869 
-0.0634066 0.439462 0.858 
-0.0230329 0.432292 0.844 
0.0159391 0.42256 0.825 
0.0564732 0.409755 0.8 
0.0963883 0.400023 0.781 
0.141768 0.397975 0.777 
0.192495 0.405658 0.792 
0.694388 1.1089 2.165 
0.298965 0.322682 0.63 
0.358659 0.312438 0.61 
0.388767 0.306292 0.598 
0.41664 0.306292 0.598 
0.44991 0.306804 0.599 
0.466662 0.299633 0.585 
0.488018 0.296048 0.578 
0.511395 0.293999 0.574 
0.533462 0.291438 0.569 
0.553094 0.287853 0.562 
-0.930544 0.554847 1.08 
-0.873684 0.550737 1.072 
-0.591337 0.501931 0.977 
-0.515797 0.486519 0.947 
-0.471159 0.486005 0.946 
-0.42842 0.487546 0.949 
-0.379329 0.481382 0.937 
-0.126187 0.455694 0.887 
-0.0707391 0.436685 0.85 
-0.0308641 0.433089 0.843 
0.00835841 0.429493 0.836 
0.0487092 0.408429 0.795 
0.0864117 0.411512 0.801 
0.120154 0.395586 0.77 
0.166161 0.394044 0.767 
0.916271 1.6517 3.215 
0.324145 0.386338 0.752 
0.350327 0.314414 0.612 
0.371401 0.305166 0.594 
0.408459 0.308762 0.601 
0.436472 0.308762 0.601 
0.455983 0.303111 0.59 
0.476928 0.299001 0.582 
0.498859 0.295919 0.576 
0.52023 0.292836 0.57 
0.542001 0.290267 0.565 
-0.973412 0.566831 1.1 
-0.907051 0.557556 1.082 
-0.837618 0.545189 1.058 
-0.585892 0.501388 0.973 
-0.515084 0.485929 0.943 
-0.47163 0.486444 0.944 
-0.429895 0.489021 0.949 
-0.379972 0.481807 0.935 
-0.302587 0.45295 0.879 
-0.0834085 0.449343 0.872 
-0.0335233 0.434914 0.844 
0.00575377 0.430277 0.835 
0.0524806 0.41018 0.796 
0.0893359 0.403481 0.783 
0.130751 0.396267 0.769 
0.169957 0.395751 0.768 
0.927702 1.65927 3.22 
0.326048 0.386991 0.751 
0.35413 0.315364 0.612 
0.373577 0.30712 0.596 
0.411945 0.310211 0.602 
0.439273 0.309696 0.601 
0.456401 0.302482 0.587 
0.479641 0.299905 0.582 
0.500673 0.296298 0.575 
0.521969 0.293206 0.569 
0.543671 0.29063 0.564 
-0.952586 0.561305 1.086 
-0.895323 0.55717 1.078 
-0.832534 0.5489 1.062 
-0.779686 0.553552 1.071 
-0.512153 0.487394 0.943 
-0.467207 0.486361 0.941 
-0.425596 0.488945 0.946 
-0.376663 0.482743 0.934 
-0.306684 0.454316 0.879 
-0.0928921 0.450698 0.872 
-0.0348759 0.436742 0.845 
0.00445645 0.431574 0.835 
0.0549541 0.411417 0.796 
0.095053 0.403147 0.78 
0.13553 0.397461 0.769 
0.17115 0.396945 0.768 
0.947713 1.66427 3.22 
0.328671 0.387124 0.749 
0.35545 0.315798 0.611 
0.374503 0.308046 0.596 
0.410074 0.311147 0.602 
0.441141 0.31063 0.601 
0.457444 0.302877 0.586 
0.480622 0.300293 0.581 
0.502459 0.297192 0.575 
0.523737 0.29409 0.569 
0.545423 0.291506 0.564 
-0.93974 0.559363 1.079 
-0.882029 0.554697 1.07 
-0.826712 0.551068 1.063 
-0.56075 0.498191 0.961 
-0.50627 0.494562 0.954 
-0.456944 0.490933 0.947 
-0.409753 0.487304 0.94 
-0.344257 0.469678 0.906 
-0.121089 0.4562 0.88 
-0.0791621 0.451016 0.87 
-0.0244019 0.438574 0.846 
0.043273 0.407469 0.786 
0.0914174 0.404359 0.78 
0.13553 0.398656 0.769 
0.170927 0.397619 0.767 
0.929431 1.67239 3.226 
0.325614 0.388806 0.75 
0.34272 0.317266 0.612 
0.367939 0.313637 0.605 
0.395271 0.310008 0.598 
0.438542 0.311045 0.6 
0.455623 0.303787 0.586 
0.478816 0.301195 0.581 
0.500673 0.298085 0.575 
0.522887 0.295493 0.57 
0.543671 0.292382 0.564 
-0.936388 0.561039 1.079 
-0.874598 0.55376 1.065 
-0.822634 0.5522 1.062 
-0.776046 0.55428 1.066 
-0.512714 0.486685 0.936 
-0.458915 0.491364 0.945 
-0.412235 0.488245 0.939 
-0.341819 0.471606 0.907 
-0.116589 0.456007 0.877 
-0.06258 0.449767 0.865 
-0.0219017 0.442488 0.851 
0.0431078 0.407131 0.783 
0.0867919 0.406611 0.782 
0.123261 0.398811 0.767 
0.158803 0.398291 0.766 
0.875549 1.66076 3.194 
0.704701 1.08464 2.086 
0.311697 0.328616 0.632 
0.356399 0.317697 0.611 
0.391279 0.311457 0.599 
0.439673 0.311457 0.599 
0.457573 0.304178 0.585 
0.481524 0.302098 0.581 
0.502477 0.298458 0.574 
0.524622 0.295859 0.569 
0.5463 0.293259 0.564 
-0.919623 0.562716 1.079 
-0.851606 0.551242 1.057 
-0.806893 0.554372 1.063 
-0.559256 0.501177 0.961 
-0.485857 0.493354 0.946 
-0.441225 0.494397 0.948 
-0.389499 0.48501 0.93 
-0.312195 0.460499 0.883 
-0.102376 0.454762 0.872 
-0.0491407 0.451111 0.865 
-0.00872074 0.445896 0.855 
0.0561202 0.414605 0.795 
0.098056 0.404175 0.775 
0.132967 0.400524 0.768 
0.168324 0.399481 0.766 
0.935891 1.68502 3.231 
0.328671 0.390615 0.749 
0.326039 0.332206 0.637 
0.362898 0.316039 0.606 
0.392484 0.311867 0.598 
0.449357 0.313953 0.602 
0.46837 0.305608 0.586 
0.488916 0.301436 0.578 
0.511395 0.298829 0.573 
0.533407 0.296221 0.568 
-0.955081 0.567531 1.085 
-0.895338 0.561777 1.074 
-0.829538 0.551315 1.054 
-0.783372 0.553408 1.058 
-0.515207 0.486455 0.93 
-0.454481 0.49587 0.948 
-0.404235 0.488547 0.934 
-0.316366 0.463963 0.887 
-0.112244 0.457686 0.875 
-0.0587512 0.454024 0.868 
-0.0181038 0.449317 0.859 
0.0507289 0.412179 0.788 
0.091183 0.406948 0.778 
0.127001 0.401717 0.768 
0.162374 0.400671 0.766 
0.920346 1.69841 3.247 
0.325614 0.392302 0.75 
0.32307 0.333195 0.637 
0.360073 0.31698 0.606 
0.389497 0.314888 0.602 
0.441534 0.313319 0.599 
0.472012 0.306519 0.586 
0.491656 0.301811 0.577 
0.514057 0.299196 0.572 
0.536937 0.297104 0.568 
-0.944034 0.567642 1.082 
-0.879562 0.558724 1.065 
-0.820571 0.552428 1.053 
-0.772223 0.552953 1.054 
-0.540361 0.500491 0.954 
-0.46129 0.488949 0.932 
-0.416734 0.491047 0.936 
-0.368722 0.485277 0.925 
-0.156721 0.431765 0.823 
-0.0860193 0.456947 0.871 
-0.0364885 0.446979 0.852 
0.032118 0.410255 0.782 
0.0697948 0.4176 0.796 
0.109955 0.406058 0.774 
0.145654 0.405009 0.772 
0.183284 0.408682 0.779 
0.966222 1.68666 3.215 
0.305322 0.331037 0.631 
0.349947 0.321594 0.613 
0.374527 0.314249 0.599 
0.401775 0.313725 0.598 
0.451697 0.308479 0.588 
0.47666 0.306905 0.585 
0.495312 0.301658 0.575 
0.518481 0.29956 0.571 
0.541277 0.297461 0.567 
-0.933085 0.568797 1.081 
-0.862285 0.555643 1.056 
-0.811525 0.554591 1.054 
-0.751547 0.546698 1.039 
-0.506293 0.496185 0.943 
-0.447588 0.499342 0.949 
-0.393411 0.488818 0.929 
-0.322 0.470928 0.895 
-0.163312 0.43357 0.824 
-0.0900791 0.4583 0.871 
-0.0310471 0.446198 0.848 
0.038144 0.410944 0.781 
0.0756921 0.417258 0.793 
0.111588 0.40884 0.777 
0.147424 0.407787 0.775 
0.184968 0.410944 0.781 
0.95296 1.68587 3.204 
0.331718 0.39358 0.748 
0.340818 0.32202 0.612 
0.369856 0.316759 0.602 
0.39832 0.314128 0.597 
0.435619 0.313601 0.596 
0.456534 0.30834 0.586 
0.483182 0.306761 0.583 
0.502477 0.302026 0.574 
0.525544 0.299921 0.57 
0.547268 0.29729 0.565 
-0.907841 0.566255 1.073 
-0.842639 0.556228 1.054 
-0.792759 0.5557 1.053 
-0.729553 0.545146 1.033 
-0.487763 0.498178 0.944 
-0.429741 0.495539 0.939 
-0.381864 0.490262 0.929 
-0.317119 0.471263 0.893 
-0.204603 0.449627 0.852 
-0.105447 0.461764 0.875 
-0.0506013 0.457542 0.867 
0.0380952 0.41163 0.78 
0.0781562 0.41849 0.793 
0.113231 0.41163 0.78 
0.149779 0.412158 0.781 
0.186181 0.412158 0.781 
0.66932 1.10665 2.097 
0.336817 0.39527 0.749 
0.346137 0.323499 0.613 
0.395538 0.315055 0.597 
0.429543 0.313472 0.594 
0.460049 0.309778 0.587 
0.484162 0.307139 0.582 
0.504261 0.302917 0.574 
0.527315 0.300806 0.57 
0.549024 0.298168 0.565 
-0.901999 0.567393 1.072 
-0.836136 0.556807 1.052 
-0.784858 0.555219 1.049 
-0.72083 0.546221 1.032 
-0.474397 0.494881 0.935 
-0.4125 0.493822 0.933 
-0.365057 0.488529 0.923 
-0.306718 0.471592 0.891 
-0.209308 0.452538 0.855 
-0.14486 0.434542 0.821 
-0.0572704 0.45836 0.866 
0.0369306 0.413371 0.781 
0.085225 0.418135 0.79 
0.120657 0.413371 0.781 
0.161317 0.414959 0.784 
0.915302 1.71859 3.247 
0.324746 0.395905 0.748 
0.346137 0.324451 0.613 
0.386339 0.317571 0.6 
0.412924 0.316512 0.598 
0.456534 0.310161 0.586 
0.485264 0.306456 0.579 
0.507828 0.303809 0.574 
0.529926 0.301163 0.569 
0.551557 0.298516 0.564 
-0.887013 0.565873 1.066 
-0.822402 0.555787 1.047 
-0.770646 0.553664 1.043 
-0.511216 0.492618 0.928 
-0.462242 0.49421 0.931 
-0.395279 0.493679 0.93 
-0.348291 0.492618 0.928 
-0.294847 0.476162 0.897 
-0.205083 0.453336 0.854 
-0.142135 0.435287 0.82 
-0.0547054 0.460767 0.868 
0.0675751 0.42414 0.799 
0.105285 0.416177 0.784 
0.147074 0.417239 0.786 
0.183049 0.412992 0.778 
0.666447 1.10839 2.088 
0.299034 0.330181 0.622 
0.36245 0.323811 0.61 
0.400175 0.31691 0.597 
0.43801 0.317441 0.598 
0.473284 0.313725 0.591 
0.488967 0.306294 0.577 
0.511391 0.303639 0.572 
0.534289 0.301516 0.568 
