# .PCD v.7 - Point Cloud Data file format
VERSION .7
FIELDS x y z
SIZE 4 4 4
TYPE F F F
COUNT 1 1 1
WIDTH 1889
HEIGHT 1
VIEWPOINT 0 0 0 1 0 0 0
POINTS 1889
DATA ascii
-0.0752923 0.155276 0.594 
-0.0542174 0.163118 0.624 
-0.0307974 0.171222 0.655 
-0.00489841 0.179064 0.685 
0.0215932 0.172529 0.66 
0.0465316 0.162334 0.621 
0.0693488 0.154753 0.592 
0.0900616 0.143512 0.549 
0.107667 0.138023 0.528 
0.127254 0.136454 0.522 
0.144202 0.121816 0.466 
0.156841 0.116588 0.446 
0.167574 0.111882 0.428 
0.180351 0.106393 0.407 
0.191222 0.102994 0.394 
0.200628 0.0998575 0.382 
0.211646 0.0975048 0.373 
0.224088 0.0964592 0.369 
0.241388 0.0975048 0.373 
0.954431 0.334601 1.28 
0.967757 0.322054 1.232 
0.978081 0.309767 1.185 
1.01062 0.305323 1.168 
1.08615 0.313688 1.2 
1.10658 0.306108 1.171 
1.12865 0.299572 1.146 
-0.401254 0.139261 0.528 
-0.391005 0.143217 0.543 
-0.37956 0.147174 0.558 
-0.364998 0.150339 0.57 
-0.353682 0.15535 0.589 
-0.340291 0.160098 0.607 
-0.324944 0.164581 0.624 
-0.308722 0.169329 0.642 
-0.294152 0.175923 0.667 
-0.275182 0.180934 0.686 
-0.256864 0.187528 0.711 
-0.230768 0.189374 0.718 
-0.121429 0.151658 0.575 
-0.0969632 0.149284 0.566 
-0.0775526 0.155614 0.59 
-0.0565947 0.162999 0.618 
-0.0335076 0.170911 0.648 
-0.00805208 0.179352 0.68 
0.0201365 0.174868 0.663 
0.0451478 0.164054 0.622 
0.0678456 0.155878 0.591 
0.0878053 0.145327 0.551 
0.106429 0.139261 0.528 
0.12603 0.137679 0.522 
0.143417 0.123172 0.467 
0.155096 0.117897 0.447 
0.16634 0.113413 0.43 
0.178359 0.107875 0.409 
0.188928 0.104182 0.395 
0.200628 0.100753 0.382 
0.210771 0.0983796 0.373 
0.223222 0.0973246 0.369 
0.240513 0.0983796 0.373 
0.271322 0.102072 0.387 
0.970171 0.32969 1.25 
0.980837 0.31703 1.202 
1.00223 0.308854 1.171 
1.05966 0.312019 1.183 
1.10963 0.31281 1.186 
1.1179 0.30226 1.146 
-0.405264 0.138903 0.522 
-0.394764 0.142628 0.536 
-0.383147 0.146354 0.55 
-0.371071 0.150345 0.565 
-0.356566 0.153804 0.578 
-0.344486 0.15886 0.597 
-0.329279 0.163118 0.613 
-0.313294 0.167641 0.63 
-0.300528 0.174826 0.657 
-0.28185 0.179616 0.675 
-0.263626 0.185736 0.698 
-0.241541 0.19026 0.715 
-0.209758 0.187333 0.704 
-0.111695 0.149015 0.56 
-0.0911243 0.151942 0.571 
-0.0712329 0.158328 0.595 
-0.0500668 0.166843 0.627 
-0.0262291 0.17456 0.656 
-7.8846e-05 0.181745 0.683 
0.0260776 0.17456 0.656 
0.050081 0.162586 0.611 
0.0716381 0.156465 0.588 
0.0917929 0.144757 0.544 
0.109726 0.139967 0.526 
0.133622 0.127461 0.479 
0.146776 0.121607 0.457 
0.158858 0.117083 0.44 
0.172069 0.110963 0.417 
0.182359 0.107237 0.403 
0.192517 0.104044 0.391 
0.203846 0.100585 0.378 
0.214283 0.098456 0.37 
0.233133 0.0987221 0.371 
0.256148 0.100585 0.378 
0.961935 0.341137 1.282 
0.978277 0.329429 1.238 
0.98696 0.31639 1.189 
1.02218 0.312664 1.175 
1.09905 0.321446 1.208 
1.11018 0.311068 1.169 
1.13105 0.304149 1.143 
-0.397539 0.141738 0.528 
-0.387898 0.146033 0.544 
-0.375634 0.149791 0.558 
-0.362254 0.153549 0.572 
-0.348945 0.157844 0.588 
-0.336574 0.163213 0.608 
-0.321068 0.167777 0.625 
-0.304679 0.172609 0.643 
-0.28946 0.179051 0.667 
-0.271144 0.184688 0.688 
-0.250445 0.189789 0.707 
-0.22383 0.191131 0.712 
-0.124558 0.154891 0.577 
-0.0975959 0.150865 0.562 
-0.0782673 0.157039 0.585 
-0.0574805 0.164287 0.612 
-0.0347029 0.17234 0.642 
-0.00953331 0.180393 0.672 
0.0171295 0.179051 0.667 
0.0407717 0.166971 0.622 
0.0625125 0.159186 0.593 
0.0865131 0.147912 0.551 
0.109726 0.141201 0.526 
0.132499 0.128584 0.479 
0.147524 0.12241 0.456 
0.159163 0.117578 0.438 
0.17319 0.111404 0.415 
0.185227 0.107109 0.399 
0.195085 0.103887 0.387 
0.204531 0.100934 0.376 
0.216018 0.0993237 0.37 
0.237483 0.0995922 0.371 
0.261068 0.102008 0.38 
0.973961 0.344143 1.282 
0.985093 0.330721 1.232 
0.989719 0.316494 1.179 
1.042 0.318104 1.185 
1.11682 0.326158 1.215 
1.10963 0.310588 1.157 
-0.410286 0.139726 0.516 
-0.398022 0.142705 0.527 
-0.388458 0.147038 0.543 
-0.376267 0.150829 0.557 
-0.36296 0.15462 0.571 
-0.348537 0.158411 0.585 
-0.337444 0.164368 0.607 
-0.320469 0.168159 0.621 
-0.304759 0.173304 0.64 
-0.289715 0.179803 0.664 
-0.271171 0.185219 0.684 
-0.25139 0.190905 0.705 
-0.224867 0.192259 0.71 
-0.128617 0.156245 0.577 
-0.0983859 0.15137 0.559 
-0.0792308 0.157598 0.582 
-0.0586269 0.16491 0.609 
-0.0359829 0.172763 0.638 
-0.0110597 0.181157 0.669 
0.0155886 0.180886 0.668 
0.0419588 0.167347 0.618 
0.0696617 0.157869 0.583 
0.0874866 0.148662 0.549 
0.10519 0.142976 0.528 
0.124895 0.129978 0.48 
0.140924 0.126187 0.466 
0.154747 0.119959 0.443 
0.167002 0.114814 0.424 
0.179396 0.110211 0.407 
0.189374 0.10669 0.394 
0.198836 0.103441 0.382 
0.209022 0.101004 0.373 
0.221492 0.0999207 0.369 
0.249718 0.101545 0.375 
0.281774 0.10669 0.394 
0.978182 0.338214 1.249 
0.993409 0.326841 1.207 
1.01737 0.319259 1.179 
1.08062 0.324133 1.197 
1.10761 0.318176 1.175 
1.12105 0.308969 1.141 
-0.401134 0.142849 0.523 
-0.388667 0.146946 0.538 
-0.376773 0.150769 0.552 
-0.364407 0.154866 0.567 
-0.350844 0.158963 0.582 
-0.338337 0.164153 0.601 
-0.323269 0.168796 0.618 
-0.307812 0.173986 0.637 
-0.291726 0.179721 0.658 
-0.273966 0.185457 0.679 
-0.255623 0.192012 0.703 
-0.229214 0.193378 0.708 
-0.133333 0.156778 0.574 
-0.102332 0.150769 0.552 
-0.0835262 0.156778 0.574 
-0.0632833 0.163607 0.599 
-0.0414416 0.172074 0.63 
-0.0170762 0.179995 0.659 
0.00940607 0.184092 0.674 
0.0344471 0.174805 0.64 
0.0596304 0.161695 0.592 
0.0819349 0.151589 0.555 
0.0995616 0.145034 0.531 
0.124895 0.131104 0.48 
0.140131 0.127553 0.467 
0.154397 0.120725 0.442 
0.166008 0.115808 0.424 
0.179464 0.110619 0.405 
0.189332 0.107068 0.392 
0.199209 0.104064 0.381 
0.209897 0.101879 0.373 
0.230145 0.100786 0.369 
0.248175 0.102152 0.374 
0.270119 0.104883 0.384 
0.987358 0.348518 1.276 
0.995919 0.334315 1.224 
1.00546 0.321751 1.178 
1.06403 0.325301 1.191 
1.11432 0.326121 1.194 
1.11229 0.312191 1.143 
-0.405369 0.142973 0.519 
-0.390786 0.147105 0.534 
-0.379184 0.150962 0.548 
-0.367096 0.155645 0.565 
-0.352499 0.159226 0.578 
-0.339715 0.164185 0.596 
-0.325496 0.169144 0.614 
-0.309352 0.173827 0.631 
-0.295004 0.180438 0.655 
-0.27587 0.185121 0.672 
-0.258716 0.192284 0.698 
-0.232872 0.193937 0.704 
-0.136025 0.158124 0.574 
-0.102147 0.151788 0.551 
-0.0833807 0.157849 0.573 
-0.0631776 0.164736 0.598 
-0.0358701 0.175204 0.636 
-0.0109935 0.183193 0.665 
0.0154953 0.182917 0.664 
0.0431272 0.169144 0.614 
0.0643029 0.160879 0.584 
0.0850663 0.151513 0.55 
0.102908 0.145728 0.529 
0.128859 0.131679 0.478 
0.142655 0.126995 0.461 
0.154397 0.121761 0.442 
0.165403 0.117078 0.425 
0.177487 0.11212 0.407 
0.187526 0.108538 0.394 
0.197422 0.104957 0.381 
0.208147 0.102753 0.373 
0.220626 0.101651 0.369 
0.249718 0.103304 0.375 
0.272432 0.106335 0.386 
0.987246 0.350408 1.272 
0.999605 0.337461 1.225 
1.0125 0.325891 1.183 
1.06951 0.328921 1.194 
1.10682 0.325891 1.183 
1.11399 0.314596 1.142 
-0.402815 0.145024 0.522 
-0.389009 0.148635 0.535 
-0.377988 0.152803 0.55 
-0.363717 0.157804 0.568 
-0.348879 0.161415 0.581 
-0.336367 0.166694 0.6 
-0.321299 0.171417 0.617 
-0.306318 0.176973 0.637 
-0.289742 0.18253 0.657 
-0.271973 0.188364 0.678 
-0.252529 0.194198 0.699 
-0.225947 0.19531 0.703 
-0.125941 0.158637 0.571 
-0.094453 0.155303 0.559 
-0.0751361 0.161693 0.582 
-0.0545207 0.16975 0.611 
-0.0243895 0.180029 0.648 
0.00150953 0.188086 0.677 
0.0273635 0.180585 0.65 
0.0533117 0.166416 0.599 
0.0730687 0.157526 0.567 
0.0912867 0.150302 0.541 
0.109309 0.145579 0.524 
0.13445 0.131688 0.474 
0.14729 0.125576 0.452 
0.158362 0.120297 0.433 
0.169135 0.115852 0.417 
0.181454 0.111407 0.401 
0.190547 0.107518 0.387 
0.201186 0.105017 0.378 
0.211679 0.102795 0.37 
0.236203 0.102517 0.369 
0.26285 0.105573 0.38 
0.288973 0.10974 0.395 
0.994688 0.345612 1.244 
1.00483 0.332554 1.197 
1.05431 0.33311 1.199 
1.10303 0.333388 1.2 
1.11347 0.322553 1.161 
-0.407076 0.144287 0.515 
-0.39405 0.147088 0.525 
-0.38449 0.151571 0.541 
-0.371642 0.155213 0.554 
-0.360913 0.160256 0.572 
-0.344611 0.163338 0.583 
-0.332392 0.168942 0.603 
-0.316022 0.173144 0.618 
-0.301285 0.179028 0.639 
-0.284442 0.184631 0.659 
-0.266788 0.190795 0.681 
-0.244916 0.194997 0.696 
-0.216544 0.194437 0.694 
-0.112124 0.152131 0.543 
-0.0906821 0.156894 0.56 
-0.0712856 0.163618 0.584 
-0.0505508 0.172304 0.615 
-0.0258692 0.181269 0.647 
-7.75762e-05 0.188273 0.672 
0.0302718 0.181269 0.647 
0.0568537 0.16586 0.592 
0.0763784 0.157455 0.562 
0.094214 0.15017 0.536 
0.112996 0.146808 0.524 
0.134167 0.13252 0.473 
0.14623 0.126636 0.452 
0.15771 0.121593 0.434 
0.16856 0.11711 0.418 
0.178578 0.112908 0.403 
0.188795 0.108986 0.389 
0.199577 0.106464 0.38 
0.210206 0.104223 0.372 
0.228659 0.103102 0.368 
0.262158 0.106184 0.379 
0.986815 0.360577 1.287 
1.00344 0.34853 1.244 
1.01071 0.334521 1.194 
1.06452 0.336482 1.201 
1.10314 0.333681 1.191 
1.11198 0.322474 1.151 
-0.405868 0.145495 0.515 
-0.392818 0.14832 0.525 
-0.383221 0.15284 0.541 
-0.371012 0.156795 0.555 
-0.358943 0.161315 0.571 
-0.343243 0.164705 0.583 
-0.330429 0.170073 0.602 
-0.314573 0.174593 0.618 
-0.299787 0.180526 0.639 
-0.282897 0.186176 0.659 
-0.265191 0.192392 0.681 
-0.242585 0.196064 0.694 
-0.207697 0.192392 0.681 
-0.108304 0.153405 0.543 
-0.0893688 0.158208 0.56 
-0.069916 0.164988 0.584 
-0.0490287 0.173463 0.614 
-0.0257493 0.181939 0.644 
-7.73453e-05 0.189284 0.67 
0.0316909 0.182221 0.645 
0.054351 0.168096 0.595 
0.074136 0.15962 0.565 
0.0920422 0.151992 0.538 
0.110538 0.148037 0.524 
0.129164 0.134194 0.475 
0.144429 0.127979 0.453 
0.156033 0.122893 0.435 
0.166998 0.118373 0.419 
0.177126 0.114136 0.404 
0.187015 0.110463 0.391 
0.197422 0.107638 0.381 
0.208147 0.105378 0.373 
0.222013 0.103683 0.367 
0.264632 0.107355 0.38 
0.992774 0.362465 1.283 
1.01602 0.349752 1.238 
1.03009 0.338169 1.197 
1.07331 0.336756 1.192 
1.10861 0.333084 1.179 
1.11641 0.321783 1.139 
-0.398378 0.148411 0.521 
-0.38558 0.151545 0.532 
-0.376013 0.156387 0.549 
-0.365091 0.16123 0.566 
-0.347973 0.163794 0.575 
-0.334659 0.168636 0.592 
-0.320515 0.173764 0.61 
-0.305907 0.179461 0.63 
-0.289704 0.185158 0.65 
-0.271906 0.190855 0.67 
-0.253246 0.197122 0.692 
-0.226636 0.197977 0.695 
-0.128365 0.16066 0.564 
-0.0993815 0.156672 0.55 
-0.0801299 0.162085 0.569 
-0.0601709 0.169776 0.596 
-0.0381201 0.177752 0.624 
-0.0139216 0.186867 0.656 
0.0137912 0.187152 0.657 
0.0427057 0.173194 0.608 
0.0635321 0.164364 0.577 
0.0824866 0.156672 0.55 
0.100617 0.150975 0.53 
0.122278 0.137587 0.483 
0.139579 0.130465 0.458 
0.153 0.124768 0.438 
0.164624 0.120495 0.423 
0.174624 0.115938 0.407 
0.184754 0.112234 0.394 
0.194865 0.109101 0.383 
0.205197 0.106537 0.374 
0.217165 0.105113 0.369 
0.26058 0.107677 0.378 
0.289166 0.112234 0.394 
1.01721 0.354079 1.243 
1.02986 0.341831 1.2 
1.07411 0.340691 1.196 
1.1096 0.336988 1.183 
1.11667 0.325309 1.142 
-0.399395 0.148197 0.516 
-0.387633 0.151644 0.528 
-0.377692 0.156239 0.544 
-0.36582 0.160547 0.559 
-0.352752 0.164855 0.574 
-0.336764 0.168302 0.586 
-0.324633 0.174333 0.607 
-0.308847 0.179215 0.624 
-0.293526 0.185247 0.645 
-0.276115 0.190991 0.665 
-0.258236 0.197596 0.688 
-0.232484 0.199032 0.693 
-0.134129 0.162557 0.566 
-0.1034 0.156239 0.544 
-0.0842658 0.161121 0.561 
-0.0647687 0.168589 0.587 
-0.0434099 0.176918 0.616 
-0.0197999 0.185821 0.647 
0.00616139 0.190991 0.665 
0.0386178 0.175482 0.611 
0.0633119 0.165142 0.575 
0.0823366 0.157675 0.549 
0.100617 0.152218 0.53 
0.122278 0.138719 0.483 
0.139579 0.131539 0.458 
0.151635 0.12637 0.44 
0.163025 0.121774 0.424 
0.173139 0.117179 0.408 
0.18337 0.113446 0.395 
0.193069 0.109999 0.383 
0.203987 0.107701 0.375 
0.215434 0.105978 0.369 
0.252147 0.107989 0.376 
0.273532 0.110574 0.385 
1.00667 0.358431 1.248 
1.02425 0.347517 1.21 
1.06895 0.346368 1.206 
1.0911 0.338326 1.178 
1.1313 0.336316 1.171 
-0.400683 0.148539 0.513 
-0.389125 0.152013 0.525 
-0.379415 0.156646 0.541 
-0.367107 0.1607 0.555 
-0.354304 0.165043 0.57 
-0.33856 0.168518 0.582 
-0.325652 0.174019 0.601 
-0.310225 0.178941 0.618 
-0.295291 0.185022 0.639 
-0.27826 0.190813 0.659 
-0.2604 0.197183 0.681 
-0.237017 0.200368 0.692 
-0.199998 0.19284 0.666 
-0.110885 0.155488 0.537 
-0.0921423 0.160121 0.553 
-0.0720331 0.167649 0.579 
-0.0513168 0.175756 0.607 
-0.0283678 0.183864 0.635 
-0.00318624 0.191971 0.663 
0.0225099 0.185891 0.642 
0.0608258 0.16707 0.577 
0.0821866 0.158673 0.548 
0.100807 0.153751 0.531 
0.124028 0.139273 0.481 
0.140346 0.132324 0.457 
0.151973 0.126823 0.438 
0.163246 0.12219 0.422 
0.173669 0.117846 0.407 
0.183363 0.113793 0.393 
0.193967 0.110897 0.383 
0.20432 0.108291 0.374 
0.2163 0.106844 0.369 
0.256556 0.10887 0.376 
0.283486 0.112924 0.39 
1.02678 0.360199 1.244 
1.0435 0.349196 1.206 
1.07257 0.343116 1.185 
1.13021 0.346301 1.196 
1.12274 0.330086 1.14 
-0.395175 0.151785 0.52 
-0.381644 0.154704 0.53 
-0.373438 0.16025 0.549 
-0.361796 0.16492 0.565 
-0.344675 0.167547 0.574 
-0.331321 0.17251 0.591 
-0.317133 0.177764 0.609 
-0.303433 0.184185 0.631 
-0.285773 0.189148 0.648 
-0.268363 0.195277 0.669 
-0.248916 0.201115 0.689 
-0.220483 0.200239 0.686 
-0.133419 0.164336 0.563 
-0.100305 0.159958 0.548 
-0.0806052 0.164336 0.563 
-0.0609488 0.172218 0.59 
-0.0391394 0.180099 0.617 
-0.0152715 0.189148 0.648 
0.0107259 0.192066 0.658 
0.0501649 0.173677 0.595 
0.0713595 0.164628 0.564 
0.0906117 0.156747 0.537 
0.113708 0.143028 0.49 
0.12862 0.138066 0.473 
0.141242 0.132228 0.453 
0.1543 0.12639 0.433 
0.165619 0.122012 0.418 
0.175743 0.117633 0.403 
0.185622 0.113839 0.39 
0.196013 0.11092 0.38 
0.207273 0.108877 0.373 
0.219761 0.107709 0.369 
0.264825 0.110628 0.379 
1.01707 0.364868 1.25 
1.03362 0.353484 1.211 
1.07743 0.352025 1.206 
1.10592 0.345895 1.185 
1.15316 0.345895 1.185 
-0.396975 0.151828 0.516 
-0.384427 0.155064 0.527 
-0.37583 0.160361 0.545 
-0.360551 0.165068 0.561 
-0.346021 0.168893 0.574 
-0.331582 0.173307 0.589 
-0.318038 0.178898 0.608 
-0.303463 0.184782 0.628 
-0.286849 0.190373 0.647 
-0.269125 0.196258 0.667 
-0.249805 0.202143 0.687 
-0.223063 0.202731 0.689 
-0.132945 0.165068 0.561 
-0.0999392 0.160655 0.546 
-0.0782415 0.166245 0.565 
-0.0560716 0.175661 0.597 
-0.0309019 0.184194 0.626 
-0.00623896 0.193315 0.657 
0.019438 0.188313 0.64 
0.047613 0.175955 0.598 
0.0676304 0.16654 0.566 
0.0871571 0.158595 0.539 
0.111637 0.144472 0.491 
0.128348 0.138881 0.472 
0.14093 0.132996 0.452 
0.153944 0.127111 0.432 
0.165223 0.122698 0.417 
0.175743 0.118579 0.403 
0.185622 0.114753 0.39 
0.196013 0.111811 0.38 
0.206717 0.109457 0.372 
0.219165 0.10828 0.368 
0.259891 0.110928 0.377 
1.0182 0.369271 1.255 
1.0427 0.360443 1.225 
1.0755 0.355147 1.207 
1.10407 0.348968 1.186 
1.17465 0.35603 1.21 
-0.3975 0.151851 0.512 
-0.3842 0.155707 0.525 
-0.375724 0.161045 0.543 
-0.362553 0.164901 0.556 
-0.346891 0.16935 0.571 
-0.331506 0.173205 0.584 
-0.318779 0.179137 0.604 
-0.305432 0.185662 0.626 
-0.288092 0.190704 0.643 
-0.269804 0.196042 0.661 
-0.251554 0.202567 0.683 
-0.226623 0.204643 0.69 
-0.137135 0.166681 0.562 
-0.103907 0.160156 0.54 
-0.0843611 0.164011 0.553 
-0.0629601 0.172909 0.583 
-0.040126 0.180917 0.61 
-0.0165839 0.189814 0.64 
0.00916882 0.194856 0.657 
0.0342067 0.18062 0.609 
0.0559893 0.172909 0.583 
0.0755629 0.164901 0.556 
0.094214 0.158969 0.536 
0.117097 0.143844 0.485 
0.133502 0.137319 0.463 
0.147474 0.131387 0.443 
0.159664 0.125455 0.423 
0.170806 0.12071 0.407 
0.18152 0.116558 0.393 
0.192171 0.113592 0.383 
0.202566 0.110923 0.374 
0.21515 0.109736 0.37 
0.228037 0.108847 0.367 
0.288798 0.115965 0.391 
1.05096 0.369248 1.245 
1.06789 0.358274 1.208 
1.09757 0.352343 1.188 
1.1912 0.366579 1.236 
-0.396724 0.152753 0.511 
-0.382969 0.156938 0.525 
-0.374451 0.162319 0.543 
-0.360599 0.165906 0.555 
-0.346284 0.17039 0.57 
-0.330938 0.174276 0.583 
-0.318251 0.180255 0.603 
-0.305432 0.18713 0.626 
-0.287196 0.191614 0.641 
-0.269396 0.197294 0.66 
-0.250817 0.203571 0.681 
-0.22531 0.205066 0.686 
-0.133782 0.167102 0.559 
-0.104394 0.160226 0.536 
-0.0853481 0.16471 0.551 
-0.0663717 0.172483 0.577 
-0.0453221 0.180255 0.603 
-0.0222699 0.188625 0.631 
0.00301029 0.196696 0.658 
0.0274657 0.184739 0.618 
0.0498277 0.176668 0.591 
0.0695401 0.167401 0.56 
0.0917 0.160226 0.536 
0.11596 0.144981 0.485 
0.130553 0.139899 0.468 
0.142835 0.133921 0.448 
0.153522 0.127942 0.428 
0.165404 0.124056 0.415 
0.178262 0.118376 0.396 
0.18866 0.115088 0.385 
0.19977 0.112697 0.377 
0.21515 0.110604 0.37 
0.228659 0.110006 0.368 
0.283852 0.115985 0.388 
1.05476 0.376652 1.26 
1.06114 0.361705 1.21 
1.1048 0.36021 1.205 
1.1892 0.37157 1.243 
-0.396365 0.153349 0.509 
-0.379997 0.158471 0.526 
-0.37063 0.163592 0.543 
-0.35798 0.16781 0.557 
-0.344213 0.172028 0.571 
-0.32933 0.176246 0.585 
-0.315946 0.18197 0.604 
-0.302979 0.188899 0.627 
-0.284633 0.193419 0.642 
-0.2663 0.198841 0.66 
-0.24726 0.204867 0.68 
-0.219826 0.204566 0.679 
-0.122822 0.166003 0.551 
-0.0968433 0.163592 0.543 
-0.0774107 0.168413 0.559 
-0.0579842 0.17715 0.588 
-0.0360105 0.184682 0.613 
-0.0106133 0.193419 0.642 
0.0164618 0.193117 0.641 
0.0421438 0.180765 0.6 
0.0637607 0.170823 0.567 
0.0857337 0.162086 0.538 
0.108182 0.147926 0.491 
0.123855 0.143407 0.476 
0.13683 0.137381 0.456 
0.149576 0.131657 0.437 
0.160502 0.126536 0.42 
0.170916 0.122016 0.405 
0.183793 0.117497 0.39 
0.19423 0.114485 0.38 
0.209944 0.111472 0.37 
0.222873 0.110568 0.367 
0.266602 0.114183 0.379 
1.03986 0.385029 1.278 
1.06093 0.374485 1.243 
1.08011 0.364241 1.209 
1.13205 0.365447 1.213 
1.21447 0.375991 1.248 
-0.386638 0.157882 0.52 
-0.373647 0.161222 0.531 
-0.363098 0.16608 0.547 
-0.351273 0.170938 0.563 
-0.33642 0.174885 0.576 
-0.322708 0.180047 0.593 
-0.30764 0.185208 0.61 
-0.294467 0.192495 0.634 
-0.275135 0.196746 0.648 
-0.25815 0.203729 0.671 
-0.234157 0.206158 0.679 
-0.133303 0.169116 0.557 
-0.1015 0.162133 0.534 
-0.0827638 0.167295 0.551 
-0.063555 0.174885 0.576 
-0.0424233 0.182779 0.602 
-0.0164284 0.192495 0.634 
0.00907113 0.197353 0.65 
0.0327247 0.184601 0.608 
0.0578173 0.174278 0.574 
0.077046 0.166384 0.548 
0.0963671 0.162133 0.534 
0.117747 0.146649 0.483 
0.131614 0.14088 0.464 
0.143966 0.135111 0.445 
0.154076 0.128735 0.424 
0.166141 0.125092 0.412 
0.177334 0.120234 0.396 
0.187757 0.116894 0.385 
0.198886 0.114465 0.377 
0.216018 0.112339 0.37 
0.229522 0.111732 0.368 
0.281306 0.117501 0.387 
1.05459 0.390152 1.285 
1.06452 0.375578 1.237 
1.09312 0.368595 1.214 
1.16221 0.375275 1.236 
1.22619 0.379829 1.251 
-0.380283 0.16002 0.523 
-0.369741 0.164609 0.538 
-0.357355 0.168893 0.552 
-0.344461 0.173482 0.567 
-0.330371 0.178072 0.582 
-0.316667 0.183579 0.6 
-0.303481 0.19031 0.622 
-0.285852 0.195206 0.638 
-0.267763 0.200713 0.656 
-0.248976 0.206833 0.676 
-0.213131 0.204385 0.668 
-0.128223 0.168893 0.552 
-0.100929 0.162468 0.531 
-0.0826136 0.168281 0.55 
-0.0633343 0.175624 0.574 
-0.0423528 0.183885 0.601 
-0.0192185 0.192146 0.628 
0.00603168 0.199183 0.651 
0.0299221 0.186333 0.609 
0.0553171 0.176236 0.576 
0.0747475 0.168281 0.55 
0.094214 0.163997 0.536 
0.117503 0.147475 0.482 
0.13213 0.141356 0.462 
0.145774 0.134931 0.441 
0.160718 0.127894 0.418 
0.171017 0.123304 0.403 
0.181513 0.119632 0.391 
0.192061 0.116573 0.381 
0.207901 0.113513 0.371 
0.220891 0.112595 0.368 
0.266602 0.115961 0.379 
0.292295 0.119938 0.392 
1.06665 0.393165 1.285 
1.06307 0.37389 1.222 
1.12817 0.379397 1.24 
1.1909 0.383681 1.254 
-0.388959 0.15878 0.515 
-0.375581 0.161863 0.525 
-0.366135 0.167104 0.542 
-0.354061 0.171729 0.557 
-0.340196 0.176045 0.571 
-0.325214 0.180362 0.585 
-0.311696 0.18622 0.604 
-0.299521 0.193927 0.629 
-0.27968 0.197627 0.641 
-0.261657 0.203485 0.66 
-0.239979 0.207493 0.673 
-0.209981 0.20441 0.663 
-0.12799 0.169879 0.551 
-0.0996842 0.163713 0.531 
-0.0814716 0.169879 0.551 
-0.0620962 0.177279 0.575 
-0.0409434 0.185295 0.601 
-0.017774 0.193927 0.629 
0.00752355 0.199785 0.648 
0.0340382 0.186836 0.606 
0.058648 0.175429 0.569 
0.0777594 0.167721 0.544 
0.0976195 0.164638 0.534 
0.119018 0.147681 0.479 
0.135166 0.139973 0.454 
0.148211 0.134423 0.436 
0.161511 0.127949 0.415 
0.172479 0.123941 0.402 
0.182409 0.119933 0.389 
0.193339 0.117158 0.38 
0.207589 0.114692 0.372 
0.220626 0.113767 0.369 
0.236203 0.113767 0.369 
0.283121 0.119316 0.387 
1.06392 0.397412 1.289 
1.07118 0.381688 1.238 
1.12778 0.384155 1.246 
1.18691 0.387238 1.256 
-0.401149 0.157192 0.506 
-0.382722 0.16092 0.518 
-0.370458 0.164648 0.53 
-0.358555 0.168997 0.544 
-0.347394 0.174278 0.561 
-0.333719 0.178938 0.576 
-0.319387 0.183908 0.592 
-0.304279 0.189189 0.609 
-0.290574 0.196334 0.632 
-0.271676 0.200994 0.647 
-0.254622 0.208139 0.67 
-0.228591 0.208761 0.672 
-0.141394 0.173346 0.558 
-0.104714 0.163094 0.525 
-0.0866558 0.168686 0.543 
-0.0677611 0.175831 0.566 
-0.047272 0.183908 0.592 
-0.0247497 0.192296 0.619 
-7.46902e-05 0.200994 0.647 
0.0257638 0.190121 0.612 
0.0478679 0.181423 0.584 
0.0679831 0.173346 0.558 
0.0868337 0.166822 0.537 
0.112315 0.150357 0.484 
0.126989 0.145076 0.467 
0.14228 0.13762 0.443 
0.155577 0.130475 0.42 
0.166988 0.126437 0.407 
0.178755 0.122088 0.393 
0.189476 0.118981 0.383 
0.201003 0.116807 0.376 
0.212547 0.114943 0.37 
0.22607 0.114321 0.368 
0.242049 0.114943 0.37 
0.288402 0.120534 0.388 
1.07618 0.398261 1.282 
1.07014 0.378068 1.217 
1.16094 0.392358 1.263 
1.22568 0.397018 1.278 
-0.391289 0.157752 0.504 
-0.378332 0.163386 0.522 
-0.367109 0.167768 0.536 
-0.355416 0.172463 0.551 
-0.342526 0.177158 0.566 
-0.327875 0.18154 0.58 
-0.314735 0.187488 0.599 
-0.300565 0.193748 0.619 
-0.283464 0.199069 0.636 
-0.265007 0.20439 0.653 
-0.245195 0.209711 0.67 
-0.217505 0.208772 0.667 
-0.109221 0.163699 0.523 
-0.0905668 0.167768 0.536 
-0.0720377 0.174654 0.558 
-0.0521115 0.182792 0.584 
-0.0300627 0.190618 0.609 
-0.00604903 0.199382 0.637 
0.0190127 0.195939 0.626 
0.0416522 0.18561 0.593 
0.0619906 0.176219 0.563 
0.0812868 0.169646 0.542 
0.106813 0.15337 0.49 
0.121965 0.148049 0.473 
0.13563 0.141476 0.452 
0.147532 0.135842 0.434 
0.160538 0.129895 0.415 
0.171109 0.125513 0.401 
0.184194 0.121131 0.387 
0.195497 0.118627 0.379 
0.207273 0.116749 0.373 
0.219761 0.115497 0.369 
0.234472 0.115497 0.369 
0.286751 0.121131 0.387 
1.07633 0.396885 1.268 
1.08155 0.380922 1.217 
1.1765 0.396572 1.267 
1.24057 0.400954 1.281 
-0.386246 0.161773 0.513 
-0.37435 0.165557 0.525 
-0.362844 0.169972 0.539 
-0.352121 0.175332 0.556 
-0.33767 0.179432 0.569 
-0.322735 0.183847 0.583 
-0.308739 0.189523 0.601 
-0.294626 0.198037 0.628 
-0.27474 0.201821 0.64 
-0.257792 0.208759 0.662 
-0.233846 0.210966 0.669 
-0.137036 0.173756 0.551 
-0.104116 0.164611 0.522 
-0.0852252 0.170918 0.542 
-0.0663163 0.17817 0.565 
-0.0458061 0.186369 0.591 
-0.0218464 0.195199 0.619 
0.00294624 0.203083 0.644 
0.029873 0.19173 0.608 
0.0511756 0.181324 0.575 
0.0752078 0.171548 0.544 
0.0951148 0.168395 0.534 
0.114525 0.151051 0.479 
0.129682 0.145375 0.461 
0.141959 0.139383 0.442 
0.153973 0.132761 0.421 
0.165485 0.128661 0.408 
0.177834 0.123931 0.393 
0.189476 0.120778 0.383 
0.201003 0.11857 0.376 
0.212547 0.116678 0.37 
0.226684 0.116363 0.369 
0.242704 0.116993 0.371 
1.07674 0.40112 1.272 
1.07781 0.383461 1.216 
1.18094 0.402066 1.275 
1.23757 0.403958 1.281 
-0.387328 0.160434 0.505 
-0.377375 0.164882 0.519 
-0.366305 0.169329 0.533 
-0.354766 0.174095 0.548 
-0.342031 0.17886 0.563 
-0.326965 0.18299 0.576 
-0.314029 0.189026 0.595 
-0.298602 0.194427 0.612 
-0.282573 0.201416 0.634 
-0.263384 0.206182 0.649 
-0.244097 0.2119 0.667 
-0.213351 0.209358 0.659 
-0.123813 0.172824 0.544 
-0.095587 0.168059 0.529 
-0.0773133 0.174412 0.549 
-0.0580508 0.182672 0.575 
-0.0365929 0.190297 0.599 
-0.0133274 0.19951 0.628 
0.0118402 0.201734 0.635 
0.0389363 0.188709 0.594 
0.0594554 0.179178 0.564 
0.0824055 0.171871 0.541 
0.104728 0.155986 0.491 
0.119746 0.150268 0.473 
0.133329 0.144549 0.455 
0.147865 0.137243 0.432 
0.160151 0.131524 0.414 
0.173126 0.126123 0.397 
0.184194 0.122946 0.387 
0.195497 0.120405 0.379 
0.207273 0.118499 0.373 
0.219761 0.117228 0.369 
0.235108 0.117546 0.37 
0.296891 0.124535 0.392 
1.07363 0.397432 1.251 
1.11003 0.392666 1.236 
1.19777 0.405692 1.277 
1.24966 0.406009 1.278 
-0.385183 0.163219 0.51 
-0.37415 0.167379 0.523 
-0.362081 0.171539 0.536 
-0.350247 0.17634 0.551 
-0.337217 0.181141 0.566 
-0.32299 0.185941 0.581 
-0.309116 0.191702 0.599 
-0.293219 0.200023 0.625 
-0.273882 0.204183 0.638 
-0.256624 0.210904 0.659 
-0.232448 0.212824 0.665 
-0.200362 0.207064 0.647 
-0.109814 0.166419 0.52 
-0.0909672 0.169939 0.531 
-0.0724262 0.17634 0.551 
-0.0530232 0.185301 0.579 
-0.031129 0.192662 0.602 
-0.00601105 0.202583 0.633 
0.0188609 0.198743 0.621 
0.0426799 0.188181 0.588 
0.0639425 0.17826 0.557 
0.0868337 0.17186 0.537 
0.110045 0.154898 0.484 
0.124815 0.148177 0.463 
0.140995 0.140496 0.439 
0.152359 0.135055 0.422 
0.166292 0.128975 0.403 
0.177381 0.125454 0.392 
0.188578 0.122574 0.383 
0.200122 0.120334 0.376 
0.212547 0.118413 0.37 
0.226684 0.118093 0.369 
0.242704 0.118733 0.371 
1.06665 0.411247 1.285 
1.08134 0.397805 1.243 
1.14636 0.403246 1.26 
1.21559 0.409647 1.28 
1.25771 0.406766 1.271 
-0.38069 0.165059 0.512 
-0.370129 0.169573 0.526 
-0.355966 0.174731 0.542 
-0.344228 0.179889 0.558 
-0.330637 0.184725 0.573 
-0.316387 0.189883 0.589 
-0.300862 0.195041 0.605 
-0.286805 0.202133 0.627 
-0.268071 0.206969 0.642 
-0.25003 0.213417 0.662 
-0.224313 0.214061 0.664 
-0.135295 0.175376 0.544 
-0.103118 0.166671 0.517 
-0.0855387 0.172797 0.536 
-0.0666836 0.179567 0.557 
-0.0466332 0.188271 0.584 
-0.0243899 0.196653 0.61 
-7.35358e-05 0.205357 0.637 
0.0255954 0.196008 0.608 
0.048563 0.185692 0.576 
0.068829 0.175376 0.544 
0.0988152 0.159901 0.496 
0.114286 0.154098 0.478 
0.128043 0.147973 0.459 
0.145161 0.139591 0.433 
0.15918 0.133466 0.414 
0.170762 0.128308 0.398 
0.181941 0.125084 0.388 
0.193339 0.122505 0.38 
0.204648 0.120248 0.373 
0.21803 0.118959 0.369 
0.233372 0.119281 0.37 
0.291718 0.125729 0.39 
1.07419 0.406846 1.262 
1.08263 0.391694 1.215 
1.18785 0.411359 1.276 
1.24261 0.412648 1.28 
-0.385722 0.164312 0.506 
-0.373496 0.167884 0.517 
-0.359567 0.174054 0.536 
-0.347663 0.178924 0.551 
-0.334562 0.183795 0.566 
-0.320265 0.188666 0.581 
-0.306306 0.194511 0.599 
-0.291384 0.200681 0.618 
-0.274083 0.206201 0.635 
-0.257386 0.213345 0.657 
-0.2326 0.214644 0.661 
-0.199433 0.209124 0.644 
-0.106549 0.167559 0.516 
-0.0884766 0.17243 0.531 
-0.0698419 0.178924 0.551 
-0.0503075 0.188017 0.579 
-0.0283054 0.195485 0.602 
-0.0045051 0.204578 0.63 
0.0201864 0.200356 0.617 
0.0436842 0.189316 0.583 
0.0633685 0.179249 0.552 
0.0833649 0.175028 0.539 
0.110045 0.157168 0.484 
0.123729 0.150348 0.463 
0.141054 0.141581 0.436 
0.155444 0.135411 0.417 
0.166822 0.13054 0.402 
0.177846 0.126968 0.391 
0.188981 0.124046 0.382 
0.201003 0.122097 0.376 
0.212547 0.120149 0.37 
0.227298 0.120149 0.37 
0.243358 0.120798 0.372 
0.295217 0.126968 0.391 
1.07398 0.405259 1.248 
1.10213 0.397466 1.224 
1.2017 0.415001 1.278 
1.25167 0.414676 1.277 
-0.386561 0.164844 0.504 
-0.373739 0.168115 0.514 
-0.361757 0.173348 0.53 
-0.35091 0.178581 0.546 
-0.337582 0.18316 0.56 
-0.323137 0.187739 0.574 
-0.309669 0.193627 0.592 
-0.293798 0.19886 0.608 
-0.277982 0.205074 0.627 
-0.261055 0.211616 0.647 
-0.239624 0.21554 0.659 
-0.211408 0.213578 0.653 
-0.124971 0.175965 0.538 
-0.0955463 0.170732 0.522 
-0.0777418 0.1776 0.543 
-0.0584695 0.185123 0.566 
-0.0361041 0.193299 0.591 
-0.0131789 0.203112 0.621 
0.0117096 0.205401 0.628 
0.0347572 0.194281 0.594 
0.0554873 0.184469 0.564 
0.0743783 0.175965 0.538 
0.103576 0.160592 0.491 
0.118135 0.154051 0.471 
0.131681 0.148164 0.453 
0.148156 0.13966 0.427 
0.163318 0.132464 0.405 
0.17459 0.128866 0.394 
0.185468 0.125596 0.384 
0.197117 0.123306 0.377 
0.209334 0.121671 0.372 
0.22296 0.121017 0.37 
0.238996 0.121671 0.372 
0.276944 0.124614 0.381 
1.06983 0.417998 1.278 
1.0743 0.400663 1.225 
1.14973 0.410148 1.254 
1.22555 0.418979 1.281 
-11.1816 3.77512 11.46 
-0.38204 0.167673 0.509 
-0.370276 0.171626 0.521 
-0.358897 0.176238 0.535 
-0.347032 0.181179 0.55 
-0.333971 0.186121 0.565 
-0.31806 0.190074 0.577 
-0.305284 0.196662 0.597 
-0.288996 0.202921 0.616 
-0.271735 0.208521 0.633 
-0.255066 0.215768 0.655 
-0.230001 0.216756 0.658 
-0.199433 0.212145 0.644 
-0.12051 0.176238 0.535 
-0.0930979 0.171956 0.522 
-0.0729157 0.179532 0.545 
-0.0535357 0.187768 0.57 
-0.0295197 0.196991 0.598 
-0.00595407 0.206545 0.627 
0.0187394 0.20325 0.617 
0.04102 0.19238 0.584 
0.0611097 0.182826 0.555 
0.0832103 0.177226 0.538 
0.10148 0.162073 0.492 
0.116418 0.155814 0.473 
0.130414 0.150214 0.456 
0.142114 0.142638 0.433 
0.157238 0.136379 0.414 
0.168896 0.131108 0.398 
0.180121 0.127814 0.388 
0.191557 0.125178 0.38 
0.203443 0.123202 0.374 
0.216018 0.121884 0.37 
0.231393 0.122214 0.371 
0.271762 0.125178 0.38 
0.297051 0.128802 0.391 
1.07756 0.409136 1.242 
1.11165 0.403536 1.225 
1.21069 0.420995 1.278 
1.25868 0.420007 1.275 
-0.381728 0.168203 0.507 
-0.368346 0.172516 0.52 
-0.357642 0.177493 0.535 
-0.345742 0.182469 0.55 
-0.332646 0.187446 0.565 
-0.316707 0.191427 0.577 
-0.303884 0.198062 0.597 
-0.286572 0.204697 0.617 
-0.269191 0.210337 0.634 
-0.252379 0.217636 0.656 
-0.22657 0.217968 0.657 
-0.143695 0.179815 0.542 
-0.109966 0.170858 0.515 
-0.0908232 0.173512 0.523 
-0.0727819 0.180479 0.544 
-0.0533479 0.188441 0.568 
-0.0320002 0.196403 0.592 
-0.00882399 0.206356 0.622 
0.0158968 0.205361 0.619 
0.0384775 0.194744 0.587 
0.0587174 0.184792 0.557 
0.0791299 0.177825 0.536 
0.098616 0.164222 0.495 
0.113569 0.157587 0.475 
0.127485 0.151615 0.457 
0.13971 0.144317 0.435 
0.151532 0.138345 0.417 
0.163318 0.134364 0.405 
0.173704 0.130051 0.392 
0.185468 0.127397 0.384 
0.197117 0.125074 0.377 
0.209334 0.123416 0.372 
0.223562 0.123084 0.371 
0.239638 0.123747 0.373 
0.280194 0.127065 0.383 
1.06862 0.415366 1.252 
1.07654 0.399774 1.205 
1.18711 0.422002 1.272 
1.24366 0.423992 1.278 
-0.385794 0.168056 0.503 
-0.371328 0.171731 0.514 
-0.360392 0.176409 0.528 
-0.349625 0.181754 0.544 
-0.336376 0.186432 0.558 
-0.322011 0.191109 0.572 
-0.308099 0.196789 0.589 
-0.292349 0.202135 0.605 
-0.276209 0.208149 0.623 
-0.259844 0.215165 0.644 
-0.238533 0.219174 0.656 
-0.210113 0.216836 0.649 
-0.130791 0.179082 0.536 
-0.0990961 0.172065 0.515 
-0.0814626 0.178413 0.534 
-0.0622014 0.184427 0.552 
-0.0423788 0.194451 0.582 
-0.0199993 0.202803 0.607 
0.00434581 0.209819 0.628 
0.0279792 0.199796 0.598 
0.0493939 0.190441 0.57 
0.0699372 0.178079 0.533 
0.0929469 0.167722 0.502 
0.110032 0.160037 0.479 
0.123737 0.153355 0.459 
0.136466 0.147341 0.441 
0.14811 0.141662 0.424 
0.160865 0.135648 0.406 
0.173225 0.131304 0.393 
0.184568 0.128297 0.384 
0.196233 0.125958 0.377 
0.209022 0.124622 0.373 
0.222692 0.123954 0.371 
0.238763 0.124622 0.373 
0.275157 0.127295 0.381 
1.06776 0.417968 1.251 
1.07386 0.401597 1.202 
1.18711 0.424985 1.272 
1.24269 0.426655 1.277 
-0.384615 0.169236 0.503 
-0.371084 0.172264 0.512 
-0.36026 0.176974 0.526 
-0.350256 0.182694 0.543 
-0.335869 0.186731 0.555 
-0.321657 0.191442 0.569 
-0.307904 0.197161 0.586 
-0.292796 0.202881 0.603 
-0.276333 0.208601 0.62 
-0.259731 0.21533 0.64 
-0.239339 0.22004 0.654 
-0.211635 0.218358 0.649 
-0.132048 0.180339 0.536 
-0.100723 0.171927 0.511 
-0.083181 0.177983 0.529 
-0.0645557 0.185049 0.55 
-0.0446435 0.193797 0.576 
-0.0225829 0.201872 0.6 
0.00139804 0.210956 0.627 
0.0279324 0.200862 0.597 
0.0493072 0.191442 0.569 
0.0696747 0.178656 0.531 
0.0945421 0.167553 0.498 
0.109802 0.160824 0.478 
0.123467 0.154095 0.458 
0.139389 0.14602 0.434 
0.150554 0.140301 0.417 
0.162511 0.13559 0.403 
0.173261 0.131553 0.391 
0.184985 0.128861 0.383 
0.197117 0.126843 0.377 
0.209897 0.125497 0.373 
0.224165 0.12516 0.372 
0.239638 0.125497 0.373 
0.26058 0.127179 0.378 
0.296291 0.131217 0.39 
1.06829 0.413164 1.228 
1.10451 0.408453 1.214 
1.21369 0.429986 1.278 
1.25771 0.427631 1.271 
-0.379469 0.170754 0.504 
-0.367933 0.17482 0.516 
-0.355636 0.18024 0.532 
-0.343227 0.184984 0.546 
-0.329702 0.189727 0.56 
-0.31506 0.19447 0.574 
-0.301339 0.200568 0.592 
-0.285712 0.206328 0.609 
-0.26916 0.212426 0.627 
-0.25234 0.219541 0.648 
-0.227904 0.220896 0.652 
-0.199433 0.218186 0.644 
-0.12288 0.179224 0.529 
-0.094265 0.174481 0.515 
-0.0767396 0.181596 0.536 
-0.0574365 0.188372 0.556 
-0.0369827 0.197519 0.583 
-0.0143524 0.206328 0.609 
0.0101554 0.211071 0.623 
0.0331957 0.200229 0.591 
0.0633745 0.18329 0.541 
0.0897713 0.170754 0.504 
0.105505 0.163978 0.484 
0.119386 0.156863 0.463 
0.135847 0.148732 0.439 
0.148049 0.142634 0.421 
0.159913 0.137552 0.406 
0.170894 0.133486 0.394 
0.183667 0.130098 0.384 
0.195867 0.128066 0.378 
0.208147 0.126372 0.373 
0.223018 0.126372 0.373 
0.238526 0.12671 0.374 
0.25547 0.127727 0.377 
0.2775 0.12976 0.383 
1.06568 0.424175 1.252 
1.07207 0.406557 1.2 
1.18711 0.430951 1.272 
1.24074 0.431967 1.275 
-0.381496 0.171254 0.502 
-0.369403 0.175006 0.513 
-0.358473 0.179782 0.527 
-0.347709 0.185241 0.543 
-0.332666 0.188993 0.554 
-0.318988 0.19411 0.569 
-0.305156 0.19991 0.586 
-0.29093 0.206391 0.605 
-0.272984 0.211167 0.619 
-0.257131 0.218673 0.641 
-0.234827 0.221743 0.65 
-0.207306 0.220037 0.645 
-0.134562 0.182853 0.536 
-0.101523 0.173642 0.509 
-0.0837832 0.1791 0.525 
-0.0654864 0.186605 0.547 
-0.044411 0.195475 0.573 
-0.02247 0.203662 0.597 
0.00139135 0.212873 0.624 
0.0251323 0.203662 0.597 
0.055702 0.188652 0.553 
0.0742341 0.180123 0.528 
0.101591 0.166137 0.487 
0.116037 0.159314 0.467 
0.132629 0.150785 0.442 
0.144472 0.144986 0.425 
0.155719 0.139869 0.41 
0.168047 0.135093 0.396 
0.181003 0.131681 0.386 
0.193339 0.129634 0.38 
0.205746 0.127929 0.375 
0.219519 0.127246 0.373 
0.235018 0.127587 0.374 
0.251265 0.12827 0.376 
0.269088 0.129634 0.38 
0.289474 0.132022 0.387 
1.06114 0.412783 1.21 
1.13964 0.424041 1.243 
1.22268 0.435981 1.278 
-0.39247 0.171057 0.498 
-0.374594 0.174148 0.507 
-0.362769 0.17827 0.519 
-0.352623 0.183766 0.535 
-0.339344 0.188231 0.548 
-0.325608 0.19304 0.562 
-0.310478 0.198536 0.578 
-0.296883 0.205062 0.597 
-0.280401 0.210558 0.613 
-0.262643 0.216054 0.629 
-0.244364 0.222237 0.647 
-0.218907 0.22258 0.648 
-0.141373 0.184797 0.538 
-0.107831 0.173461 0.505 
-0.0896076 0.17724 0.516 
-0.0718454 0.184453 0.537 
-0.0524087 0.191666 0.558 
-0.0316759 0.201284 0.586 
-0.00869631 0.210558 0.613 
0.0157171 0.210215 0.612 
0.0393109 0.19888 0.579 
0.0694123 0.181705 0.529 
0.0912212 0.171401 0.499 
0.106662 0.164531 0.479 
0.120508 0.157661 0.459 
0.134093 0.151135 0.44 
0.145776 0.145295 0.423 
0.156489 0.1398 0.407 
0.168549 0.135678 0.395 
0.181437 0.132243 0.385 
0.19423 0.130525 0.38 
0.206625 0.128808 0.375 
0.220394 0.128121 0.373 
0.236526 0.128808 0.375 
0.252818 0.129495 0.377 
0.269979 0.130525 0.38 
0.290381 0.13293 0.387 
1.05831 0.415621 1.21 
1.13581 0.426612 1.242 
1.21873 0.438634 1.277 
1.25572 0.433825 1.263 
-0.373405 0.175337 0.507 
-0.361552 0.179487 0.519 
-0.348904 0.185712 0.537 
-0.335423 0.190208 0.55 
-0.322046 0.195396 0.565 
-0.308002 0.200929 0.581 
-0.293664 0.207154 0.599 
-0.276989 0.212687 0.615 
-0.25986 0.218912 0.633 
-0.239812 0.223754 0.647 
-0.213356 0.223062 0.645 
-0.131063 0.183983 0.532 
-0.100329 0.176029 0.509 
-0.0822375 0.180871 0.523 
-0.0639689 0.188479 0.545 
-0.0440235 0.196433 0.568 
-0.0223194 0.205079 0.593 
0.00138243 0.214417 0.62 
0.0250481 0.205771 0.595 
0.0566897 0.190208 0.55 
0.0747576 0.180871 0.523 
0.0929992 0.171533 0.496 
0.108226 0.164617 0.476 
0.122126 0.158046 0.457 
0.134511 0.151475 0.438 
0.146074 0.145596 0.421 
0.158008 0.140408 0.406 
0.169475 0.136604 0.395 
0.181003 0.133492 0.386 
0.193339 0.131417 0.38 
0.206294 0.130033 0.376 
0.220108 0.129342 0.374 
0.236275 0.130033 0.376 
0.253702 0.130379 0.377 
0.271583 0.131762 0.381 
0.291289 0.133837 0.387 
0.330346 0.140408 0.406 
1.13764 0.430217 1.244 
1.21778 0.441283 1.276 
1.25473 0.436442 1.262 
-0.374742 0.175482 0.504 
-0.363092 0.17966 0.516 
-0.350712 0.185927 0.534 
-0.337442 0.190454 0.547 
-0.323136 0.19498 0.56 
-0.309404 0.200551 0.576 
-0.294397 0.206122 0.592 
-0.279029 0.212389 0.61 
-0.261808 0.218308 0.627 
-0.243231 0.224227 0.644 
-0.218232 0.224923 0.646 
-0.142104 0.186624 0.536 
-0.107617 0.175482 0.504 
-0.0870184 0.179312 0.515 
-0.0693266 0.186972 0.537 
-0.0498807 0.194632 0.559 
-0.0289273 0.204033 0.586 
-0.00581163 0.213085 0.612 
0.0184357 0.211344 0.607 
0.0403176 0.199854 0.574 
0.063023 0.18732 0.538 
0.0808607 0.179312 0.515 
0.0966676 0.170956 0.491 
0.112134 0.163296 0.469 
0.125253 0.156332 0.449 
0.138053 0.150761 0.433 
0.149832 0.144494 0.415 
0.161165 0.139968 0.402 
0.172344 0.136138 0.391 
0.184568 0.133701 0.384 
0.196233 0.131263 0.377 
0.209582 0.130219 0.374 
0.225093 0.130567 0.375 
0.240684 0.130915 0.376 
0.259285 0.132308 0.38 
0.276602 0.133352 0.383 
0.297206 0.13579 0.39 
1.07178 0.419903 1.206 
1.18413 0.442883 1.272 
1.22901 0.440794 1.266 
-0.378861 0.17421 0.497 
-0.367716 0.178417 0.509 
-0.356297 0.182973 0.522 
-0.345769 0.188582 0.538 
-0.331554 0.192788 0.55 
-0.318071 0.198046 0.565 
-0.304438 0.204005 0.582 
-0.289933 0.210314 0.6 
-0.273105 0.215923 0.616 
-0.256617 0.222933 0.636 
-0.234533 0.226088 0.645 
-0.206552 0.223634 0.638 
-0.131564 0.185427 0.529 
-0.0979415 0.178417 0.509 
-0.0799371 0.183674 0.524 
-0.0615253 0.191386 0.546 
-0.0412865 0.198747 0.567 
-0.019571 0.208211 0.594 
0.00427661 0.216624 0.618 
0.0276049 0.206809 0.59 
0.0485273 0.196293 0.56 
0.0670576 0.185778 0.53 
0.0843606 0.177715 0.507 
0.101889 0.169303 0.483 
0.119171 0.16054 0.458 
0.134511 0.153529 0.438 
0.14538 0.146869 0.419 
0.156669 0.141962 0.405 
0.168549 0.138457 0.395 
0.180097 0.135302 0.386 
0.192448 0.133199 0.38 
0.207176 0.131797 0.376 
0.222166 0.131797 0.376 
0.238038 0.131797 0.376 
0.257503 0.133199 0.38 
0.274805 0.134251 0.383 
0.299035 0.136704 0.39 
0.897997 0.369802 1.055 
1.11854 0.434299 1.239 
1.2047 0.447969 1.278 
1.23698 0.441309 1.259 
-0.377288 0.175729 0.498 
-0.366046 0.179963 0.51 
-0.353848 0.184198 0.522 
-0.343883 0.190196 0.539 
-0.328974 0.194078 0.55 
-0.315979 0.199724 0.566 
-0.301708 0.20537 0.582 
-0.287597 0.212074 0.601 
-0.270655 0.21772 0.617 
-0.254032 0.224777 0.637 
-0.231508 0.2276 0.645 
-0.20324 0.224777 0.637 
-0.128351 0.185609 0.526 
-0.0991352 0.17961 0.509 
-0.0808561 0.184198 0.522 
-0.0624607 0.191608 0.543 
-0.0424659 0.199371 0.565 
-0.0208582 0.208545 0.591 
0.00282272 0.21772 0.617 
0.0262657 0.208545 0.591 
0.0472983 0.197959 0.561 
0.0659389 0.187373 0.531 
0.0834997 0.17961 0.509 
0.0988985 0.171141 0.485 
0.118355 0.161967 0.459 
0.134204 0.154204 0.437 
0.146014 0.147499 0.418 
0.15723 0.142559 0.404 
0.169046 0.13903 0.394 
0.181003 0.136207 0.386 
0.193339 0.13409 0.38 
0.206294 0.132679 0.376 
0.221285 0.132679 0.376 
0.236275 0.132679 0.376 
0.254159 0.133737 0.379 
0.27069 0.134443 0.381 
0.296443 0.137266 0.389 
0.328582 0.142912 0.405 
1.03332 0.413562 1.172 
1.19178 0.450613 1.277 
1.22615 0.444615 1.26 
-0.379281 0.17512 0.493 
-0.368379 0.179383 0.505 
-0.356521 0.183646 0.517 
-0.342619 0.19146 0.539 
-0.327684 0.195368 0.55 
-0.314651 0.201051 0.566 
-0.300343 0.206735 0.582 
-0.285711 0.213128 0.6 
-0.269208 0.219167 0.617 
-0.252538 0.226271 0.637 
-0.229639 0.228758 0.644 
-0.20143 0.225916 0.636 
-0.121022 0.185066 0.521 
-0.0943605 0.180804 0.509 
-0.076396 0.186487 0.525 
-0.0530434 0.195723 0.551 
-0.0314597 0.206735 0.582 
-0.00855444 0.214194 0.603 
0.01564 0.216325 0.609 
0.0376253 0.203893 0.574 
0.0594581 0.191816 0.54 
0.0773874 0.18329 0.516 
0.093403 0.174765 0.492 
0.108654 0.168016 0.473 
0.134919 0.154873 0.436 
0.146912 0.147414 0.415 
0.159824 0.142441 0.401 
0.171427 0.138889 0.391 
0.184985 0.136047 0.383 
0.19764 0.134271 0.378 
0.211585 0.13356 0.376 
0.227178 0.133916 0.377 
0.242208 0.133916 0.377 
0.259285 0.134981 0.38 
0.277324 0.136402 0.384 
0.302552 0.138889 0.391 
0.33225 0.144217 0.406 
0.947305 0.385762 1.086 
1.17887 0.453253 1.276 
1.22107 0.450056 1.267 
-0.383499 0.175562 0.491 
-0.372077 0.179495 0.502 
-0.361181 0.184143 0.515 
-0.345533 0.188791 0.528 
-0.330423 0.195227 0.546 
-0.317134 0.200591 0.561 
-0.30099 0.206669 0.578 
-0.284304 0.214535 0.6 
-0.267761 0.220614 0.617 
-0.25065 0.227408 0.636 
-0.22742 0.229553 0.642 
-0.199938 0.227408 0.636 
-0.112266 0.181998 0.509 
-0.0919731 0.181998 0.509 
-0.0740744 0.188076 0.526 
-0.0505506 0.197373 0.552 
-0.0261341 0.209172 0.585 
-0.00292672 0.217754 0.609 
0.0222199 0.21239 0.594 
0.0436605 0.202021 0.565 
0.0669311 0.189149 0.529 
0.0848747 0.179852 0.503 
0.100339 0.171986 0.481 
0.12641 0.158041 0.442 
0.141788 0.150175 0.42 
0.156841 0.144096 0.403 
0.169046 0.140878 0.394 
0.18234 0.13766 0.385 
0.196386 0.135515 0.379 
0.209821 0.134442 0.376 
0.22541 0.1348 0.377 
0.24044 0.1348 0.377 
0.257503 0.135872 0.38 
0.274805 0.136945 0.383 
0.302552 0.139806 0.391 
0.329532 0.144811 0.405 
0.936138 0.385806 1.079 
1.17473 0.456961 1.278 
1.21897 0.454458 1.271 
-0.384231 0.175993 0.489 
-0.37294 0.179952 0.5 
-0.361478 0.184271 0.512 
-0.347727 0.18787 0.522 
-0.338816 0.194708 0.541 
-0.323111 0.198307 0.551 
-0.309136 0.206225 0.573 
-0.292288 0.210544 0.585 
-0.275262 0.218822 0.608 
-0.258041 0.22494 0.625 
-0.2376 0.229259 0.637 
-0.212537 0.229619 0.638 
-0.125426 0.18679 0.519 
-0.101909 0.181752 0.505 
-0.0833951 0.185351 0.515 
-0.0651824 0.192189 0.534 
-0.0433259 0.201187 0.559 
-0.0221313 0.211624 0.588 
0.00136014 0.219542 0.61 
0.0248376 0.212344 0.59 
0.0458188 0.201187 0.559 
0.0677851 0.18931 0.526 
0.084706 0.180672 0.502 
0.10013 0.172754 0.48 
0.1249 0.159798 0.444 
0.138492 0.152959 0.425 
0.153625 0.146481 0.407 
0.165261 0.142522 0.396 
0.176934 0.139283 0.387 
0.18938 0.137124 0.381 
0.202422 0.135684 0.377 
0.217452 0.135684 0.377 
0.233716 0.136404 0.379 
0.248826 0.136404 0.379 
0.265329 0.137124 0.381 
0.288566 0.139283 0.387 
0.3181 0.143602 0.399 
0.901402 0.381139 1.059 
1.15705 0.462477 1.285 
1.20452 0.461037 1.281 
1.22521 0.44988 1.25 
-0.376968 0.178589 0.493 
-0.364362 0.183298 0.506 
-0.351671 0.187283 0.517 
-0.341305 0.193079 0.533 
-0.327261 0.197426 0.545 
-0.315064 0.203584 0.562 
-0.299428 0.208293 0.575 
-0.28564 0.215176 0.594 
-0.269456 0.221334 0.611 
-0.252718 0.228217 0.63 
-0.230491 0.231115 0.638 
-0.204734 0.230753 0.637 
-0.11842 0.186558 0.515 
-0.0953664 0.184023 0.508 
-0.0770357 0.188732 0.521 
-0.0561968 0.197064 0.544 
-0.0359677 0.205395 0.567 
-0.0139753 0.214814 0.593 
0.00995977 0.221334 0.611 
0.0349939 0.208293 0.575 
0.0559682 0.196701 0.543 
0.0739 0.187283 0.517 
0.0903071 0.178951 0.494 
0.105326 0.171344 0.473 
0.129375 0.158665 0.438 
0.142433 0.151783 0.419 
0.156841 0.145987 0.403 
0.168617 0.142364 0.393 
0.181003 0.139828 0.386 
0.193339 0.137655 0.38 
0.206843 0.136568 0.377 
0.222462 0.13693 0.378 
0.23816 0.137293 0.379 
0.253938 0.137655 0.38 
0.270504 0.138379 0.382 
0.301635 0.14164 0.391 
0.32696 0.145987 0.403 
0.936929 0.390143 1.077 
1.17932 0.464766 1.283 
1.21609 0.459332 1.268 
-0.383084 0.178287 0.489 
-0.368545 0.183027 0.502 
-0.356169 0.187037 0.513 
-0.342915 0.191048 0.524 
-0.333086 0.19761 0.542 
-0.318949 0.20235 0.555 
-0.305379 0.208184 0.571 
-0.289544 0.213288 0.585 
-0.275323 0.22058 0.605 
-0.257431 0.226049 0.62 
-0.237967 0.231153 0.634 
-0.213362 0.231882 0.636 
-0.123012 0.187402 0.514 
-0.0991463 0.183391 0.503 
-0.0809796 0.187766 0.515 
-0.0605111 0.195787 0.537 
-0.040704 0.203808 0.559 
-0.0193733 0.214382 0.588 
0.00421433 0.222038 0.609 
0.0312176 0.211465 0.58 
0.0515303 0.200527 0.55 
0.069718 0.190318 0.522 
0.0871831 0.180839 0.496 
0.10621 0.172089 0.472 
0.122817 0.16188 0.444 
0.139163 0.153494 0.421 
0.150762 0.14839 0.407 
0.162885 0.144744 0.397 
0.174661 0.141463 0.388 
0.18719 0.139275 0.382 
0.20083 0.138181 0.379 
0.21594 0.138181 0.379 
0.23255 0.138546 0.38 
0.2477 0.138546 0.38 
0.264233 0.139275 0.382 
0.288566 0.141098 0.387 
0.313712 0.144744 0.397 
0.898918 0.386106 1.059 
1.15551 0.470327 1.29 
1.19945 0.46741 1.282 
1.21837 0.455379 1.249 
-0.376204 0.180534 0.492 
-0.362922 0.184938 0.504 
-0.350991 0.189341 0.516 
-0.340025 0.194845 0.531 
-0.326661 0.199615 0.544 
-0.313382 0.205119 0.559 
-0.298907 0.210623 0.574 
-0.284198 0.216861 0.591 
-0.268574 0.223466 0.609 
-0.251916 0.230438 0.628 
-0.229408 0.233007 0.635 
-0.204413 0.233374 0.636 
-0.0965946 0.184204 0.502 
-0.0787166 0.189341 0.516 
-0.0582084 0.197781 0.539 
-0.0381502 0.205486 0.56 
-0.0166437 0.216128 0.589 
0.00707075 0.223466 0.609 
0.0299604 0.213559 0.582 
0.0514366 0.20145 0.549 
0.0695844 0.191176 0.521 
0.0879901 0.181268 0.494 
0.106635 0.172095 0.469 
0.125838 0.161454 0.44 
0.142731 0.153014 0.417 
0.154951 0.147877 0.403 
0.167695 0.144207 0.393 
0.180097 0.141639 0.386 
0.192448 0.139437 0.38 
0.206505 0.138703 0.378 
0.222747 0.139437 0.38 
0.241462 0.139437 0.38 
0.257962 0.140171 0.382 
0.282389 0.141639 0.386 
0.301635 0.143473 0.391 
0.32696 0.147877 0.403 
0.939455 0.395194 1.077 
1.18182 0.472985 1.289 
1.21598 0.46638 1.271 
-0.382659 0.179842 0.487 
-0.366191 0.185381 0.502 
-0.353763 0.189443 0.513 
-0.341757 0.194244 0.526 
-0.329325 0.199414 0.54 
-0.316916 0.205322 0.556 
-0.301641 0.210123 0.569 
-0.2868 0.216032 0.585 
-0.272935 0.223787 0.606 
-0.255344 0.229695 0.622 
-0.233882 0.233019 0.631 
-0.209387 0.233757 0.633 
-0.107144 0.181319 0.491 
-0.0860046 0.187966 0.509 
-0.0679066 0.194244 0.526 
-0.0489884 0.202737 0.549 
-0.028335 0.21197 0.574 
-0.00568818 0.221202 0.599 
0.0181623 0.220832 0.598 
0.039545 0.207907 0.563 
0.0591278 0.198306 0.537 
0.0803156 0.18612 0.504 
0.0985921 0.176518 0.478 
0.118405 0.16507 0.447 
0.137848 0.1551 0.42 
0.149807 0.150299 0.407 
0.161954 0.146606 0.397 
0.174199 0.143652 0.389 
0.186782 0.141436 0.383 
0.200468 0.140328 0.38 
0.215618 0.140328 0.38 
0.233774 0.141067 0.382 
0.248352 0.140698 0.381 
0.264925 0.141436 0.383 
0.288566 0.142913 0.387 
0.310279 0.145868 0.395 
0.346822 0.152145 0.412 
1.16302 0.478224 1.295 
1.20339 0.473793 1.283 
1.21641 0.459391 1.244 
-0.362659 0.186558 0.502 
-0.350836 0.191018 0.514 
-0.339984 0.196592 0.529 
-0.326731 0.201424 0.542 
-0.31413 0.20737 0.558 
-0.298684 0.212201 0.571 
-0.284134 0.218519 0.588 
-0.269115 0.22558 0.607 
-0.252582 0.23264 0.626 
-0.229442 0.234499 0.631 
-0.204933 0.235242 0.633 
-0.105561 0.181727 0.489 
-0.0875237 0.187302 0.504 
-0.0698385 0.193991 0.522 
-0.0510937 0.202167 0.544 
-0.0306488 0.210714 0.567 
-0.00841258 0.220377 0.593 
0.0154089 0.222978 0.6 
0.0371009 0.210343 0.566 
0.0569253 0.20068 0.54 
0.0763376 0.18916 0.509 
0.0956276 0.178382 0.48 
0.127762 0.162031 0.436 
0.144267 0.153483 0.413 
0.156452 0.149395 0.402 
0.168188 0.145679 0.392 
0.181003 0.143449 0.386 
0.193339 0.141219 0.38 
0.210271 0.141219 0.38 
0.226607 0.141963 0.382 
0.241837 0.141963 0.382 
0.257739 0.142334 0.383 
0.275147 0.143449 0.386 
0.293862 0.144193 0.388 
0.317303 0.147909 0.398 
0.910569 0.3943 1.061 
1.17304 0.481633 1.296 
1.20959 0.475687 1.28 
1.21925 0.460078 1.238 
-0.359843 0.18811 0.503 
-0.348571 0.192971 0.516 
-0.337534 0.198581 0.531 
-0.323514 0.203069 0.543 
-0.31076 0.209052 0.559 
-0.295699 0.214288 0.573 
-0.280473 0.220271 0.589 
-0.265281 0.227377 0.608 
-0.248574 0.234483 0.627 
-0.22429 0.23523 0.629 
-0.20048 0.236726 0.633 
-0.105835 0.181378 0.485 
-0.0893526 0.187362 0.501 
-0.0717329 0.193719 0.518 
-0.0533495 0.202321 0.541 
-0.0330145 0.210174 0.562 
-0.0111184 0.220271 0.589 
0.0126366 0.225133 0.602 
0.0348722 0.214288 0.573 
0.054594 0.202695 0.542 
0.0740955 0.190727 0.51 
0.0899844 0.181752 0.486 
