# .PCD v.7 - Point Cloud Data file format
VERSION .7
FIELDS x y z
SIZE 4 4 4
TYPE F F F
COUNT 1 1 1
WIDTH 1834
HEIGHT 1
VIEWPOINT 0 0 0 1 0 0 0
POINTS 1834
DATA ascii
0.0234863 -0.421614 0.838 
0.0575746 -0.426645 0.848 
0.432035 -0.529784 1.053 
0.500921 -0.556953 1.107 
0.564801 -0.555946 1.105 
0.610508 -0.557456 1.108 
0.657045 -0.559468 1.112 
0.70264 -0.560475 1.114 
0.747723 -0.560978 1.115 
0.792176 -0.560978 1.115 
0.838129 -0.561984 1.117 
0.884242 -0.56299 1.119 
0.927194 -0.561984 1.117 
0.971727 -0.561984 1.117 
1.02172 -0.565003 1.123 
1.06839 -0.566009 1.125 
1.11819 -0.568524 1.13 
-0.495451 -0.328508 0.656 
-0.502206 -0.351543 0.702 
-0.508493 -0.379587 0.758 
-0.518655 -0.411636 0.822 
-0.526669 -0.44619 0.891 
-0.541309 -0.49176 0.982 
-0.5391 -0.532823 1.064 
-0.500415 -0.53683 1.072 
-0.458103 -0.53733 1.073 
-0.416099 -0.538332 1.075 
-0.372894 -0.537831 1.074 
-0.0253106 -0.199809 0.399 
0.0396762 -0.424656 0.848 
0.0708845 -0.409633 0.818 
0.449042 -0.538833 1.076 
0.506113 -0.554357 1.107 
0.550247 -0.554357 1.107 
0.595454 -0.555358 1.109 
0.641975 -0.557361 1.113 
0.684498 -0.555859 1.11 
0.732034 -0.558363 1.115 
0.77788 -0.559364 1.117 
0.821676 -0.558864 1.116 
0.868497 -0.560366 1.119 
0.910661 -0.558864 1.116 
0.957721 -0.560366 1.119 
1.00592 -0.562369 1.123 
1.05256 -0.563371 1.125 
1.10131 -0.565374 1.129 
-0.48795 -0.309524 0.621 
-0.496898 -0.338433 0.679 
-0.505117 -0.363853 0.73 
-0.521082 -0.39974 0.802 
-0.526919 -0.430642 0.864 
-0.538643 -0.471015 0.945 
-0.55345 -0.52036 1.044 
-0.524574 -0.533319 1.07 
-0.483267 -0.534814 1.073 
-0.440899 -0.535312 1.074 
-0.398822 -0.536309 1.076 
-0.355594 -0.535811 1.075 
0.021367 -0.414693 0.832 
0.0568277 -0.417185 0.837 
0.645613 -1.10701 2.221 
0.485344 -0.551761 1.107 
0.529956 -0.552259 1.108 
0.57413 -0.552259 1.108 
0.618861 -0.552757 1.109 
0.664271 -0.553754 1.111 
0.711753 -0.556246 1.116 
0.756245 -0.556246 1.116 
0.800738 -0.556246 1.116 
0.847503 -0.557742 1.119 
0.892115 -0.557742 1.119 
0.936727 -0.557742 1.119 
0.981339 -0.557742 1.119 
1.03145 -0.560732 1.125 
1.07726 -0.561231 1.126 
-0.482499 -0.296658 0.598 
-0.494626 -0.326919 0.659 
-0.502225 -0.351723 0.709 
-0.508052 -0.377023 0.76 
-0.520436 -0.412245 0.831 
-0.528354 -0.446971 0.901 
-0.542715 -0.492611 0.993 
-0.538593 -0.527337 1.063 
-0.500881 -0.532298 1.073 
-0.45853 -0.532794 1.074 
-0.416486 -0.533786 1.076 
-0.372547 -0.532298 1.073 
-0.331305 -0.534778 1.078 
0.0566241 -0.413734 0.834 
0.634052 -1.09982 2.217 
0.482748 -0.549164 1.107 
0.527358 -0.549661 1.108 
0.571015 -0.549164 1.107 
0.616261 -0.550157 1.109 
0.662261 -0.551645 1.112 
0.7085 -0.553133 1.115 
0.753628 -0.553629 1.116 
0.798121 -0.553629 1.116 
0.844879 -0.555117 1.119 
0.889491 -0.555117 1.119 
0.934103 -0.555117 1.119 
0.978715 -0.555117 1.119 
1.02881 -0.558094 1.125 
1.07462 -0.55859 1.126 
1.12349 -0.560574 1.13 
-0.486987 -0.312536 0.633 
-0.497578 -0.341173 0.691 
-0.501319 -0.363885 0.737 
-0.519334 -0.401903 0.814 
-0.523368 -0.432021 0.875 
-0.539285 -0.476951 0.966 
-0.545874 -0.519907 1.053 
-0.514899 -0.531262 1.076 
-0.471124 -0.530275 1.074 
-0.429103 -0.531262 1.076 
-0.386205 -0.531262 1.076 
-0.343626 -0.531756 1.077 
0.0690648 -0.393509 0.797 
0.648771 -1.09314 2.214 
0.490536 -0.546568 1.107 
0.535153 -0.547062 1.108 
0.579849 -0.547556 1.109 
0.625188 -0.548543 1.111 
0.669482 -0.548543 1.111 
0.71763 -0.551506 1.117 
0.762162 -0.551506 1.117 
0.805973 -0.551012 1.116 
0.852751 -0.552493 1.119 
0.897364 -0.552493 1.119 
0.941976 -0.552493 1.119 
0.98747 -0.552987 1.12 
1.03765 -0.555949 1.126 
1.0835 -0.556443 1.127 
-0.480885 -0.29287 0.596 
-0.485503 -0.311052 0.633 
-0.495586 -0.337096 0.686 
-0.499634 -0.3597 0.732 
-0.518681 -0.398028 0.81 
-0.523618 -0.428495 0.872 
-0.536505 -0.470263 0.957 
-0.54626 -0.515471 1.049 
-0.517422 -0.528739 1.076 
-0.473642 -0.527756 1.074 
-0.431627 -0.528739 1.076 
-0.388729 -0.528739 1.076 
-0.346152 -0.52923 1.077 
0.0714328 -0.384269 0.782 
0.44981 -0.544955 1.109 
0.493578 -0.544464 1.108 
0.537751 -0.544464 1.108 
0.58245 -0.544955 1.109 
0.627794 -0.545938 1.111 
0.672087 -0.545938 1.111 
0.720249 -0.548886 1.117 
0.764782 -0.548886 1.117 
0.809314 -0.548886 1.117 
0.855376 -0.549869 1.119 
0.899988 -0.549869 1.119 
0.945444 -0.55036 1.12 
0.990096 -0.55036 1.12 
1.04029 -0.553309 1.126 
1.08615 -0.5538 1.127 
-0.480435 -0.289516 0.592 
-0.484783 -0.310056 0.634 
-0.494296 -0.333531 0.682 
-0.500666 -0.357494 0.731 
-0.517965 -0.392706 0.803 
-0.524682 -0.424005 0.867 
-0.535906 -0.463618 0.948 
-0.547502 -0.509588 1.042 
-0.521498 -0.525238 1.074 
-0.478234 -0.524749 1.073 
-0.436673 -0.526216 1.076 
-0.394141 -0.526705 1.077 
-0.350878 -0.526216 1.076 
0.0789576 -0.366297 0.749 
0.475818 -0.542354 1.109 
0.520031 -0.542354 1.109 
0.563227 -0.541376 1.107 
0.608458 -0.542354 1.109 
0.655614 -0.5448 1.114 
0.699399 -0.54431 1.113 
0.745108 -0.545289 1.115 
0.790977 -0.546267 1.117 
0.837754 -0.547734 1.12 
0.882406 -0.547734 1.12 
0.92623 -0.547245 1.119 
0.97171 -0.547734 1.12 
1.0209 -0.550179 1.125 
1.06765 -0.551157 1.127 
1.11554 -0.552624 1.13 
-0.486006 -0.304676 0.626 
-0.494191 -0.326578 0.671 
-0.502271 -0.350913 0.721 
-0.516216 -0.382548 0.786 
-0.52066 -0.410777 0.844 
-0.530289 -0.44728 0.919 
-0.541994 -0.491083 1.009 
-0.529119 -0.517852 1.064 
-0.490816 -0.522232 1.073 
-0.448873 -0.523206 1.075 
-0.40677 -0.524179 1.077 
-0.362481 -0.522232 1.073 
0.0712055 -0.369894 0.76 
0.47104 -0.54024 1.11 
0.515294 -0.54024 1.11 
0.558539 -0.539267 1.108 
0.603801 -0.54024 1.11 
0.650389 -0.542187 1.114 
0.693555 -0.541214 1.112 
0.739879 -0.542674 1.115 
0.785738 -0.543647 1.117 
0.832501 -0.545107 1.12 
0.87637 -0.54462 1.119 
0.920982 -0.54462 1.119 
0.968183 -0.546081 1.122 
1.01562 -0.547541 1.125 
1.06236 -0.548514 1.127 
1.10926 -0.549487 1.129 
-0.485818 -0.30127 0.622 
-0.495026 -0.32452 0.67 
-0.501865 -0.347769 0.718 
-0.514764 -0.378283 0.781 
-0.517685 -0.404923 0.836 
-0.527809 -0.44125 0.911 
-0.540045 -0.484842 1.001 
-0.530115 -0.513903 1.061 
-0.493792 -0.5202 1.074 
-0.451814 -0.521169 1.076 
-0.409296 -0.521653 1.077 
-0.365338 -0.5202 1.074 
0.0797442 -0.358425 0.74 
0.486221 -0.537153 1.109 
0.531391 -0.538121 1.111 
0.574648 -0.537153 1.109 
0.620536 -0.538606 1.112 
0.664869 -0.538606 1.112 
0.711115 -0.540059 1.115 
0.756245 -0.540543 1.116 
0.801456 -0.541028 1.117 
0.84826 -0.542481 1.12 
0.892115 -0.541996 1.119 
0.937564 -0.542481 1.12 
0.982216 -0.542481 1.12 
1.03237 -0.545387 1.126 
1.07822 -0.545871 1.127 
-0.481062 -0.282459 0.586 
-0.484783 -0.305596 0.634 
-0.498203 -0.337891 0.701 
-0.507151 -0.364401 0.756 
-0.516131 -0.394286 0.818 
-0.524305 -0.427545 0.887 
-0.535796 -0.468516 0.972 
-0.537954 -0.507077 1.052 
-0.5078 -0.519127 1.077 
-0.464431 -0.518645 1.076 
-0.421925 -0.519127 1.077 
-0.378283 -0.518163 1.075 
-0.336673 -0.520091 1.079 
0.458437 -0.535516 1.111 
0.502278 -0.535034 1.11 
0.546531 -0.535034 1.11 
0.591317 -0.535516 1.111 
0.636755 -0.53648 1.113 
0.679904 -0.535516 1.111 
0.728108 -0.538408 1.117 
0.774024 -0.539372 1.119 
0.818636 -0.539372 1.119 
0.86402 -0.539854 1.12 
0.908672 -0.539854 1.12 
0.955026 -0.540818 1.122 
1.00065 -0.5413 1.123 
1.04914 -0.543228 1.127 
1.09408 -0.543228 1.127 
-0.477658 -0.283963 0.592 
-0.486383 -0.307946 0.642 
-0.501011 -0.341523 0.712 
-0.513446 -0.373661 0.779 
-0.516447 -0.400043 0.834 
-0.52665 -0.436018 0.909 
-0.538966 -0.479188 0.999 
-0.530115 -0.508927 1.061 
-0.493792 -0.515163 1.074 
-0.451814 -0.516122 1.076 
-0.409296 -0.516602 1.077 
-0.365678 -0.515642 1.075 
0.070779 -0.353515 0.737 
0.471465 -0.53291 1.111 
0.515758 -0.53291 1.111 
0.559043 -0.531951 1.109 
0.604345 -0.53291 1.111 
0.650389 -0.534349 1.114 
0.692931 -0.53291 1.111 
0.739879 -0.534829 1.115 
0.787145 -0.536748 1.119 
0.833987 -0.538187 1.122 
0.877153 -0.537227 1.12 
0.921805 -0.537227 1.12 
0.969046 -0.538666 1.123 
1.01562 -0.539626 1.125 
1.06236 -0.540585 1.127 
1.10926 -0.541544 1.129 
-0.485037 -0.296417 0.621 
-0.491883 -0.319806 0.67 
-0.502026 -0.347491 0.728 
-0.514585 -0.378039 0.792 
-0.518991 -0.406201 0.851 
-0.529523 -0.443432 0.929 
-0.542847 -0.488778 1.024 
-0.525555 -0.511689 1.072 
-0.483267 -0.512167 1.073 
-0.44172 -0.513599 1.076 
-0.399564 -0.514553 1.078 
-0.356255 -0.514076 1.077 
0.0754788 -0.341763 0.716 
0.479281 -0.530305 1.111 
0.524046 -0.530782 1.112 
0.567357 -0.529828 1.11 
0.612712 -0.530782 1.112 
0.658227 -0.531737 1.114 
0.701378 -0.530782 1.112 
0.748394 -0.532692 1.116 
0.795018 -0.534123 1.119 
0.842631 -0.536033 1.123 
0.885032 -0.534601 1.12 
0.931345 -0.535555 1.122 
0.976946 -0.536033 1.123 
1.02354 -0.536987 1.125 
1.07029 -0.537942 1.127 
1.1172 -0.538897 1.129 
-0.482901 -0.295436 0.622 
-0.4902 -0.319185 0.672 
-0.501336 -0.345308 0.727 
-0.513935 -0.375707 0.791 
-0.517771 -0.403255 0.849 
-0.529523 -0.441254 0.929 
-0.541787 -0.485426 1.022 
-0.524574 -0.508225 1.07 
-0.483717 -0.510125 1.074 
-0.44172 -0.511075 1.076 
-0.399564 -0.512025 1.078 
-0.356586 -0.512025 1.078 
0.0785068 -0.338659 0.713 
0.481887 -0.527699 1.111 
0.526654 -0.528174 1.112 
0.570473 -0.527699 1.111 
0.61532 -0.528174 1.112 
0.660839 -0.529124 1.114 
0.704619 -0.528649 1.113 
0.751011 -0.530074 1.116 
0.797642 -0.531499 1.119 
0.845265 -0.533399 1.123 
0.889244 -0.532924 1.122 
0.933976 -0.532924 1.122 
0.981325 -0.534349 1.125 
1.02618 -0.534349 1.125 
1.07484 -0.536249 1.129 
1.11786 -0.535299 1.127 
-0.482216 -0.29445 0.623 
-0.488741 -0.316663 0.67 
-0.500647 -0.343131 0.726 
-0.514669 -0.375742 0.795 
-0.516995 -0.40221 0.851 
-0.527912 -0.439548 0.93 
-0.540446 -0.483975 1.024 
-0.523529 -0.507134 1.073 
-0.481198 -0.507607 1.074 
-0.439197 -0.508552 1.076 
-0.397035 -0.509497 1.078 
-0.354058 -0.509497 1.078 
0.439803 -0.524621 1.11 
0.484928 -0.525567 1.112 
0.529261 -0.525567 1.112 
0.573595 -0.525567 1.112 
0.618483 -0.526039 1.113 
0.662856 -0.526039 1.113 
0.707229 -0.526039 1.113 
0.753628 -0.527457 1.116 
0.800266 -0.528875 1.119 
0.847899 -0.530766 1.123 
0.89267 -0.530766 1.123 
0.937442 -0.530766 1.123 
0.983963 -0.531711 1.125 
1.02881 -0.531711 1.125 
1.07748 -0.533601 1.129 
1.12249 -0.533601 1.129 
-0.484058 -0.298632 0.635 
-0.488362 -0.317914 0.676 
-0.50124 -0.348953 0.742 
-0.515516 -0.382813 0.814 
-0.518077 -0.41056 0.873 
-0.528665 -0.449124 0.955 
-0.538366 -0.49286 1.048 
-0.509852 -0.506028 1.076 
-0.466954 -0.506028 1.076 
-0.42445 -0.506499 1.077 
-0.381867 -0.506969 1.078 
-0.339832 -0.50838 1.081 
0.45885 -0.522959 1.112 
0.503183 -0.522959 1.112 
0.547024 -0.522488 1.111 
0.591849 -0.522959 1.112 
0.637327 -0.523899 1.114 
0.679904 -0.522488 1.111 
0.729412 -0.526251 1.119 
0.774024 -0.526251 1.119 
0.819368 -0.526721 1.12 
0.866334 -0.528132 1.123 
0.912728 -0.529072 1.125 
0.955877 -0.528132 1.123 
1.00243 -0.529072 1.125 
1.04821 -0.529543 1.126 
1.09602 -0.530954 1.129 
-0.480226 -0.286848 0.613 
-0.490733 -0.308841 0.66 
-0.497803 -0.335514 0.717 
-0.511878 -0.367334 0.785 
-0.515173 -0.396814 0.848 
-0.528479 -0.435654 0.931 
-0.538335 -0.4773 1.02 
-0.523041 -0.501633 1.072 
-0.48075 -0.502101 1.073 
-0.439197 -0.503505 1.076 
-0.397035 -0.504441 1.078 
-0.354386 -0.504909 1.079 
0.442007 -0.518947 1.109 
0.487536 -0.520351 1.112 
0.531869 -0.520351 1.112 
0.577239 -0.521287 1.114 
0.621652 -0.521287 1.114 
0.664869 -0.520351 1.112 
0.710477 -0.521287 1.114 
0.758278 -0.523627 1.119 
0.802891 -0.523627 1.119 
0.850532 -0.525498 1.123 
0.896898 -0.526434 1.125 
0.940076 -0.525498 1.123 
0.987478 -0.526902 1.126 
1.03145 -0.526434 1.125 
1.08013 -0.528306 1.129 
-0.476851 -0.275167 0.591 
-0.484122 -0.298447 0.641 
-0.487183 -0.317071 0.681 
-0.502704 -0.350128 0.752 
-0.510322 -0.382255 0.821 
-0.522383 -0.418105 0.898 
-0.531013 -0.456284 0.98 
-0.529089 -0.490738 1.054 
-0.496773 -0.500516 1.075 
-0.454759 -0.501447 1.077 
-0.412204 -0.501913 1.078 
-0.369226 -0.501913 1.078 
-0.327762 -0.504241 1.083 
0.479713 -0.517743 1.112 
0.524046 -0.517743 1.112 
0.569912 -0.51914 1.115 
0.613263 -0.518209 1.113 
0.658818 -0.51914 1.115 
0.702009 -0.518209 1.113 
0.750406 -0.521002 1.119 
0.795018 -0.521002 1.119 
0.842631 -0.522865 1.123 
0.889774 -0.524261 1.126 
0.933835 -0.523796 1.125 
0.979556 -0.524261 1.126 
1.02445 -0.524261 1.126 
1.07219 -0.525658 1.129 
1.1172 -0.525658 1.129 
-0.490043 -0.304356 0.657 
-0.496972 -0.329372 0.711 
-0.506855 -0.35624 0.769 
-0.509635 -0.381256 0.823 
-0.524912 -0.419705 0.906 
-0.530873 -0.455839 0.984 
-0.527117 -0.48873 1.055 
-0.494252 -0.497995 1.075 
-0.452234 -0.498921 1.077 
-0.409676 -0.499385 1.078 
-0.367038 -0.499848 1.079 
-0.325222 -0.501701 1.083 
0.481887 -0.514672 1.111 
0.526654 -0.515135 1.112 
0.573554 -0.517452 1.117 
0.616427 -0.516062 1.114 
0.661433 -0.516525 1.115 
0.705252 -0.516062 1.114 
0.753703 -0.518841 1.12 
0.797642 -0.518378 1.119 
0.84677 -0.521157 1.125 
0.893207 -0.522084 1.127 
0.936473 -0.521157 1.125 
0.982197 -0.521621 1.126 
1.02709 -0.521621 1.126 
1.07579 -0.523474 1.13 
1.11985 -0.52301 1.129 
-0.481837 -0.293136 0.636 
-0.490385 -0.318025 0.69 
-0.49843 -0.342453 0.743 
-0.511083 -0.373334 0.81 
-0.514847 -0.401449 0.871 
-0.525874 -0.439704 0.954 
-0.53642 -0.48349 1.049 
-0.506857 -0.495474 1.075 
-0.464431 -0.495935 1.076 
-0.422316 -0.496857 1.078 
-0.379691 -0.497317 1.079 
-0.337921 -0.499161 1.083 
0.468859 -0.512066 1.111 
0.513614 -0.512527 1.112 
0.558951 -0.513449 1.114 
0.602281 -0.512527 1.112 
0.64894 -0.514371 1.116 
0.690947 -0.512527 1.112 
0.741892 -0.517136 1.122 
0.785222 -0.516215 1.12 
0.832097 -0.517597 1.123 
0.879211 -0.51898 1.126 
0.924923 -0.519441 1.127 
0.968994 -0.51898 1.126 
1.01479 -0.519441 1.127 
1.0616 -0.520363 1.129 
1.10759 -0.520824 1.13 
-0.478524 -0.285225 0.622 
-0.485598 -0.307236 0.67 
-0.497241 -0.332915 0.726 
-0.507645 -0.360887 0.787 
-0.511974 -0.387942 0.846 
-0.526861 -0.427379 0.932 
-0.535943 -0.467732 1.02 
-0.519556 -0.49066 1.07 
-0.478234 -0.492036 1.073 
-0.437079 -0.49387 1.077 
-0.394873 -0.494787 1.079 
-0.352834 -0.496163 1.082 
0.447209 -0.508544 1.109 
0.492309 -0.509461 1.111 
0.536602 -0.509461 1.111 
0.581941 -0.510378 1.113 
0.627439 -0.511295 1.115 
0.67129 -0.510837 1.114 
0.71763 -0.512212 1.117 
0.764209 -0.513588 1.12 
0.808139 -0.513129 1.119 
0.857324 -0.515881 1.125 
0.905383 -0.517715 1.129 
0.947026 -0.515881 1.125 
0.99276 -0.516339 1.126 
1.03857 -0.516798 1.127 
1.08639 -0.518174 1.13 
-0.472693 -0.269623 0.591 
-0.481866 -0.291978 0.64 
-0.486299 -0.311139 0.682 
-0.496807 -0.336687 0.738 
-0.508549 -0.366341 0.803 
-0.514516 -0.395539 0.867 
-0.525897 -0.433405 0.95 
-0.536311 -0.476289 1.044 
-0.508431 -0.489519 1.073 
-0.466086 -0.489976 1.074 
-0.424845 -0.4918 1.078 
-0.38293 -0.493169 1.081 
-0.340775 -0.494538 1.084 
0.460213 -0.505943 1.109 
0.505791 -0.507312 1.112 
0.550124 -0.507312 1.112 
0.594457 -0.507312 1.112 
0.641088 -0.509137 1.116 
0.683123 -0.507312 1.112 
0.733998 -0.511874 1.122 
0.779424 -0.51233 1.123 
0.823462 -0.511874 1.122 
0.871289 -0.513699 1.126 
0.918621 -0.515067 1.129 
0.961072 -0.513699 1.126 
1.00686 -0.514155 1.127 
1.05459 -0.515524 1.13 
1.10158 -0.516436 1.132 
-0.470311 -0.270053 0.595 
-0.483367 -0.292293 0.644 
-0.489475 -0.313624 0.691 
-0.500721 -0.34358 0.757 
-0.508457 -0.371266 0.818 
-0.517147 -0.403491 0.889 
-0.526137 -0.440708 0.971 
-0.528587 -0.477926 1.053 
-0.496311 -0.487457 1.074 
-0.454759 -0.488818 1.077 
-0.412586 -0.489726 1.079 
-0.370596 -0.491088 1.082 
-0.328367 -0.492449 1.085 
0.470192 -0.502888 1.108 
0.516222 -0.504704 1.112 
0.562068 -0.506065 1.115 
0.605976 -0.505612 1.114 
0.652141 -0.506973 1.117 
0.694802 -0.505612 1.114 
0.745187 -0.509696 1.123 
0.789255 -0.509243 1.122 
0.836217 -0.510604 1.125 
0.882635 -0.511512 1.127 
0.929212 -0.51242 1.129 
0.972497 -0.511512 1.127 
1.01923 -0.51242 1.129 
1.06707 -0.513781 1.132 
1.1122 -0.513781 1.132 
-0.470663 -0.270464 0.599 
-0.48333 -0.292588 0.648 
-0.494332 -0.321486 0.712 
-0.504557 -0.348126 0.771 
-0.505775 -0.371605 0.823 
-0.521812 -0.409985 0.908 
-0.526258 -0.444301 0.984 
-0.523159 -0.477262 1.057 
-0.48921 -0.48539 1.075 
-0.447182 -0.486293 1.077 
-0.404995 -0.487196 1.079 
-0.362984 -0.48855 1.082 
0.436412 -0.50029 1.108 
0.480585 -0.50029 1.108 
0.526654 -0.502096 1.112 
0.572527 -0.503451 1.115 
0.617533 -0.503902 1.116 
0.662619 -0.504354 1.117 
0.705885 -0.503451 1.115 
0.755722 -0.507063 1.123 
0.799781 -0.506611 1.122 
0.847523 -0.508417 1.126 
0.893207 -0.508869 1.127 
0.938138 -0.508869 1.127 
0.984814 -0.509772 1.129 
1.02982 -0.509772 1.129 
1.07769 -0.511127 1.132 
1.12381 -0.511578 1.133 
-0.473584 -0.274 0.61 
-0.485353 -0.29601 0.659 
-0.493751 -0.321613 0.716 
-0.50442 -0.351259 0.782 
-0.506527 -0.375964 0.837 
-0.522424 -0.416839 0.928 
-0.534074 -0.458613 1.021 
-0.51608 -0.479724 1.068 
-0.476604 -0.482869 1.075 
-0.434553 -0.483767 1.077 
-0.39307 -0.485564 1.081 
-0.350944 -0.486911 1.084 
0.446806 -0.497692 1.108 
0.491422 -0.498141 1.109 
0.537085 -0.499488 1.112 
0.581941 -0.499937 1.113 
0.628002 -0.501285 1.116 
0.672495 -0.501285 1.116 
0.71763 -0.501734 1.117 
0.766256 -0.504429 1.123 
0.810306 -0.50398 1.122 
0.858086 -0.505777 1.126 
0.905383 -0.507124 1.129 
0.94871 -0.506226 1.127 
0.993641 -0.506226 1.127 
1.04134 -0.507573 1.13 
1.08831 -0.508472 1.132 
-0.471443 -0.261845 0.586 
-0.475673 -0.278825 0.624 
-0.485586 -0.304295 0.681 
-0.495747 -0.330211 0.739 
-0.506035 -0.358362 0.802 
-0.509527 -0.385172 0.862 
-0.519162 -0.42628 0.954 
-0.530048 -0.469623 1.051 
-0.499294 -0.480348 1.075 
-0.456861 -0.480794 1.076 
-0.415117 -0.482135 1.079 
-0.373824 -0.484369 1.084 
-0.331217 -0.485263 1.086 
0.464575 -0.494646 1.107 
0.510547 -0.496434 1.111 
0.556339 -0.497774 1.114 
0.600751 -0.497774 1.114 
0.646323 -0.498668 1.116 
0.690196 -0.498221 1.115 
0.73992 -0.501796 1.123 
0.786788 -0.503136 1.126 
0.829463 -0.501796 1.123 
0.87657 -0.503136 1.126 
0.923917 -0.504477 1.129 
0.968928 -0.504477 1.129 
1.01394 -0.504477 1.129 
1.06176 -0.505817 1.132 
1.10689 -0.505817 1.132 
-0.473584 -0.271139 0.61 
-0.483755 -0.299586 0.674 
-0.494167 -0.324033 0.729 
-0.504022 -0.351147 0.79 
-0.508414 -0.377816 0.85 
-0.518157 -0.41782 0.94 
-0.53284 -0.463158 1.042 
-0.506857 -0.477826 1.075 
-0.464431 -0.478271 1.076 
-0.422316 -0.47916 1.078 
-0.38145 -0.481827 1.084 
-0.338857 -0.482716 1.086 
0.454191 -0.49205 1.107 
0.499225 -0.492939 1.109 
0.545398 -0.494717 1.113 
0.589242 -0.494273 1.112 
0.635854 -0.496051 1.116 
0.680346 -0.496051 1.116 
0.728736 -0.498718 1.122 
0.775536 -0.500051 1.125 
0.818929 -0.499162 1.123 
0.866008 -0.500495 1.126 
0.913326 -0.501829 1.129 
0.958337 -0.501829 1.129 
1.00335 -0.501829 1.129 
1.05114 -0.503162 1.132 
1.09434 -0.502273 1.13 
-0.467894 -0.258655 0.585 
-0.482262 -0.291373 0.659 
-0.49197 -0.314365 0.711 
-0.502096 -0.340451 0.77 
-0.504457 -0.364327 0.824 
-0.512814 -0.396162 0.896 
-0.520223 -0.431975 0.977 
-0.52068 -0.467347 1.057 
-0.487141 -0.475748 1.076 
-0.444656 -0.47619 1.077 
-0.402838 -0.477516 1.08 
-0.361446 -0.479727 1.085 
0.431215 -0.489896 1.108 
0.474959 -0.489454 1.107 
0.520969 -0.491223 1.111 
0.566789 -0.492549 1.114 
0.612847 -0.493876 1.117 
0.65738 -0.493876 1.117 
0.701284 -0.493433 1.116 
0.750454 -0.496528 1.123 
0.796642 -0.497413 1.125 
0.842242 -0.497855 1.126 
0.887133 -0.497855 1.126 
0.932852 -0.498297 1.127 
0.980386 -0.499623 1.13 
1.02453 -0.499181 1.129 
1.07238 -0.500508 1.132 
1.11751 -0.500508 1.132 
-0.474476 -0.269597 0.613 
-0.482582 -0.293786 0.668 
-0.494856 -0.318855 0.725 
-0.501943 -0.343483 0.781 
-0.503961 -0.367672 0.836 
-0.516231 -0.403296 0.917 
-0.525704 -0.441998 1.005 
-0.515597 -0.469266 1.067 
-0.477491 -0.473664 1.077 
-0.434553 -0.473664 1.077 
-0.39307 -0.475423 1.081 
-0.351268 -0.477182 1.085 
0.43901 -0.487298 1.108 
0.482748 -0.486858 1.107 
0.529261 -0.489057 1.112 
0.574626 -0.489937 1.114 
0.621818 -0.492136 1.119 
0.66643 -0.492136 1.119 
0.709136 -0.490816 1.116 
0.759706 -0.494774 1.125 
0.804557 -0.494774 1.125 
0.850164 -0.495214 1.126 
0.89585 -0.495654 1.127 
0.942451 -0.496534 1.129 
0.988336 -0.496973 1.13 
1.03339 -0.496973 1.13 
1.07844 -0.496973 1.13 
1.12349 -0.496973 1.13 
-0.472548 -0.270347 0.618 
-0.481974 -0.290907 0.665 
-0.493133 -0.319342 0.73 
-0.504773 -0.349963 0.8 
-0.504798 -0.373586 0.854 
-0.515952 -0.409457 0.936 
-0.528749 -0.452328 1.034 
-0.507329 -0.470701 1.076 
-0.464862 -0.471138 1.077 
-0.422316 -0.471576 1.078 
-0.382154 -0.475075 1.086 
-0.338857 -0.475075 1.086 
0.444207 -0.484699 1.108 
0.488381 -0.484699 1.108 
0.534477 -0.486449 1.112 
0.580372 -0.487761 1.115 
0.625945 -0.488636 1.117 
0.671678 -0.489511 1.119 
0.71629 -0.489511 1.119 
0.764983 -0.492136 1.125 
0.810554 -0.492573 1.126 
0.855445 -0.492573 1.126 
0.901136 -0.493011 1.127 
0.947746 -0.493886 1.129 
0.993636 -0.494323 1.13 
1.03869 -0.494323 1.13 
1.08374 -0.494323 1.13 
-0.471203 -0.254104 0.584 
-0.473998 -0.268897 0.618 
-0.479898 -0.287172 0.66 
-0.493133 -0.31763 0.73 
-0.503526 -0.348522 0.801 
-0.503973 -0.372453 0.856 
-0.515953 -0.409003 0.94 
-0.528869 -0.452078 1.039 
-0.504805 -0.468177 1.076 
-0.462337 -0.468612 1.077 
-0.419788 -0.469048 1.078 
-0.379607 -0.472528 1.086 
-0.33631 -0.472528 1.086 
0.448998 -0.481666 1.107 
0.494023 -0.482536 1.109 
0.539693 -0.483841 1.112 
0.586127 -0.485582 1.116 
0.631184 -0.486017 1.117 
0.676927 -0.486887 1.119 
0.721539 -0.486887 1.119 
0.770944 -0.489933 1.126 
0.81656 -0.490368 1.127 
0.861491 -0.490368 1.127 
0.906422 -0.490368 1.127 
0.953041 -0.491238 1.129 
1.0007 -0.492543 1.132 
1.04306 -0.491238 1.129 
1.08615 -0.490368 1.127 
-0.472817 -0.2536 0.586 
-0.472624 -0.268314 0.62 
-0.48186 -0.288654 0.667 
-0.492768 -0.316783 0.732 
-0.502274 -0.347077 0.802 
-0.505484 -0.373042 0.862 
-0.514216 -0.410693 0.949 
-0.527081 -0.454402 1.05 
-0.497235 -0.465654 1.076 
-0.454759 -0.466087 1.077 
-0.412969 -0.467385 1.08 
-0.371966 -0.469982 1.086 
-0.328973 -0.470414 1.087 
0.454601 -0.479502 1.108 
0.499225 -0.479935 1.109 
0.544908 -0.481233 1.112 
0.591361 -0.482964 1.116 
0.636423 -0.483397 1.117 
0.682175 -0.484263 1.119 
0.728736 -0.485561 1.122 
0.776225 -0.487292 1.126 
0.821116 -0.487292 1.126 
0.866777 -0.487725 1.127 
0.911708 -0.487725 1.127 
0.959186 -0.489023 1.13 
1.00601 -0.489889 1.132 
1.04836 -0.48859 1.129 
1.09046 -0.487292 1.126 
-0.471094 -0.253517 0.589 
-0.47438 -0.273746 0.636 
-0.48503 -0.295698 0.687 
-0.492947 -0.31851 0.74 
-0.501647 -0.344765 0.801 
-0.503725 -0.36973 0.859 
-0.513674 -0.408037 0.948 
-0.526579 -0.451509 1.049 
-0.497235 -0.463131 1.076 
-0.455182 -0.463991 1.078 
-0.413351 -0.465283 1.081 
-0.371966 -0.467435 1.086 
-0.329578 -0.468726 1.089 
0.447209 -0.477334 1.109 
0.491422 -0.477334 1.109 
0.537085 -0.478626 1.112 
0.583509 -0.480347 1.116 
0.62969 -0.481639 1.119 
0.67611 -0.48293 1.122 
0.718915 -0.481639 1.119 
0.768303 -0.484651 1.126 
0.813917 -0.485082 1.127 
0.858848 -0.485082 1.127 
0.905383 -0.485943 1.129 
0.950394 -0.485943 1.129 
0.99805 -0.487234 1.132 
1.04042 -0.485943 1.129 
1.0835 -0.485082 1.127 
-0.476619 -0.252135 0.589 
-0.472878 -0.270542 0.632 
-0.4831 -0.291946 0.682 
-0.490671 -0.314206 0.734 
-0.502269 -0.342031 0.799 
-0.502796 -0.365575 0.854 
-0.512659 -0.399821 0.934 
-0.523779 -0.440488 1.029 
-0.504336 -0.460179 1.075 
-0.462766 -0.461463 1.078 
-0.420178 -0.461891 1.079 
-0.379607 -0.464888 1.086 
-0.33631 -0.464888 1.086 
0.442804 -0.47559 1.111 
0.486221 -0.474734 1.109 
0.532348 -0.476446 1.113 
0.578793 -0.478158 1.117 
0.624442 -0.479014 1.119 
0.669652 -0.479442 1.12 
0.712391 -0.478158 1.117 
0.762344 -0.481583 1.125 
0.808631 -0.482439 1.127 
0.853562 -0.482439 1.127 
0.900087 -0.483295 1.129 
0.945098 -0.483295 1.129 
0.99274 -0.484579 1.132 
1.03512 -0.483295 1.129 
1.08013 -0.483295 1.129 
-0.480195 -0.25118 0.59 
-0.473231 -0.262674 0.617 
-0.477626 -0.280555 0.659 
-0.491077 -0.305247 0.717 
-0.497324 -0.328237 0.771 
-0.49987 -0.351652 0.826 
-0.513294 -0.386561 0.908 
-0.517027 -0.418917 0.984 
-0.518099 -0.454252 1.067 
-0.480017 -0.458509 1.077 
-0.437485 -0.458935 1.078 
-0.396703 -0.46149 1.084 
-0.354138 -0.462341 1.086 
-0.315319 -14.1363 33.205 
0.448015 -0.472984 1.111 
0.491422 -0.472133 1.109 
0.537568 -0.473836 1.113 
0.583509 -0.475113 1.116 
0.62969 -0.47639 1.119 
0.676713 -0.478093 1.123 
0.718915 -0.47639 1.119 
0.767621 -0.478944 1.125 
0.815361 -0.480647 1.129 
0.858848 -0.479796 1.127 
0.905383 -0.480647 1.129 
0.951235 -0.481073 1.13 
0.99805 -0.481925 1.132 
1.04134 -0.481073 1.13 
1.08254 -0.47937 1.126 
-0.474881 -0.250643 0.592 
-0.471861 -0.262074 0.619 
-0.477525 -0.279856 0.661 
-0.490078 -0.303989 0.718 
-0.496159 -0.326852 0.772 
-0.499742 -0.350985 0.829 
-0.511728 -0.384855 0.909 
-0.518904 -0.419996 0.992 
-0.516563 -0.452597 1.069 
-0.477935 -0.456407 1.078 
-0.43536 -0.45683 1.079 
-0.394161 -0.458947 1.084 
-0.351592 -0.459794 1.086 
-0.555583 -12.461 29.432 
0.42794 -0.471226 1.113 
0.471465 -0.470379 1.111 
0.516686 -0.471226 1.113 
0.562068 -0.472072 1.115 
0.60924 -0.474189 1.12 
0.653309 -0.473766 1.119 
0.69605 -0.472496 1.116 
0.746514 -0.476306 1.125 
0.792773 -0.477153 1.127 
0.83919 -0.478 1.129 
0.884201 -0.478 1.129 
0.929212 -0.478 1.129 
0.977675 -0.479693 1.133 
1.02014 -0.478423 1.13 
1.06519 -0.478423 1.13 
-0.475683 -0.249676 0.593 
-0.471861 -0.260623 0.619 
-0.479313 -0.282095 0.67 
-0.492458 -0.306937 0.729 
-0.499769 -0.335988 0.798 
-0.500206 -0.359145 0.853 
-0.510469 -0.39325 0.934 
-0.521366 -0.433248 1.029 
-0.500881 -0.451774 1.073 
-0.460665 -0.4543 1.079 
-0.418034 -0.454721 1.08 
-0.37706 -0.457247 1.086 
-0.333764 -0.457247 1.086 
-0.0724208 -12.392 29.432 
0.440991 -0.468615 1.113 
0.484056 -0.467352 1.11 
0.530213 -0.469036 1.114 
0.576174 -0.470299 1.117 
0.622373 -0.471563 1.12 
0.668216 -0.472405 1.122 
0.709136 -0.469878 1.116 
0.759706 -0.473668 1.125 
0.807418 -0.475352 1.129 
0.852429 -0.475352 1.129 
0.89744 -0.475352 1.129 
0.943285 -0.475773 1.13 
0.99096 -0.477036 1.133 
1.03339 -0.475773 1.13 
1.07557 -0.47451 1.127 
-0.473959 -0.253309 0.605 
-0.474264 -0.270476 0.646 
-0.481835 -0.290573 0.694 
-0.495389 -0.321556 0.768 
-0.49866 -0.345003 0.824 
-0.509337 -0.377242 0.901 
-0.513349 -0.409063 0.977 
-0.518099 -0.446745 1.067 
-0.480463 -0.451351 1.078 
-0.438297 -0.452188 1.08 
-0.396703 -0.453863 1.084 
-0.354138 -0.4547 1.086 
-0.311987 -0.456375 1.09 
0.420301 -12.6098 30.117 
0.45445 -0.466424 1.114 
0.49752 -0.465168 1.111 
0.543276 -0.466424 1.114 
0.588744 -0.467261 1.116 
0.635506 -0.468936 1.12 
0.68198 -0.470192 1.123 
0.72481 -0.468936 1.12 
0.771523 -0.470192 1.123 
0.819203 -0.471867 1.127 
0.865667 -0.472704 1.129 
0.910678 -0.472704 1.129 
0.959075 -0.474379 1.133 
1.00336 -0.47396 1.132 
1.04849 -0.47396 1.132 
-0.481246 -0.246894 0.593 
-0.475353 -0.25647 0.616 
-0.475451 -0.273124 0.656 
-0.486283 -0.295607 0.71 
-0.497084 -0.325584 0.782 
-0.497484 -0.34765 0.835 
-0.510336 -0.382207 0.918 
-0.518117 -0.418013 1.004 
-0.510947 -0.446741 1.073 
-0.470787 -0.449239 1.079 
-0.428562 -0.450072 1.081 
-0.387248 -0.452154 1.086 
-0.343951 -0.452154 1.086 
-0.543237 -11.9817 28.778 
0.663025 -13.1508 31.586 
0.460088 -0.464228 1.115 
0.503183 -0.462979 1.112 
0.548993 -0.464228 1.115 
0.594511 -0.46506 1.117 
0.640759 -0.466309 1.12 
0.686635 -0.467142 1.122 
0.732019 -0.467558 1.123 
0.778174 -0.468391 1.125 
0.824489 -0.469224 1.127 
0.870963 -0.470057 1.129 
0.915974 -0.470057 1.129 
0.96524 -0.472138 1.134 
1.00867 -0.471306 1.132 
1.05473 -0.471722 1.133 
-0.486237 -0.245917 0.594 
-0.475793 -0.252956 0.611 
-0.473599 -0.265376 0.641 
-0.480197 -0.28442 0.687 
-0.491011 -0.311744 0.753 
-0.498947 -0.337412 0.815 
-0.50194 -0.36308 0.877 
-0.508508 -0.395372 0.955 
-0.519695 -0.436773 1.055 
-0.487594 -0.445881 1.077 
-0.445895 -0.447123 1.08 
-0.403584 -0.447951 1.082 
-0.362112 -0.450021 1.087 
-0.319656 -0.451263 1.09 
0.0656255 -12.1849 29.432 
0.436163 -0.461199 1.114 
0.480144 -0.460785 1.113 
0.52546 -0.461613 1.115 
0.570423 -0.462027 1.116 
0.618222 -0.464511 1.122 
0.661772 -0.463683 1.12 
0.704532 -0.462441 1.117 
0.7551 -0.466167 1.126 
0.802123 -0.467409 1.129 
0.847133 -0.467409 1.129 
0.892935 -0.467823 1.13 
0.940475 -0.469065 1.133 
0.985646 -0.469065 1.133 
1.03264 -0.469893 1.135 
0.856355 -0.364322 0.88 
-0.480496 -0.246583 0.599 
-0.474148 -0.256051 0.622 
-0.474635 -0.270459 0.657 
-0.483935 -0.291865 0.709 
-0.496448 -0.321504 0.781 
-0.496888 -0.343322 0.834 
-0.507556 -0.375843 0.913 
-0.516569 -0.412069 1.001 
-0.511423 -0.44212 1.074 
-0.470787 -0.444178 1.079 
-0.428958 -0.445413 1.082 
-0.387248 -0.44706 1.086 
-0.344268 -0.447471 1.087 
-0.299206 -0.448706 1.09 
0.514876 -13.0026 31.586 
0.450032 -0.45941 1.116 
0.492752 -0.457763 1.112 
0.539017 -0.45941 1.116 
0.583509 -0.45941 1.116 
0.631378 -0.46188 1.122 
0.677918 -0.463114 1.125 
0.718915 -0.460645 1.119 
0.767621 -0.463114 1.125 
0.816083 -0.465173 1.13 
0.860372 -0.464761 1.129 
0.906185 -0.465173 1.13 
0.953761 -0.466408 1.133 
0.998931 -0.466408 1.133 
1.04594 -0.467231 1.135 
0.869812 -0.361847 0.879 
-0.479949 -0.249271 0.609 
-0.474375 -0.259504 0.634 
-0.478676 -0.277514 0.678 
-0.4884 -0.3033 0.741 
-0.496012 -0.327859 0.801 
-0.495943 -0.350371 0.856 
-0.508753 -0.385981 0.943 
-0.522121 -0.427731 1.045 
-0.494712 -0.44042 1.076 
-0.453073 -0.441648 1.079 
-0.410816 -0.442466 1.081 
-0.36942 -0.444513 1.086 
-0.327925 -0.446969 1.092 
-0.0741063 -12.3273 30.117 
0.4231 -0.455974 1.114 
0.468352 -0.456792 1.116 
0.512385 -0.456383 1.115 
0.557337 -0.456792 1.116 
0.605066 -0.459248 1.122 
0.648639 -0.45843 1.12 
0.693291 -0.45843 1.12 
0.741897 -0.460885 1.126 
0.787487 -0.461295 1.127 
0.833895 -0.462113 1.129 
0.879684 -0.462523 1.13 
0.92719 -0.463751 1.133 
0.973219 -0.46416 1.134 
1.02112 -0.465388 1.137 
0.850028 -0.361013 0.882 
-0.486706 -0.243366 0.598 
-0.477066 -0.253133 0.622 
-0.472627 -0.264529 0.65 
-0.479701 -0.284063 0.698 
-0.488774 -0.30726 0.755 
-0.49634 -0.332492 0.817 
-0.502368 -0.360166 0.885 
-0.506668 -0.390688 0.96 
-0.51865 -0.432606 1.063 
-0.482991 -0.43871 1.078 
-0.441238 -0.439931 1.081 
-0.398877 -0.440745 1.083 
-0.357671 -0.443187 1.089 
-0.315409 -0.444815 1.093 
0.679587 -13.1756 32.375 
0.450032 -0.454175 1.116 
0.493638 -0.453361 1.114 
0.539017 -0.454175 1.116 
0.585078 -0.455396 1.119 
0.631941 -0.457024 1.123 
0.677918 -0.457838 1.125 
0.718915 -0.455396 1.119 
0.767621 -0.457838 1.125 
0.817528 -0.460687 1.132 
0.861134 -0.459873 1.13 
0.908591 -0.461094 1.133 
0.954603 -0.461501 1.134 
1.00069 -0.461908 1.135 
1.04871 -0.463128 1.138 
0.862815 -0.355689 0.874 
-0.483235 -0.248842 0.615 
-0.475126 -0.257744 0.637 
-0.478676 -0.274334 0.678 
-0.486952 -0.295779 0.731 
-0.493506 -0.318842 0.788 
-0.494929 -0.341501 0.844 
-0.508283 -0.376298 0.93 
-0.519339 -0.414737 1.025 
-0.502282 -0.435373 1.076 
-0.461092 -0.436992 1.08 
-0.418808 -0.437801 1.082 
-0.37706 -0.439419 1.086 
-0.334993 -0.441038 1.09 
0.440801 -12.7804 31.586 
0.438775 -0.450749 1.114 
0.483622 -0.451153 1.115 
0.528548 -0.451558 1.116 
0.573041 -0.451558 1.116 
0.622513 -0.4552 1.125 
0.666178 -0.45439 1.123 
0.708418 -0.452772 1.119 
0.75774 -0.455604 1.126 
0.806909 -0.458032 1.132 
0.850534 -0.457223 1.13 
0.89717 -0.458032 1.132 
0.943965 -0.458841 1.134 
0.988303 -0.458436 1.133 
1.03895 -0.460864 1.139 
0.854616 -0.353639 0.874 
-0.485184 -0.246193 0.612 
-0.477349 -0.255043 0.634 
-0.477742 -0.269525 0.67 
-0.483343 -0.288835 0.718 
-0.492083 -0.312569 0.777 
-0.494339 -0.335096 0.833 
-0.504308 -0.366474 0.911 
-0.514736 -0.403081 1.002 
-0.509378 -0.432447 1.075 
-0.46869 -0.434459 1.08 
-0.427209 -0.436068 1.084 
-0.384701 -0.436872 1.086 
-0.342347 -0.438079 1.089 
-0.142469 -8.01456 19.923 
0.447414 -0.448941 1.116 
0.491907 -0.448941 1.116 
0.53688 -0.449343 1.117 
0.582454 -0.450148 1.119 
0.630428 -0.452561 1.125 
0.674079 -0.451757 1.123 
0.71629 -0.450148 1.119 
0.766343 -0.453366 1.127 
0.815593 -0.455779 1.133 
0.858484 -0.454573 1.13 
0.905933 -0.455779 1.133 
0.951943 -0.456182 1.134 
0.997154 -0.456182 1.134 
0.840095 -0.357624 0.889 
0.85781 -0.350383 0.871 
-0.484256 -0.247957 0.62 
-0.477326 -0.257556 0.644 
-0.4776 -0.272353 0.681 
-0.484184 -0.29275 0.732 
-0.493539 -0.317546 0.794 
-0.495042 -0.340342 0.851 
-0.505004 -0.372736 0.932 
-0.520556 -0.414729 1.037 
-0.497697 -0.430726 1.077 
-0.456448 -0.432326 1.081 
-0.414116 -0.433126 1.083 
-0.372309 -0.434725 1.087 
-0.330486 -0.436725 1.092 
0.404812 -0.445524 1.114 
0.450435 -0.446723 1.117 
0.494967 -0.446723 1.117 
0.540466 -0.447523 1.119 
0.586647 -0.448723 1.122 
0.633067 -0.449923 1.125 
0.676713 -0.449123 1.123 
0.718915 -0.447523 1.119 
0.768986 -0.450723 1.127 
0.81825 -0.453122 1.133 
0.862658 -0.452722 1.132 
0.908591 -0.453122 1.133 
0.954603 -0.453522 1.134 
1.00069 -0.453922 1.135 
0.84218 -0.355539 0.889 
0.858866 -0.34794 0.87 
-0.484538 -0.248889 0.626 
-0.475732 -0.257636 0.648 
-0.477669 -0.273539 0.688 
-0.484924 -0.294611 0.741 
-0.491601 -0.319262 0.803 
-0.496789 -0.345105 0.868 
-0.504781 -0.376912 0.948 
-0.518709 -0.418658 1.053 
-0.488047 -0.428598 1.078 
-0.446721 -0.430188 1.082 
-0.40433 -0.430984 1.084 
-0.362778 -0.432972 1.089 
-0.319656 -0.433369 1.09 
0.41265 -0.442911 1.114 
0.459114 -0.444899 1.119 
0.503726 -0.444899 1.119 
0.548829 -0.445297 1.12 
0.59507 -0.446489 1.123 
0.640981 -0.447285 1.125 
0.685833 -0.447285 1.125 
0.727437 -0.445297 1.12 
0.778293 -0.448875 1.129 
0.826221 -0.450465 1.133 
0.871391 -0.450465 1.133 
0.916562 -0.450465 1.133 
0.96343 -0.45126 1.135 
1.01046 -0.452056 1.137 
0.84748 -0.353057 0.888 
0.862004 -0.344707 0.867 
-0.488161 -0.247026 0.625 
-0.47955 -0.255721 0.647 
-0.4776 -0.269159 0.681 
-0.482861 -0.288526 0.73 
-0.49164 -0.316193 0.8 
-0.494227 -0.339907 0.86 
-0.503184 -0.373503 0.945 
-0.518217 -0.415794 1.052 
-0.4885 -0.426465 1.079 
-0.447134 -0.428046 1.083 
-0.405076 -0.429232 1.086 
-0.363112 -0.430813 1.09 
-0.319362 -0.430418 1.089 
0.404812 -0.440299 1.114 
0.450435 -0.441484 1.117 
0.494967 -0.441484 1.117 
0.540949 -0.44267 1.12 
0.586647 -0.443461 1.122 
0.633067 -0.444646 1.125 
0.677918 -0.444646 1.125 
0.718915 -0.442275 1.119 
0.77035 -0.446227 1.129 
0.81825 -0.447808 1.133 
0.862658 -0.447413 1.132 
0.908591 -0.447808 1.133 
0.954603 -0.448203 1.134 
0.999813 -0.448203 1.134 
0.844265 -0.351369 0.889 
0.856948 -0.342279 0.866 
-0.490862 -0.243988 0.621 
-0.481839 -0.253811 0.646 
-0.478676 -0.266383 0.678 
-0.480956 -0.283671 0.722 
-0.491049 -0.312745 0.796 
-0.492782 -0.335533 0.854 
-0.500633 -0.366179 0.932 
-0.519173 -0.410183 1.044 
-0.493103 -0.423542 1.078 
-0.451796 -0.425113 1.082 
-0.410169 -0.426685 1.086 
-0.367886 -0.427864 1.089 
-0.324768 -0.428257 1.09 
0.0429309 -3.68694 9.384 
0.426095 -0.438079 1.115 
0.472235 -0.439651 1.119 
0.516848 -0.439651 1.119 
0.561962 -0.440043 1.12 
0.609322 -0.442008 1.125 
0.654173 -0.442008 1.125 
0.697782 -0.441222 1.123 
0.743876 -0.442008 1.125 
0.794336 -0.445151 1.133 
0.838766 -0.444758 1.132 
0.884677 -0.445151 1.133 
0.931489 -0.445937 1.135 
0.974157 -0.444758 1.132 
0.841657 -0.357928 0.911 
0.847137 -0.345356 0.879 
-0.504433 -0.24136 0.618 
-0.488335 -0.245656 0.629 
-0.479461 -0.254249 0.651 
-0.475799 -0.266746 0.683 
-0.480751 -0.285883 0.732 
-0.490328 -0.314003 0.804 
-0.494753 -0.338998 0.868 
-0.502028 -0.369852 0.947 
-0.51575 -0.410859 1.052 
-0.485969 -0.421404 1.079 
-0.445004 -0.423357 1.084 
-0.402899 -0.424529 1.087 
-0.361217 -0.426481 1.092 
-0.316808 -0.42531 1.089 
0.132885 -3.71882 9.522 
0.430937 -0.435074 1.114 
0.477484 -0.437026 1.119 
0.521163 -0.436245 1.117 
0.567215 -0.437417 1.12 
0.614598 -0.43937 1.125 
0.65945 -0.43937 1.125 
0.702423 -0.438198 1.122 
0.750484 -0.440151 1.127 
0.79965 -0.442494 1.133 
0.842584 -0.441322 1.13 
0.889991 -0.442494 1.133 
0.935987 -0.442885 1.134 
0.977736 -0.441322 1.13 
0.841941 -0.355011 0.909 
0.8463 -0.342122 0.876 
-0.502984 -0.239911 0.618 
-0.487804 -0.246899 0.636 
-0.478444 -0.255439 0.658 
-0.475578 -0.268638 0.692 
-0.481006 -0.288437 0.743 
-0.490265 -0.313282 0.807 
-0.493853 -0.337739 0.87 
-0.501918 -0.369184 0.951 
-0.514258 -0.409169 1.054 
-0.483887 -0.419262 1.08 
-0.443278 -0.421591 1.086 
-0.401087 -0.422756 1.089 
-0.358656 -0.423921 1.092 
-0.314254 -0.422756 1.089 
0.133876 -3.72406 9.593 
0.42348 -0.432849 1.115 
0.470031 -0.43479 1.12 
0.514223 -0.434402 1.119 
0.560334 -0.435567 1.122 
0.606683 -0.436731 1.125 
0.651535 -0.436731 1.125 
0.697005 -0.43712 1.126 
0.73992 -0.435955 1.123 
0.79098 -0.439449 1.132 
0.836111 -0.439449 1.132 
0.88202 -0.439837 1.133 
0.928008 -0.440225 1.134 
0.969786 -0.438672 1.13 
0.841665 -0.356373 0.918 
0.848606 -0.344338 0.887 
-0.508153 -0.238848 0.619 
-0.491504 -0.245021 0.635 
-0.481605 -0.253124 0.656 
-0.47628 -0.2647 0.686 
-0.479274 -0.283607 0.735 
-0.490377 -0.309074 0.801 
-0.490493 -0.330682 0.857 
-0.498391 -0.361165 0.936 
-0.515754 -0.403996 1.047 
-0.4885 -0.416343 1.079 
-0.447546 -0.418273 1.084 
-0.406568 -0.420588 1.09 
-0.363112 -0.420588 1.09 
-0.318776 -0.41943 1.087 
0.0673808 -3.75712 9.737 
0.416381 -0.431006 1.117 
0.462151 -0.432164 1.12 
0.506803 -0.432164 1.12 
0.55244 -0.432935 1.122 
0.598768 -0.434093 1.125 
0.642476 -0.433321 1.123 
0.689695 -0.434865 1.127 
0.729412 -0.431778 1.119 
0.780941 -0.435636 1.129 
0.828147 -0.436794 1.132 
0.874049 -0.43718 1.133 
0.919219 -0.43718 1.133 
0.961836 -0.436022 1.13 
0.843944 -0.35885 0.93 
0.845022 -0.344187 0.892 
0.848007 -0.331454 0.859 
-0.495191 -0.243149 0.634 
-0.485479 -0.251202 0.655 
-0.4776 -0.261174 0.681 
-0.47757 -0.276898 0.722 
-0.487323 -0.300676 0.784 
-0.489225 -0.322536 0.841 
-0.498502 -0.352834 0.92 
-0.51403 -0.39272 1.024 
-0.497697 -0.413046 1.077 
-0.457715 -0.415731 1.084 
-0.416793 -0.418032 1.09 
-0.373337 -0.418032 1.09 
-0.328973 -0.416881 1.087 
-0.0493939 -3.94177 10.278 
0.400305 -0.428003 1.116 
0.445196 -0.428387 1.117 
0.491044 -0.429537 1.12 
0.535696 -0.429537 1.12 
0.581384 -0.430304 1.122 
0.626674 -0.430688 1.123 
0.672641 -0.431455 1.125 
0.713666 -0.429154 1.119 
0.765055 -0.432989 1.129 
0.813653 -0.434906 1.134 
0.855834 -0.433372 1.13 
0.903276 -0.434523 1.133 
0.945098 -0.432989 1.129 
0.843573 -0.357436 0.932 
0.845765 -0.343246 0.895 
0.846977 -0.329823 0.86 
-0.500246 -0.240518 0.631 
-0.489395 -0.247761 0.65 
-0.478455 -0.255765 0.671 
-0.476611 -0.269868 0.708 
-0.47815 -0.287783 0.755 
-0.490021 -0.31599 0.829 
-0.496742 -0.344959 0.905 
-0.508 -0.380408 0.998 
-0.504336 -0.409758 1.075 
-0.465342 -0.413188 1.084 
-0.424461 -0.415475 1.09 
-0.381005 -0.415475 1.09 
-0.33662 -0.414332 1.087 
-0.294903 -0.416619 1.093 
0.220598 -3.6032 9.453 
0.429094 -0.425386 1.116 
0.476133 -0.427673 1.122 
0.519936 -0.42691 1.12 
0.565596 -0.427673 1.122 
0.610872 -0.428054 1.123 
0.657979 -0.429579 1.127 
0.701663 -0.428816 1.125 
0.747178 -0.429198 1.126 
0.794883 -0.430722 1.13 
0.84142 -0.431485 1.132 
0.887334 -0.431866 1.133 
0.930035 -0.430722 1.13 
0.858746 -0.37126 0.974 
0.843505 -0.348008 0.913 
0.844245 -0.333905 0.876 
-0.507054 -0.236008 0.623 
-0.495374 -0.242448 0.64 
-0.483074 -0.249267 0.658 
-0.477669 -0.260632 0.688 
-0.477071 -0.276163 0.729 
-0.488568 -0.301166 0.795 
-0.489055 -0.32238 0.851 
-0.498447 -0.353065 0.932 
-0.51029 -0.390568 1.031 
-0.49103 -0.408752 1.079 
-0.450089 -0.410646 1.084 
-0.409875 -0.413677 1.092 
-0.365668 -0.412919 1.09 
-0.321325 -0.411783 1.087 
-0.0261194 -4.02123 10.615 
0.400663 -0.423147 1.117 
0.445993 -0.423905 1.119 
0.49192 -0.425042 1.122 
0.535696 -0.424284 1.12 
0.581384 -0.425042 1.122 
0.626674 -0.42542 1.123 
0.673239 -0.426557 1.126 
0.713666 -0.423905 1.119 
0.765055 -0.427693 1.129 
0.813653 -0.429587 1.134 
0.857349 -0.42883 1.132 
0.903276 -0.429209 1.133 
0.942587 -0.426557 1.126 
0.850062 -0.361399 0.954 
0.846204 -0.344352 0.909 
0.844584 -0.329578 0.87 
-0.507216 -0.2353 0.625 
-0.498503 -0.243206 0.646 
-0.482262 -0.2481 0.659 
-0.478131 -0.260148 0.691 
-0.476013 -0.27483 0.73 
-0.489152 -0.300807 0.799 
-0.488204 -0.321137 0.853 
-0.497327 -0.351632 0.934 
-0.50935 -0.38928 1.034 
-0.4885 -0.406222 1.079 
-0.447546 -0.408104 1.084 
-0.407314 -0.411116 1.092 
-0.363112 -0.410363 1.09 
-0.318776 -0.409233 1.087 
-0.0522966 -4.09685 10.882 
0.395424 -0.420528 1.117 
0.440744 -0.421281 1.119 
0.487092 -0.422787 1.123 
0.530442 -0.421657 1.12 
0.576121 -0.42241 1.122 
0.621407 -0.422787 1.123 
0.667958 -0.423916 1.126 
0.710317 -0.42241 1.122 
0.759759 -0.425046 1.129 
0.807621 -0.426552 1.133 
0.852039 -0.426175 1.132 
0.898755 -0.426928 1.134 
0.932311 -0.421657 1.12 
0.850062 -0.359162 0.954 
0.847135 -0.342597 0.91 
0.844584 -0.327537 0.87 
-0.51178 -0.234582 0.627 
-0.497774 -0.242813 0.649 
-0.481353 -0.247677 0.662 
-0.476952 -0.259649 0.694 
-0.476474 -0.275363 0.736 
-0.488442 -0.300804 0.804 
-0.489312 -0.322504 0.862 
-0.498751 -0.353557 0.945 
-0.509867 -0.390971 1.045 
-0.484335 -0.404439 1.081 
-0.44287 -0.405936 1.085 
-0.401455 -0.407807 1.09 
-0.357671 -0.407433 1.089 
-0.314543 -0.407807 1.09 
-0.00126696 -4.10613 10.975 
0.401381 -0.418657 1.119 
0.446391 -0.419031 1.12 
0.492359 -0.420153 1.123 
0.536652 -0.419779 1.122 
0.581902 -0.420153 1.123 
0.626674 -0.420153 1.123 
0.673239 -0.421275 1.126 
0.71558 -0.419779 1.122 
0.765055 -0.422398 1.129 
0.813653 -0.424269 1.134 
0.857349 -0.42352 1.132 
0.904074 -0.424269 1.134 
0.919148 -0.4108 1.098 
0.848713 -0.357298 0.955 
0.84593 -0.340837 0.911 
0.845449 -0.326619 0.873 
-0.515541 -0.233484 0.628 
-0.500076 -0.24315 0.654 
-0.482699 -0.247612 0.666 
-0.478749 -0.259881 0.699 
-0.477328 -0.275124 0.74 
-0.488372 -0.300034 0.807 
-0.489551 -0.32197 0.866 
-0.498637 -0.352828 0.949 
-0.509359 -0.390007 1.049 
-0.482245 -0.402276 1.082 
-0.440732 -0.403763 1.086 
-0.398899 -0.40525 1.09 
-0.354465 -0.404135 1.087 
-0.312845 -0.406366 1.093 
0.050635 -4.11496 11.068 
0.417499 -0.416404 1.12 
0.462976 -0.417148 1.122 
0.508161 -0.417519 1.123 
0.553917 -0.418263 1.125 
0.599301 -0.418635 1.126 
0.644192 -0.418635 1.126 
0.689695 -0.419007 1.127 
0.729412 -0.416032 1.119 
0.780941 -0.41975 1.129 
0.828878 -0.421237 1.133 
0.87482 -0.421609 1.134 
0.916785 -0.420122 1.13 
0.847948 -0.364354 0.98 
0.844478 -0.346879 0.933 
0.85049 -0.33461 0.9 
0.86101 -0.32197 0.866 
-0.504606 -0.2394 0.648 
-0.488376 -0.244203 0.661 
-0.482993 -0.255286 0.691 
-0.475877 -0.266739 0.722 
-0.48488 -0.290383 0.786 
-0.487011 -0.311811 0.844 
-0.49741 -0.342105 0.926 
-0.505249 -0.375355 1.016 
-0.492646 -0.397891 1.077 
-0.453466 -0.401216 1.086 
-0.411302 -0.402325 1.089 
-0.367886 -0.402325 1.089 
-0.323576 -0.401216 1.086 
-0.283119 -0.40528 1.097 
0.409619 -0.413778 1.12 
0.455082 -0.414516 1.122 
0.50026 -0.414886 1.123 
0.546002 -0.415625 1.125 
0.590854 -0.415625 1.125 
0.635705 -0.415625 1.125 
0.681161 -0.415994 1.126 
0.722184 -0.413778 1.12 
0.772998 -0.417103 1.129 
0.821631 -0.41895 1.134 
0.866842 -0.41895 1.134 
0.908835 -0.417472 1.13 
0.846458 -0.36538 0.989 
0.846475 -0.349125 0.945 
0.850468 -0.335825 0.909 
0.84964 -0.321786 0.871 
-0.514371 -0.236779 0.645 
-0.50002 -0.242285 0.66 
-0.486626 -0.248893 0.678 
-0.478576 -0.259172 0.706 
-0.479417 -0.277894 0.757 
-0.486624 -0.301021 0.82 
-0.489915 -0.324883 0.885 
-0.498811 -0.356453 0.971 
-0.505114 -0.391328 1.066 
-0.471294 -0.39867 1.086 
-0.428391 -0.399037 1.087 
-0.386118 -0.400138 1.09 
-0.341404 -0.39867 1.086 
-0.300853 -0.402341 1.096 
0.39386 -0.411151 1.12 
0.438512 -0.411151 1.12 
0.484458 -0.412252 1.123 
0.528758 -0.411885 1.122 
0.575024 -0.412986 1.125 
0.619875 -0.412986 1.125 
0.665908 -0.413721 1.127 
0.709578 -0.412986 1.125 
0.755771 -0.413721 1.127 
0.804254 -0.415556 1.132 
0.849384 -0.415556 1.132 
0.895305 -0.415923 1.133 
0.846852 -0.369302 1.006 
0.849048 -0.353516 0.963 
0.846893 -0.337364 0.919 
0.851805 -0.32525 0.886 
-0.526583 -0.231983 0.636 
-0.508521 -0.238914 0.655 
-0.491982 -0.243656 0.668 
-0.484159 -0.253504 0.695 
-0.477467 -0.265176 0.727 
-0.483646 -0.285967 0.784 
-0.48528 -0.306758 0.841 
-0.496308 -0.338492 0.928 
-0.502866 -0.37059 1.016 
-0.49012 -0.39284 1.077 
-0.450919 -0.396123 1.086 
-0.408749 -0.397217 1.089 
-0.365332 -0.397217 1.089 
-0.321325 -0.396487 1.087 
-0.280546 -0.400135 1.097 
0.406993 -0.408524 1.12 
0.452451 -0.409254 1.122 
0.497626 -0.409619 1.123 
0.543364 -0.410348 1.125 
0.588215 -0.410348 1.125 
0.633629 -0.410713 1.126 
0.678521 -0.410713 1.126 
0.719557 -0.408524 1.12 
0.772397 -0.412901 1.132 
0.819694 -0.413996 1.135 
0.864182 -0.413631 1.134 
0.902175 -0.410348 1.125 
0.844138 -0.360742 0.989 
0.846045 -0.345422 0.947 
0.848336 -0.331561 0.909 
0.850516 -0.318795 0.874 
-0.519713 -0.234116 0.646 
-0.503808 -0.241002 0.665 
-0.490215 -0.247525 0.683 
-0.48061 -0.256948 0.709 
-0.48233 -0.273981 0.756 
-0.486881 -0.295001 0.814 
-0.485692 -0.315296 0.87 
-0.496959 -0.349 0.963 
-0.50428 -0.383791 1.059 
-0.472968 -0.392851 1.084 
-0.430941 -0.393938 1.087 
-0.389387 -0.39575 1.092 
-0.343951 -0.393576 1.086 
-0.3037 -0.397562 1.097 
0.375473 -0.405898 1.12 
0.420126 -0.405898 1.12 
0.466852 -0.40771 1.125 
0.510794 -0.406985 1.123 
0.557545 -0.408435 1.127 
0.602476 -0.408435 1.127 
0.648556 -0.409159 1.129 
0.692338 -0.408435 1.127 
0.73269 -0.405898 1.12 
0.785671 -0.410247 1.132 
0.831535 -0.410609 1.133 
0.877479 -0.410971 1.134 
0.896653 -0.399374 1.102 
0.844787 -0.354798 0.979 
0.844998 -0.339215 0.936 
0.854035 -0.328342 0.906 
0.855768 -0.315658 0.871 
-0.518358 -0.234041 0.65 
-0.502132 -0.240883 0.669 
-0.491806 -0.249164 0.692 
-0.480318 -0.257805 0.716 
-0.481428 -0.274728 0.763 
-0.485292 -0.295612 0.821 
-0.487839 -0.318656 0.885 
-0.497556 -0.350342 0.973 
-0.503085 -0.384188 1.067 
-0.468315 -0.390669 1.085 
-0.425842 -0.391389 1.087 
-0.384617 -0.393549 1.093 
-0.338545 -0.390669 1.085 
-0.298554 -0.39499 1.097 
0.3781 -0.403271 1.12 
0.422752 -0.403271 1.12 
0.469491 -0.405071 1.125 
0.513428 -0.404351 1.123 
0.560188 -0.405792 1.127 
0.606193 -0.406512 1.129 
0.65178 -0.406872 1.13 
0.694981 -0.405792 1.127 
0.735317 -0.403271 1.12 
0.789022 -0.407952 1.133 
0.834192 -0.407952 1.133 
0.878587 -0.407592 1.132 
0.879726 -0.387068 1.075 
0.845352 -0.351782 0.977 
0.845383 -0.336299 0.934 
0.855215 -0.325857 0.905 
0.858795 -0.313975 0.872 
-0.519219 -0.23359 0.653 
-0.504383 -0.240387 0.672 
-0.493938 -0.248614 0.695 
-0.480988 -0.256484 0.717 
-0.481428 -0.272939 0.763 
-0.484701 -0.293329 0.82 
-0.485634 -0.31515 0.881 
-0.497045 -0.347702 0.972 
-0.502614 -0.381328 1.066 
-0.468315 -0.388124 1.085 
-0.425842 -0.38884 1.087 
-0.384617 -0.390986 1.093 
-0.338233 -0.387767 1.084 
-0.298554 -0.392417 1.097 
-0.256213 -0.394563 1.103 
0.412982 -0.40136 1.122 
0.458122 -0.401718 1.123 
0.503789 -0.402433 1.125 
0.549616 -0.403149 1.127 
0.594547 -0.403149 1.127 
0.640613 -0.403864 1.129 
0.684409 -0.403149 1.127 
0.726105 -0.40136 1.122 
0.778394 -0.405295 1.133 
0.825745 -0.406368 1.136 
0.868734 -0.405295 1.133 
0.885673 -0.392775 1.098 
0.844799 -0.357003 0.998 
0.844701 -0.340906 0.953 
0.847498 -0.327312 0.915 
0.855961 -0.316938 0.886 
-0.532656 -0.229926 0.647 
-0.517046 -0.234546 0.66 
-0.50486 -0.241298 0.679 
-0.494678 -0.249827 0.703 
-0.4822 -0.259067 0.729 
-0.479864 -0.274348 0.772 
-0.483197 -0.296381 0.834 
-0.489331 -0.322324 0.907 
-0.494141 -0.351464 0.989 
-0.495171 -0.382737 1.077 
-0.456013 -0.385935 1.086 
-0.413856 -0.387001 1.089 
-0.371461 -0.388068 1.092 
-0.326123 -0.385935 1.086 
-0.285952 -0.3902 1.098 
-0.243279 -0.391977 1.103 
0.412982 -0.398729 1.122 
0.458122 -0.399084 1.123 
0.503789 -0.399795 1.125 
0.549128 -0.40015 1.126 
0.594547 -0.400506 1.127 
0.640613 -0.401216 1.129 
0.684409 -0.400506 1.127 
0.726105 -0.398729 1.122 
0.779081 -0.402993 1.134 
0.825745 -0.403704 1.136 
0.866434 -0.401572 1.13 
0.875993 -0.385935 1.086 
