# .PCD v.7 - Point Cloud Data file format
VERSION .7
FIELDS x y z
SIZE 4 4 4
TYPE F F F
COUNT 1 1 1
WIDTH 1820
HEIGHT 1
VIEWPOINT 0 0 0 1 0 0 0
POINTS 1820
DATA ascii
0.108664 -0.157665 0.786 
0.332083 -0.265584 1.324 
0.388938 -0.268392 1.338 
0.450214 -0.273206 1.362 
0.50933 -0.275814 1.375 
0.571123 -0.279224 1.392 
0.626619 -0.279224 1.392 
0.700246 -0.286646 1.429 
0.743441 -0.28143 1.403 
0.807922 -0.284439 1.418 
0.692548 -0.22025 1.098 
0.716205 -0.214232 1.068 
0.745995 -0.210621 1.05 
0.790858 -0.211424 1.054 
0.821026 -0.208415 1.039 
0.854148 -0.206409 1.029 
0.863854 -0.199188 0.993 
1.11958 -0.244321 1.218 
1.67038 -0.346823 1.729 
-12.0045 -2.44498 12.333 
-0.800222 -0.188929 0.953 
-0.772625 -0.191506 0.966 
-0.740192 -0.193092 0.974 
-0.703521 -0.193687 0.977 
-0.672733 -0.196066 0.989 
-0.641628 -0.198643 1.002 
-0.608886 -0.201022 1.014 
-0.574627 -0.203203 1.025 
-0.53949 -0.205384 1.036 
-0.504439 -0.207961 1.049 
-0.467027 -0.209943 1.059 
-0.432028 -0.213512 1.077 
-0.392703 -0.215494 1.087 
-0.354187 -0.218468 1.102 
-0.313068 -0.22045 1.112 
-0.27381 -0.224613 1.133 
-0.230052 -0.226001 1.14 
-0.188003 -0.230164 1.161 
-0.143304 -0.232742 1.174 
-0.0972384 -0.234526 1.183 
-0.0260678 -0.199436 1.006 
0.0130066 -0.184766 0.932 
0.0451041 -0.166131 0.838 
0.0746204 -0.154038 0.777 
0.104239 -0.152055 0.767 
0.319422 -0.26228 1.323 
0.375261 -0.264461 1.334 
0.435832 -0.269021 1.357 
0.495348 -0.271994 1.372 
0.556863 -0.275365 1.389 
0.619292 -0.278537 1.405 
0.683958 -0.282105 1.423 
0.737567 -0.280916 1.417 
0.794059 -0.280916 1.417 
0.682149 -0.218468 1.102 
0.71027 -0.21371 1.078 
0.732984 -0.207961 1.049 
0.778499 -0.208952 1.054 
0.811956 -0.206771 1.043 
0.84781 -0.205384 1.036 
0.848777 -0.196066 0.989 
1.1036 -0.240473 1.213 
1.15386 -0.24087 1.215 
1.73296 -0.345544 1.743 
-0.810545 -0.186498 0.952 
-0.781518 -0.188653 0.963 
-0.75007 -0.190416 0.972 
-0.714978 -0.191396 0.977 
-0.679486 -0.192375 0.982 
-0.652725 -0.196097 1.001 
-0.61894 -0.198056 1.011 
-0.585501 -0.200407 1.023 
-0.548976 -0.201974 1.031 
-0.515754 -0.205109 1.047 
-0.478087 -0.206872 1.056 
-0.443418 -0.210398 1.074 
-0.40433 -0.212357 1.084 
-0.36611 -0.215296 1.099 
-0.325228 -0.217255 1.109 
-0.286082 -0.221173 1.129 
-0.243206 -0.223132 1.139 
-0.201096 -0.226854 1.158 
-0.156668 -0.229401 1.171 
-0.111392 -0.232339 1.186 
-0.0617301 -0.22372 1.142 
-0.00240402 -0.191396 0.977 
0.0383097 -0.168867 0.862 
0.0662683 -0.153979 0.786 
0.0961581 -0.148885 0.76 
0.295453 -0.257219 1.313 
0.355689 -0.260745 1.331 
0.41643 -0.265642 1.356 
0.475002 -0.268189 1.369 
0.536931 -0.271911 1.388 
0.601229 -0.276025 1.409 
0.655536 -0.275242 1.405 
0.721679 -0.27916 1.425 
0.773028 -0.277201 1.415 
0.827097 -0.276417 1.411 
0.70026 -0.212749 1.086 
0.718909 -0.205697 1.05 
0.762944 -0.206284 1.053 
0.802631 -0.205697 1.05 
0.831624 -0.202562 1.034 
0.844146 -0.195901 1 
0.86103 -0.190808 0.974 
1.13007 -0.238412 1.217 
1.69422 -0.341064 1.741 
-0.829766 -0.184072 0.951 
-0.795182 -0.184846 0.955 
-0.768207 -0.187556 0.969 
-0.734846 -0.188911 0.976 
-0.696648 -0.189105 0.977 
-0.67116 -0.192976 0.997 
-0.636478 -0.194524 1.005 
-0.604126 -0.19704 1.018 
-0.568523 -0.198782 1.027 
-0.534256 -0.201299 1.04 
-0.498006 -0.203428 1.051 
-0.461747 -0.205944 1.064 
-0.425239 -0.208847 1.079 
-0.38718 -0.211557 1.093 
-0.347692 -0.214073 1.106 
-0.307166 -0.21659 1.119 
-0.266777 -0.220074 1.137 
-0.223006 -0.221622 1.145 
-0.18061 -0.225687 1.166 
-0.135504 -0.228009 1.178 
-0.0886148 -0.228203 1.179 
-0.0285118 -0.195298 1.009 
0.0129647 -0.179814 0.929 
0.0485665 -0.160652 0.83 
0.075754 -0.149038 0.77 
0.107656 -0.143425 0.741 
0.309645 -0.255688 1.321 
0.365876 -0.258204 1.334 
0.427227 -0.263237 1.36 
0.484988 -0.265172 1.37 
0.54709 -0.26885 1.389 
0.612009 -0.273108 1.411 
0.671104 -0.274269 1.417 
0.729138 -0.27485 1.42 
0.779663 -0.272721 1.409 
0.677595 -0.213493 1.103 
0.707177 -0.209234 1.081 
0.728064 -0.203041 1.049 
0.774289 -0.204202 1.055 
0.809386 -0.20246 1.046 
0.837255 -0.199169 1.029 
0.844138 -0.191427 0.989 
0.86838 -0.188137 0.972 
1.14058 -0.234784 1.213 
1.7235 -0.338724 1.75 
-0.819475 -0.182033 0.952 
-0.78891 -0.183754 0.961 
-0.759188 -0.185857 0.972 
-0.724142 -0.186813 0.977 
-0.687295 -0.187387 0.98 
-0.662115 -0.191402 1.001 
-0.627802 -0.193123 1.01 
-0.594516 -0.195418 1.022 
-0.557564 -0.196756 1.029 
-0.525073 -0.200007 1.046 
-0.487531 -0.201728 1.055 
-0.452648 -0.204978 1.072 
-0.413734 -0.20689 1.082 
-0.376077 -0.20995 1.098 
-0.335631 -0.212053 1.109 
-0.296147 -0.215495 1.127 
-0.253891 -0.217789 1.139 
-0.21141 -0.220849 1.155 
-0.16751 -0.223717 1.17 
-0.122517 -0.226776 1.186 
-0.0735213 -0.221614 1.159 
-0.0164986 -0.190829 0.998 
0.0211427 -0.173237 0.906 
0.0535538 -0.156219 0.817 
0.0815762 -0.144747 0.757 
0.12123 -0.141305 0.739 
0.329723 -0.253737 1.327 
0.388107 -0.25737 1.346 
0.448005 -0.261003 1.365 
0.50721 -0.263489 1.378 
0.568675 -0.266548 1.394 
0.629176 -0.268652 1.405 
0.695432 -0.272667 1.426 
0.73804 -0.267504 1.399 
0.79268 -0.267122 1.397 
0.693115 -0.210906 1.103 
0.712364 -0.203831 1.066 
0.745657 -0.201345 1.053 
0.792126 -0.202493 1.059 
0.817013 -0.198286 1.037 
0.845113 -0.195227 1.021 
0.847643 -0.186813 0.977 
1.10371 -0.231365 1.21 
1.15481 -0.231939 1.213 
1.74489 -0.335576 1.755 
-0.812248 -0.180178 0.954 
-0.783952 -0.182445 0.966 
-0.751613 -0.183955 0.974 
-0.716441 -0.1849 0.979 
-0.683638 -0.1866 0.988 
-0.654029 -0.189433 1.003 
-0.622001 -0.191888 1.016 
-0.586646 -0.193588 1.025 
-0.550573 -0.195287 1.034 
-0.516739 -0.19812 1.049 
-0.478992 -0.19982 1.058 
-0.444244 -0.20322 1.076 
-0.405076 -0.205108 1.086 
-0.367109 -0.20813 1.102 
-0.326107 -0.210019 1.112 
-0.286842 -0.213796 1.132 
-0.24342 -0.215307 1.14 
-0.20127 -0.218896 1.159 
-0.156936 -0.22154 1.173 
-0.111674 -0.224562 1.189 
-0.0434291 -0.193776 1.026 
0.00650487 -0.177534 0.94 
0.0399102 -0.161103 0.853 
0.0687088 -0.145805 0.772 
0.102634 -0.137872 0.73 
0.169545 -0.155248 0.822 
0.359619 -0.251947 1.334 
0.421467 -0.257235 1.362 
0.478562 -0.258746 1.37 
0.540575 -0.262335 1.389 
0.605391 -0.26649 1.411 
0.661645 -0.26649 1.411 
0.72146 -0.267812 1.418 
0.752754 -0.259124 1.372 
0.672421 -0.208319 1.103 
0.704705 -0.20492 1.085 
0.723833 -0.198309 1.05 
0.769341 -0.199254 1.055 
0.807556 -0.198309 1.05 
0.830002 -0.193776 1.026 
0.842046 -0.187355 0.992 
0.862932 -0.183389 0.971 
1.12079 -0.227961 1.207 
1.70373 -0.33146 1.755 
-13.7852 -2.65438 14.231 
-0.799927 -0.178687 0.958 
-0.771275 -0.180925 0.97 
-0.73789 -0.182231 0.977 
-0.701085 -0.18279 0.98 
-0.674174 -0.186148 0.998 
-0.640742 -0.188013 1.008 
-0.607705 -0.190251 1.02 
-0.571487 -0.191743 1.028 
-0.538244 -0.194541 1.043 
-0.501423 -0.196406 1.053 
-0.465114 -0.198831 1.066 
-0.428165 -0.201442 1.08 
-0.390813 -0.204427 1.096 
-0.350602 -0.206479 1.107 
-0.310621 -0.209276 1.122 
-0.269681 -0.212261 1.138 
-0.226085 -0.213939 1.147 
-0.183501 -0.21767 1.167 
-0.138736 -0.220468 1.182 
-0.0918448 -0.221027 1.185 
-0.0261455 -0.1882 1.009 
0.0229335 -0.166563 0.893 
0.0598691 -0.14903 0.799 
0.0923624 -0.13616 0.73 
0.122298 -0.137093 0.735 
0.187756 -0.149403 0.801 
0.404008 -0.253109 1.357 
0.46216 -0.255347 1.369 
0.523911 -0.258891 1.388 
0.585507 -0.261689 1.403 
0.639613 -0.260943 1.399 
0.706821 -0.265233 1.422 
0.714652 -0.248259 1.331 
0.802901 -0.259637 1.392 
0.700875 -0.205732 1.103 
0.71176 -0.196593 1.054 
0.753781 -0.196593 1.054 
0.798067 -0.197152 1.057 
0.818745 -0.192116 1.03 
0.83894 -0.187453 1.005 
0.850144 -0.181298 0.972 
1.10953 -0.224571 1.204 
1.69138 -0.327344 1.755 
-14.5234 -2.74145 14.885 
-0.80526 -0.176624 0.959 
-0.775825 -0.17865 0.97 
-0.741712 -0.179755 0.976 
-0.705682 -0.180492 0.98 
-0.678855 -0.183807 0.998 
-0.64547 -0.185649 1.008 
-0.612489 -0.187859 1.02 
-0.575748 -0.189148 1.027 
-0.542615 -0.191911 1.042 
-0.506362 -0.193937 1.053 
-0.469232 -0.195963 1.064 
-0.43283 -0.198725 1.079 
-0.395593 -0.201672 1.095 
-0.355794 -0.203882 1.107 
-0.315039 -0.206093 1.119 
-0.275018 -0.209592 1.138 
-0.231263 -0.211065 1.146 
-0.188975 -0.214933 1.167 
-0.144158 -0.217511 1.181 
-0.0976494 -0.218801 1.188 
-0.023685 -0.185097 1.005 
0.0190179 -0.166863 0.906 
0.0564727 -0.148077 0.804 
0.0819201 -0.137027 0.744 
0.112287 -0.133712 0.726 
0.178094 -0.150471 0.817 
0.371217 -0.247164 1.342 
0.431999 -0.2514 1.365 
0.489982 -0.253242 1.375 
0.550348 -0.25582 1.389 
0.612702 -0.258767 1.405 
0.672048 -0.260056 1.412 
0.716477 -0.25582 1.389 
0.800594 -0.255636 1.388 
0.700875 -0.203146 1.103 
0.71176 -0.194121 1.054 
0.754496 -0.194305 1.055 
0.798822 -0.194858 1.058 
0.81954 -0.189885 1.031 
0.83727 -0.184728 1.003 
0.850144 -0.179019 0.972 
1.11147 -0.221011 1.2 
1.70639 -0.324517 1.762 
-14.7934 -2.77019 15.235 
-0.803267 -0.174921 0.962 
-0.772865 -0.176739 0.972 
-0.73789 -0.177648 0.977 
-0.703231 -0.178739 0.983 
-0.674849 -0.181649 0.999 
-0.641378 -0.183467 1.009 
-0.608897 -0.185831 1.022 
-0.572043 -0.187104 1.029 
-0.539276 -0.190013 1.045 
-0.501899 -0.191649 1.054 
-0.465987 -0.194195 1.068 
-0.428562 -0.196559 1.081 
-0.39117 -0.199468 1.097 
-0.350919 -0.201468 1.108 
-0.311451 -0.204559 1.125 
-0.269918 -0.207105 1.139 
-0.227071 -0.209469 1.152 
-0.183816 -0.21256 1.169 
-0.139088 -0.215469 1.185 
-0.0918448 -0.215469 1.185 
-0.0188957 -0.182012 1.001 
0.0286601 -0.159283 0.876 
0.0625816 -0.142919 0.786 
0.0884511 -0.132009 0.726 
0.116425 -0.130918 0.72 
0.182267 -0.147283 0.81 
0.221618 -0.148192 0.815 
0.432315 -0.24838 1.366 
0.490339 -0.250199 1.376 
0.550348 -0.252562 1.389 
0.610085 -0.254381 1.399 
0.670144 -0.256017 1.408 
0.708224 -0.249653 1.373 
0.820285 -0.255472 1.405 
0.704774 -0.198741 1.093 
0.720963 -0.191467 1.053 
0.765842 -0.192195 1.057 
0.804924 -0.191467 1.053 
0.824386 -0.186376 1.025 
0.839926 -0.180921 0.995 
0.859262 -0.176739 0.972 
1.12647 -0.218924 1.204 
1.72781 -0.321294 1.767 
-0.825672 -0.171229 0.954 
-0.797545 -0.173383 0.966 
-0.764533 -0.174639 0.973 
-0.730963 -0.175896 0.98 
-0.696128 -0.176972 0.986 
-0.667477 -0.179844 1.002 
-0.635044 -0.181998 1.014 
-0.599896 -0.183613 1.023 
-0.565123 -0.185588 1.034 
-0.5315 -0.18828 1.049 
-0.493879 -0.189895 1.058 
-0.45853 -0.192767 1.074 
-0.41997 -0.194742 1.085 
-0.382268 -0.197613 1.101 
-0.341754 -0.199588 1.112 
-0.302236 -0.202818 1.13 
-0.259688 -0.204793 1.141 
-0.21739 -0.207844 1.158 
-0.173293 -0.210357 1.172 
-0.128728 -0.213946 1.192 
-0.0799111 -0.210536 1.173 
-0.0117821 -0.178588 0.995 
0.0305391 -0.156332 0.871 
0.0597193 -0.14305 0.797 
0.0869875 -0.130665 0.728 
0.11378 -0.128152 0.714 
0.193882 -0.138742 0.773 
0.404901 -0.2441 1.36 
0.463173 -0.246254 1.372 
0.523911 -0.249126 1.388 
0.585507 -0.251818 1.403 
0.631841 -0.248049 1.382 
0.698371 -0.252177 1.405 
0.692174 -0.227408 1.267 
0.684006 -0.198331 1.105 
0.710929 -0.193665 1.079 
0.739273 -0.189895 1.058 
0.78884 -0.19169 1.068 
0.816627 -0.18828 1.049 
0.829807 -0.181998 1.014 
0.838479 -0.175357 0.977 
0.872939 -0.17446 0.972 
1.151 -0.216998 1.209 
1.76179 -0.318048 1.772 
-0.815105 -0.170055 0.96 
-0.784115 -0.171649 0.969 
-0.750868 -0.172889 0.976 
-0.717793 -0.174306 0.984 
-0.688217 -0.176786 0.998 
-0.655576 -0.178734 1.009 
-0.623277 -0.181037 1.022 
-0.584812 -0.181746 1.026 
-0.550799 -0.184049 1.039 
-0.51624 -0.186529 1.053 
-0.480114 -0.188831 1.066 
-0.442952 -0.191134 1.079 
-0.405123 -0.193614 1.093 
-0.366179 -0.196094 1.107 
-0.325536 -0.19822 1.119 
-0.285694 -0.201585 1.138 
-0.241802 -0.202825 1.145 
-0.199922 -0.206723 1.167 
-0.154842 -0.208671 1.178 
-0.109526 -0.21186 1.196 
-0.0410629 -0.181923 1.027 
0.00642875 -0.164563 0.929 
0.0430874 -0.148266 0.837 
0.0694232 -0.134626 0.76 
0.0966281 -0.125947 0.711 
0.179254 -0.142598 0.805 
0.394461 -0.240379 1.357 
0.452859 -0.242682 1.37 
0.514145 -0.24587 1.388 
0.575636 -0.248528 1.403 
0.619417 -0.243745 1.376 
0.684566 -0.247465 1.397 
0.682664 -0.226208 1.277 
0.687219 -0.195917 1.106 
0.712137 -0.19078 1.077 
0.743858 -0.187946 1.061 
0.792085 -0.189363 1.069 
0.819087 -0.18582 1.049 
0.831364 -0.179443 1.013 
0.839049 -0.172712 0.975 
0.875219 -0.17218 0.972 
1.14343 -0.213808 1.207 
1.75546 -0.314247 1.774 
-0.820147 -0.167454 0.958 
-0.790932 -0.169376 0.969 
-0.756958 -0.170425 0.975 
-0.726188 -0.172348 0.986 
-0.693148 -0.173921 0.995 
-0.662018 -0.176193 1.008 
-0.629234 -0.178291 1.02 
-0.591453 -0.179165 1.025 
-0.558109 -0.181612 1.039 
-0.522654 -0.183709 1.051 
-0.486699 -0.185982 1.064 
-0.450125 -0.188429 1.078 
-0.411302 -0.190352 1.089 
-0.373291 -0.193148 1.105 
-0.332813 -0.195246 1.117 
-0.293442 -0.198742 1.137 
-0.24964 -0.199965 1.144 
-0.207776 -0.203636 1.165 
-0.162853 -0.205559 1.176 
-0.118039 -0.20923 1.197 
-0.0611935 -0.189653 1.085 
-0.0141581 -0.174445 0.998 
0.0284965 -0.152246 0.871 
0.0581405 -0.140011 0.801 
0.0920125 -0.124804 0.714 
0.118389 -0.120958 0.692 
0.210057 -0.138612 0.793 
0.446433 -0.239469 1.37 
0.506538 -0.242091 1.385 
0.567433 -0.244538 1.399 
0.611627 -0.239993 1.373 
0.673645 -0.242615 1.388 
0.680537 -0.225485 1.29 
0.681415 -0.193148 1.105 
0.710368 -0.189128 1.082 
0.740274 -0.185807 1.063 
0.785599 -0.186506 1.067 
0.814943 -0.183535 1.05 
0.830692 -0.177941 1.018 
0.837043 -0.170949 0.978 
0.872451 -0.17025 0.974 
1.12648 -0.209929 1.201 
1.73882 -0.310086 1.774 
-0.828268 -0.165034 0.957 
-0.800022 -0.167104 0.969 
-0.765319 -0.167966 0.974 
-0.733946 -0.169691 0.984 
-0.70107 -0.171243 0.993 
-0.669475 -0.173312 1.005 
-0.636297 -0.175209 1.016 
-0.601069 -0.176761 1.025 
-0.566763 -0.17883 1.037 
-0.532006 -0.181072 1.05 
-0.49528 -0.182969 1.061 
-0.459384 -0.185556 1.076 
-0.420357 -0.18728 1.086 
-0.382963 -0.190212 1.103 
-0.342676 -0.192281 1.115 
-0.303305 -0.195558 1.134 
-0.260144 -0.19711 1.143 
-0.218141 -0.200387 1.162 
-0.173737 -0.202628 1.175 
-0.129268 -0.206422 1.197 
-0.0489937 -0.179693 1.042 
-0.00697218 -0.168139 0.975 
0.039723 -0.14641 0.849 
0.0676408 -0.131062 0.76 
0.104383 -0.120025 0.696 
0.192127 -0.132097 0.766 
0.436475 -0.236084 1.369 
0.496794 -0.238843 1.385 
0.555598 -0.240395 1.394 
0.601528 -0.236601 1.372 
0.660532 -0.238153 1.381 
0.686054 -0.228324 1.324 
0.83928 -0.252984 1.467 
0.70024 -0.19004 1.102 
0.719864 -0.183831 1.066 
0.758787 -0.182969 1.061 
0.802597 -0.183314 1.063 
0.823514 -0.178658 1.036 
0.83727 -0.172967 1.003 
0.851019 -0.167794 0.973 
1.08096 -0.203318 1.179 
1.15475 -0.208147 1.207 
-14.7628 -2.56143 15.058 
-0.816241 -0.163981 0.964 
-0.784263 -0.165342 0.972 
-0.750113 -0.166362 0.978 
-0.71912 -0.168233 0.989 
-0.686564 -0.169934 0.999 
-0.654504 -0.171976 1.011 
-0.621488 -0.174017 1.023 
-0.583541 -0.174868 1.028 
-0.552057 -0.177929 1.046 
-0.514258 -0.17929 1.054 
-0.479406 -0.182012 1.07 
-0.441238 -0.183883 1.081 
-0.403665 -0.186435 1.096 
-0.364568 -0.188816 1.11 
-0.324932 -0.191538 1.126 
-0.283522 -0.193919 1.14 
-0.240579 -0.195961 1.152 
-0.197692 -0.199022 1.17 
-0.153113 -0.201744 1.186 
-0.106811 -0.203615 1.197 
-0.0336068 -0.173507 1.02 
0.0186401 -0.151053 0.888 
0.0497218 -0.138975 0.817 
0.0846945 -0.122986 0.723 
0.109956 -0.117372 0.69 
0.194953 -0.12979 0.763 
0.447085 -0.233384 1.372 
0.508001 -0.236275 1.389 
0.569056 -0.238657 1.403 
0.607172 -0.231853 1.363 
0.668792 -0.234404 1.378 
0.678562 -0.219775 1.292 
0.854813 -0.252095 1.482 
0.702208 -0.186605 1.097 
0.726223 -0.181672 1.068 
0.763763 -0.180481 1.061 
0.804544 -0.180141 1.059 
0.823576 -0.175208 1.03 
0.839456 -0.170105 1 
0.856462 -0.165682 0.974 
1.0948 -0.201574 1.185 
1.72351 -0.303467 1.784 
-14.324 -2.46875 14.716 
-0.811977 -0.162223 0.967 
-0.779024 -0.163398 0.974 
-0.745512 -0.164572 0.981 
-0.714323 -0.166417 0.992 
-0.681576 -0.168095 1.002 
-0.648672 -0.16994 1.013 
-0.614891 -0.171786 1.024 
-0.57743 -0.172792 1.03 
-0.54626 -0.17598 1.049 
-0.508286 -0.177322 1.057 
-0.474083 -0.180341 1.075 
-0.434836 -0.181851 1.084 
-0.398122 -0.184871 1.102 
-0.357723 -0.186716 1.113 
-0.318136 -0.189568 1.13 
-0.275985 -0.191581 1.142 
-0.233886 -0.194433 1.159 
-0.189947 -0.196782 1.173 
-0.145501 -0.199969 1.192 
-0.0979782 -0.199969 1.192 
-0.0285118 -0.169269 1.009 
0.0302937 -0.144944 0.864 
0.0675518 -0.127329 0.759 
0.091497 -0.119109 0.71 
0.114741 -0.114076 0.68 
0.186852 -0.126155 0.752 
0.440007 -0.22983 1.37 
0.501486 -0.233018 1.389 
0.561273 -0.234863 1.4 
0.600338 -0.228488 1.362 
0.659445 -0.230166 1.372 
0.683433 -0.220268 1.313 
0.694312 -0.207854 1.239 
0.700911 -0.184368 1.099 
0.727785 -0.180174 1.074 
0.763428 -0.178496 1.064 
0.807362 -0.178832 1.066 
0.826741 -0.173967 1.037 
0.839622 -0.168263 1.003 
0.854177 -0.163398 0.974 
1.09294 -0.198963 1.186 
1.72351 -0.299283 1.784 
-13.8519 -2.35401 14.231 
-0.812817 -0.160121 0.968 
-0.779024 -0.161113 0.974 
-0.746272 -0.162437 0.982 
-0.715043 -0.164256 0.993 
-0.682256 -0.16591 1.003 
-0.648672 -0.167565 1.013 
-0.614891 -0.169384 1.024 
-0.57743 -0.170377 1.03 
-0.54626 -0.17352 1.049 
-0.508767 -0.175008 1.058 
-0.474524 -0.177986 1.076 
-0.435237 -0.179474 1.085 
-0.398122 -0.182287 1.102 
-0.358044 -0.184271 1.114 
-0.318699 -0.187249 1.132 
-0.275985 -0.188903 1.142 
-0.23429 -0.192046 1.161 
-0.189947 -0.194031 1.173 
-0.145989 -0.197835 1.196 
-0.0981426 -0.197505 1.194 
-0.0211795 -0.165083 0.998 
0.0244112 -0.144076 0.871 
0.0631955 -0.127534 0.771 
0.0872328 -0.118437 0.716 
0.110119 -0.112647 0.681 
0.135306 -0.108512 0.656 
0.502569 -0.230257 1.392 
0.562475 -0.232076 1.403 
0.596371 -0.223805 1.353 
0.658003 -0.226452 1.369 
0.685515 -0.217851 1.317 
0.694312 -0.204948 1.239 
0.703496 -0.181129 1.095 
0.734187 -0.177986 1.076 
0.768418 -0.176001 1.064 
0.812362 -0.176332 1.066 
0.829199 -0.171038 1.034 
0.84096 -0.165249 0.999 
0.859627 -0.161279 0.975 
1.10686 -0.197174 1.192 
1.74025 -0.295099 1.784 
-0.833984 -0.156709 0.961 
-0.804778 -0.158503 0.972 
-0.769967 -0.159318 0.977 
-0.73775 -0.160786 0.986 
-0.706232 -0.16258 0.997 
-0.674506 -0.164537 1.009 
-0.640565 -0.166167 1.019 
-0.604061 -0.167309 1.026 
-0.570292 -0.169429 1.039 
-0.534978 -0.171386 1.051 
-0.501052 -0.174158 1.068 
-0.463195 -0.175952 1.079 
-0.424461 -0.177745 1.09 
-0.386598 -0.180354 1.106 
-0.34684 -0.182637 1.12 
-0.306774 -0.18541 1.137 
-0.263514 -0.186877 1.146 
-0.222007 -0.190465 1.168 
-0.176943 -0.192095 1.178 
-0.132406 -0.195683 1.2 
-0.0482884 -0.167472 1.027 
-0.00234496 -0.155405 0.953 
0.0358672 -0.138935 0.852 
0.0673738 -0.123443 0.757 
0.091497 -0.115779 0.71 
0.113729 -0.109909 0.674 
0.1881 -0.12116 0.743 
0.489511 -0.226992 1.392 
0.545007 -0.226992 1.392 
0.592307 -0.223894 1.373 
0.636207 -0.220143 1.35 
0.682361 -0.217697 1.335 
0.684893 -0.202695 1.243 
0.703496 -0.178561 1.095 
0.735551 -0.175788 1.078 
0.769863 -0.173832 1.066 
0.81541 -0.174484 1.07 
0.834011 -0.169592 1.04 
0.841801 -0.163069 1 
0.859627 -0.158992 0.975 
1.11057 -0.195031 1.196 
1.7422 -0.291241 1.786 
-0.835367 -0.154295 0.96 
-0.807058 -0.156224 0.972 
-0.772258 -0.157027 0.977 
-0.740063 -0.158474 0.986 
-0.70857 -0.160242 0.997 
-0.676872 -0.16217 1.009 
-0.642955 -0.163778 1.019 
-0.606467 -0.164903 1.026 
-0.572729 -0.166992 1.039 
-0.537954 -0.169082 1.052 
-0.503085 -0.171492 1.067 
-0.465726 -0.173421 1.079 
-0.427801 -0.17551 1.092 
-0.389192 -0.177761 1.106 
-0.349466 -0.180011 1.12 
-0.309441 -0.182743 1.137 
-0.266434 -0.18435 1.147 
-0.224746 -0.187726 1.168 
-0.179706 -0.189333 1.178 
-0.135333 -0.193029 1.201 
-0.0862867 -0.190458 1.185 
-0.0187069 -0.159277 0.991 
0.0203259 -0.139991 0.871 
0.0511954 -0.130186 0.81 
0.0788821 -0.11765 0.732 
0.105173 -0.109292 0.68 
0.134069 -0.104471 0.65 
0.213949 -0.119257 0.742 
0.481941 -0.223246 1.389 
0.536931 -0.223085 1.388 
0.590988 -0.222603 1.385 
0.623343 -0.214727 1.336 
0.681671 -0.216334 1.346 
0.681794 -0.200583 1.248 
0.699604 -0.176957 1.101 
0.730668 -0.173903 1.082 
0.766654 -0.172296 1.072 
0.812412 -0.172939 1.076 
0.840207 -0.169885 1.057 
0.843113 -0.162331 1.01 
0.852768 -0.156706 0.975 
1.09752 -0.191904 1.194 
1.15471 -0.193512 1.204 
-13.4423 -2.18198 13.777 
-0.815929 -0.153469 0.969 
-0.78211 -0.154419 0.975 
-0.7501 -0.155845 0.984 
-0.718816 -0.157587 0.995 
-0.684608 -0.158854 1.003 
-0.652976 -0.160913 1.016 
-0.617895 -0.162338 1.025 
-0.582097 -0.163764 1.034 
-0.549243 -0.166298 1.05 
-0.512697 -0.16804 1.061 
-0.477491 -0.170574 1.077 
-0.438588 -0.172158 1.087 
-0.401433 -0.17485 1.104 
-0.36098 -0.176592 1.115 
-0.321921 -0.179601 1.134 
-0.279151 -0.181185 1.144 
-0.238034 -0.18467 1.166 
-0.193026 -0.186095 1.175 
-0.149167 -0.189896 1.199 
-0.101112 -0.189421 1.196 
-0.0307251 -0.159012 1.004 
0.0124763 -0.141591 0.894 
0.0442429 -0.130187 0.822 
0.0702686 -0.118784 0.75 
0.107725 -0.107064 0.676 
0.135176 -0.102629 0.648 
0.205248 -0.117517 0.742 
0.235463 -0.117834 0.744 
0.518405 -0.218879 1.382 
0.588027 -0.224423 1.417 
0.604948 -0.210644 1.33 
0.668856 -0.214128 1.352 
0.688009 -0.203833 1.287 
0.688461 -0.175484 1.108 
0.718088 -0.171999 1.086 
0.755776 -0.170732 1.078 
0.798754 -0.170732 1.078 
0.842512 -0.170891 1.079 
0.842033 -0.162497 1.026 
0.842491 -0.155053 0.979 
1.06347 -0.18657 1.178 
1.13117 -0.190054 1.2 
1.77104 -0.284131 1.794 
-0.827544 -0.150416 0.964 
-0.797297 -0.151977 0.974 
-0.763138 -0.152913 0.98 
-0.732934 -0.154785 0.992 
-0.698278 -0.155878 0.999 
-0.667677 -0.158062 1.013 
-0.634103 -0.159778 1.024 
-0.596175 -0.160559 1.029 
-0.565401 -0.163523 1.048 
-0.527117 -0.164615 1.055 
-0.493792 -0.16758 1.074 
-0.454753 -0.168984 1.083 
-0.417277 -0.171325 1.098 
-0.377243 -0.173041 1.109 
-0.339036 -0.176162 1.129 
-0.29689 -0.177878 1.14 
-0.254528 -0.180063 1.154 
-0.211773 -0.182871 1.172 
-0.167301 -0.185368 1.188 
-0.121351 -0.187552 1.202 
-0.0483824 -0.160559 1.029 
-0.00687207 -0.149948 0.961 
0.0358251 -0.132785 0.851 
0.0644977 -0.119366 0.765 
0.105982 -0.105323 0.675 
0.131933 -0.100954 0.647 
0.201106 -0.116401 0.746 
0.230848 -0.116401 0.746 
0.500022 -0.217511 1.394 
0.562374 -0.220163 1.411 
0.588814 -0.209553 1.343 
0.636139 -0.207525 1.33 
0.688127 -0.207213 1.328 
0.693638 -0.19395 1.243 
0.702186 -0.171793 1.101 
0.735916 -0.169452 1.086 
0.772038 -0.167892 1.076 
0.820237 -0.168984 1.083 
0.858758 -0.16758 1.074 
0.841135 -0.156346 1.002 
0.857341 -0.152133 0.975 
1.10866 -0.18724 1.2 
1.73738 -0.279924 1.794 
-13.3777 -2.11736 13.777 
-0.813896 -0.149385 0.972 
-0.779132 -0.150154 0.977 
-0.748515 -0.151844 0.988 
-0.715585 -0.153227 0.997 
-0.681937 -0.154611 1.006 
-0.650124 -0.156608 1.019 
-0.614284 -0.157838 1.027 
-0.580039 -0.159682 1.039 
-0.545874 -0.161834 1.053 
-0.510592 -0.163986 1.067 
-0.473317 -0.16583 1.079 
-0.435883 -0.167981 1.093 
-0.397332 -0.170133 1.107 
-0.357346 -0.172131 1.12 
-0.31744 -0.174744 1.137 
-0.274743 -0.176434 1.148 
-0.233362 -0.179815 1.17 
-0.188153 -0.181199 1.179 
-0.143783 -0.18458 1.201 
-0.0948633 -0.182582 1.188 
-0.0282575 -0.153688 1 
0.0163525 -0.134785 0.877 
0.0478058 -0.125563 0.817 
0.0958857 -0.104815 0.682 
0.118277 -0.0994364 0.647 
0.143403 -0.0989753 0.644 
0.236729 -0.114959 0.748 
0.504743 -0.213473 1.389 
0.571411 -0.217776 1.417 
0.589796 -0.204559 1.331 
0.639962 -0.203637 1.325 
0.692787 -0.203637 1.325 
0.699468 -0.191035 1.243 
0.7041 -0.169672 1.104 
0.740503 -0.167367 1.089 
0.776001 -0.165676 1.078 
0.827335 -0.167367 1.089 
0.865154 -0.166291 1.082 
0.841819 -0.151998 0.989 
1.05249 -0.180584 1.175 
1.12179 -0.184272 1.199 
1.75842 -0.275717 1.794 
-0.834327 -0.145895 0.964 
-0.80415 -0.147408 0.974 
-0.770033 -0.148316 0.98 
-0.739913 -0.150132 0.992 
-0.7046 -0.151041 0.998 
-0.674804 -0.153311 1.013 
-0.641307 -0.154975 1.024 
-0.604001 -0.155884 1.03 
-0.571681 -0.158305 1.046 
-0.53454 -0.159667 1.055 
-0.500881 -0.162391 1.073 
-0.461946 -0.163753 1.082 
-0.425389 -0.166326 1.099 
-0.385046 -0.16784 1.109 
-0.346979 -0.170866 1.129 
-0.30491 -0.172531 1.14 
-0.262647 -0.17465 1.154 
-0.220206 -0.177526 1.173 
-0.175363 -0.179493 1.186 
-0.130024 -0.182217 1.204 
-0.0595015 -0.159667 1.055 
-0.0161845 -0.148165 0.979 
0.0261197 -0.130155 0.86 
0.0714512 -0.112599 0.744 
0.103936 -0.101703 0.672 
0.124113 -0.096557 0.638 
0.218308 -0.112751 0.745 
0.249674 -0.113507 0.75 
0.530216 -0.208702 1.379 
0.587315 -0.209459 1.384 
0.612318 -0.199622 1.319 
0.670952 -0.201438 1.331 
0.688659 -0.191601 1.266 
0.684352 -0.168596 1.114 
0.71699 -0.165872 1.096 
0.751662 -0.163905 1.083 
0.803646 -0.165721 1.095 
0.854266 -0.167083 1.104 
0.885454 -0.163753 1.082 
0.845908 -0.14756 0.975 
1.10388 -0.182217 1.204 
1.14901 -0.181763 1.201 
-13.8853 -2.12039 14.231 
-0.818455 -0.144826 0.972 
-0.784517 -0.14572 0.978 
-0.753911 -0.147359 0.989 
-0.720984 -0.1487 0.998 
-0.685291 -0.149594 1.004 
-0.655546 -0.151978 1.02 
-0.619101 -0.153021 1.027 
-0.585475 -0.154958 1.04 
-0.550813 -0.156895 1.053 
-0.515114 -0.158832 1.066 
-0.477935 -0.16062 1.078 
-0.441816 -0.163153 1.095 
-0.402524 -0.164941 1.107 
-0.362275 -0.166729 1.119 
-0.322773 -0.169411 1.137 
-0.280127 -0.17105 1.148 
-0.239054 -0.174477 1.171 
-0.194012 -0.175967 1.181 
-0.149416 -0.178947 1.201 
-0.10052 -0.177159 1.189 
-0.0282292 -0.148849 0.999 
0.0163338 -0.130522 0.876 
0.0699875 -0.111302 0.747 
0.0987939 -0.101319 0.68 
0.118313 -0.0952098 0.639 
0.20643 -0.110259 0.74 
0.241992 -0.111451 0.748 
0.507578 -0.205468 1.379 
0.576018 -0.210385 1.412 
0.593351 -0.197422 1.325 
0.641787 -0.196081 1.316 
0.695836 -0.196528 1.319 
0.705866 -0.185354 1.244 
0.704688 -0.165239 1.109 
0.741473 -0.1636 1.098 
0.77309 -0.161067 1.081 
0.835063 -0.164792 1.106 
0.883132 -0.165537 1.111 
0.84163 -0.14572 0.978 
1.08079 -0.177457 1.191 
1.1368 -0.178798 1.2 
1.78863 -0.268047 1.799 
-0.825871 -0.142253 0.97 
-0.792879 -0.14328 0.977 
-0.762417 -0.144893 0.988 
-0.728882 -0.146066 0.996 
-0.693325 -0.146946 1.002 
-0.664463 -0.149439 1.019 
-0.628735 -0.150613 1.027 
-0.594659 -0.152372 1.039 
-0.559625 -0.154132 1.051 
-0.523636 -0.155892 1.063 
-0.487594 -0.157945 1.077 
-0.450024 -0.159852 1.09 
-0.412163 -0.162051 1.105 
-0.371107 -0.163371 1.114 
-0.333146 -0.166598 1.136 
-0.29039 -0.168064 1.146 
-0.248971 -0.170997 1.166 
-0.204569 -0.172757 1.178 
-0.160415 -0.175837 1.199 
-0.112801 -0.17613 1.201 
-0.038391 -0.149586 1.02 
0.00208257 -0.136974 0.934 
0.0656852 -0.111163 0.758 
0.0890728 -0.103244 0.704 
0.10882 -0.095911 0.654 
0.130356 -0.0926846 0.632 
0.227716 -0.11043 0.753 
0.258763 -0.11087 0.756 
0.542267 -0.203114 1.385 
0.583248 -0.198275 1.352 
0.615942 -0.191675 1.307 
0.675206 -0.193728 1.321 
0.688199 -0.183169 1.249 
0.690048 -0.164105 1.119 
0.724156 -0.161758 1.103 
0.756291 -0.159265 1.086 
0.813577 -0.162051 1.105 
0.862288 -0.162931 1.111 
0.922085 -0.165718 1.13 
0.851893 -0.14284 0.974 
1.11235 -0.17657 1.204 
1.74353 -0.263389 1.796 
-0.842854 -0.139401 0.966 
-0.811003 -0.140556 0.974 
-0.778513 -0.14171 0.982 
-0.747645 -0.143298 0.993 
-0.712335 -0.144163 0.999 
-0.680585 -0.145895 1.011 
-0.648511 -0.147771 1.024 
-0.612434 -0.148926 1.032 
-0.579594 -0.15109 1.047 
-0.542476 -0.152389 1.056 
-0.508431 -0.154842 1.073 
-0.469124 -0.155997 1.081 
-0.434303 -0.159027 1.102 
-0.393202 -0.160182 1.11 
-0.354293 -0.162635 1.127 
-0.312931 -0.164511 1.14 
-0.271001 -0.166675 1.155 
-0.228459 -0.169273 1.173 
-0.184017 -0.171438 1.188 
-0.13861 -0.173891 1.205 
-0.0883893 -0.169706 1.176 
-0.0306333 -0.144452 1.001 
0.0163152 -0.126269 0.875 
0.0808536 -0.103757 0.719 
0.110861 -0.0935114 0.648 
0.136285 -0.0912025 0.632 
0.233942 -0.109097 0.756 
0.264082 -0.109097 0.756 
0.545515 -0.199866 1.385 
0.579045 -0.192651 1.335 
0.615692 -0.1876 1.3 
0.671628 -0.188754 1.308 
0.690575 -0.180096 1.248 
0.685833 -0.162346 1.125 
0.718993 -0.159749 1.107 
0.754855 -0.158017 1.095 
0.800698 -0.15845 1.098 
0.853702 -0.160182 1.11 
0.920607 -0.164222 1.138 
0.845352 -0.140989 0.977 
1.10572 -0.174035 1.206 
1.14806 -0.173169 1.2 
-14.8649 -2.1628 15.235 
-0.820139 -0.138272 0.974 
-0.786121 -0.139123 0.98 
-0.756198 -0.140827 0.992 
-0.720984 -0.141679 0.998 
-0.686656 -0.142814 1.006 
-0.657475 -0.145228 1.023 
-0.620909 -0.146221 1.03 
-0.588853 -0.148493 1.046 
-0.551336 -0.149629 1.054 
-0.51608 -0.151616 1.068 
-0.478378 -0.153178 1.079 
-0.443027 -0.155875 1.098 
-0.402888 -0.157294 1.108 
-0.363247 -0.159282 1.122 
-0.323341 -0.161695 1.139 
-0.281103 -0.163541 1.152 
-0.239258 -0.16638 1.172 
-0.194669 -0.168226 1.185 
-0.14954 -0.170639 1.202 
-0.100435 -0.168651 1.188 
-0.040903 -0.145228 1.023 
0.00642875 -0.131883 0.929 
0.0685097 -0.106472 0.75 
0.110861 -0.0919917 0.648 
0.132055 -0.0888686 0.626 
0.22655 -0.107182 0.755 
0.25699 -0.107324 0.756 
0.524307 -0.194773 1.372 
0.576051 -0.193779 1.365 
0.603682 -0.185545 1.307 
0.649266 -0.1837 1.294 
0.691106 -0.181144 1.276 
0.732092 -0.178731 1.259 
0.708316 -0.159424 1.123 
0.741017 -0.156869 1.105 
0.770151 -0.153887 1.084 
0.833627 -0.15772 1.111 
0.892144 -0.160276 1.129 
0.967868 -0.165528 1.166 
1.08399 -0.171349 1.207 
1.12461 -0.170213 1.199 
1.77598 -0.255391 1.799 
-0.831276 -0.135568 0.971 
-0.797462 -0.136406 0.977 
-0.76938 -0.138361 0.991 
-0.73429 -0.139199 0.997 
-0.697328 -0.139757 1.001 
-0.669899 -0.14241 1.02 
-0.634786 -0.143666 1.029 
-0.60184 -0.145621 1.043 
-0.564555 -0.146738 1.051 
-0.529119 -0.148553 1.064 
-0.492646 -0.150368 1.077 
-0.455971 -0.152462 1.092 
-0.418101 -0.154556 1.107 
-0.37667 -0.155673 1.115 
-0.338772 -0.158745 1.137 
-0.296023 -0.160141 1.147 
-0.254659 -0.162933 1.167 
-0.21063 -0.164888 1.181 
-0.165761 -0.167122 1.197 
-0.118927 -0.168379 1.206 
-0.0609679 -0.150926 1.081 
0.00425009 -0.129705 0.929 
0.0782356 -0.101362 0.726 
0.106076 -0.091589 0.656 
0.124973 -0.0865628 0.62 
0.153305 -0.0837704 0.6 
0.233942 -0.105551 0.756 
0.264432 -0.10569 0.757 
0.542758 -0.192393 1.378 
0.575575 -0.185272 1.327 
0.613324 -0.180804 1.295 
0.660845 -0.179688 1.287 
0.692788 -0.174801 1.252 
0.756347 -0.178012 1.275 
0.715702 -0.155534 1.114 
0.75261 -0.153998 1.103 
0.789362 -0.152602 1.093 
0.846655 -0.155115 1.111 
0.917412 -0.159722 1.144 
0.986591 -0.163632 1.172 
1.0755 -0.168518 1.207 
1.11898 -0.167401 1.199 
1.76754 -0.251172 1.799 
-0.835831 -0.133291 0.971 
-0.802044 -0.134115 0.977 
-0.774028 -0.136037 0.991 
-0.738225 -0.136723 0.996 
-0.702023 -0.137409 1.001 
-0.674683 -0.140018 1.02 
-0.639612 -0.141253 1.029 
-0.60615 -0.143038 1.042 
-0.569485 -0.144273 1.051 
-0.534109 -0.146058 1.064 
-0.497697 -0.147842 1.077 
-0.459826 -0.149489 1.089 
-0.423293 -0.15196 1.107 
-0.381899 -0.153058 1.115 
-0.343802 -0.155941 1.136 
-0.301403 -0.157451 1.147 
-0.259686 -0.159922 1.165 
-0.215803 -0.161844 1.179 
-0.171232 -0.164178 1.196 
-0.124583 -0.16555 1.206 
-0.0725697 -0.157039 1.144 
-0.0161514 -0.134115 0.977 
0.0781278 -0.0995223 0.725 
0.104856 -0.0903251 0.658 
0.123519 -0.0851087 0.62 
0.151898 -0.0823633 0.6 
0.232783 -0.104052 0.758 
0.264781 -0.104052 0.758 
0.541576 -0.188749 1.375 
0.574707 -0.181886 1.325 
0.613324 -0.177767 1.295 
0.658278 -0.175983 1.282 
0.695002 -0.172414 1.256 
0.757533 -0.175297 1.277 
0.718915 -0.153608 1.119 
0.753974 -0.151686 1.105 
0.790806 -0.150313 1.095 
0.846655 -0.152509 1.111 
0.923025 -0.158 1.151 
0.987433 -0.16102 1.173 
1.0483 -0.163217 1.189 
1.11618 -0.164178 1.196 
-14.8649 -2.05561 15.235 
-0.822424 -0.131419 0.974 
-0.789224 -0.132363 0.981 
-0.760818 -0.134252 0.995 
-0.723324 -0.134657 0.998 
-0.690385 -0.136006 1.008 
-0.661164 -0.1383 1.025 
-0.625746 -0.139515 1.034 
-0.593002 -0.141538 1.049 
-0.554333 -0.142348 1.055 
-0.519556 -0.144372 1.07 
-0.4818 -0.145856 1.081 
-0.445602 -0.14815 1.098 
-0.406218 -0.149769 1.11 
-0.366856 -0.151793 1.125 
-0.326298 -0.153817 1.14 
-0.284544 -0.155841 1.155 
-0.242213 -0.158269 1.173 
-0.197948 -0.160293 1.188 
-0.152613 -0.162452 1.204 
-0.103569 -0.160833 1.192 
-0.0381275 -0.136681 1.013 
0.0637389 -0.102005 0.756 
0.0871734 -0.0947188 0.702 
0.109342 -0.0874327 0.648 
0.12889 -0.0824404 0.611 
0.153305 -0.0809562 0.6 
0.232783 -0.102275 0.758 
0.268336 -0.102275 0.758 
0.54683 -0.18512 1.372 
0.579168 -0.178239 1.321 
0.617485 -0.174191 1.291 
0.659109 -0.171627 1.272 
0.706473 -0.170818 1.266 
0.763523 -0.172302 1.277 
0.722869 -0.150713 1.117 
0.759844 -0.149229 1.106 
0.79885 -0.148285 1.099 
0.852633 -0.150039 1.112 
0.93649 -0.15665 1.161 
0.994628 -0.158539 1.175 
1.06895 -0.162722 1.206 
1.11152 -0.160698 1.191 
-14.8649 -2.01988 15.235 
-0.820139 -0.129135 0.974 
-0.788527 -0.130328 0.983 
-0.759247 -0.132052 0.996 
-0.720984 -0.132317 0.998 
-0.690069 -0.13404 1.011 
-0.65876 -0.135896 1.025 
-0.625129 -0.137487 1.037 
-0.590542 -0.139078 1.049 
-0.552905 -0.140139 1.057 
-0.518013 -0.142128 1.072 
-0.479708 -0.143454 1.082 
-0.444237 -0.145973 1.101 
-0.403979 -0.147298 1.111 
-0.364865 -0.14942 1.127 
-0.324192 -0.151408 1.142 
-0.282323 -0.153397 1.157 
-0.239871 -0.155784 1.175 
-0.195654 -0.157905 1.191 
-0.149914 -0.159761 1.205 
-0.100774 -0.158038 1.192 
-0.0407431 -0.135101 1.019 
0.0370653 -0.110573 0.834 
0.0871734 -0.0930725 0.702 
0.106794 -0.0863108 0.651 
0.126437 -0.0812727 0.613 
0.15024 -0.0794165 0.599 
0.231006 -0.100497 0.758 
0.26548 -0.100762 0.76 
0.539607 -0.181637 1.37 
0.572972 -0.175141 1.321 
0.61143 -0.171163 1.291 
0.646981 -0.167053 1.26 
0.703302 -0.168512 1.271 
0.759313 -0.169705 1.28 
0.724054 -0.14942 1.127 
0.755339 -0.146768 1.107 
0.792973 -0.145575 1.098 
0.846655 -0.147298 1.111 
0.931847 -0.15406 1.162 
0.989117 -0.155784 1.175 
1.05271 -0.158303 1.194 
1.09755 -0.157905 1.191 
1.15945 -0.159894 1.206 
-0.834412 -0.12659 0.972 
-0.80139 -0.127502 0.979 
-0.77404 -0.129455 0.994 
-0.737367 -0.129976 0.998 
-0.700375 -0.130497 1.002 
-0.674268 -0.133232 1.023 
-0.640295 -0.134665 1.034 
-0.605445 -0.136097 1.045 
-0.568638 -0.137269 1.054 
-0.533612 -0.139093 1.068 
-0.496091 -0.140525 1.079 
-0.459792 -0.142609 1.095 
-0.421457 -0.144432 1.109 
-0.380985 -0.145865 1.12 
-0.342039 -0.14834 1.139 
-0.300015 -0.150033 1.152 
-0.257837 -0.152247 1.169 
-0.214122 -0.15433 1.185 
-0.168991 -0.156284 1.2 
-0.121856 -0.157196 1.207 
-0.0507956 -0.134014 1.029 
-0.00904031 -0.123985 0.952 
0.0696127 -0.0967659 0.743 
0.0922895 -0.0899935 0.691 
0.112319 -0.0832212 0.639 
0.129816 -0.0784025 0.602 
0.153049 -0.0780118 0.599 
0.234561 -0.0987194 0.758 
0.266528 -0.0993706 0.763 
0.541235 -0.177903 1.366 
0.575198 -0.171782 1.319 
0.613505 -0.167875 1.289 
0.645294 -0.162926 1.251 
0.710172 -0.166442 1.278 
0.762315 -0.166703 1.28 
0.727987 -0.147037 1.129 
0.75862 -0.144302 1.108 
0.798446 -0.143521 1.102 
0.850025 -0.144823 1.112 
0.938593 -0.151986 1.167 
0.992716 -0.153158 1.176 
1.06524 -0.156935 1.205 
1.09941 -0.15381 1.181 
1.17368 -0.157456 1.209 
-0.836691 -0.124311 0.972 
-0.804507 -0.125334 0.98 
-0.777152 -0.127252 0.995 
-0.739707 -0.127636 0.998 
-0.702725 -0.128147 1.002 
-0.676667 -0.130833 1.023 
-0.64272 -0.13224 1.034 
-0.607895 -0.133647 1.045 
-0.57111 -0.134798 1.054 
-0.536117 -0.136588 1.068 
-0.498621 -0.137995 1.079 
-0.462782 -0.140169 1.096 
-0.424058 -0.141832 1.109 
-0.384297 -0.143494 1.122 
-0.34471 -0.145668 1.139 
-0.303242 -0.147587 1.154 
-0.260578 -0.149505 1.169 
-0.216901 -0.151551 1.185 
-0.171805 -0.15347 1.2 
-0.124687 -0.154365 1.207 
-0.0457012 -0.130833 1.023 
0.00617271 -0.114079 0.892 
0.0480786 -0.101034 0.79 
0.0819658 -0.0913145 0.714 
0.102698 -0.08492 0.664 
0.120222 -0.079037 0.618 
0.141338 -0.0763512 0.597 
0.219177 -0.0964302 0.754 
0.249899 -0.096686 0.756 
0.28115 -0.0970697 0.759 
0.552956 -0.169456 1.325 
0.594351 -0.166259 1.3 
0.629279 -0.161911 1.266 
0.673309 -0.160376 1.254 
0.739454 -0.163957 1.282 
0.719039 -0.145796 1.14 
0.745711 -0.142215 1.112 
0.78365 -0.141064 1.103 
0.832127 -0.141832 1.109 
0.91269 -0.147715 1.155 
0.975339 -0.150273 1.175 
1.02218 -0.150273 1.175 
1.09541 -0.153981 1.204 
1.13962 -0.15347 1.2 
1.19834 -0.154877 1.211 
-0.829276 -0.122282 0.974 
-0.797749 -0.123412 0.983 
-0.769362 -0.12517 0.997 
-0.731077 -0.125421 0.999 
-0.698169 -0.126676 1.009 
-0.668375 -0.128685 1.025 
-0.636081 -0.130443 1.039 
-0.600382 -0.131698 1.049 
-0.56282 -0.132702 1.057 
-0.528069 -0.134586 1.072 
-0.489858 -0.135841 1.082 
-0.454565 -0.138227 1.101 
-0.414401 -0.139482 1.111 
-0.375104 -0.141365 1.126 
-0.334612 -0.143248 1.141 
-0.29343 -0.145383 1.158 
-0.25068 -0.147391 1.174 
-0.206827 -0.149526 1.191 
-0.161217 -0.151283 1.205 
-0.113176 -0.151283 1.205 
-0.0353636 -0.125797 1.002 
0.0142306 -0.109602 0.873 
0.0480786 -0.0991816 0.79 
0.0789472 -0.0900167 0.717 
0.101598 -0.0837394 0.667 
0.124184 -0.0764577 0.609 
0.148338 -0.0749512 0.597 
0.233091 -0.0952897 0.759 
0.267575 -0.0961685 0.766 
0.299671 -0.0966707 0.77 
0.57389 -0.165219 1.316 
0.611602 -0.161327 1.285 
0.643746 -0.156682 1.248 
0.712951 -0.161076 1.283 
0.76291 -0.160825 1.281 
0.735231 -0.142118 1.132 
0.765885 -0.139482 1.111 
0.805803 -0.138729 1.105 
0.862931 -0.140863 1.122 
0.945685 -0.146764 1.169 
0.998232 -0.147642 1.176 
1.08155 -0.15279 1.217 
1.08922 -0.147266 1.173 
1.16988 -0.15166 1.208 
-0.850368 -0.119752 0.972 
-0.816627 -0.120491 0.978 
-0.787973 -0.122092 0.991 
-0.75375 -0.122955 0.998 
-0.716108 -0.123324 1.001 
-0.689711 -0.125788 1.021 
-0.654727 -0.126897 1.03 
-0.622004 -0.128622 1.044 
-0.584829 -0.129608 1.052 
-0.549081 -0.131086 1.064 
-0.512852 -0.132688 1.077 
-0.475586 -0.134289 1.09 
-0.43887 -0.136384 1.107 
-0.398302 -0.137616 1.117 
-0.359787 -0.139957 1.136 
-0.317819 -0.141435 1.148 
-0.276079 -0.143529 1.165 
-0.232984 -0.145624 1.182 
-0.188219 -0.147472 1.197 
-0.14167 -0.148704 1.207 
-0.0919223 -0.146117 1.186 
-0.0112611 -0.117164 0.951 
0.0240188 -0.105583 0.857 
0.0582956 -0.0958505 0.778 
0.0855271 -0.0864872 0.702 
0.106794 -0.080204 0.651 
0.127977 -0.0739207 0.6 
0.229833 -0.0936329 0.76 
0.261844 -0.0942489 0.765 
0.294636 -0.0949881 0.771 
0.558883 -0.162256 1.317 
0.598391 -0.158806 1.289 
0.630121 -0.154001 1.25 
0.691923 -0.156712 1.272 
0.749057 -0.158067 1.283 
0.722345 -0.140573 1.141 
0.749665 -0.137246 1.114 
0.789088 -0.136384 1.107 
0.836233 -0.136876 1.111 
0.924909 -0.143776 1.167 
0.979759 -0.145008 1.177 
1.02843 -0.145254 1.179 
1.07817 -0.145624 1.182 
1.13862 -0.147349 1.196 
1.1992 -0.14895 1.209 
-0.830128 -0.117835 0.975 
-0.800183 -0.119164 0.986 
-0.770134 -0.120614 0.998 
-0.731809 -0.120856 1 
-0.700936 -0.122427 1.013 
-0.669679 -0.124119 1.027 
-0.636694 -0.12569 1.04 
-0.600382 -0.126778 1.049 
-0.563885 -0.127986 1.059 
-0.529054 -0.129799 1.074 
-0.490763 -0.131008 1.084 
-0.455391 -0.133304 1.103 
-0.415147 -0.134513 1.113 
-0.376104 -0.136446 1.129 
-0.334905 -0.138018 1.142 
-0.29419 -0.140314 1.161 
-0.250893 -0.142006 1.175 
-0.207001 -0.14406 1.192 
-0.161351 -0.145752 1.206 
-0.112895 -0.145269 1.202 
-0.037864 -0.121581 1.006 
0.0182413 -0.105024 0.869 
0.0549275 -0.0945094 0.782 
0.0891774 -0.0836323 0.692 
0.113639 -0.0771061 0.638 
0.131097 -0.0719093 0.595 
0.237174 -0.0912463 0.755 
0.270814 -0.0924548 0.765 
0.53823 -0.160376 1.327 
0.580444 -0.157475 1.303 
0.618802 -0.154091 1.275 
0.655979 -0.150949 1.249 
0.728942 -0.155904 1.29 
0.762223 -0.152279 1.26 
0.741145 -0.137413 1.137 
0.771257 -0.134754 1.115 
0.810589 -0.133908 1.108 
0.879449 -0.137776 1.14 
0.949238 -0.141401 1.17 
1.00184 -0.142247 1.177 
1.08352 -0.146961 1.216 
1.0901 -0.141522 1.171 
1.17174 -0.145873 1.207 
-15.4871 -1.89475 15.988 
-0.818297 -0.116141 0.98 
-0.790358 -0.1178 0.994 
-0.754506 -0.118392 0.999 
-0.716824 -0.118748 1.002 
-0.691062 -0.121237 1.023 
-0.655998 -0.122303 1.032 
-0.623195 -0.123962 1.046 
-0.585385 -0.124792 1.053 
-0.550629 -0.126451 1.067 
-0.513328 -0.127755 1.078 
-0.476895 -0.129532 1.093 
-0.439266 -0.13131 1.108 
-0.399015 -0.132614 1.119 
-0.36042 -0.134865 1.138 
-0.318649 -0.136406 1.151 
-0.27679 -0.138421 1.168 
-0.233575 -0.140435 1.185 
-0.18869 -0.142213 1.2 
-0.141788 -0.143161 1.208 
-0.0916122 -0.14008 1.182 
-0.00666469 -0.110452 0.932 
0.0278421 -0.100853 0.851 
0.0563259 -0.0919644 0.776 
0.087681 -0.082128 0.693 
0.107988 -0.0769135 0.649 
0.127764 -0.070988 0.599 
0.238628 -0.0893571 0.754 
0.271896 -0.0904237 0.763 
0.547359 -0.156316 1.319 
0.587664 -0.153116 1.292 
0.621363 -0.14885 1.256 
0.674645 -0.149561 1.262 
0.741043 -0.152879 1.29 
0.722731 -0.138895 1.172 
0.745821 -0.134628 1.136 
0.777183 -0.132258 1.116 
0.816522 -0.131428 1.109 
0.89799 -0.137117 1.157 
0.955541 -0.138776 1.171 
1.00651 -0.139369 1.176 
1.08385 -0.143398 1.21 
1.0956 -0.138776 1.171 
1.17057 -0.142213 1.2 
-0.849834 -0.113145 0.974 
-0.817664 -0.114075 0.982 
-0.78882 -0.115585 0.995 
-0.752916 -0.116166 1 
-0.7159 -0.11663 1.004 
-0.690009 -0.11907 1.025 
-0.654845 -0.120115 1.034 
-0.621336 -0.121625 1.047 
-0.583469 -0.122439 1.054 
-0.549154 -0.124181 1.069 
-0.511274 -0.125343 1.079 
-0.475634 -0.127318 1.096 
-0.436668 -0.128712 1.108 
-0.397453 -0.130338 1.122 
-0.357751 -0.132196 1.138 
-0.316774 -0.134055 1.154 
-0.27452 -0.135914 1.17 
-0.231381 -0.138005 1.188 
-0.186186 -0.139631 1.202 
-0.139185 -0.14056 1.21 
-0.0881638 -0.136262 1.173 
-0.00224654 -0.106059 0.913 
0.0332331 -0.0971145 0.836 
0.06083 -0.0887505 0.764 
0.0890485 -0.0802705 0.691 
0.109342 -0.0752753 0.648 
0.129265 -0.0688862 0.593 
0.242807 -0.0878212 0.756 
0.276196 -0.0888667 0.765 
0.551027 -0.152525 1.313 
0.591426 -0.149505 1.287 
0.624757 -0.145323 1.251 
0.689192 -0.14846 1.278 
0.747093 -0.149854 1.29 
0.721766 -0.135449 1.166 
0.749827 -0.131732 1.134 
0.783119 -0.129757 1.117 
0.823946 -0.129176 1.112 
0.914348 -0.13603 1.171 
0.962675 -0.136262 1.173 
1.01202 -0.136611 1.176 
1.07962 -0.139283 1.199 
1.10203 -0.136146 1.172 
1.15954 -0.137424 1.183 
-0.845266 -0.110861 0.974 
-0.81637 -0.112227 0.986 
-0.784941 -0.113365 0.996 
-0.748974 -0.113934 1.001 
-0.712608 -0.114503 1.006 
-0.68587 -0.11678 1.026 
-0.651881 -0.118032 1.037 
-0.617603 -0.119398 1.049 
-0.579074 -0.120081 1.055 
-0.545667 -0.122016 1.072 
-0.507151 -0.12304 1.081 
-0.471781 -0.125089 1.099 
-0.43186 -0.126227 1.109 
-0.393239 -0.128048 1.125 
-0.353033 -0.129755 1.14 
-0.31271 -0.131918 1.159 
-0.269492 -0.133398 1.172 
-0.226379 -0.13556 1.191 
-0.180999 -0.137154 1.205 
-0.13351 -0.137723 1.21 
-0.0605658 -0.117349 1.031 
-0.0184427 -0.111203 0.977 
0.0201159 -0.0981132 0.862 
0.0528899 -0.0886661 0.779 
0.0832834 -0.0793329 0.697 
0.104697 -0.07478 0.657 
0.124375 -0.0686337 0.603 
0.154351 -0.0635118 0.558 
0.242807 -0.0860483 0.756 
0.276196 -0.0870727 0.765 
0.317564 -0.088097 0.774 
0.583276 -0.146715 1.289 
0.618418 -0.142959 1.256 
0.674879 -0.144324 1.268 
0.740306 -0.147284 1.294 
0.741076 -0.129869 1.141 
0.776915 -0.128276 1.127 
0.810907 -0.126568 1.112 
0.888312 -0.131463 1.155 
0.944067 -0.132828 1.167 
1.00417 -0.13465 1.183 
1.07356 -0.137495 1.208 
1.08272 -0.132715 1.166 
1.13695 -0.133625 1.174 
-15.7568 -1.80456 16.188 
-0.824573 -0.109469 0.982 
-0.79582 -0.110918 0.995 
-0.760711 -0.111587 1.001 
-0.722964 -0.111921 1.004 
-0.697221 -0.114262 1.025 
-0.662119 -0.115265 1.034 
-0.628702 -0.116715 1.047 
-0.590885 -0.117495 1.054 
-0.556675 -0.119167 1.069 
-0.518865 -0.120282 1.079 
-0.483345 -0.122177 1.096 
-0.444463 -0.123515 1.108 
-0.405347 -0.125075 1.122 
-0.365758 -0.126859 1.138 
-0.32433 -0.12842 1.152 
-0.282752 -0.130426 1.17 
-0.239739 -0.132433 1.188 
-0.194481 -0.133882 1.201 
-0.14782 -0.134997 1.211 
-0.0964986 -0.130872 1.174 
-0.032882 -0.111252 0.998 
0.0219576 -0.0953114 0.855 
0.0527541 -0.0866163 0.777 
0.0873015 -0.076918 0.69 
0.107822 -0.072236 0.648 
0.127337 -0.0665507 0.597 
0.152768 -0.0620917 0.557 
0.239261 -0.0842753 0.756 
0.272252 -0.0851671 0.764 
0.316157 -0.0863934 0.775 
0.582371 -0.143469 1.287 
0.619895 -0.140347 1.259 
0.679669 -0.142354 1.277 
0.74145 -0.144472 1.296 
0.744404 -0.127305 1.142 
0.783708 -0.126301 1.133 
0.814978 -0.124183 1.114 
0.903363 -0.130538 1.171 
0.946804 -0.130092 1.167 
1.0061 -0.131764 1.182 
1.07461 -0.134439 1.206 
1.08545 -0.12998 1.166 
1.13388 -0.130203 1.168 
-15.7188 -1.7666 16.188 
-0.823944 -0.107384 0.984 
-0.794284 -0.108694 0.996 
-0.759121 -0.109348 1.002 
-0.721327 -0.109676 1.005 
-0.695495 -0.111967 1.026 
-0.659694 -0.112841 1.034 
-0.627443 -0.114477 1.049 
-0.588971 -0.115132 1.055 
-0.555723 -0.116987 1.072 
-0.517292 -0.11797 1.081 
-0.481652 -0.119825 1.098 
-0.441865 -0.120916 1.108 
-0.403075 -0.122553 1.123 
-0.363089 -0.12419 1.138 
-0.322466 -0.126045 1.155 
-0.280247 -0.127791 1.171 
-0.237152 -0.129756 1.189 
-0.192143 -0.131393 1.204 
-0.14498 -0.132157 1.211 
-0.0933462 -0.127573 1.169 
-0.0377511 -0.109458 1.003 
0.0199992 -0.0935245 0.857 
0.0494889 -0.0854489 0.783 
0.0870484 -0.0750815 0.688 
0.107822 -0.0707163 0.648 
0.127337 -0.0651507 0.597 
0.145451 -0.0610037 0.559 
0.164737 -0.0599124 0.549 
0.268274 -0.0838119 0.768 
0.309286 -0.084685 0.776 
0.571627 -0.140778 1.29 
0.611465 -0.138159 1.266 
0.666644 -0.139141 1.275 
0.733232 -0.142197 1.303 
0.734334 -0.124736 1.143 
0.773762 -0.123754 1.134 
0.805973 -0.121789 1.116 
0.874089 -0.125172 1.147 
0.926233 -0.126045 1.155 
1.00006 -0.129647 1.188 
1.06506 -0.131829 1.208 
1.07636 -0.127464 1.168 
1.10946 -0.125936 1.154 
-16.0717 -1.75053 16.393 
-0.830635 -0.104756 0.981 
-0.80282 -0.106251 0.995 
-0.767754 -0.106892 1.001 
-0.730027 -0.107212 1.004 
-0.704432 -0.109455 1.025 
-0.668099 -0.110202 1.032 
-0.636068 -0.111804 1.047 
-0.5983 -0.112551 1.054 
-0.564196 -0.114153 1.069 
-0.526456 -0.115221 1.079 
-0.490607 -0.11693 1.095 
-0.45185 -0.118211 1.107 
-0.412504 -0.119599 1.12 
-0.373107 -0.121308 1.136 
-0.331569 -0.122696 1.149 
-0.290735 -0.124832 1.169 
-0.247679 -0.126647 1.186 
-0.202761 -0.128142 1.2 
-0.15634 -0.129317 1.211 
-0.104758 -0.125366 1.174 
-0.0377135 -0.106999 1.002 
0.00613119 -0.0946115 0.886 
0.0382726 -0.0873501 0.818 
0.0662168 -0.079448 0.744 
0.0908204 -0.0726138 0.68 
0.110647 -0.0681288 0.638 
0.131187 -0.0622556 0.583 
0.147543 -0.0594792 0.557 
0.166702 -0.0584114 0.547 
0.274761 -0.0817973 0.766 
0.316367 -0.0832923 0.78 
0.581466 -0.137219 1.285 
0.621864 -0.134869 1.263 
0.68712 -0.137859 1.291 
0.745455 -0.139141 1.303 
0.744404 -0.121948 1.142 
0.787166 -0.121521 1.138 
0.819368 -0.119599 1.12 
0.907221 -0.125579 1.176 
0.945181 -0.124404 1.165 
1.0095 -0.126647 1.186 
1.07015 -0.128249 1.201 
1.08731 -0.124725 1.168 
1.10864 -0.121948 1.142 
-15.7188 -1.69067 16.188 
-0.825619 -0.102978 0.986 
-0.795081 -0.104126 0.997 
-0.759121 -0.104649 1.002 
-0.722045 -0.105066 1.006 
-0.696173 -0.10726 1.027 
-0.661608 -0.108304 1.037 
-0.627443 -0.109557 1.049 
-0.590088 -0.110393 1.057 
-0.55676 -0.112168 1.074 
-0.518249 -0.113108 1.083 
-0.482968 -0.114988 1.101 
-0.442263 -0.115824 1.109 
-0.403793 -0.117495 1.125 
-0.363408 -0.118957 1.139 
-0.323024 -0.120837 1.157 
-0.280487 -0.122403 1.172 
-0.23775 -0.124492 1.192 
-0.192462 -0.125954 1.206 
-0.145339 -0.12679 1.214 
-0.0927073 -0.121255 1.161 
-0.0230723 -0.102247 0.979 
0.0492361 -0.0813586 0.779 
0.0766384 -0.0759277 0.727 
0.100532 -0.0689303 0.66 
0.119702 -0.0634994 0.608 
0.137136 -0.0593218 0.568 
0.154437 -0.0573374 0.549 
0.255999 -0.0803142 0.769 
0.297311 -0.0812541 0.778 
0.553905 -0.134832 1.291 
0.598341 -0.133265 1.276 
0.651247 -0.133683 1.28 
0.718189 -0.136712 1.309 
0.933418 -0.161777 1.549 
0.759142 -0.118644 1.136 
0.803015 -0.118435 1.134 
0.841494 -0.117495 1.125 
0.915496 -0.121359 1.162 
0.98447 -0.123866 1.186 
1.04741 -0.125746 1.204 
1.06721 -0.122508 1.173 
1.08833 -0.119688 1.146 
1.11819 -0.118017 1.13 
-0.841279 -0.100053 0.98 
-0.81285 -0.10138 0.993 
-0.778713 -0.102095 1 
-0.7418 -0.102503 1.004 
-0.712956 -0.104137 1.02 
-0.6802 -0.105362 1.032 
-0.647726 -0.106791 1.046 
-0.61008 -0.107506 1.053 
-0.575652 -0.108935 1.067 
-0.538109 -0.109956 1.077 
-0.501148 -0.111283 1.09 
-0.464831 -0.113019 1.107 
-0.423737 -0.113835 1.115 
-0.386088 -0.115877 1.135 
-0.344141 -0.117 1.146 
-0.304182 -0.119247 1.168 
-0.260483 -0.120574 1.181 
