# .PCD v.7 - Point Cloud Data file format
VERSION .7
FIELDS x y z
SIZE 4 4 4
TYPE F F F
COUNT 1 1 1
WIDTH 1823
HEIGHT 1
VIEWPOINT 0 0 0 1 0 0 0
POINTS 1823
DATA ascii
0.575951 -0.353224 1.181 
0.623035 -0.353224 1.181 
0.670686 -0.353523 1.182 
0.715381 -0.352327 1.178 
0.761051 -0.351729 1.176 
0.809997 -0.352626 1.179 
0.856274 -0.352327 1.178 
0.901705 -0.351729 1.176 
0.948589 -0.351729 1.176 
0.992935 -0.350831 1.173 
1.03793 -0.350233 1.171 
1.08369 -0.349934 1.17 
1.13033 -0.349934 1.17 
-0.672051 -0.24155 0.814 
-0.63567 -0.240066 0.809 
-0.615351 -0.244814 0.825 
-0.591638 -0.248671 0.838 
-0.621816 -0.286061 0.964 
-0.676715 -0.342442 1.154 
-0.645464 -0.350455 1.181 
-0.603447 -0.353422 1.191 
-0.549896 -0.349564 1.178 
-0.502505 -0.349268 1.177 
-0.457515 -0.350751 1.182 
-0.410739 -0.351048 1.183 
-0.366034 -0.353422 1.191 
-0.316946 -0.351642 1.185 
-0.269247 -0.351048 1.183 
-0.221896 -0.350751 1.182 
-0.0168677 -0.352828 1.189 
0.0304325 -0.351642 1.185 
0.0764306 -0.346003 1.166 
0.120281 -0.338585 1.141 
0.23089 -0.256387 0.864 
0.263187 -0.25431 0.857 
0.301517 -0.25787 0.869 
0.462395 -0.350455 1.181 
0.508616 -0.349861 1.179 
0.556563 -0.350455 1.181 
0.603647 -0.350455 1.181 
0.651833 -0.351048 1.183 
0.696042 -0.349564 1.178 
0.743638 -0.349861 1.179 
0.789971 -0.349564 1.178 
0.837646 -0.349861 1.179 
0.88315 -0.349268 1.177 
0.929284 -0.348971 1.176 
0.975339 -0.348674 1.175 
1.0187 -0.347487 1.171 
1.06539 -0.347487 1.171 
1.11207 -0.347487 1.171 
1.15579 -0.346597 1.168 
-0.647347 -0.23758 0.807 
-0.622034 -0.240229 0.816 
-0.602505 -0.245529 0.834 
-0.580176 -0.250239 0.85 
-0.6792 -0.335615 1.14 
-0.655431 -0.347096 1.179 
-0.613587 -0.35004 1.189 
-0.562375 -0.347685 1.181 
-0.513109 -0.346213 1.176 
-0.469 -0.348274 1.183 
-0.421836 -0.348274 1.183 
-0.375306 -0.348862 1.185 
-0.328893 -0.349746 1.188 
-0.280345 -0.348274 1.183 
-0.233575 -0.348862 1.185 
-0.186489 -0.349157 1.186 
0.00264892 -0.349746 1.188 
0.0497173 -0.347685 1.181 
0.0959817 -0.344741 1.171 
0.141748 -0.307058 1.043 
0.225592 -0.255244 0.867 
0.258057 -0.253183 0.86 
0.294723 -0.255244 0.867 
0.45447 -0.347979 1.182 
0.50117 -0.347685 1.181 
0.547326 -0.347096 1.179 
0.595338 -0.347685 1.181 
0.642966 -0.347979 1.182 
0.689506 -0.347685 1.181 
0.735343 -0.347096 1.179 
0.78102 -0.346507 1.177 
0.827944 -0.346507 1.177 
0.875612 -0.346802 1.178 
0.92101 -0.346213 1.176 
0.967895 -0.346213 1.176 
1.01047 -0.344741 1.171 
1.05715 -0.344741 1.171 
1.10384 -0.344741 1.171 
1.14856 -0.344152 1.169 
-0.661151 -0.236563 0.81 
-0.628081 -0.236271 0.809 
-0.612768 -0.242989 0.832 
-0.587957 -0.246493 0.844 
-0.680772 -0.324764 1.112 
-0.671352 -0.342579 1.173 
-0.629379 -0.345207 1.182 
-0.582748 -0.345499 1.183 
-0.532415 -0.343455 1.176 
-0.488007 -0.345207 1.182 
-0.441256 -0.345499 1.183 
-0.394093 -0.345499 1.183 
-0.349568 -0.348128 1.192 
-0.300272 -0.346083 1.185 
-0.253028 -0.346083 1.185 
-0.205785 -0.346083 1.185 
-0.0279507 -0.346375 1.186 
0.0193327 -0.346375 1.186 
0.0659982 -0.343163 1.175 
0.111306 -0.33849 1.159 
0.147085 -0.300523 1.029 
0.212091 -0.254087 0.87 
0.245074 -0.252334 0.864 
0.27952 -0.252334 0.864 
0.315783 -0.253795 0.869 
0.48219 -0.345207 1.182 
0.527971 -0.344331 1.179 
0.575951 -0.344915 1.181 
0.623035 -0.344915 1.181 
0.671253 -0.345499 1.183 
0.715988 -0.344331 1.179 
0.761698 -0.343747 1.177 
0.809997 -0.344331 1.179 
0.857001 -0.344331 1.179 
0.901705 -0.343455 1.176 
0.948589 -0.343455 1.176 
0.992935 -0.342579 1.173 
1.03881 -0.342287 1.172 
1.08461 -0.341995 1.171 
1.13033 -0.341703 1.17 
-0.683271 -0.236402 0.816 
-0.642764 -0.233505 0.806 
-0.618964 -0.236692 0.817 
-0.598594 -0.241617 0.834 
-0.576868 -0.246542 0.851 
-0.679795 -0.330557 1.141 
-0.655431 -0.341566 1.179 
-0.610491 -0.342725 1.183 
-0.562375 -0.342146 1.181 
-0.513982 -0.341276 1.178 
-0.469 -0.342725 1.183 
-0.421479 -0.342435 1.182 
-0.375306 -0.343304 1.185 
-0.328893 -0.344174 1.188 
-0.280819 -0.343304 1.185 
-0.233575 -0.343304 1.185 
-0.186489 -0.343594 1.186 
-0.111392 -0.343594 1.186 
-0.0140675 -0.344174 1.188 
0.0332956 -0.344174 1.188 
0.0797761 -0.340407 1.175 
0.121233 -0.325922 1.125 
0.169829 -0.269139 0.929 
0.207154 -0.253495 0.875 
0.239548 -0.250887 0.866 
0.274074 -0.250887 0.866 
0.309669 -0.251757 0.869 
0.470704 -0.342146 1.181 
0.517788 -0.342146 1.181 
0.564872 -0.342146 1.181 
0.612474 -0.342435 1.182 
0.660156 -0.342725 1.183 
0.70433 -0.341276 1.178 
0.751295 -0.341276 1.178 
0.798259 -0.341276 1.178 
0.845224 -0.341276 1.178 
0.890673 -0.340697 1.176 
0.937558 -0.340697 1.176 
0.982768 -0.340118 1.174 
1.02694 -0.339248 1.171 
1.07363 -0.339248 1.171 
1.12031 -0.339248 1.171 
-0.690926 -0.234488 0.816 
-0.649518 -0.231327 0.805 
-0.621259 -0.232764 0.81 
-0.606417 -0.239661 0.834 
-0.583476 -0.243971 0.849 
-0.681873 -0.327594 1.14 
-0.657638 -0.338514 1.178 
-0.612229 -0.339376 1.181 
-0.565623 -0.339663 1.182 
-0.517183 -0.338801 1.179 
-0.471774 -0.339951 1.183 
-0.424251 -0.339663 1.182 
-0.377128 -0.339663 1.182 
-0.331679 -0.341388 1.188 
-0.283598 -0.340525 1.185 
-0.236354 -0.340525 1.185 
-0.18927 -0.340813 1.186 
-0.141987 -0.340813 1.186 
-0.0584964 -0.340525 1.185 
-0.0112814 -0.341388 1.188 
0.0360817 -0.341388 1.188 
0.0826019 -0.337939 1.176 
0.12299 -0.320985 1.117 
0.170011 -0.267248 0.93 
0.19974 -0.257765 0.897 
0.228151 -0.249719 0.869 
0.261284 -0.248282 0.864 
0.296756 -0.249144 0.867 
0.454086 -0.339376 1.181 
0.50117 -0.339376 1.181 
0.547326 -0.338801 1.179 
0.59433 -0.338801 1.179 
0.642966 -0.339663 1.182 
0.689506 -0.339376 1.181 
0.735343 -0.338801 1.179 
0.781683 -0.338514 1.178 
0.827944 -0.338226 1.177 
0.874869 -0.338226 1.177 
0.92101 -0.337939 1.176 
0.967072 -0.337652 1.175 
1.01133 -0.33679 1.172 
1.05715 -0.336502 1.171 
1.10384 -0.336502 1.171 
1.14856 -0.335928 1.169 
-0.666849 -0.230865 0.81 
-0.630639 -0.22944 0.805 
-0.613416 -0.23514 0.825 
-0.59108 -0.239415 0.84 
-0.680417 -0.31922 1.12 
-0.666418 -0.334611 1.174 
-0.622252 -0.336036 1.179 
-0.576711 -0.336891 1.182 
-0.529139 -0.336606 1.181 
-0.482872 -0.337176 1.183 
-0.435339 -0.336891 1.182 
-0.388216 -0.336891 1.182 
-0.343112 -0.338886 1.189 
-0.294714 -0.337746 1.185 
-0.24747 -0.337746 1.185 
-0.200227 -0.337746 1.185 
-0.153113 -0.338031 1.186 
-0.106008 -0.338601 1.188 
-0.0474203 -0.338031 1.186 
-0.000136913 -0.338031 1.186 
0.0471067 -0.337746 1.185 
0.0936336 -0.335181 1.176 
0.132154 -0.31523 1.106 
0.178351 -0.264497 0.928 
0.206298 -0.253381 0.889 
0.23603 -0.247396 0.868 
0.270324 -0.247111 0.867 
0.305593 -0.247681 0.869 
0.462395 -0.336606 1.181 
0.508616 -0.336036 1.179 
0.556563 -0.336606 1.181 
0.603647 -0.336606 1.181 
0.651833 -0.337176 1.183 
0.697815 -0.336606 1.181 
0.743638 -0.336036 1.179 
0.789971 -0.335751 1.178 
0.836936 -0.335751 1.178 
0.882399 -0.335181 1.176 
0.929284 -0.335181 1.176 
0.974509 -0.334611 1.174 
1.01957 -0.334041 1.172 
1.06539 -0.333756 1.171 
1.11207 -0.333756 1.171 
1.15777 -0.333471 1.17 
-0.652482 -0.227269 0.804 
-0.621972 -0.227834 0.806 
-0.608865 -0.235184 0.832 
-0.586766 -0.239707 0.848 
-0.6792 -0.322247 1.14 
-0.654319 -0.332706 1.177 
-0.609459 -0.333837 1.181 
-0.563327 -0.334402 1.183 
-0.515291 -0.333837 1.181 
-0.469 -0.334402 1.183 
-0.421123 -0.333837 1.181 
-0.374672 -0.334402 1.183 
-0.328893 -0.335815 1.188 
-0.280819 -0.334967 1.185 
-0.233575 -0.334967 1.185 
-0.186332 -0.334967 1.185 
-0.139088 -0.334967 1.185 
-0.0920773 -0.335815 1.188 
-0.0446389 -0.33525 1.186 
0.00264446 -0.33525 1.186 
0.0498857 -0.334967 1.185 
0.0963915 -0.332423 1.176 
0.135235 -0.313767 1.11 
0.180916 -0.262886 0.93 
0.208383 -0.251296 0.889 
0.23834 -0.245643 0.869 
0.272986 -0.245643 0.869 
0.307631 -0.245643 0.869 
0.466746 -0.332989 1.178 
0.515018 -0.333837 1.181 
0.562102 -0.333837 1.181 
0.609702 -0.334119 1.182 
0.657382 -0.334402 1.183 
0.703354 -0.333837 1.181 
0.749167 -0.333271 1.179 
0.795497 -0.332989 1.178 
0.841746 -0.332706 1.177 
0.887915 -0.332423 1.176 
0.9348 -0.332423 1.176 
0.980015 -0.331858 1.174 
1.02507 -0.331293 1.172 
1.0718 -0.331293 1.172 
1.11661 -0.330727 1.17 
1.16326 -0.330727 1.17 
-0.642255 -0.225103 0.803 
-0.6186 -0.228187 0.814 
-0.598389 -0.232952 0.831 
-0.578183 -0.238279 0.85 
-0.667621 -0.324339 1.157 
-0.632774 -0.330226 1.178 
-0.587302 -0.331067 1.181 
-0.541133 -0.331628 1.183 
-0.493134 -0.331067 1.181 
-0.446805 -0.331628 1.183 
-0.399641 -0.331628 1.183 
-0.354265 -0.33331 1.189 
-0.30583 -0.332188 1.185 
-0.258586 -0.332188 1.185 
-0.211343 -0.332188 1.185 
-0.164238 -0.332469 1.186 
-0.116955 -0.332469 1.186 
-0.0697888 -0.333029 1.188 
-0.022369 -0.332188 1.185 
0.0248955 -0.332469 1.186 
0.0719354 -0.331347 1.182 
0.115937 -0.322657 1.151 
0.168191 -0.261265 0.932 
0.200281 -0.254818 0.909 
0.226373 -0.243885 0.87 
0.260158 -0.243044 0.867 
0.293703 -0.242203 0.864 
0.45447 -0.331347 1.182 
0.499897 -0.330226 1.178 
0.548254 -0.331067 1.181 
0.59433 -0.330506 1.179 
0.642966 -0.331347 1.182 
0.69009 -0.331347 1.182 
0.735343 -0.330506 1.179 
0.781683 -0.330226 1.178 
0.827944 -0.329946 1.177 
0.874126 -0.329665 1.176 
0.920227 -0.329385 1.175 
0.967072 -0.329385 1.175 
1.01133 -0.328544 1.172 
1.05715 -0.328264 1.171 
1.10478 -0.328544 1.172 
1.14954 -0.327983 1.17 
-0.656253 -0.223498 0.804 
-0.624976 -0.223776 0.805 
-0.610558 -0.230448 0.829 
-0.587957 -0.234617 0.844 
-0.673853 -0.3169 1.14 
-0.648247 -0.326907 1.176 
-0.60392 -0.328297 1.181 
-0.558722 -0.329409 1.185 
-0.509752 -0.328297 1.181 
-0.463059 -0.328575 1.182 
-0.415584 -0.328297 1.181 
-0.369748 -0.329409 1.185 
-0.323321 -0.330243 1.188 
-0.275261 -0.329409 1.185 
-0.228017 -0.329409 1.185 
-0.180926 -0.329687 1.186 
-0.13353 -0.329409 1.185 
-0.086578 -0.330521 1.189 
-0.0390432 -0.329409 1.185 
0.00818645 -0.328853 1.183 
0.0554438 -0.329409 1.185 
0.101907 -0.326907 1.176 
0.149453 -0.316622 1.139 
0.193168 -0.257412 0.926 
0.218408 -0.244347 0.879 
0.250856 -0.241845 0.87 
0.284229 -0.240733 0.866 
0.443383 -0.328575 1.182 
0.487602 -0.326629 1.175 
0.537175 -0.328297 1.181 
0.584259 -0.328297 1.181 
0.631878 -0.328575 1.182 
0.679576 -0.328853 1.183 
0.724283 -0.327741 1.179 
0.770633 -0.327463 1.178 
0.817597 -0.327463 1.178 
0.863828 -0.327185 1.177 
0.909205 -0.326629 1.175 
0.95605 -0.326629 1.175 
1.00033 -0.325796 1.172 
1.04617 -0.325518 1.171 
1.09378 -0.325796 1.172 
1.13856 -0.32524 1.17 
-0.666509 -0.221888 0.805 
-0.632839 -0.221337 0.803 
-0.615041 -0.226574 0.822 
-0.59077 -0.229882 0.834 
-0.680343 -0.312297 1.133 
-0.656476 -0.322771 1.171 
-0.613436 -0.324701 1.178 
-0.568876 -0.326079 1.183 
-0.521271 -0.325803 1.182 
-0.474147 -0.325803 1.182 
-0.426662 -0.325528 1.181 
-0.380221 -0.326079 1.183 
-0.334465 -0.327457 1.188 
-0.286377 -0.32663 1.185 
-0.239335 -0.326906 1.186 
-0.192376 -0.327457 1.188 
-0.144768 -0.326906 1.186 
-0.097485 -0.326906 1.186 
-0.0502863 -0.327457 1.188 
-0.00291583 -0.32663 1.185 
0.0443651 -0.326906 1.186 
0.0912621 -0.325528 1.181 
0.133777 -0.314778 1.142 
0.175123 -0.257445 0.934 
0.206449 -0.250279 0.908 
0.232494 -0.239804 0.87 
0.266258 -0.238978 0.867 
0.300823 -0.238978 0.867 
0.466349 -0.324425 1.177 
0.515018 -0.325528 1.181 
0.562578 -0.325803 1.182 
0.609702 -0.325803 1.182 
0.656826 -0.325803 1.182 
0.70395 -0.325803 1.182 
0.749167 -0.324976 1.179 
0.795497 -0.324701 1.178 
0.841031 -0.324149 1.176 
0.887915 -0.324149 1.176 
0.934005 -0.323874 1.175 
0.97918 -0.323323 1.173 
1.02507 -0.323047 1.172 
1.0718 -0.323047 1.172 
1.11661 -0.322496 1.17 
1.16425 -0.322771 1.171 
-0.647904 -0.219454 0.803 
-0.619725 -0.22082 0.808 
-0.601327 -0.226013 0.827 
-0.581414 -0.231205 0.846 
-0.655326 -0.31292 1.145 
-0.626717 -0.321665 1.177 
-0.581762 -0.322758 1.181 
-0.535131 -0.323031 1.182 
-0.487594 -0.322758 1.181 
-0.440883 -0.323031 1.182 
-0.394093 -0.323305 1.183 
-0.348395 -0.324671 1.188 
-0.300272 -0.323851 1.185 
-0.253028 -0.323851 1.185 
-0.206306 -0.324671 1.188 
-0.158675 -0.324125 1.186 
-0.111392 -0.324125 1.186 
-0.0642166 -0.324671 1.188 
-0.016811 -0.323851 1.185 
0.0304325 -0.323851 1.185 
0.0777416 -0.324125 1.186 
0.123127 -0.319205 1.168 
0.170855 -0.321392 1.176 
0.19442 -0.254708 0.932 
0.220644 -0.242683 0.888 
0.250856 -0.237764 0.87 
0.284229 -0.236671 0.866 
0.440983 -0.323305 1.183 
0.484433 -0.320845 1.174 
0.534406 -0.322758 1.181 
0.58149 -0.322758 1.181 
0.629106 -0.323031 1.182 
0.676802 -0.323305 1.183 
0.721518 -0.322211 1.179 
0.768522 -0.322211 1.179 
0.815526 -0.322211 1.179 
0.861068 -0.321665 1.177 
0.906449 -0.321118 1.175 
0.953294 -0.321118 1.175 
0.998437 -0.320572 1.173 
1.04342 -0.320025 1.171 
1.09104 -0.320298 1.172 
1.13485 -0.319479 1.169 
-0.671548 -0.217299 0.802 
-0.639574 -0.217299 0.802 
-0.618964 -0.221364 0.817 
-0.592134 -0.223531 0.825 
-0.574834 -0.229763 0.848 
-0.652071 -0.309963 1.144 
-0.623426 -0.318634 1.176 
-0.578993 -0.319988 1.181 
-0.532359 -0.320259 1.182 
-0.484825 -0.319988 1.181 
-0.438111 -0.320259 1.182 
-0.39198 -0.321072 1.185 
-0.345027 -0.321343 1.186 
-0.297493 -0.321072 1.185 
-0.250249 -0.321072 1.185 
-0.20352 -0.321885 1.188 
-0.155894 -0.321343 1.186 
-0.108611 -0.321343 1.186 
-0.0614306 -0.321885 1.188 
-0.0140319 -0.321072 1.185 
0.0332116 -0.321072 1.185 
0.080455 -0.321072 1.185 
0.126298 -0.31755 1.172 
0.173909 -0.319176 1.178 
0.200114 -0.251439 0.928 
0.225103 -0.238704 0.881 
0.256682 -0.235453 0.869 
0.289651 -0.234098 0.864 
0.446532 -0.32053 1.183 
0.48994 -0.318092 1.174 
0.539945 -0.319988 1.181 
0.587029 -0.319988 1.181 
0.63465 -0.320259 1.182 
0.681774 -0.320259 1.182 
0.726431 -0.319176 1.178 
0.774052 -0.319447 1.179 
0.82036 -0.319176 1.178 
0.865852 -0.318634 1.176 
0.91196 -0.318363 1.175 
0.958805 -0.318363 1.175 
1.00308 -0.31755 1.172 
1.04891 -0.317279 1.171 
1.09747 -0.317821 1.173 
1.14033 -0.316737 1.169 
-0.668619 -0.215687 0.803 
-0.635812 -0.215419 0.802 
-0.616638 -0.219985 0.819 
-0.590404 -0.222402 0.828 
-0.675567 -0.283375 1.055 
-0.650361 -0.306475 1.141 
-0.623426 -0.315876 1.176 
-0.578993 -0.317219 1.181 
-0.532359 -0.317487 1.182 
-0.484825 -0.317219 1.181 
-0.438111 -0.317487 1.182 
-0.39198 -0.318293 1.185 
-0.345027 -0.318562 1.186 
-0.297493 -0.318293 1.185 
-0.250249 -0.318293 1.185 
-0.20352 -0.319099 1.188 
-0.155894 -0.318562 1.186 
-0.108611 -0.318562 1.186 
-0.0614306 -0.319099 1.188 
-0.0140319 -0.318293 1.185 
0.0332116 -0.318293 1.185 
0.0805229 -0.318562 1.186 
0.126729 -0.315876 1.176 
0.174056 -0.316682 1.179 
0.198791 -0.250337 0.932 
0.225062 -0.238787 0.889 
0.254644 -0.233415 0.869 
0.288291 -0.232609 0.866 
0.443758 -0.317756 1.183 
0.486772 -0.31507 1.173 
0.537175 -0.317219 1.181 
0.584259 -0.317219 1.181 
0.632413 -0.317756 1.183 
0.679576 -0.317756 1.183 
0.723669 -0.316413 1.178 
0.771287 -0.316682 1.179 
0.818291 -0.316682 1.179 
0.863828 -0.316144 1.177 
0.908431 -0.315339 1.174 
0.95605 -0.315607 1.175 
1.00033 -0.314801 1.172 
1.04617 -0.314533 1.171 
1.09472 -0.31507 1.173 
1.13759 -0.313996 1.169 
-0.668832 -0.213272 0.801 
-0.634722 -0.213804 0.803 
-0.615468 -0.21833 0.82 
-0.589172 -0.220727 0.829 
-0.675567 -0.280901 1.055 
-0.645148 -0.30513 1.146 
-0.615152 -0.313118 1.176 
-0.571167 -0.314715 1.182 
-0.524043 -0.314715 1.182 
-0.476516 -0.314449 1.181 
-0.429795 -0.314715 1.182 
-0.383643 -0.315514 1.185 
-0.336683 -0.31578 1.186 
-0.2894 -0.31578 1.186 
-0.242116 -0.31578 1.186 
-0.195326 -0.316579 1.189 
-0.14755 -0.31578 1.186 
-0.100266 -0.31578 1.186 
-0.0530724 -0.316313 1.188 
-0.00569486 -0.315514 1.185 
0.0415486 -0.315514 1.185 
0.0887921 -0.315514 1.185 
0.135347 -0.313917 1.179 
0.182196 -0.31365 1.178 
0.199218 -0.248684 0.934 
0.225822 -0.237501 0.892 
0.254937 -0.231643 0.87 
0.288623 -0.230845 0.867 
0.443758 -0.314982 1.183 
0.486772 -0.312319 1.173 
0.537175 -0.314449 1.181 
0.584259 -0.314449 1.181 
0.632413 -0.314982 1.183 
0.679002 -0.314715 1.182 
0.723669 -0.31365 1.178 
0.770633 -0.31365 1.178 
0.818291 -0.313917 1.179 
0.863828 -0.313384 1.177 
0.908431 -0.312585 1.174 
0.95605 -0.312852 1.175 
1.00033 -0.312053 1.172 
1.04617 -0.311787 1.171 
1.09472 -0.312319 1.173 
1.13759 -0.311254 1.169 
-0.668832 -0.211393 0.801 
-0.637693 -0.211657 0.802 
-0.617803 -0.21588 0.818 
-0.588768 -0.217199 0.823 
-0.571494 -0.223269 0.846 
-0.648002 -0.296373 1.123 
-0.629014 -0.30904 1.171 
-0.586307 -0.311152 1.179 
-0.540675 -0.311943 1.182 
-0.493134 -0.311679 1.181 
-0.446427 -0.311943 1.182 
-0.400317 -0.312735 1.185 
-0.353371 -0.312999 1.186 
-0.30583 -0.312735 1.185 
-0.258586 -0.312735 1.185 
-0.212056 -0.313791 1.189 
-0.164515 -0.313527 1.188 
-0.116955 -0.312999 1.186 
-0.0697888 -0.313527 1.188 
-0.0224445 -0.313791 1.189 
0.0248745 -0.312735 1.185 
0.0721788 -0.312999 1.186 
0.119059 -0.311943 1.182 
0.166183 -0.311943 1.182 
0.190886 -0.249924 0.947 
0.219708 -0.240159 0.91 
0.246705 -0.23145 0.877 
0.279099 -0.229339 0.869 
0.430976 -0.312999 1.186 
0.47342 -0.309832 1.174 
0.523327 -0.311679 1.181 
0.570894 -0.311943 1.182 
0.619587 -0.312735 1.185 
0.664579 -0.311679 1.181 
0.710458 -0.311152 1.179 
0.75682 -0.310888 1.178 
0.804467 -0.311152 1.179 
0.850749 -0.310888 1.178 
0.895427 -0.310096 1.175 
0.943074 -0.31036 1.176 
0.986591 -0.309304 1.172 
1.03243 -0.30904 1.171 
1.08004 -0.309304 1.172 
1.12388 -0.308513 1.169 
-0.670913 -0.206114 0.788 
-0.650048 -0.209515 0.801 
-0.625058 -0.211869 0.81 
-0.600083 -0.214484 0.82 
-0.582615 -0.220239 0.842 
-0.66131 -0.275168 1.052 
-0.640218 -0.298709 1.142 
-0.612395 -0.307602 1.176 
-0.567914 -0.30891 1.181 
-0.52083 -0.30891 1.181 
-0.473746 -0.30891 1.181 
-0.427023 -0.309171 1.182 
-0.380864 -0.309956 1.185 
-0.333902 -0.310218 1.186 
-0.286618 -0.310218 1.186 
-0.239739 -0.310741 1.188 
-0.192538 -0.311002 1.189 
-0.145012 -0.310741 1.188 
-0.097485 -0.310218 1.186 
-0.0503286 -0.311002 1.189 
-0.00291583 -0.309956 1.185 
0.0443651 -0.310218 1.186 
0.0915712 -0.309956 1.185 
0.13858 -0.309433 1.183 
0.185116 -0.308387 1.179 
0.203599 -0.244303 0.934 
0.231552 -0.234887 0.898 
0.265139 -0.227563 0.87 
0.411159 -0.309956 1.185 
0.456856 -0.30891 1.181 
0.502233 -0.307864 1.177 
0.551024 -0.30891 1.181 
0.597095 -0.308387 1.179 
0.644099 -0.308387 1.179 
0.692862 -0.309171 1.182 
0.736856 -0.307864 1.177 
0.785112 -0.308387 1.179 
0.832116 -0.308387 1.179 
0.876884 -0.307602 1.176 
0.922983 -0.30734 1.175 
0.968177 -0.306817 1.173 
1.01321 -0.306294 1.171 
1.0599 -0.306294 1.171 
1.10658 -0.306294 1.171 
1.1513 -0.305771 1.169 
-0.664245 -0.207377 0.8 
-0.633932 -0.207895 0.802 
-0.614717 -0.212302 0.819 
-0.587751 -0.214376 0.827 
-0.570209 -0.220338 0.85 
-0.647452 -0.288513 1.113 
-0.628004 -0.300437 1.159 
-0.591335 -0.305363 1.178 
-0.545757 -0.30614 1.181 
-0.497829 -0.305622 1.179 
-0.451971 -0.306399 1.182 
-0.405875 -0.307177 1.185 
-0.358632 -0.307177 1.185 
-0.311651 -0.307436 1.186 
-0.264367 -0.307436 1.186 
-0.21745 -0.307955 1.188 
-0.170087 -0.307955 1.188 
-0.122724 -0.307955 1.188 
-0.0753609 -0.307955 1.188 
-0.0280921 -0.308992 1.192 
0.0193164 -0.307177 1.185 
0.0666161 -0.307436 1.186 
0.113803 -0.307177 1.185 
0.160775 -0.306659 1.183 
0.20706 -0.305363 1.178 
0.219228 -0.240039 0.926 
0.245634 -0.230188 0.888 
0.27738 -0.225522 0.87 
0.428195 -0.307436 1.186 
0.471068 -0.304585 1.175 
0.520558 -0.30614 1.181 
0.568122 -0.306399 1.182 
0.615767 -0.306659 1.183 
0.66181 -0.30614 1.181 
0.707693 -0.305622 1.179 
0.754057 -0.305363 1.178 
0.801702 -0.305622 1.179 
0.848706 -0.305622 1.179 
0.892671 -0.304585 1.175 
0.940316 -0.304844 1.176 
0.983843 -0.303807 1.172 
1.02969 -0.303548 1.171 
1.07637 -0.303548 1.171 
1.1221 -0.303289 1.17 
-0.673882 -0.201648 0.785 
-0.655683 -0.205758 0.801 
-0.627642 -0.207042 0.806 
-0.605853 -0.210638 0.82 
-0.585043 -0.215005 0.837 
-0.672454 -0.270747 1.054 
-0.641346 -0.286674 1.116 
-0.623059 -0.299261 1.165 
-0.583542 -0.302857 1.179 
-0.537448 -0.303371 1.181 
-0.489534 -0.302857 1.179 
-0.444031 -0.303884 1.183 
-0.397873 -0.304655 1.186 
-0.349703 -0.303884 1.183 
-0.303051 -0.304398 1.185 
-0.255807 -0.304398 1.185 
-0.209092 -0.305169 1.188 
-0.161729 -0.305169 1.188 
-0.114173 -0.304655 1.186 
-0.0670027 -0.305169 1.188 
-0.0197057 -0.306196 1.192 
0.0276535 -0.304398 1.185 
0.0749602 -0.304655 1.186 
0.12214 -0.304398 1.185 
0.169384 -0.304398 1.185 
0.215896 -0.303371 1.181 
0.229498 -0.235042 0.915 
0.257257 -0.227335 0.885 
0.287912 -0.223739 0.871 
0.440983 -0.303884 1.183 
0.484846 -0.301829 1.175 
0.533501 -0.302857 1.179 
0.58149 -0.303371 1.181 
0.629106 -0.303627 1.182 
0.675658 -0.303371 1.181 
0.720906 -0.3026 1.178 
0.76787 -0.3026 1.178 
0.815526 -0.302857 1.179 
0.861799 -0.3026 1.178 
0.905678 -0.301572 1.174 
0.954917 -0.302343 1.177 
0.996734 -0.300802 1.171 
1.04342 -0.300802 1.171 
1.09104 -0.301059 1.172 
1.13388 -0.300031 1.168 
-0.666371 -0.200316 0.787 
-0.647097 -0.204134 0.802 
-0.622793 -0.206679 0.812 
-0.59551 -0.208461 0.819 
-0.581414 -0.215333 0.846 
-0.655752 -0.267512 1.051 
-0.638791 -0.28762 1.13 
-0.615283 -0.298056 1.171 
-0.572482 -0.300092 1.179 
-0.52637 -0.300601 1.181 
-0.478474 -0.300092 1.179 
-0.432933 -0.30111 1.183 
-0.386422 -0.301619 1.185 
-0.338606 -0.30111 1.183 
-0.292181 -0.301874 1.186 
-0.245311 -0.302383 1.188 
-0.197948 -0.302383 1.188 
-0.150711 -0.302637 1.189 
-0.103222 -0.302383 1.188 
-0.0559055 -0.302637 1.189 
-0.00850249 -0.302637 1.189 
0.0388678 -0.302383 1.188 
0.0860131 -0.301619 1.185 
0.133369 -0.301874 1.186 
0.180195 -0.30111 1.183 
0.226975 -0.300601 1.181 
0.231897 -0.23315 0.916 
0.259919 -0.225769 0.887 
0.290954 -0.22246 0.874 
0.446532 -0.30111 1.183 
0.490357 -0.299074 1.175 
0.539031 -0.300092 1.179 
0.587029 -0.300601 1.181 
0.63465 -0.300855 1.182 
0.681197 -0.300601 1.181 
0.726431 -0.299837 1.178 
0.774052 -0.300092 1.179 
0.821056 -0.300092 1.179 
0.867324 -0.299837 1.178 
0.91196 -0.299074 1.175 
0.959621 -0.299328 1.176 
1.00223 -0.298056 1.171 
1.04891 -0.298056 1.171 
1.0956 -0.298056 1.171 
1.13936 -0.297292 1.168 
-0.663521 -0.198722 0.788 
-0.643336 -0.202253 0.802 
-0.620509 -0.205279 0.814 
-0.591669 -0.20654 0.819 
-0.579494 -0.214106 0.849 
-0.587015 -0.24462 0.97 
-0.631077 -0.287492 1.14 
-0.603607 -0.296318 1.175 
-0.559605 -0.297831 1.181 
-0.511653 -0.297327 1.179 
-0.464649 -0.297327 1.179 
-0.419062 -0.298336 1.183 
-0.372527 -0.29884 1.185 
-0.325558 -0.299092 1.186 
-0.278978 -0.299849 1.189 
-0.231575 -0.299849 1.189 
-0.183708 -0.299092 1.186 
-0.136769 -0.299849 1.189 
-0.0892912 -0.299597 1.188 
-0.0422105 -0.301614 1.196 
0.00542584 -0.299092 1.186 
0.0528425 -0.299849 1.189 
0.0999082 -0.29884 1.185 
0.147152 -0.29884 1.185 
0.193903 -0.298083 1.182 
0.21668 -0.240333 0.953 
0.248953 -0.226967 0.9 
0.276606 -0.22041 0.874 
0.428195 -0.299092 1.186 
0.471469 -0.29657 1.176 
0.520558 -0.297831 1.181 
0.568603 -0.298336 1.183 
0.615767 -0.298336 1.183 
0.66181 -0.297831 1.181 
0.708894 -0.297831 1.181 
0.754057 -0.297075 1.178 
0.801702 -0.297327 1.179 
0.850866 -0.298083 1.182 
0.892671 -0.296318 1.175 
0.940316 -0.29657 1.176 
0.983843 -0.295562 1.172 
1.02969 -0.295309 1.171 
1.07637 -0.295309 1.171 
1.12114 -0.294805 1.169 
-0.673882 -0.196125 0.785 
-0.655683 -0.200122 0.801 
-0.626864 -0.201122 0.805 
-0.606591 -0.205119 0.821 
-0.585043 -0.209116 0.837 
-0.673092 -0.263582 1.055 
-0.637584 -0.278322 1.114 
-0.616067 -0.289065 1.157 
-0.580285 -0.294312 1.178 
-0.533773 -0.294562 1.179 
-0.486769 -0.294562 1.179 
-0.441256 -0.295561 1.183 
-0.395092 -0.296311 1.186 
-0.346636 -0.295311 1.182 
-0.300272 -0.296061 1.185 
-0.253242 -0.296311 1.186 
-0.205959 -0.296311 1.186 
-0.158943 -0.29681 1.188 
-0.111674 -0.29706 1.189 
-0.0642707 -0.29706 1.189 
-0.0169386 -0.298309 1.194 
0.0305096 -0.29681 1.188 
0.077676 -0.296061 1.185 
0.12492 -0.296061 1.185 
0.172163 -0.296061 1.185 
0.218666 -0.295062 1.181 
0.234176 -0.231102 0.925 
0.261384 -0.222858 0.892 
0.3976 -0.296311 1.186 
0.443758 -0.295561 1.183 
0.487602 -0.293563 1.175 
0.537175 -0.295062 1.181 
0.584259 -0.295062 1.181 
0.631878 -0.295311 1.182 
0.678428 -0.295062 1.181 
0.724283 -0.294562 1.179 
0.770633 -0.294312 1.178 
0.818291 -0.294562 1.179 
0.865296 -0.294562 1.179 
0.909205 -0.293563 1.175 
0.957677 -0.294062 1.177 
0.99948 -0.292563 1.171 
1.04706 -0.292813 1.172 
1.09285 -0.292563 1.171 
1.13662 -0.291814 1.168 
-0.663681 -0.194531 0.786 
-0.646021 -0.198739 0.803 
-0.620124 -0.200719 0.811 
-0.595039 -0.203194 0.821 
-0.58217 -0.210371 0.85 
-0.655752 -0.260118 1.051 
-0.634612 -0.280165 1.132 
-0.609791 -0.289817 1.171 
-0.566952 -0.291797 1.179 
-0.519948 -0.291797 1.179 
-0.472944 -0.291797 1.179 
-0.427385 -0.292787 1.183 
-0.380221 -0.292787 1.183 
-0.333057 -0.292787 1.183 
-0.287102 -0.294024 1.188 
-0.239739 -0.294024 1.188 
-0.19189 -0.293282 1.185 
-0.145135 -0.294272 1.189 
-0.0977316 -0.294272 1.189 
-0.0505403 -0.295509 1.194 
-0.00292567 -0.294272 1.189 
0.0444773 -0.294272 1.189 
0.0915712 -0.293282 1.185 
0.138815 -0.293282 1.185 
0.185744 -0.292787 1.183 
0.231727 -0.291302 1.177 
0.241844 -0.225963 0.913 
0.270929 -0.220023 0.889 
0.414288 -0.293529 1.186 
0.459625 -0.292292 1.181 
0.505422 -0.291549 1.178 
0.554731 -0.292787 1.183 
0.59986 -0.291797 1.179 
0.647961 -0.292292 1.181 
0.695045 -0.292292 1.181 
0.740244 -0.291549 1.178 
0.787877 -0.291797 1.179 
0.836297 -0.292292 1.181 
0.879641 -0.291054 1.176 
0.926526 -0.291054 1.176 
0.972583 -0.290807 1.175 
1.01596 -0.289817 1.171 
1.06264 -0.289817 1.171 
1.10838 -0.289569 1.17 
1.15305 -0.289074 1.168 
-0.660924 -0.195139 0.796 
-0.633932 -0.19661 0.802 
-0.613967 -0.200533 0.818 
-0.58704 -0.202494 0.826 
-0.573564 -0.209603 0.855 
-0.582329 -0.236815 0.966 
-0.626279 -0.279716 1.141 
-0.598096 -0.288051 1.175 
-0.554066 -0.289522 1.181 
-0.506982 -0.289522 1.181 
-0.460287 -0.289767 1.182 
-0.413513 -0.290013 1.183 
-0.366349 -0.290013 1.183 
-0.319725 -0.290503 1.185 
-0.272712 -0.290748 1.186 
-0.225998 -0.291483 1.189 
-0.178445 -0.291238 1.188 
-0.131082 -0.291238 1.188 
-0.0837191 -0.291238 1.188 
-0.0366314 -0.293445 1.197 
0.0109886 -0.290748 1.186 
0.0584193 -0.291483 1.189 
0.105466 -0.290503 1.185 
0.152452 -0.290013 1.183 
0.199616 -0.290013 1.183 
0.230963 -0.236815 0.966 
0.253575 -0.222841 0.909 
0.394818 -0.290748 1.186 
0.441729 -0.290503 1.185 
0.484846 -0.288051 1.175 
0.534406 -0.289522 1.181 
0.58149 -0.289522 1.181 
0.629106 -0.289767 1.182 
0.675658 -0.289522 1.181 
0.722742 -0.289522 1.181 
0.76787 -0.288787 1.178 
0.815526 -0.289032 1.179 
0.862531 -0.289032 1.179 
0.906449 -0.288051 1.175 
0.955728 -0.288787 1.178 
0.997585 -0.287316 1.172 
1.04431 -0.287316 1.172 
1.0901 -0.287071 1.171 
1.13388 -0.286335 1.168 
-0.665524 -0.190845 0.786 
-0.647904 -0.194972 0.803 
-0.620492 -0.196429 0.809 
-0.597692 -0.199586 0.822 
-0.584163 -0.206384 0.85 
-0.63787 -0.25106 1.034 
-0.631958 -0.274855 1.132 
-0.606008 -0.283839 1.169 
-0.564188 -0.286267 1.179 
-0.517183 -0.286267 1.179 
-0.470179 -0.286267 1.179 
-0.42461 -0.287238 1.183 
-0.377447 -0.287238 1.183 
-0.330283 -0.287238 1.183 
-0.284555 -0.288695 1.189 
-0.236953 -0.288452 1.188 
-0.18927 -0.287967 1.186 
-0.142346 -0.288695 1.189 
-0.0949432 -0.288695 1.189 
-0.0477401 -0.289909 1.194 
-0.000137144 -0.288452 1.188 
0.0472657 -0.288695 1.189 
0.0943502 -0.287724 1.185 
0.141594 -0.287724 1.185 
0.188837 -0.287724 1.185 
0.234487 -0.285781 1.177 
0.245054 -0.222652 0.917 
0.289377 -0.218767 0.901 
0.430976 -0.287967 1.186 
0.473824 -0.285296 1.175 
0.523327 -0.286753 1.181 
0.570894 -0.286995 1.182 
0.618018 -0.286995 1.182 
0.665142 -0.286995 1.182 
0.711663 -0.286753 1.181 
0.75682 -0.286024 1.178 
0.804467 -0.286267 1.179 
0.852915 -0.286753 1.181 
0.895427 -0.285296 1.175 
0.944678 -0.286024 1.178 
0.987433 -0.28481 1.173 
1.03332 -0.284567 1.172 
1.0782 -0.284082 1.17 
1.12292 -0.283596 1.168 
-0.6702 -0.188761 0.785 
-0.653554 -0.193089 0.803 
-0.623088 -0.19357 0.805 
-0.602741 -0.197417 0.821 
-0.585283 -0.202708 0.843 
-0.569344 -0.2092 0.87 
-0.629416 -0.273403 1.137 
-0.601552 -0.281578 1.171 
-0.558658 -0.283502 1.179 
-0.511653 -0.283502 1.179 
-0.464649 -0.283502 1.179 
-0.418707 -0.284223 1.182 
-0.371584 -0.284223 1.182 
-0.325558 -0.285185 1.186 
-0.278978 -0.285907 1.189 
-0.231381 -0.285666 1.188 
-0.183708 -0.285185 1.186 
-0.136654 -0.285666 1.188 
-0.0893664 -0.285907 1.189 
-0.0422105 -0.28759 1.196 
0.00543499 -0.285666 1.188 
0.0528425 -0.285907 1.189 
0.0999082 -0.284945 1.185 
0.147152 -0.284945 1.185 
0.194067 -0.284464 1.183 
0.240211 -0.283262 1.178 
0.251231 -0.220261 0.916 
0.388271 -0.284464 1.183 
0.436171 -0.284945 1.185 
0.479335 -0.28254 1.175 
0.528867 -0.283983 1.181 
0.575951 -0.283983 1.181 
0.623035 -0.283983 1.181 
0.671253 -0.284464 1.183 
0.717203 -0.283983 1.181 
0.762345 -0.283262 1.178 
0.809997 -0.283502 1.179 
0.858455 -0.283983 1.181 
0.901705 -0.282781 1.176 
0.950203 -0.283262 1.178 
0.992935 -0.282059 1.173 
1.03881 -0.281819 1.172 
1.08369 -0.281338 1.17 
1.12937 -0.281097 1.169 
-0.666518 -0.18692 0.785 
-0.649787 -0.191206 0.803 
-0.620851 -0.192158 0.807 
-0.599619 -0.19573 0.822 
-0.584777 -0.201921 0.848 
-0.66567 -0.251211 1.055 
-0.627301 -0.270974 1.138 
-0.599317 -0.27907 1.172 
-0.556836 -0.281213 1.181 
-0.508888 -0.280737 1.179 
-0.462668 -0.281213 1.181 
-0.416287 -0.28169 1.183 
-0.368812 -0.281451 1.182 
-0.322504 -0.282166 1.185 
-0.275958 -0.28288 1.188 
-0.228594 -0.28288 1.188 
-0.180926 -0.282404 1.186 
-0.133868 -0.28288 1.188 
-0.086578 -0.283118 1.189 
-0.0393397 -0.284309 1.194 
0.00822105 -0.28288 1.188 
0.0556309 -0.283118 1.189 
0.102774 -0.282404 1.186 
0.149931 -0.282166 1.185 
0.196841 -0.28169 1.183 
0.232222 -0.245734 1.032 
0.254209 -0.218827 0.919 
0.292684 -0.218589 0.918 
0.430613 -0.282166 1.185 
0.473824 -0.279785 1.175 
0.523327 -0.281213 1.181 
0.570894 -0.281451 1.182 
0.618018 -0.281451 1.182 
0.665705 -0.28169 1.183 
0.711663 -0.281213 1.181 
0.757462 -0.280737 1.179 
0.803784 -0.280499 1.178 
0.852915 -0.281213 1.181 
0.896189 -0.280023 1.176 
0.943876 -0.280261 1.177 
0.989117 -0.279785 1.175 
1.03332 -0.27907 1.172 
1.0782 -0.278594 1.17 
1.12388 -0.278356 1.169 
-0.668359 -0.185079 0.785 
-0.651671 -0.189323 0.803 
-0.6212 -0.189794 0.805 
-0.600815 -0.193567 0.821 
-0.583998 -0.198989 0.844 
-0.567304 -0.205119 0.87 
-0.623056 -0.268777 1.14 
-0.594834 -0.276793 1.174 
-0.551296 -0.278444 1.181 
-0.504212 -0.278444 1.181 
-0.457515 -0.278679 1.182 
-0.410739 -0.278915 1.183 
-0.363268 -0.278679 1.182 
-0.316946 -0.279387 1.185 
-0.26993 -0.279623 1.186 
-0.222647 -0.279623 1.186 
-0.175363 -0.279623 1.186 
-0.128296 -0.280094 1.188 
-0.080933 -0.280094 1.188 
-0.0336829 -0.281037 1.192 
0.0138048 -0.28033 1.189 
0.0611563 -0.280094 1.188 
0.108519 -0.280094 1.188 
0.155226 -0.278915 1.183 
0.202732 -0.279387 1.185 
0.233122 -0.244257 1.036 
0.253151 -0.217615 0.923 
0.289321 -0.217144 0.921 
0.427834 -0.279387 1.185 
0.471469 -0.277265 1.176 
0.520558 -0.278444 1.181 
0.567642 -0.278444 1.181 
0.614726 -0.278444 1.181 
0.66293 -0.278915 1.183 
0.708894 -0.278444 1.181 
0.754697 -0.277972 1.179 
0.801022 -0.277736 1.178 
0.850146 -0.278444 1.181 
0.893431 -0.277265 1.176 
0.941915 -0.277736 1.178 
0.986361 -0.277029 1.175 
1.03057 -0.276322 1.172 
1.07545 -0.27585 1.17 
1.12114 -0.275614 1.169 
-0.6702 -0.183238 0.785 
-0.653554 -0.18744 0.803 
-0.622314 -0.187673 0.804 
-0.602007 -0.191408 0.82 
-0.583201 -0.196076 0.84 
-0.56869 -0.202846 0.869 
-0.623534 -0.26517 1.136 
-0.59606 -0.27334 1.171 
-0.554066 -0.275674 1.181 
-0.506123 -0.275207 1.179 
-0.460287 -0.275907 1.182 
-0.413513 -0.276141 1.183 
-0.36573 -0.275674 1.181 
-0.319725 -0.276608 1.185 
-0.272712 -0.276841 1.186 
-0.225428 -0.276841 1.186 
-0.178145 -0.276841 1.186 
-0.131082 -0.277308 1.188 
-0.0837895 -0.277541 1.189 
-0.0364478 -0.278008 1.191 
0.0110071 -0.277308 1.188 
0.0583702 -0.277308 1.188 
0.105733 -0.277308 1.188 
0.15271 -0.276608 1.185 
0.199953 -0.276608 1.185 
0.246571 -0.275907 1.182 
0.252865 -0.218952 0.938 
0.286858 -0.216384 0.927 
0.428195 -0.276841 1.186 
0.471469 -0.274507 1.176 
0.520558 -0.275674 1.181 
0.568122 -0.275907 1.182 
0.614726 -0.275674 1.181 
0.66293 -0.276141 1.183 
0.708894 -0.275674 1.181 
0.754697 -0.275207 1.179 
0.801022 -0.274974 1.178 
0.850146 -0.275674 1.181 
0.893431 -0.274507 1.176 
0.941915 -0.274974 1.178 
0.9872 -0.274507 1.176 
1.03057 -0.273573 1.172 
1.07545 -0.273106 1.17 
1.12114 -0.272873 1.169 
-0.6702 -0.181397 0.785 
-0.65274 -0.185325 0.802 
-0.622314 -0.185788 0.804 
-0.601272 -0.189254 0.819 
-0.582506 -0.193875 0.839 
-0.568035 -0.200577 0.868 
-0.624319 -0.256267 1.109 
-0.599983 -0.265048 1.147 
-0.569717 -0.272442 1.179 
-0.521826 -0.27198 1.177 
-0.476516 -0.272904 1.181 
-0.430159 -0.273367 1.183 
-0.382995 -0.273367 1.183 
-0.335832 -0.273367 1.183 
-0.289888 -0.274522 1.188 
-0.242525 -0.274522 1.188 
-0.194833 -0.27406 1.186 
-0.147799 -0.274522 1.188 
-0.10052 -0.274753 1.189 
-0.0530724 -0.274522 1.188 
-0.00570927 -0.274522 1.188 
0.0416538 -0.274522 1.188 
0.0887921 -0.273829 1.185 
0.13615 -0.27406 1.186 
0.18297 -0.273367 1.183 
0.229355 -0.272442 1.179 
0.248721 -0.23131 1.001 
0.272226 -0.214672 0.929 
0.404575 -0.273135 1.182 
0.452845 -0.273829 1.185 
0.49629 -0.271749 1.176 
0.545946 -0.273135 1.182 
0.592568 -0.272904 1.181 
0.640194 -0.273135 1.182 
0.687899 -0.273367 1.183 
0.731956 -0.272211 1.178 
0.778921 -0.272211 1.178 
0.826586 -0.272442 1.179 
0.87285 -0.272211 1.178 
0.919033 -0.27198 1.177 
0.966778 -0.272211 1.178 
1.00944 -0.271056 1.173 
1.0544 -0.270594 1.171 
1.09921 -0.270131 1.169 
1.14679 -0.270363 1.17 
-0.661125 -0.181615 0.794 
-0.63502 -0.183216 0.801 
-0.61212 -0.185961 0.813 
-0.591117 -0.18962 0.829 
-0.573549 -0.194881 0.852 
-0.649027 -0.25115 1.098 
-0.619032 -0.256868 1.123 
-0.595738 -0.266475 1.165 
-0.556836 -0.270135 1.181 
-0.508888 -0.269677 1.179 
-0.462668 -0.270135 1.181 
-0.416287 -0.270592 1.183 
-0.3685 -0.270135 1.181 
-0.322504 -0.27105 1.185 
-0.275958 -0.271736 1.188 
-0.22821 -0.271278 1.186 
-0.180926 -0.271278 1.186 
-0.133868 -0.271736 1.188 
-0.086578 -0.271965 1.189 
-0.039175 -0.271965 1.189 
0.00822797 -0.271965 1.189 
0.0555841 -0.271736 1.188 
0.102947 -0.271736 1.188 
0.150057 -0.271278 1.186 
0.197174 -0.27105 1.185 
0.243799 -0.270363 1.182 
0.25708 -0.228048 0.997 
0.283424 -0.212723 0.93 
0.412891 -0.270363 1.182 
0.460014 -0.270363 1.182 
0.505851 -0.269677 1.179 
0.554262 -0.270363 1.182 
0.600877 -0.270135 1.181 
0.64851 -0.270363 1.182 
0.695045 -0.270135 1.181 
0.740873 -0.269677 1.179 
0.787877 -0.269677 1.179 
0.834881 -0.269677 1.179 
0.880389 -0.26922 1.177 
0.927314 -0.26922 1.177 
0.975066 -0.269449 1.178 
1.01683 -0.268076 1.172 
1.06264 -0.267847 1.171 
1.10743 -0.26739 1.169 
1.15601 -0.267847 1.171 
-0.65944 -0.181337 0.801 
-0.628289 -0.181564 0.802 
-0.607468 -0.18496 0.817 
-0.586858 -0.188808 0.834 
-0.568212 -0.193789 0.856 
-0.628131 -0.24948 1.102 
-0.605402 -0.258536 1.142 
-0.576542 -0.266233 1.176 
-0.530558 -0.266686 1.178 
-0.485235 -0.267591 1.182 
-0.438482 -0.267818 1.183 
-0.39198 -0.268271 1.185 
-0.343864 -0.267591 1.182 
-0.298246 -0.26895 1.188 
-0.250883 -0.26895 1.188 
-0.203006 -0.268271 1.185 
-0.156157 -0.26895 1.188 
-0.109068 -0.269629 1.191 
-0.0614306 -0.26895 1.188 
-0.0140793 -0.269176 1.189 
0.0333237 -0.269176 1.189 
0.080455 -0.268271 1.185 
0.128022 -0.26895 1.188 
0.174942 -0.268271 1.185 
0.221811 -0.267818 1.183 
0.247473 -0.232048 1.025 
0.279662 -0.210994 0.932 
0.407002 -0.267365 1.181 
0.455624 -0.268271 1.185 
0.499897 -0.266686 1.178 
0.548254 -0.267365 1.181 
0.595338 -0.267365 1.181 
0.642966 -0.267591 1.182 
0.689506 -0.267365 1.181 
0.734719 -0.266686 1.178 
0.781683 -0.266686 1.178 
0.829351 -0.266912 1.179 
0.875612 -0.266686 1.178 
0.92101 -0.266233 1.176 
0.969541 -0.266686 1.178 
1.01219 -0.265554 1.173 
1.05715 -0.265101 1.171 
1.10195 -0.264648 1.169 
1.15052 -0.265101 1.171 
-0.660493 -0.179235 0.8 
-0.63017 -0.179683 0.802 
-0.607892 -0.182596 0.815 
-0.588108 -0.186628 0.833 
-0.568221 -0.191109 0.853 
-0.626422 -0.246224 1.099 
-0.605402 -0.255858 1.142 
-0.576542 -0.263475 1.176 
-0.530558 -0.263923 1.178 
-0.485235 -0.264819 1.182 
-0.438482 -0.265044 1.183 
-0.39198 -0.265492 1.185 
-0.343864 -0.264819 1.182 
-0.298246 -0.266164 1.188 
-0.250883 -0.266164 1.188 
-0.203006 -0.265492 1.185 
-0.156157 -0.266164 1.188 
-0.109068 -0.266836 1.191 
-0.0614306 -0.266164 1.188 
-0.0140793 -0.266388 1.189 
0.0333237 -0.266388 1.189 
0.080455 -0.265492 1.185 
0.128022 -0.266164 1.188 
0.17509 -0.265716 1.186 
0.221811 -0.265044 1.183 
0.247473 -0.229645 1.025 
0.277476 -0.208809 0.932 
0.403548 -0.264147 1.179 
0.453227 -0.265716 1.186 
0.496712 -0.263699 1.177 
0.545946 -0.264819 1.182 
0.592568 -0.264595 1.181 
0.640194 -0.264819 1.182 
0.686737 -0.264595 1.181 
0.732578 -0.264147 1.179 
0.778921 -0.263923 1.178 
0.825885 -0.263923 1.178 
0.872109 -0.263699 1.177 
0.918252 -0.263475 1.176 
0.966778 -0.263923 1.178 
1.00944 -0.262803 1.173 
1.0544 -0.262355 1.171 
1.09921 -0.261907 1.169 
1.14777 -0.262355 1.171 
-0.661318 -0.17758 0.801 
-0.63017 -0.177802 0.802 
-0.607892 -0.180684 0.815 
-0.588108 -0.184675 0.833 
-0.566889 -0.188665 0.851 
-0.623276 -0.243425 1.098 
-0.602724 -0.25318 1.142 
-0.573784 -0.260717 1.176 
-0.527347 -0.260939 1.177 
-0.482463 -0.262047 1.182 
-0.435708 -0.262269 1.183 
-0.389201 -0.262713 1.185 
-0.340803 -0.261826 1.181 
-0.29546 -0.263378 1.188 
-0.248306 -0.263599 1.189 
-0.199889 -0.262269 1.183 
-0.153371 -0.263378 1.188 
-0.106275 -0.264043 1.191 
-0.0585458 -0.262934 1.186 
-0.0113099 -0.264043 1.191 
0.0361121 -0.263599 1.189 
0.0833043 -0.262934 1.186 
0.130808 -0.263378 1.188 
0.177871 -0.262934 1.186 
0.224395 -0.262047 1.182 
0.249633 -0.227019 1.024 
0.276275 -0.215934 0.974 
0.403548 -0.261382 1.179 
0.453227 -0.262934 1.186 
0.497134 -0.261161 1.178 
0.545484 -0.261826 1.181 
0.59307 -0.262047 1.182 
0.640194 -0.262047 1.182 
0.686737 -0.261826 1.181 
0.732578 -0.261382 1.179 
0.778921 -0.261161 1.178 
0.825885 -0.261161 1.178 
0.872109 -0.260939 1.177 
0.918252 -0.260717 1.176 
0.966778 -0.261161 1.178 
1.00944 -0.260052 1.173 
1.0544 -0.259609 1.171 
1.10015 -0.259387 1.17 
1.14777 -0.259609 1.171 
-0.660263 -0.175921 0.802 
-0.629073 -0.176141 0.803 
-0.606725 -0.178992 0.816 
-0.586858 -0.182941 0.834 
-0.564893 -0.18667 0.851 
-0.626422 -0.241069 1.099 
-0.604872 -0.250282 1.141 
-0.575071 -0.257301 1.173 
-0.530107 -0.258179 1.177 
-0.485235 -0.259275 1.182 
-0.438482 -0.259495 1.183 
-0.39198 -0.259934 1.185 
-0.3427 -0.258398 1.178 
-0.298246 -0.260592 1.188 
-0.251094 -0.260811 1.189 
-0.202663 -0.259495 1.183 
-0.156157 -0.260592 1.188 
-0.109068 -0.26125 1.191 
-0.0613271 -0.260153 1.186 
-0.014103 -0.26125 1.191 
0.0333237 -0.260811 1.189 
0.0805229 -0.260153 1.186 
0.128022 -0.260592 1.188 
0.17509 -0.260153 1.186 
0.221811 -0.259495 1.183 
0.247473 -0.224837 1.025 
0.279899 -0.218256 0.995 
0.39768 -0.258398 1.178 
0.448419 -0.260592 1.188 
0.490774 -0.257959 1.176 
0.539031 -0.258617 1.179 
0.588023 -0.259495 1.183 
0.635187 -0.259495 1.183 
0.681774 -0.259275 1.182 
0.727048 -0.258617 1.179 
0.773396 -0.258398 1.178 
0.821056 -0.258617 1.179 
0.867324 -0.258398 1.178 
0.912736 -0.257959 1.176 
0.962069 -0.258617 1.179 
1.00479 -0.257521 1.174 
1.04802 -0.256643 1.17 
1.09466 -0.256643 1.17 
1.14228 -0.256863 1.171 
-0.663197 -0.173823 0.801 
-0.632839 -0.174257 0.803 
-0.610552 -0.177079 0.816 
-0.589353 -0.180551 0.832 
-0.566879 -0.184023 0.848 
-0.628999 -0.238492 1.099 
-0.607015 -0.247389 1.14 
-0.576836 -0.254116 1.171 
-0.53332 -0.255635 1.178 
-0.487594 -0.256287 1.181 
-0.441256 -0.256721 1.183 
-0.394759 -0.257155 1.185 
-0.345169 -0.255418 1.177 
-0.300525 -0.257372 1.186 
-0.253883 -0.258023 1.189 
-0.205438 -0.256721 1.183 
-0.158943 -0.257806 1.188 
-0.111861 -0.258457 1.191 
-0.0642166 -0.257806 1.188 
-0.0168677 -0.258023 1.189 
0.0305866 -0.258457 1.191 
0.0777416 -0.257372 1.186 
0.125025 -0.257372 1.186 
0.172599 -0.257806 1.188 
0.219036 -0.256721 1.183 
0.2662 -0.256721 1.183 
0.34943 -0.256721 1.183 
0.394918 -0.255635 1.178 
0.445633 -0.257806 1.188 
0.488016 -0.255201 1.176 
0.536266 -0.255852 1.179 
0.585249 -0.256721 1.183 
0.631878 -0.256503 1.182 
0.679002 -0.256503 1.182 
0.725512 -0.256287 1.181 
0.769979 -0.255418 1.177 
0.818291 -0.255852 1.179 
0.864562 -0.255635 1.178 
0.909979 -0.255201 1.176 
0.958491 -0.255635 1.178 
1.00204 -0.254767 1.174 
1.04617 -0.254116 1.171 
1.09192 -0.253899 1.17 
1.13954 -0.254116 1.171 
-0.664025 -0.17216 0.802 
-0.632839 -0.172374 0.803 
-0.6113 -0.17538 0.817 
-0.589353 -0.178599 0.832 
-0.565542 -0.181605 0.846 
-0.6333 -0.236558 1.102 
-0.609154 -0.244501 1.139 
-0.575128 -0.249438 1.162 
-0.536538 -0.253087 1.179 
-0.490364 -0.253517 1.181 
-0.444031 -0.253946 1.183 
-0.397538 -0.254375 1.185 
-0.348225 -0.252873 1.178 
-0.303307 -0.25459 1.186 
-0.256671 -0.255234 1.189 
-0.208212 -0.253946 1.183 
-0.161865 -0.255234 1.189 
-0.114462 -0.255234 1.189 
-0.0670027 -0.255019 1.188 
-0.0196561 -0.255234 1.189 
0.0277468 -0.255234 1.189 
0.0749602 -0.25459 1.186 
0.122244 -0.25459 1.186 
0.169956 -0.255234 1.189 
0.216262 -0.253946 1.183 
0.263871 -0.254375 1.185 
0.344463 -0.254375 1.185 
0.390384 -0.253517 1.181 
0.440431 -0.255234 1.189 
0.48209 -0.252229 1.175 
0.531636 -0.253517 1.181 
0.57921 -0.253731 1.182 
0.626334 -0.253731 1.182 
0.673458 -0.253731 1.182 
0.719972 -0.253517 1.181 
0.764458 -0.252658 1.177 
0.812762 -0.253087 1.179 
0.859037 -0.252873 1.178 
0.905232 -0.252658 1.177 
0.952156 -0.252658 1.177 
0.997383 -0.252229 1.175 
1.04067 -0.25137 1.171 
1.08736 -0.25137 1.171 
1.13404 -0.25137 1.171 
-0.666736 -0.170491 0.803 
-0.635512 -0.170703 0.804 
-0.612466 -0.173251 0.816 
-0.591305 -0.176648 0.832 
-0.566184 -0.179196 0.844 
-0.637039 -0.234399 1.104 
-0.610214 -0.241193 1.136 
-0.573875 -0.245015 1.154 
-0.539303 -0.250323 1.179 
-0.493134 -0.250747 1.181 
-0.446805 -0.251172 1.183 
-0.400317 -0.251596 1.185 
-0.351286 -0.250323 1.179 
-0.306088 -0.251809 1.186 
-0.259459 -0.252446 1.189 
-0.210986 -0.251172 1.183 
-0.164653 -0.252446 1.189 
-0.11725 -0.252446 1.189 
-0.0696713 -0.251809 1.186 
-0.0224445 -0.252446 1.189 
0.0249584 -0.252446 1.189 
0.0721788 -0.251809 1.186 
0.119462 -0.251809 1.186 
0.167167 -0.252446 1.189 
0.213848 -0.251596 1.185 
0.260651 -0.251172 1.183 
0.336126 -0.251596 1.185 
0.383369 -0.251596 1.185 
0.432066 -0.252446 1.189 
0.474227 -0.249686 1.176 
0.524213 -0.251172 1.183 
0.570894 -0.25096 1.182 
0.617495 -0.250747 1.181 
0.665142 -0.25096 1.182 
0.710458 -0.250323 1.179 
0.75682 -0.25011 1.178 
0.804467 -0.250323 1.179 
0.851471 -0.250323 1.179 
0.896951 -0.249898 1.177 
0.943074 -0.249686 1.176 
0.989958 -0.249686 1.176 
1.03243 -0.248624 1.171 
1.07912 -0.248624 1.171 
1.12581 -0.248624 1.171 
-0.668165 -0.169448 0.807 
-0.633627 -0.168818 0.804 
-0.6113 -0.171548 0.817 
-0.590062 -0.174907 0.833 
-0.564205 -0.177217 0.844 
-0.63445 -0.23181 1.104 
-0.607015 -0.238319 1.135 
-0.571663 -0.242518 1.155 
-0.536083 -0.247348 1.178 
-0.490364 -0.247978 1.181 
-0.444031 -0.248397 1.183 
-0.397538 -0.248817 1.185 
-0.349112 -0.247978 1.181 
-0.303051 -0.248817 1.185 
-0.256671 -0.249657 1.189 
-0.208212 -0.248397 1.183 
-0.161865 -0.249657 1.189 
-0.114366 -0.249447 1.188 
-0.0668899 -0.249027 1.186 
-0.0196561 -0.249657 1.189 
0.0277468 -0.249657 1.189 
0.0749602 -0.249027 1.186 
0.122244 -0.249027 1.186 
0.169956 -0.249657 1.189 
0.216627 -0.248817 1.185 
0.263871 -0.248817 1.185 
0.311902 -0.249447 1.188 
0.372567 -0.249027 1.186 
0.418789 -0.248397 1.183 
0.464377 -0.247558 1.179 
0.513984 -0.248817 1.185 
0.559333 -0.247978 1.181 
0.60693 -0.248188 1.182 
0.653501 -0.247978 1.181 
0.699398 -0.247558 1.179 
0.747669 -0.247978 1.181 
0.792734 -0.247348 1.178 
0.840411 -0.247558 1.179 
0.88591 -0.247138 1.177 
0.931249 -0.246718 1.175 
0.979759 -0.247138 1.177 
1.02145 -0.245878 1.171 
1.06814 -0.245878 1.171 
1.11482 -0.245878 1.171 
1.1625 -0.246088 1.172 
-0.647054 -0.167971 0.809 
-0.61708 -0.168593 0.812 
-0.597669 -0.172331 0.83 
-0.570701 -0.174199 0.839 
-0.625547 -0.228805 1.102 
-0.600613 -0.23628 1.138 
-0.570368 -0.242716 1.169 
-0.526899 -0.24417 1.176 
-0.482463 -0.245416 1.182 
-0.435708 -0.245623 1.183 
-0.389201 -0.246038 1.185 
-0.341957 -0.246038 1.185 
-0.294216 -0.245623 1.183 
-0.248097 -0.246661 1.188 
-0.199889 -0.245623 1.183 
-0.153371 -0.246661 1.188 
-0.105829 -0.246246 1.186 
-0.0585458 -0.246246 1.186 
-0.0112909 -0.246869 1.189 
0.0361121 -0.246869 1.189 
0.0833043 -0.246246 1.186 
0.130588 -0.246246 1.186 
0.178321 -0.246869 1.189 
0.224965 -0.246038 1.185 
0.272208 -0.246038 1.185 
0.32053 -0.246869 1.189 
0.367623 -0.246661 1.188 
0.412891 -0.245416 1.182 
0.460014 -0.245416 1.182 
0.508426 -0.246038 1.185 
0.553793 -0.245208 1.181 
0.601386 -0.245416 1.182 
0.64851 -0.245416 1.182 
0.695045 -0.245208 1.181 
0.742129 -0.245208 1.181 
0.787209 -0.244585 1.178 
0.834881 -0.244793 1.179 
0.881137 -0.244585 1.178 
0.925738 -0.243962 1.175 
0.974239 -0.244377 1.177 
1.01596 -0.243132 1.171 
1.06264 -0.243132 1.171 
1.10838 -0.242924 1.17 
1.157 -0.243339 1.172 
-0.649753 -0.166279 0.81 
-0.618985 -0.166689 0.812 
-0.599616 -0.170384 0.83 
-0.571986 -0.172026 0.838 
-0.539219 -0.172232 0.839 
-0.596893 -0.233201 1.136 
-0.568598 -0.240385 1.171 
-0.524141 -0.241412 1.176 
-0.479691 -0.242644 1.182 
-0.432567 -0.242644 1.182 
-0.38577 -0.242849 1.183 
-0.339465 -0.243465 1.186 
-0.291442 -0.242849 1.183 
-0.245311 -0.243875 1.188 
-0.197448 -0.243259 1.185 
-0.150331 -0.243465 1.186 
-0.103048 -0.243465 1.186 
-0.0558584 -0.243875 1.188 
-0.00850249 -0.24408 1.189 
0.0389005 -0.24408 1.189 
0.0860857 -0.243465 1.186 
0.133369 -0.243465 1.186 
0.180957 -0.243875 1.188 
0.227936 -0.243465 1.186 
0.275219 -0.243465 1.186 
0.323046 -0.243875 1.188 
0.370409 -0.243875 1.188 
0.416014 -0.242849 1.183 
0.462786 -0.242644 1.182 
0.511636 -0.243465 1.186 
0.556563 -0.242438 1.181 
0.604158 -0.242644 1.182 
0.651282 -0.242644 1.182 
0.696633 -0.242028 1.179 
0.74553 -0.242644 1.182 
0.789301 -0.241617 1.177 
0.837646 -0.242028 1.179 
0.88315 -0.241617 1.177 
0.927704 -0.241001 1.174 
0.976169 -0.241412 1.176 
1.0187 -0.240385 1.171 
1.0663 -0.240591 1.172 
1.11112 -0.24018 1.17 
1.15975 -0.240591 1.172 
-0.647054 -0.164176 0.809 
-0.61784 -0.164988 0.813 
-0.599829 -0.169047 0.833 
-0.570701 -0.170264 0.839 
-0.534008 -0.169858 0.837 
-0.59639 -0.229319 1.13 
-0.568905 -0.236625 1.166 
-0.526899 -0.238654 1.176 
-0.482463 -0.239872 1.182 
-0.435708 -0.240074 1.183 
-0.388544 -0.240074 1.183 
-0.342823 -0.241089 1.188 
-0.293968 -0.239872 1.182 
-0.248097 -0.241089 1.188 
-0.200227 -0.24048 1.185 
-0.153371 -0.241089 1.188 
-0.10574 -0.24048 1.185 
-0.0586445 -0.241089 1.188 
-0.0112909 -0.241292 1.189 
0.0361121 -0.241292 1.189 
0.0833043 -0.240683 1.186 
0.130588 -0.240683 1.186 
0.178171 -0.241089 1.188 
0.225534 -0.241089 1.188 
0.272438 -0.240683 1.186 
0.32053 -0.241292 1.189 
0.367623 -0.241089 1.188 
0.41324 -0.240074 1.183 
0.460404 -0.240074 1.183 
0.508855 -0.240683 1.186 
0.553793 -0.239669 1.181 
0.601386 -0.239872 1.182 
0.64851 -0.239872 1.182 
0.695045 -0.239669 1.181 
0.742129 -0.239669 1.181 
0.787209 -0.23906 1.178 
0.834881 -0.239263 1.179 
0.881137 -0.23906 1.178 
0.92495 -0.238248 1.174 
0.974239 -0.238857 1.177 
1.01596 -0.237639 1.171 
1.06264 -0.237639 1.171 
1.10838 -0.237436 1.17 
1.157 -0.237842 1.172 
-0.646254 -0.162078 0.808 
-0.61784 -0.163081 0.813 
-0.600549 -0.167294 0.834 
-0.571381 -0.168497 0.84 
-0.536611 -0.168096 0.838 
-0.59533 -0.225265 1.123 
-0.567717 -0.232285 1.158 
-0.529657 -0.235896 1.176 
-0.485235 -0.2371 1.182 
-0.438482 -0.2373 1.183 
-0.391318 -0.2373 1.183 
-0.3459 -0.238504 1.189 
-0.29674 -0.2371 1.182 
-0.250883 -0.238303 1.188 
-0.203177 -0.237902 1.186 
-0.156157 -0.238303 1.188 
-0.108519 -0.237701 1.185 
