# .PCD v.7 - Point Cloud Data file format
VERSION .7
FIELDS x y z
SIZE 4 4 4
TYPE F F F
COUNT 1 1 1
WIDTH 1820
HEIGHT 1
VIEWPOINT 0 0 0 1 0 0 0
POINTS 1820
DATA ascii
0.672457 0.00131156 1.2 
0.720298 0.00131156 1.2 
0.7707 0.00131593 1.204 
0.817341 0.00131374 1.202 
0.866702 0.00131593 1.204 
0.917742 0.0013203 1.208 
0.968301 0.00132358 1.211 
1.01994 0.00132795 1.215 
1.06838 0.00132795 1.215 
-15.0044 0.0536453 15.603 
-0.922751 0.00378883 1.102 
-0.882804 0.00380602 1.107 
-0.837912 0.00380258 1.106 
-0.795254 0.00380946 1.108 
-0.752436 0.00381633 1.11 
-0.709459 0.00382321 1.112 
-0.666322 0.00383009 1.114 
-0.622467 0.00383352 1.115 
-0.580606 0.00385071 1.12 
-0.538347 0.0038679 1.125 
-0.494373 0.00387478 1.127 
-0.451834 0.00389541 1.133 
-0.406305 0.00389197 1.132 
-0.363089 0.0039126 1.138 
-0.318278 0.00391948 1.14 
-0.274503 0.00394354 1.147 
-0.228575 0.00394011 1.146 
-0.183844 0.00396073 1.152 
-0.138635 0.00398136 1.158 
-0.0927073 0.00399168 1.161 
-0.0466206 0.00400887 1.166 
-0.000134835 0.00401575 1.168 
0.0465104 0.00402262 1.17 
0.0933947 0.00403294 1.173 
0.140399 0.00403981 1.175 
0.187562 0.00404669 1.177 
0.235483 0.00406388 1.182 
0.282607 0.00406388 1.182 
0.33001 0.00406732 1.183 
0.377174 0.00406732 1.183 
0.426131 0.00408451 1.188 
0.473892 0.00408795 1.189 
0.522611 0.00409826 1.192 
0.570133 0.00409826 1.192 
0.616101 0.00408795 1.189 
0.669085 0.00412233 1.199 
0.717484 0.00412577 1.2 
0.767877 0.00413952 1.204 
0.813845 0.0041292 1.201 
0.863879 0.00413952 1.204 
0.914909 0.00415327 1.208 
0.964664 0.00416015 1.21 
1.01709 0.00417734 1.215 
0.755576 0.00282615 0.822 
-14.5433 0.0881087 15.235 
-0.919247 0.00638477 1.104 
-0.877611 0.00640212 1.107 
-0.831219 0.00638477 1.104 
-0.790057 0.00640791 1.108 
-0.747903 0.00642526 1.111 
-0.704243 0.00643104 1.112 
-0.66169 0.00644839 1.115 
-0.617237 0.00644839 1.115 
-0.575353 0.00647731 1.12 
-0.53307 0.00650622 1.125 
-0.488653 0.00651201 1.126 
-0.44652 0.00655249 1.133 
-0.400996 0.00654671 1.132 
-0.357751 0.00658141 1.138 
-0.312931 0.00659297 1.14 
-0.269124 0.00663346 1.147 
-0.223395 0.00663346 1.147 
-0.178751 0.00667394 1.154 
-0.133088 0.00669129 1.157 
-0.0872619 0.00671442 1.161 
-0.0411517 0.00674334 1.166 
0.00534349 0.00675491 1.168 
0.0519537 0.00676069 1.169 
0.0988965 0.00678382 1.173 
0.14591 0.00679539 1.175 
0.193083 0.00680696 1.177 
0.240823 0.00683009 1.181 
0.288151 0.00683587 1.182 
0.335558 0.00684166 1.183 
0.383369 0.00685322 1.185 
0.431703 0.00687057 1.188 
0.479469 0.00687636 1.189 
0.528202 0.00689371 1.192 
0.575724 0.00689371 1.192 
0.622724 0.00688792 1.191 
0.674708 0.00693419 1.199 
0.72251 0.00693419 1.199 
0.771596 0.00694576 1.201 
0.818796 0.00693997 1.2 
0.87097 0.00697467 1.206 
0.921337 0.00699202 1.209 
0.971141 0.00700359 1.211 
1.02279 0.00702672 1.215 
0.761585 0.00470761 0.814 
-0.951179 0.00895759 1.102 
-0.912184 0.00900636 1.108 
-0.867227 0.00899823 1.107 
-0.821606 0.00898197 1.105 
-0.779663 0.00900636 1.108 
-0.737481 0.00903074 1.111 
-0.694435 0.009047 1.113 
-0.651815 0.00907139 1.116 
-0.606778 0.00906326 1.115 
-0.564847 0.0091039 1.12 
-0.522517 0.00914454 1.125 
-0.477666 0.00914454 1.125 
-0.435892 0.00920957 1.133 
-0.391066 0.0092177 1.134 
-0.347381 0.00925834 1.139 
-0.302767 0.00928273 1.142 
-0.257914 0.00930711 1.145 
-0.213006 0.00933963 1.149 
-0.168071 0.0093884 1.155 
-0.122235 0.00940465 1.157 
-0.0763709 0.00943717 1.161 
-0.0302397 0.00948594 1.167 
0.0163001 0.00949407 1.168 
0.0630273 0.00951845 1.171 
0.1099 0.00953471 1.173 
0.157199 0.00956722 1.177 
0.204124 0.00956722 1.177 
0.251475 0.00958348 1.179 
0.299492 0.00961599 1.183 
0.346363 0.00960787 1.182 
0.394818 0.00964038 1.186 
0.44322 0.00966476 1.189 
0.491861 0.00968915 1.192 
0.540288 0.00970541 1.194 
0.586906 0.00968915 1.192 
0.635493 0.00970541 1.194 
0.684812 0.00972979 1.197 
0.730697 0.00970541 1.194 
0.773085 0.00964038 1.186 
0.831436 0.00977044 1.202 
0.883015 0.00981108 1.207 
0.93345 0.00983546 1.21 
0.994295 0.00987611 1.215 
0.758283 0.00691734 0.851 
-16.3554 0.173894 16.603 
-0.951179 0.011542 1.102 
-0.911361 0.0115943 1.107 
-0.867227 0.0115943 1.107 
-0.82235 0.0115839 1.106 
-0.779663 0.0116048 1.108 
-0.737481 0.0116362 1.111 
-0.694435 0.0116572 1.113 
-0.651231 0.0116781 1.115 
-0.606778 0.0116781 1.115 
-0.564847 0.0117305 1.12 
-0.522517 0.0117829 1.125 
-0.477666 0.0117829 1.125 
-0.435892 0.0118666 1.133 
-0.391066 0.0118771 1.134 
-0.347381 0.0119295 1.139 
-0.302767 0.0119609 1.142 
-0.258139 0.0120028 1.146 
-0.213006 0.0120342 1.149 
-0.168071 0.0120971 1.155 
-0.122235 0.012118 1.157 
-0.0763709 0.0121599 1.161 
-0.0302397 0.0122228 1.167 
0.0163001 0.0122332 1.168 
0.0630273 0.0122646 1.171 
0.109994 0.0122961 1.174 
0.157199 0.0123275 1.177 
0.204124 0.0123275 1.177 
0.251475 0.0123484 1.179 
0.299492 0.0123903 1.183 
0.346656 0.0123903 1.183 
0.394818 0.0124218 1.186 
0.44322 0.0124532 1.189 
0.491861 0.0124846 1.192 
0.541193 0.0125265 1.196 
0.586906 0.0124846 1.192 
0.634428 0.0124846 1.192 
0.684812 0.012537 1.197 
0.727638 0.0124532 1.189 
0.765915 0.0123065 1.175 
0.830744 0.0125789 1.201 
0.883015 0.0126417 1.207 
0.93345 0.0126731 1.21 
0.984124 0.0127045 1.213 
0.753622 0.00888166 0.848 
0.748458 0.00842082 0.804 
-15.6809 0.207511 16.188 
-0.930548 0.0140879 1.099 
-0.893188 0.0141904 1.107 
-0.849054 0.0141904 1.107 
-0.80492 0.0141904 1.107 
-0.762161 0.0142161 1.109 
-0.71989 0.0142545 1.112 
-0.676772 0.0142802 1.114 
-0.632926 0.014293 1.115 
-0.590585 0.0143443 1.119 
-0.547436 0.0143827 1.122 
-0.504049 0.0144212 1.125 
-0.46083 0.0144725 1.129 
-0.414714 0.014434 1.126 
-0.373436 0.014575 1.137 
-0.32926 0.0146263 1.141 
-0.284766 0.0146776 1.145 
-0.23849 0.0146391 1.142 
-0.194651 0.0147673 1.152 
-0.149498 0.0148442 1.158 
-0.103241 0.0148314 1.157 
-0.057361 0.0148955 1.162 
-0.011082 0.0149596 1.167 
0.0355046 0.0149852 1.169 
0.082321 0.0150237 1.172 
0.129266 0.0150493 1.174 
0.176521 0.0150878 1.177 
0.223636 0.0151006 1.178 
0.271519 0.0151519 1.182 
0.318912 0.0151647 1.183 
0.366076 0.0151647 1.183 
0.414288 0.0152031 1.186 
0.462739 0.0152416 1.189 
0.512287 0.0153057 1.194 
0.558483 0.0152672 1.191 
0.606474 0.01528 1.192 
0.657837 0.0153698 1.199 
0.702696 0.0153057 1.194 
0.738987 0.0150749 1.176 
0.781194 0.0149852 1.169 
0.852584 0.0154339 1.204 
0.903577 0.0154851 1.208 
0.953313 0.0155108 1.21 
0.733121 0.0108319 0.845 
0.742406 0.0104602 0.816 
-16.5278 0.255028 16.818 
-0.952042 0.0167259 1.103 
-0.911361 0.0167865 1.107 
-0.866444 0.0167714 1.106 
-0.823093 0.0167865 1.107 
-0.779663 0.0168017 1.108 
-0.737481 0.0168472 1.111 
-0.694435 0.0168775 1.113 
-0.651231 0.0169079 1.115 
-0.606778 0.0169079 1.115 
-0.564847 0.0169837 1.12 
-0.522517 0.0170595 1.125 
-0.47809 0.0170747 1.126 
-0.435507 0.0171656 1.132 
-0.391066 0.017196 1.134 
-0.347381 0.0172718 1.139 
-0.302767 0.0173173 1.142 
-0.257914 0.0173628 1.145 
-0.212821 0.0174083 1.148 
-0.168071 0.0175144 1.155 
-0.122235 0.0175447 1.157 
-0.0763709 0.0176054 1.161 
-0.0302397 0.0176964 1.167 
0.0163001 0.0177115 1.168 
0.0630273 0.017757 1.171 
0.110087 0.0178177 1.175 
0.157199 0.017848 1.177 
0.204124 0.017848 1.177 
0.251902 0.0179087 1.181 
0.299239 0.0179238 1.182 
0.346656 0.017939 1.183 
0.394818 0.0179845 1.186 
0.44322 0.01803 1.189 
0.491861 0.0180755 1.192 
0.541193 0.0181361 1.196 
0.586906 0.0180755 1.192 
0.634428 0.0180755 1.192 
0.68424 0.0181361 1.196 
0.719682 0.0178329 1.176 
0.749104 0.0173021 1.141 
0.725082 0.0127074 0.838 
0.734053 0.012298 0.811 
0.733059 0.0116763 0.77 
-16.37 0.294469 16.818 
-0.942549 0.0193301 1.104 
-0.900976 0.0193827 1.107 
-0.856843 0.0193827 1.107 
-0.813443 0.0194002 1.108 
-0.769964 0.0194177 1.109 
-0.727713 0.0194702 1.112 
-0.684609 0.0195052 1.114 
-0.641346 0.0195402 1.116 
-0.596853 0.0195402 1.116 
-0.55434 0.0196103 1.12 
-0.511964 0.0196978 1.125 
-0.467943 0.0197328 1.127 
-0.423762 0.0197679 1.129 
-0.3811 0.0198904 1.136 
-0.337583 0.0199955 1.142 
-0.29231 0.020013 1.143 
-0.246525 0.0199955 1.142 
-0.20258 0.0201531 1.151 
-0.157509 0.0202581 1.157 
-0.111381 0.0202581 1.157 
-0.0655363 0.0203457 1.162 
-0.0192924 0.0204332 1.167 
0.0272568 0.0204507 1.168 
0.0740753 0.0205207 1.172 
0.12111 0.0205733 1.175 
0.168383 0.0206258 1.178 
0.215165 0.0206083 1.177 
0.26298 0.0206783 1.181 
0.310589 0.0207133 1.183 
0.358358 0.0207484 1.185 
0.405944 0.0207659 1.186 
0.454373 0.0208184 1.189 
0.503043 0.0208709 1.192 
0.551489 0.0209059 1.194 
0.599091 0.0209059 1.194 
0.647777 0.020941 1.196 
0.695459 0.020941 1.196 
0.726986 0.0204857 1.17 
0.741206 0.0195577 1.117 
0.725312 0.0146377 0.836 
0.734486 0.0139198 0.795 
0.733914 0.0132369 0.756 
-16.0829 0.329642 16.603 
-0.937371 0.0219192 1.104 
-0.895784 0.0219788 1.107 
-0.85165 0.0219788 1.107 
-0.808246 0.0219986 1.108 
-0.764762 0.0220185 1.109 
-0.722498 0.022078 1.112 
-0.679384 0.0221177 1.114 
-0.635541 0.0221376 1.115 
-0.593209 0.022217 1.119 
-0.549087 0.0222369 1.12 
-0.506687 0.0223361 1.125 
-0.463478 0.0224156 1.129 
-0.417726 0.0223758 1.127 
-0.376102 0.0225744 1.137 
-0.332227 0.0226737 1.142 
-0.2872 0.0227134 1.144 
-0.240746 0.022634 1.14 
-0.197181 0.0228523 1.151 
-0.152213 0.0229913 1.158 
-0.105955 0.0229715 1.157 
-0.0600861 0.0230707 1.162 
-0.0138188 0.02317 1.167 
0.0327351 0.0231899 1.168 
0.0795045 0.0232494 1.171 
0.126621 0.0233289 1.175 
0.173909 0.0233884 1.178 
0.220686 0.0233686 1.177 
0.26852 0.023448 1.181 
0.316138 0.0234877 1.183 
0.363916 0.0235274 1.185 
0.411506 0.0235473 1.186 
0.45995 0.0236068 1.189 
0.508633 0.0236664 1.192 
0.556156 0.0236664 1.192 
0.604691 0.0237061 1.194 
0.653933 0.0237656 1.197 
0.698724 0.0236664 1.192 
0.721204 0.0228722 1.152 
0.735834 0.021939 1.105 
0.707615 0.0195168 0.983 
0.713549 0.0165982 0.836 
0.726445 0.0161019 0.811 
0.725038 0.0153474 0.773 
0.729024 0.0147319 0.742 
-14.3744 0.33428 15.058 
-0.916553 0.0245749 1.107 
-0.871631 0.0245527 1.106 
-0.829034 0.0245971 1.108 
-0.78486 0.0245971 1.108 
-0.742023 0.0246415 1.11 
-0.699656 0.0247081 1.113 
-0.655872 0.0247303 1.114 
-0.612556 0.0247747 1.116 
-0.5701 0.0248635 1.12 
-0.527794 0.0249745 1.125 
-0.483371 0.0249967 1.126 
-0.441206 0.025152 1.133 
-0.396385 0.0251742 1.134 
-0.353033 0.0253074 1.14 
-0.307853 0.0253296 1.141 
-0.263514 0.0254406 1.146 
-0.217255 0.025374 1.143 
-0.173338 0.0256182 1.154 
-0.127662 0.0256848 1.157 
-0.0818164 0.0257736 1.161 
-0.0356827 0.0258846 1.166 
0.0108125 0.0259068 1.167 
0.0574858 0.0259734 1.17 
0.104576 0.0260844 1.175 
0.15155 0.0261066 1.176 
0.198772 0.026151 1.178 
0.246362 0.0262176 1.181 
0.293695 0.0262398 1.182 
0.341107 0.026262 1.183 
0.389255 0.0263286 1.186 
0.437275 0.026373 1.188 
0.485862 0.0264396 1.191 
0.534688 0.0265062 1.194 
0.581315 0.0264618 1.192 
0.629893 0.0265062 1.194 
0.67863 0.0265506 1.196 
0.710522 0.0259734 1.17 
0.717044 0.0245971 1.108 
0.707937 0.0226435 1.02 
0.710337 0.020135 0.907 
0.711325 0.0186032 0.838 
0.722642 0.0180038 0.811 
0.72053 0.0171824 0.774 
0.72906 0.0166718 0.751 
-16.0829 0.407515 16.603 
-0.929533 0.027171 1.107 
-0.8846 0.0271464 1.106 
-0.842026 0.0271955 1.108 
-0.797852 0.0271955 1.108 
-0.754359 0.0272201 1.109 
-0.712066 0.0272937 1.112 
-0.668934 0.0273428 1.114 
-0.624521 0.0273428 1.114 
-0.582712 0.0274655 1.119 
-0.540023 0.0275637 1.123 
-0.496575 0.0276373 1.126 
-0.45409 0.0277846 1.132 
-0.408237 0.0277355 1.13 
-0.366079 0.0279564 1.139 
-0.321514 0.02803 1.142 
-0.276952 0.0281282 1.146 
-0.229649 0.0279319 1.138 
-0.186546 0.0282755 1.152 
-0.141351 0.0284227 1.158 
-0.0951835 0.0284227 1.158 
-0.0491858 0.0285209 1.162 
-0.00287154 0.0286437 1.167 
0.0437291 0.0286927 1.169 
0.0905666 0.0287664 1.172 
0.137643 0.02884 1.175 
0.184959 0.0289136 1.178 
0.231923 0.0289136 1.178 
0.279835 0.0290118 1.182 
0.326959 0.0290118 1.182 
0.375032 0.0290855 1.185 
0.422632 0.02911 1.186 
0.471104 0.0291836 1.189 
0.520687 0.0293064 1.194 
0.566862 0.0292327 1.191 
0.617439 0.02938 1.197 
0.665161 0.02938 1.197 
0.700972 0.0288891 1.177 
0.709771 0.0274164 1.117 
0.712435 0.0258946 1.055 
0.703875 0.0240783 0.981 
0.708542 0.021943 0.894 
0.708797 0.0206666 0.842 
0.721205 0.0200776 0.818 
0.718799 0.0191449 0.78 
0.725861 0.0185312 0.755 
-16.8475 0.464307 17.267 
-0.929533 0.0297671 1.107 
-0.8846 0.0297402 1.106 
-0.842026 0.029794 1.108 
-0.797852 0.029794 1.108 
-0.754359 0.0298209 1.109 
-0.712066 0.0299015 1.112 
-0.669535 0.0299822 1.115 
-0.624521 0.0299553 1.114 
-0.582712 0.0300898 1.119 
-0.540023 0.0301973 1.123 
-0.496575 0.030278 1.126 
-0.45409 0.0304393 1.132 
-0.40896 0.0304393 1.132 
-0.366079 0.0306275 1.139 
-0.321514 0.0307082 1.142 
-0.276952 0.0308158 1.146 
-0.229649 0.0306007 1.138 
-0.186546 0.0309771 1.152 
-0.141351 0.0311385 1.158 
-0.0952657 0.0311653 1.159 
-0.0491858 0.031246 1.162 
-0.00287154 0.0313805 1.167 
0.0437291 0.0314342 1.169 
0.0905666 0.0315149 1.172 
0.137526 0.0315687 1.174 
0.184959 0.0316763 1.178 
0.231923 0.0316763 1.178 
0.279835 0.0317838 1.182 
0.326959 0.0317838 1.182 
0.375032 0.0318645 1.185 
0.422632 0.0318914 1.186 
0.471104 0.031972 1.189 
0.519815 0.0320527 1.192 
0.566862 0.0320258 1.191 
0.617439 0.0321872 1.197 
0.665161 0.0321872 1.197 
0.700376 0.0316225 1.176 
0.707229 0.0299284 1.113 
0.709059 0.0282344 1.05 
0.705587 0.0262714 0.977 
0.709711 0.0237975 0.885 
0.710563 0.0220228 0.819 
0.713268 0.0211354 0.786 
0.717132 0.0203556 0.757 
0.721645 0.0196565 0.731 
-13.4848 0.416044 14.231 
-0.909586 0.0323924 1.108 
-0.864631 0.0323632 1.107 
-0.821238 0.0323924 1.108 
-0.777065 0.0323924 1.108 
-0.734875 0.0324801 1.111 
-0.692447 0.0325678 1.114 
-0.648616 0.0325971 1.115 
-0.604705 0.0326263 1.116 
-0.563224 0.0328017 1.122 
-0.519879 0.0328894 1.125 
-0.476716 0.0330064 1.129 
-0.433235 0.0331233 1.133 
-0.389092 0.033211 1.136 
-0.345618 0.0333864 1.142 
-0.300089 0.0333864 1.142 
-0.255228 0.0334741 1.145 
-0.209946 0.0335326 1.147 
-0.165362 0.0337665 1.155 
-0.119728 0.0338834 1.159 
-0.0737116 0.0339711 1.162 
-0.0274793 0.034088 1.166 
0.019023 0.0341173 1.167 
0.0657735 0.0342342 1.171 
0.112843 0.0343512 1.175 
0.15996 0.0344096 1.177 
0.206884 0.0344096 1.177 
0.25424 0.0344681 1.179 
0.302011 0.0345558 1.182 
0.350021 0.0346435 1.185 
0.3976 0.0346727 1.186 
0.446008 0.0347604 1.189 
0.494241 0.0348189 1.191 
0.543088 0.0349066 1.194 
0.590691 0.0349066 1.194 
0.638293 0.0349066 1.194 
0.687619 0.0349943 1.197 
0.702167 0.0334156 1.143 
0.707831 0.0316323 1.082 
0.70516 0.0297028 1.016 
0.70654 0.0271886 0.93 
0.709235 0.0259315 0.887 
0.706522 0.024002 0.821 
0.709539 0.0230372 0.788 
0.714627 0.0222186 0.76 
0.717234 0.0213416 0.73 
-14.6809 0.486872 15.417 
-0.915608 0.0350224 1.109 
-0.869823 0.0349593 1.107 
-0.826435 0.0349909 1.108 
-0.782262 0.0349909 1.108 
-0.73942 0.035054 1.11 
-0.697672 0.0351803 1.114 
-0.653845 0.0352119 1.115 
-0.609393 0.0352119 1.115 
-0.568487 0.035433 1.122 
-0.525155 0.0355277 1.125 
-0.482012 0.035654 1.129 
-0.438936 0.0358119 1.134 
-0.394073 0.0358435 1.135 
-0.350667 0.036033 1.141 
-0.305178 0.036033 1.141 
-0.261054 0.0362225 1.147 
-0.214762 0.0361278 1.144 
-0.170632 0.0364436 1.154 
-0.125164 0.0366015 1.159 
-0.0790936 0.0366646 1.161 
-0.0329483 0.0368225 1.166 
0.0135377 0.0368225 1.166 
0.0602297 0.0369488 1.17 
0.107241 0.0370752 1.174 
0.154308 0.0371383 1.176 
0.201535 0.0372015 1.178 
0.24871 0.0372331 1.179 
0.296467 0.0373278 1.182 
0.344463 0.0374225 1.185 
0.391706 0.0374225 1.185 
0.440431 0.0375489 1.189 
0.488655 0.037612 1.191 
0.537488 0.0377068 1.194 
0.58411 0.0376436 1.192 
0.633753 0.0377699 1.196 
0.683144 0.0378647 1.199 
0.700464 0.0362857 1.149 
0.705354 0.0342961 1.086 
0.705221 0.0323065 1.023 
0.708815 0.030696 0.972 
0.70775 0.0282011 0.893 
0.706551 0.0264326 0.837 
0.709974 0.0252957 0.801 
0.713195 0.0243168 0.77 
0.716843 0.0234325 0.742 
-15.6049 0.549184 16.188 
-0.926011 0.0376232 1.109 
-0.879412 0.0375215 1.106 
-0.836829 0.0375893 1.108 
-0.792655 0.0375893 1.108 
-0.749157 0.0376232 1.109 
-0.707486 0.0377589 1.113 
-0.664305 0.0378268 1.115 
-0.619296 0.0377929 1.114 
-0.57798 0.0379964 1.12 
-0.535709 0.038166 1.125 
-0.49173 0.0382339 1.127 
-0.449177 0.0384374 1.133 
-0.40365 0.0384035 1.132 
-0.361054 0.0386749 1.14 
-0.315604 0.0386749 1.14 
-0.271577 0.0388785 1.146 
-0.224902 0.0387089 1.141 
-0.181143 0.039082 1.152 
-0.135919 0.0392856 1.158 
-0.0899846 0.0393874 1.161 
-0.0438485 0.0395231 1.165 
0.00259987 0.039557 1.166 
0.0492122 0.0396588 1.169 
0.0959817 0.0397266 1.171 
0.143033 0.0398284 1.174 
0.190484 0.0399641 1.178 
0.23765 0.039998 1.179 
0.285379 0.0400998 1.182 
0.332784 0.0401337 1.183 
0.379948 0.0401337 1.183 
0.428917 0.0403033 1.188 
0.476681 0.0403373 1.189 
0.526288 0.0405069 1.194 
0.572448 0.0404051 1.191 
0.623054 0.0406087 1.197 
0.670776 0.0406087 1.197 
0.702291 0.0396927 1.17 
0.705408 0.0373858 1.102 
0.703104 0.0350788 1.034 
0.704016 0.033179 0.978 
0.70764 0.0308382 0.909 
0.706882 0.0289723 0.854 
0.709874 0.0276831 0.816 
0.711473 0.0265296 0.782 
0.713209 0.025478 0.751 
0.717422 0.0245959 0.725 
-0.935628 0.040079 1.105 
-0.893188 0.0401515 1.107 
-0.849821 0.0401878 1.108 
-0.805648 0.0401878 1.108 
-0.762161 0.040224 1.109 
-0.71989 0.0403329 1.112 
-0.677379 0.0404417 1.115 
-0.632359 0.0404054 1.114 
-0.590585 0.0405867 1.119 
-0.547924 0.0407318 1.123 
-0.504497 0.0408406 1.126 
-0.461238 0.0409857 1.13 
-0.417292 0.0410945 1.133 
-0.373764 0.0412759 1.138 
-0.329549 0.041421 1.142 
-0.284517 0.0414935 1.144 
-0.23849 0.041421 1.142 
-0.194651 0.0417837 1.152 
-0.149369 0.041965 1.157 
-0.10342 0.0420376 1.159 
-0.0575091 0.0422552 1.165 
-0.0110725 0.0422915 1.166 
0.0354743 0.042364 1.168 
0.0821805 0.0424365 1.17 
0.129156 0.0425454 1.173 
0.176371 0.0426542 1.176 
0.223636 0.0427267 1.178 
0.27083 0.042763 1.179 
0.318912 0.0429081 1.183 
0.366695 0.0429806 1.185 
0.413939 0.0429806 1.185 
0.462739 0.0431257 1.189 
0.511 0.0431982 1.191 
0.558483 0.0431982 1.191 
0.609018 0.0434158 1.197 
0.655094 0.043307 1.194 
0.697988 0.0430169 1.186 
0.700656 0.0404417 1.115 
0.701672 0.0380841 1.05 
0.70671 0.036198 0.998 
0.704611 0.0341669 0.942 
0.708288 0.0326072 0.899 
0.706882 0.030975 0.854 
0.708828 0.029633 0.817 
0.710546 0.0283998 0.783 
0.711448 0.0272392 0.751 
0.713747 0.0262236 0.723 
-0.933881 0.042709 1.106 
-0.890592 0.0427476 1.107 
-0.846458 0.0427476 1.107 
-0.803774 0.0428248 1.109 
-0.75956 0.0428248 1.109 
-0.717282 0.0429407 1.112 
-0.674764 0.0430565 1.115 
-0.629746 0.0430179 1.114 
-0.588486 0.0432496 1.12 
-0.546262 0.0434427 1.125 
-0.501856 0.0434813 1.126 
-0.458588 0.0436358 1.13 
-0.414269 0.043713 1.132 
-0.371095 0.0439447 1.138 
-0.326584 0.0440605 1.141 
-0.282081 0.044215 1.145 
-0.235812 0.0440992 1.142 
-0.191949 0.0444853 1.152 
-0.146655 0.0446784 1.157 
-0.100615 0.044717 1.158 
-0.054777 0.0449873 1.165 
-0.00834517 0.0450645 1.167 
0.0382134 0.0451032 1.168 
0.0849243 0.0451804 1.17 
0.131907 0.0452962 1.173 
0.179129 0.0454121 1.176 
0.226398 0.0454893 1.178 
0.273595 0.0455279 1.179 
0.321687 0.0456824 1.183 
0.369474 0.0457596 1.185 
0.417069 0.0457982 1.186 
0.465527 0.0459141 1.189 
0.513793 0.0459913 1.191 
0.561276 0.0459913 1.191 
0.612847 0.0463002 1.199 
0.658996 0.0461844 1.196 
0.698406 0.0456438 1.182 
0.702009 0.0429793 1.113 
0.700781 0.0403534 1.045 
0.706919 0.0384226 0.995 
0.70376 0.0361057 0.935 
0.706957 0.0344452 0.892 
0.70839 0.032862 0.851 
0.708298 0.031356 0.812 
0.706921 0.0299272 0.775 
0.708306 0.0287301 0.744 
0.713171 0.0277647 0.719 
-0.93822 0.0452618 1.105 
-0.896593 0.0453847 1.108 
-0.85165 0.0453437 1.107 
-0.808246 0.0453847 1.108 
-0.764762 0.0454256 1.109 
-0.722498 0.0455485 1.112 
-0.679384 0.0456304 1.114 
-0.634971 0.0456304 1.114 
-0.593739 0.0458762 1.12 
-0.550558 0.0459991 1.123 
-0.506687 0.046081 1.125 
-0.463478 0.0462448 1.129 
-0.419579 0.0463677 1.132 
-0.376433 0.0466135 1.138 
-0.332227 0.0467773 1.142 
-0.2872 0.0468593 1.144 
-0.241591 0.0468593 1.144 
-0.197353 0.0471869 1.152 
-0.151819 0.0473098 1.155 
-0.106046 0.0474327 1.158 
-0.0602412 0.0477194 1.165 
-0.013807 0.0477604 1.166 
0.0327071 0.0478014 1.167 
0.0793687 0.0478833 1.169 
0.126405 0.0480471 1.173 
0.173613 0.04817 1.176 
0.221061 0.0482929 1.179 
0.268065 0.0482929 1.179 
0.316138 0.0484567 1.183 
0.363916 0.0485387 1.185 
0.411506 0.0485796 1.186 
0.45995 0.0487025 1.189 
0.508207 0.0487844 1.191 
0.556156 0.0488254 1.192 
0.606211 0.0490302 1.197 
0.653386 0.0489892 1.196 
0.698724 0.0488254 1.192 
0.701171 0.0458762 1.12 
0.698543 0.042968 1.049 
0.705076 0.0409199 0.999 
0.704639 0.038708 0.945 
0.707751 0.0369058 0.901 
0.70818 0.0351444 0.858 
0.706912 0.033465 0.817 
0.70871 0.0320724 0.783 
0.708742 0.0307207 0.75 
0.710082 0.0295328 0.721 
-0.943426 0.0477233 1.102 
-0.905205 0.0480264 1.109 
-0.859439 0.0479398 1.107 
-0.816041 0.0479831 1.108 
-0.772564 0.0480264 1.109 
-0.729664 0.048113 1.111 
-0.687222 0.048243 1.114 
-0.642809 0.048243 1.114 
-0.601619 0.0485028 1.12 
-0.558459 0.0486327 1.123 
-0.514602 0.0487193 1.125 
-0.471421 0.0488925 1.129 
-0.428298 0.0491091 1.134 
-0.384439 0.0492823 1.138 
-0.339964 0.0494122 1.141 
-0.294732 0.0494555 1.142 
-0.250076 0.0496287 1.146 
-0.205814 0.0499752 1.154 
-0.159945 0.0500185 1.155 
-0.114292 0.0501917 1.159 
-0.0682614 0.0503216 1.162 
-0.0220104 0.0504949 1.166 
0.0244756 0.0504949 1.166 
0.0712051 0.0506681 1.17 
0.118052 0.0507547 1.172 
0.16534 0.0509279 1.176 
0.212585 0.0510145 1.178 
0.25955 0.0510145 1.178 
0.307555 0.0511878 1.182 
0.355579 0.0513177 1.185 
0.403162 0.051361 1.186 
0.452345 0.0515775 1.191 
0.499827 0.0515775 1.191 
0.548689 0.0517074 1.194 
0.597789 0.0518374 1.197 
0.644972 0.0517941 1.196 
0.694391 0.051924 1.199 
0.704433 0.0492823 1.138 
0.697752 0.0458611 1.059 
0.70224 0.0435226 1.005 
0.703899 0.0412707 0.953 
0.70764 0.0393652 0.909 
0.711146 0.037633 0.869 
0.706313 0.0356409 0.823 
0.706793 0.0340819 0.787 
0.709093 0.0327394 0.756 
0.70892 0.0313969 0.725 
-0.944282 0.0503533 1.103 
-0.904389 0.0505816 1.108 
-0.859439 0.0505359 1.107 
-0.816041 0.0505816 1.108 
-0.772564 0.0506272 1.109 
-0.729664 0.0507185 1.111 
-0.687222 0.0508555 1.114 
-0.642809 0.0508555 1.114 
-0.601619 0.0511294 1.12 
-0.558459 0.0512663 1.123 
-0.514602 0.0513576 1.125 
-0.471421 0.0515402 1.129 
-0.428298 0.0517685 1.134 
-0.384439 0.0519511 1.138 
-0.339964 0.0520881 1.141 
-0.294732 0.0521337 1.142 
-0.250076 0.0523163 1.146 
-0.205814 0.0526815 1.154 
-0.159945 0.0527272 1.155 
-0.114292 0.0529098 1.159 
-0.0682614 0.0530467 1.162 
-0.0220104 0.0532293 1.166 
0.0244966 0.053275 1.167 
0.0712051 0.0534119 1.17 
0.118052 0.0535032 1.172 
0.16534 0.0536859 1.176 
0.212585 0.0537772 1.178 
0.25955 0.0537772 1.178 
0.307555 0.0539598 1.182 
0.355879 0.0541424 1.186 
0.403162 0.0541424 1.186 
0.452345 0.0543706 1.191 
0.499827 0.0543706 1.191 
0.548689 0.0545076 1.194 
0.597789 0.0546445 1.197 
0.644972 0.0545989 1.196 
0.694391 0.0547358 1.199 
0.705671 0.0520424 1.14 
0.697093 0.048299 1.058 
0.70224 0.0458795 1.005 
0.703899 0.0435056 0.953 
0.70764 0.041497 0.909 
0.711146 0.0396709 0.869 
0.705455 0.0375253 0.822 
0.706793 0.0359275 0.787 
0.709093 0.0345123 0.756 
0.706965 0.0330058 0.723 
-0.941695 0.05294 1.103 
-0.90179 0.05318 1.108 
-0.856843 0.053132 1.107 
-0.813443 0.05318 1.108 
-0.769964 0.053228 1.109 
-0.727059 0.053324 1.111 
-0.684609 0.053468 1.114 
-0.640771 0.053516 1.115 
-0.598992 0.053756 1.12 
-0.555825 0.0539 1.123 
-0.511964 0.053996 1.125 
-0.468773 0.0541879 1.129 
-0.425264 0.0543799 1.133 
-0.381771 0.0546199 1.138 
-0.337583 0.0548119 1.142 
-0.29231 0.0548599 1.143 
-0.247388 0.0550039 1.146 
-0.203284 0.0554359 1.155 
-0.157236 0.0554359 1.155 
-0.111478 0.0555798 1.158 
-0.0655363 0.0557718 1.162 
-0.0192759 0.0559638 1.166 
0.0272334 0.0560118 1.167 
0.0739489 0.0561558 1.17 
0.120801 0.0562518 1.172 
0.168097 0.0564438 1.176 
0.215348 0.0565398 1.178 
0.262312 0.0565398 1.178 
0.310589 0.0567798 1.183 
0.35866 0.0569237 1.186 
0.406628 0.0570197 1.188 
0.454373 0.0570677 1.189 
0.502621 0.0571637 1.191 
0.551489 0.0573077 1.194 
0.600596 0.0574517 1.197 
0.647777 0.0574037 1.196 
0.69604 0.0574517 1.197 
0.707723 0.0546679 1.139 
0.69759 0.0506362 1.055 
0.703895 0.0481884 1.004 
0.704652 0.0456446 0.951 
0.708991 0.0435807 0.908 
0.712363 0.0416609 0.868 
0.704801 0.0393091 0.819 
0.706838 0.0376772 0.785 
0.708045 0.0361413 0.753 
0.7067 0.0346054 0.721 
-0.939069 0.0556778 1.106 
-0.895784 0.0557281 1.107 
-0.85165 0.0557281 1.107 
-0.808246 0.0557785 1.108 
-0.764762 0.0558288 1.109 
-0.721848 0.0559295 1.111 
-0.679384 0.0560805 1.114 
-0.635541 0.0561309 1.115 
-0.5948 0.0564833 1.122 
-0.551538 0.0566343 1.125 
-0.506687 0.0566343 1.125 
-0.463478 0.0568356 1.129 
-0.418837 0.056886 1.13 
-0.376433 0.0572887 1.138 
-0.332227 0.0574901 1.142 
-0.2872 0.0575908 1.144 
-0.241802 0.0576411 1.145 
-0.197867 0.0581445 1.155 
-0.152082 0.0582452 1.157 
-0.106046 0.0582956 1.158 
-0.0602412 0.0586479 1.165 
-0.0137951 0.0586479 1.165 
0.0327071 0.0587486 1.167 
0.0795045 0.05895 1.171 
0.126298 0.0590003 1.172 
0.173613 0.0592017 1.176 
0.221061 0.0593527 1.179 
0.268065 0.0593527 1.179 
0.316138 0.0595541 1.183 
0.364223 0.0597051 1.186 
0.4122 0.0598058 1.188 
0.45995 0.0598561 1.189 
0.508207 0.0599568 1.191 
0.557089 0.0601078 1.194 
0.605704 0.0602085 1.196 
0.653386 0.0602085 1.196 
0.698724 0.0600072 1.192 
0.708684 0.0569867 1.132 
0.699875 0.052909 1.051 
0.705076 0.0502912 0.999 
0.704639 0.0475728 0.945 
0.707751 0.0453578 0.901 
0.712307 0.0434448 0.863 
0.706047 0.0410787 0.816 
0.707805 0.0393671 0.782 
0.705907 0.0376052 0.747 
0.706142 0.0360949 0.717 
-0.943403 0.0582189 1.105 
-0.900976 0.0583242 1.107 
-0.856843 0.0583242 1.107 
-0.812709 0.0583242 1.107 
-0.769964 0.0584296 1.109 
-0.727059 0.058535 1.111 
-0.684609 0.058693 1.114 
-0.640196 0.058693 1.114 
-0.598992 0.0590092 1.12 
-0.555825 0.0591672 1.123 
-0.511964 0.0592726 1.125 
-0.468773 0.0594833 1.129 
-0.425264 0.0596941 1.133 
-0.381771 0.0599575 1.138 
-0.337583 0.0601683 1.142 
-0.29231 0.060221 1.143 
-0.247173 0.0603263 1.145 
-0.203284 0.0608532 1.155 
-0.157236 0.0608532 1.155 
-0.111478 0.0610113 1.158 
-0.0655363 0.061222 1.162 
-0.0192594 0.0613801 1.165 
0.0272334 0.0614854 1.167 
0.0740121 0.0616962 1.171 
0.120801 0.0617489 1.172 
0.167955 0.0619069 1.175 
0.215348 0.062065 1.178 
0.262535 0.0621177 1.179 
0.310327 0.0622757 1.182 
0.35866 0.0624865 1.186 
0.406628 0.0625919 1.188 
0.454373 0.0626445 1.189 
0.502621 0.0627499 1.191 
0.551489 0.062908 1.194 
0.600095 0.0630134 1.196 
0.647777 0.0630134 1.196 
0.69604 0.063066 1.197 
0.707723 0.0600102 1.139 
0.698252 0.0556372 1.056 
0.704596 0.0529502 1.005 
0.704652 0.0501051 0.951 
0.708991 0.0478396 0.908 
0.713184 0.0457848 0.869 
0.704801 0.0431505 0.819 
0.706838 0.0413591 0.785 
0.706164 0.0395678 0.751 
0.7067 0.0379871 0.721 
-0.945138 0.0607552 1.104 
-0.903572 0.0609203 1.107 
-0.859439 0.0609203 1.107 
-0.815305 0.0609203 1.107 
-0.772564 0.0610304 1.109 
-0.729664 0.0611405 1.111 
-0.686605 0.0612505 1.113 
-0.642809 0.0613056 1.114 
-0.601619 0.0616358 1.12 
-0.558459 0.0618008 1.123 
-0.515059 0.0619659 1.126 
-0.471421 0.062131 1.129 
-0.427921 0.0623512 1.133 
-0.384102 0.0625713 1.137 
-0.339964 0.0627914 1.141 
-0.29499 0.0629015 1.143 
-0.249858 0.0630116 1.145 
-0.205993 0.0635619 1.155 
-0.159945 0.0635619 1.155 
-0.114193 0.063727 1.158 
-0.0682026 0.0638921 1.161 
-0.0219915 0.0641122 1.165 
0.0244966 0.0642223 1.167 
0.0712051 0.0643874 1.17 
0.117951 0.0644424 1.171 
0.165199 0.0646625 1.175 
0.212585 0.0648276 1.178 
0.25977 0.0648826 1.179 
0.307555 0.0650477 1.182 
0.355579 0.0652128 1.185 
0.403842 0.0653779 1.188 
0.451585 0.065433 1.189 
0.499827 0.065543 1.191 
0.548689 0.0657081 1.194 
0.59729 0.0658182 1.196 
0.644972 0.0658182 1.196 
0.694391 0.0659833 1.199 
0.706909 0.0628465 1.142 
0.69907 0.0583889 1.061 
0.705035 0.0555272 1.009 
0.704638 0.0525005 0.954 
0.70764 0.050024 0.909 
0.711964 0.0478778 0.87 
0.704597 0.0451812 0.821 
0.705895 0.0432551 0.786 
0.706279 0.041439 0.753 
0.706965 0.0397881 0.723 
-14.2441 0.854058 14.885 
-0.907123 0.0634017 1.105 
-0.86385 0.0634591 1.106 
-0.820497 0.0635164 1.107 
-0.777766 0.0636312 1.109 
-0.734875 0.063746 1.111 
-0.691825 0.0638607 1.113 
-0.648034 0.0639181 1.114 
-0.60633 0.064205 1.119 
-0.563224 0.0643771 1.122 
-0.519879 0.0645492 1.125 
-0.476716 0.0647787 1.129 
-0.433617 0.0650656 1.134 
-0.389092 0.0651804 1.136 
-0.345013 0.0654099 1.14 
-0.300089 0.0655246 1.142 
-0.255451 0.0657542 1.146 
-0.210861 0.0660984 1.152 
-0.165362 0.0662705 1.155 
-0.119728 0.0665001 1.159 
-0.0736481 0.0666148 1.161 
-0.027385 0.0666722 1.162 
0.019023 0.0669591 1.167 
0.0656612 0.0670738 1.169 
0.112459 0.0671886 1.171 
0.159688 0.0674181 1.175 
0.206884 0.0675328 1.177 
0.25424 0.0676476 1.179 
0.302011 0.0678197 1.182 
0.34943 0.0678771 1.183 
0.39827 0.068164 1.188 
0.446008 0.0682214 1.189 
0.495486 0.0685083 1.194 
0.543088 0.0685083 1.194 
0.590691 0.0685083 1.194 
0.639362 0.068623 1.196 
0.688768 0.0687951 1.199 
0.705239 0.0658689 1.148 
0.702597 0.061623 1.074 
0.707937 0.0585246 1.02 
0.703833 0.0550246 0.959 
0.706472 0.0523853 0.913 
0.709511 0.0500328 0.872 
0.707574 0.0475656 0.829 
0.704889 0.0452705 0.789 
0.704614 0.0433197 0.755 
0.708439 0.0417705 0.728 
-14.5156 0.899298 15.058 
-0.917489 0.0659931 1.105 
-0.872644 0.0659334 1.104 
-0.830131 0.0660528 1.106 
-0.787458 0.0661723 1.108 
-0.744626 0.0662917 1.11 
-0.701635 0.0664112 1.112 
-0.658484 0.0665306 1.114 
-0.616827 0.0668292 1.119 
-0.573749 0.0670084 1.122 
-0.530432 0.0671875 1.125 
-0.487307 0.0674264 1.129 
-0.443863 0.0676653 1.133 
-0.398693 0.0676653 1.133 
-0.355395 0.0680237 1.139 
-0.310257 0.0680834 1.14 
-0.266201 0.0684417 1.146 
-0.220513 0.0684417 1.146 
-0.175739 0.0688001 1.152 
-0.130488 0.0691584 1.158 
-0.0843935 0.0692181 1.159 
-0.0383842 0.0695764 1.165 
0.00806881 0.0696362 1.166 
0.0546484 0.0697556 1.168 
0.101474 0.0699348 1.171 
0.148539 0.0701139 1.174 
0.195677 0.0702334 1.176 
0.24318 0.0704125 1.179 
0.291169 0.0706514 1.183 
0.337761 0.070532 1.181 
0.386474 0.0708306 1.186 
0.434489 0.0709501 1.188 
0.484286 0.0713084 1.194 
0.531888 0.0713084 1.194 
0.57949 0.0713084 1.194 
0.626042 0.0711889 1.192 
0.67752 0.071607 1.199 
0.704754 0.0695764 1.165 
0.704129 0.0652167 1.092 
0.705215 0.0615139 1.03 
0.70498 0.0581098 0.973 
0.709373 0.0554223 0.928 
0.708569 0.0526153 0.881 
0.706551 0.0499875 0.837 
0.706328 0.0477181 0.799 
0.703998 0.0455084 0.762 
0.705465 0.0437167 0.732 
-14.7934 0.945597 15.235 
-0.914069 0.0685225 1.104 
-0.870055 0.0685225 1.104 
-0.827537 0.0686466 1.106 
-0.78486 0.0687707 1.108 
-0.742023 0.0688949 1.11 
-0.699027 0.069019 1.112 
-0.655872 0.0691431 1.114 
-0.614203 0.0694535 1.119 
-0.571118 0.0696397 1.122 
-0.527794 0.0698259 1.125 
-0.484659 0.0700741 1.129 
-0.441206 0.0703224 1.133 
-0.396385 0.0703845 1.134 
-0.353033 0.0707569 1.14 
-0.307853 0.0708189 1.141 
-0.263514 0.0711293 1.146 
-0.218205 0.0712534 1.148 
-0.173338 0.0716258 1.154 
-0.127772 0.0718741 1.158 
-0.0816754 0.0719362 1.159 
-0.0355603 0.0721224 1.162 
0.0108125 0.0724327 1.167 
0.0573875 0.0724948 1.168 
0.10422 0.072681 1.171 
0.151292 0.0728672 1.174 
0.198435 0.0729913 1.176 
0.245945 0.0731775 1.179 
0.293943 0.0734258 1.183 
0.341107 0.0734258 1.183 
0.389912 0.0737361 1.188 
0.437275 0.0737361 1.188 
0.487086 0.0741085 1.194 
0.534688 0.0741085 1.194 
0.58229 0.0741085 1.194 
0.628838 0.0739844 1.192 
0.680332 0.0744189 1.199 
0.703842 0.0719362 1.159 
0.702807 0.0674052 1.086 
0.70557 0.0637433 1.027 
0.705081 0.0602054 0.97 
0.709249 0.0574124 0.925 
0.709022 0.0545573 0.879 
0.705974 0.0517642 0.834 
0.705542 0.0494057 0.796 
0.703007 0.0471092 0.759 
0.706216 0.0453713 0.731 
-14.6216 0.969925 15.058 
-0.914069 0.0711115 1.104 
-0.870055 0.0711115 1.104 
-0.828285 0.0713048 1.107 
-0.78486 0.0713692 1.108 
-0.742023 0.071498 1.11 
-0.699027 0.0716268 1.112 
-0.655872 0.0717557 1.114 
-0.614203 0.0720777 1.119 
-0.5701 0.0721421 1.12 
-0.527794 0.0724642 1.125 
-0.484659 0.0727218 1.129 
-0.441206 0.0729795 1.133 
-0.396385 0.0730439 1.134 
-0.353033 0.0734304 1.14 
-0.308123 0.0735592 1.142 
-0.263514 0.0738169 1.146 
-0.218205 0.0739457 1.148 
-0.173338 0.0743322 1.154 
-0.127772 0.0745898 1.158 
-0.0816754 0.0746542 1.159 
-0.0355603 0.0748475 1.162 
0.0108125 0.0751695 1.167 
0.0573875 0.0752339 1.168 
0.10422 0.0754272 1.171 
0.151292 0.0756204 1.174 
0.198435 0.0757492 1.176 
0.245945 0.0759425 1.179 
0.293943 0.0762001 1.183 
0.341107 0.0762001 1.183 
0.389912 0.0765222 1.188 
0.436539 0.0763934 1.186 
0.487086 0.0769087 1.194 
0.535584 0.0770375 1.196 
0.58229 0.0769087 1.194 
0.629893 0.0769087 1.194 
0.680332 0.0772307 1.199 
0.702628 0.0745254 1.157 
0.70216 0.0698877 1.085 
0.70557 0.0661518 1.027 
0.705081 0.0624802 0.97 
0.710016 0.0596461 0.926 
0.709022 0.0566187 0.879 
0.705974 0.0537201 0.834 
0.705542 0.0512724 0.796 
0.703007 0.0488892 0.759 
0.706216 0.0470856 0.731 
-14.4187 0.99369 14.885 
-0.914998 0.0735671 1.102 
-0.872644 0.0737006 1.104 
-0.830882 0.0739009 1.107 
-0.787458 0.0739676 1.108 
-0.744626 0.0741011 1.11 
-0.701635 0.0742347 1.112 
-0.658484 0.0743682 1.114 
-0.616827 0.074702 1.119 
-0.572726 0.0747687 1.12 
-0.530432 0.0751025 1.125 
-0.486444 0.075236 1.127 
-0.443471 0.0755698 1.132 
-0.398693 0.0756366 1.133 
-0.355707 0.0761039 1.14 
-0.310529 0.0761706 1.141 
-0.266434 0.0765712 1.147 
-0.220898 0.0766379 1.148 
-0.175739 0.076905 1.152 
-0.130488 0.0773055 1.158 
-0.0843935 0.0773723 1.159 
-0.0382854 0.0775725 1.162 
0.00807573 0.0779063 1.167 
0.0546484 0.0779731 1.168 
0.101474 0.0781734 1.171 
0.148539 0.0783736 1.174 
0.195677 0.0785072 1.176 
0.24318 0.0787074 1.179 
0.291169 0.0789745 1.183 
0.338333 0.0789745 1.183 
0.386474 0.0791747 1.186 
0.433757 0.0791747 1.186 
0.483474 0.0795753 1.192 
0.532779 0.0798423 1.196 
0.57949 0.0797088 1.194 
0.626042 0.0795753 1.192 
0.67752 0.0800426 1.199 
0.701124 0.0773723 1.159 
0.702839 0.072766 1.09 
0.705215 0.0687605 1.03 
0.704256 0.0648886 0.972 
0.709373 0.0619512 0.928 
0.710178 0.0589471 0.883 
0.705706 0.0558095 0.836 
0.707212 0.0534062 0.8 
0.704922 0.0509362 0.763 
0.707393 0.0490002 0.734 
-14.3838 1.0286 14.885 
-0.908068 0.0762206 1.103 
-0.86566 0.0763588 1.105 
-0.823093 0.076497 1.107 
-0.780367 0.0766352 1.109 
-0.736817 0.0767043 1.11 
-0.693812 0.0768425 1.112 
-0.650647 0.0769807 1.114 
-0.608955 0.0773262 1.119 
-0.564847 0.0773953 1.12 
-0.522517 0.0777408 1.125 
-0.479364 0.0780172 1.129 
-0.435892 0.0782936 1.133 
-0.391411 0.0784319 1.135 
-0.347991 0.0788465 1.141 
-0.303032 0.0789847 1.143 
-0.258139 0.079192 1.146 
-0.213562 0.0796066 1.152 
-0.168071 0.0798139 1.155 
-0.122446 0.0800903 1.159 
-0.0762393 0.0800903 1.159 
-0.0301101 0.0802976 1.162 
0.0162862 0.0806431 1.167 
0.0629735 0.0808505 1.17 
0.109713 0.0809196 1.171 
0.156799 0.0811269 1.174 
0.20395 0.0812651 1.176 
0.251475 0.0814724 1.179 
0.299239 0.0816797 1.182 
0.347242 0.081887 1.185 
0.395484 0.0820943 1.188 
0.442102 0.0819561 1.186 
0.492686 0.0825089 1.194 
0.541193 0.0826471 1.196 
0.587891 0.0825089 1.194 
0.635493 0.0825089 1.194 
0.685956 0.0828544 1.199 
0.701323 0.079192 1.146 
0.701382 0.0743548 1.076 
0.70762 0.0706923 1.023 
0.705241 0.0666152 0.964 
0.705873 0.0632292 0.915 
0.709089 0.060396 0.874 
0.707332 0.0574246 0.831 
0.706603 0.0547986 0.793 
0.703774 0.0522418 0.756 
0.707703 0.0503761 0.729 
-0.913241 0.0788073 1.103 
-0.870055 0.0788787 1.104 
-0.828285 0.0790931 1.107 
-0.785568 0.079236 1.109 
-0.742023 0.0793074 1.11 
-0.699027 0.0794503 1.112 
-0.655872 0.0795932 1.114 
-0.614203 0.0799505 1.119 
-0.5701 0.0800219 1.12 
-0.526855 0.0802362 1.123 
-0.483801 0.080522 1.127 
-0.440817 0.0808793 1.132 
-0.396036 0.0809507 1.133 
-0.353033 0.0814509 1.14 
-0.308123 0.0815938 1.142 
-0.263514 0.0818796 1.146 
-0.218776 0.0822368 1.151 
-0.173338 0.0824511 1.154 
-0.127772 0.0827369 1.158 
-0.0816754 0.0828084 1.159 
-0.0355603 0.0830227 1.162 
0.0108125 0.08338 1.167 
0.0573875 0.0834514 1.168 
0.10422 0.0836658 1.171 
0.151292 0.0838801 1.174 
0.198435 0.084023 1.176 
0.245945 0.0842373 1.179 
0.293695 0.0844517 1.182 
0.341684 0.084666 1.185 
0.389255 0.0847375 1.186 
0.436539 0.0847375 1.186 
0.487086 0.0853091 1.194 
0.535584 0.085452 1.196 
0.58229 0.0853091 1.194 
0.629893 0.0853091 1.194 
0.680332 0.0856663 1.199 
0.700806 0.0824511 1.154 
0.700218 0.0773069 1.082 
0.70557 0.0733772 1.027 
0.705808 0.0693761 0.971 
0.708482 0.0660181 0.924 
0.710635 0.0629458 0.881 
0.705974 0.0595877 0.834 
0.707315 0.0570156 0.798 
0.703933 0.0543006 0.76 
0.707182 0.0523 0.732 
-0.908891 0.0814678 1.104 
-0.86566 0.0815416 1.105 
-0.823093 0.0816892 1.107 
-0.780367 0.0818368 1.109 
-0.737481 0.0819844 1.111 
-0.694435 0.0821319 1.113 
-0.650647 0.0822057 1.114 
-0.608955 0.0825747 1.119 
-0.564847 0.0826485 1.12 
-0.521588 0.0828699 1.123 
-0.478515 0.0831651 1.127 
-0.435892 0.0836078 1.133 
-0.391066 0.0836816 1.134 
-0.347686 0.0841244 1.14 
-0.303032 0.0843457 1.143 
-0.257914 0.0844933 1.145 
-0.213562 0.0850099 1.152 
-0.168071 0.0852313 1.155 
-0.122341 0.0854526 1.158 
-0.0762393 0.0855264 1.159 
-0.0301101 0.0857478 1.162 
0.0162862 0.0861168 1.167 
0.0629197 0.0862644 1.169 
0.109713 0.086412 1.171 
0.156799 0.0866333 1.174 
0.20395 0.0867809 1.176 
0.251475 0.0870023 1.179 
0.299239 0.0872237 1.182 
0.347242 0.0874451 1.185 
0.395484 0.0876664 1.188 
0.442102 0.0875189 1.186 
0.492686 0.0881092 1.194 
0.541646 0.0883306 1.197 
0.587891 0.0881092 1.194 
0.636557 0.0882568 1.196 
0.684812 0.0883306 1.197 
0.700711 0.0844933 1.145 
0.700731 0.0793278 1.075 
0.70762 0.0754905 1.023 
0.705241 0.0711367 0.964 
0.705102 0.0674471 0.914 
0.710711 0.0646429 0.876 
0.706481 0.0612484 0.83 
0.706603 0.0585181 0.793 
0.703774 0.0557877 0.756 
0.708674 0.0538691 0.73 
-0.913241 0.0839807 1.103 
-0.870843 0.084133 1.105 
-0.828285 0.0842853 1.107 
-0.785568 0.0844376 1.109 
-0.742023 0.0845137 1.11 
-0.699027 0.084666 1.112 
-0.65646 0.0848944 1.115 
-0.614203 0.0851989 1.119 
-0.569591 0.0851989 1.119 
-0.526855 0.0855035 1.123 
-0.483801 0.0858081 1.127 
-0.440817 0.0861887 1.132 
-0.396036 0.0862649 1.133 
-0.353033 0.0867979 1.14 
-0.308123 0.0869501 1.142 
-0.263514 0.0872547 1.146 
-0.219346 0.0878638 1.154 
-0.173338 0.0878638 1.154 
-0.127662 0.0880922 1.157 
-0.0816754 0.0882445 1.159 
-0.0355297 0.0883968 1.161 
0.0108125 0.0888536 1.167 
0.0573875 0.0889297 1.168 
0.10422 0.0891581 1.171 
0.151163 0.0893104 1.173 
0.198435 0.0895388 1.176 
0.245945 0.0897673 1.179 
0.293695 0.0899957 1.182 
0.341684 0.0902241 1.185 
0.389255 0.0903002 1.186 
0.436171 0.0902241 1.185 
0.48627 0.0907571 1.192 
0.536031 0.0911377 1.197 
0.58229 0.0909093 1.194 
0.629893 0.0909093 1.194 
0.680332 0.09129 1.199 
0.699591 0.0877115 1.152 
0.700218 0.0823818 1.082 
0.704883 0.0781181 1.026 
0.706535 0.0740066 0.972 
0.707716 0.0702758 0.923 
0.713862 0.0673825 0.885 
0.705974 0.0634995 0.834 
0.708201 0.0608346 0.799 
0.704787 0.0577891 0.759 
0.70793 0.0556572 0.731 
-0.92206 0.0857041 1.092 
-0.888179 0.0866459 1.104 
-0.847223 0.0869599 1.108 
-0.803774 0.0870384 1.109 
-0.760245 0.0871168 1.11 
-0.717282 0.0872738 1.112 
-0.674159 0.0874308 1.114 
-0.630877 0.0875878 1.116 
-0.587961 0.0878232 1.119 
-0.544805 0.0880587 1.122 
-0.502302 0.0884511 1.127 
-0.458182 0.088608 1.129 
-0.413171 0.088608 1.129 
-0.370769 0.0892359 1.137 
-0.326871 0.0896283 1.142 
-0.282081 0.0898638 1.145 
-0.239116 0.0908841 1.158 
-0.192283 0.0905701 1.154 
-0.146782 0.0908841 1.158 
-0.100528 0.0908056 1.157 
-0.0545889 0.0911195 1.161 
-0.00833087 0.0914335 1.165 
0.0382134 0.0916689 1.168 
0.0849243 0.0918259 1.17 
0.131795 0.0919828 1.172 
0.179129 0.0922968 1.176 
0.226398 0.0924537 1.178 
0.274291 0.0927677 1.182 
0.321687 0.0928462 1.183 
0.369474 0.0930031 1.185 
0.417069 0.0930816 1.186 
0.465527 0.093317 1.189 
0.515087 0.0937095 1.194 
0.563632 0.0938664 1.196 
0.611314 0.0938664 1.196 
0.6612 0.0941804 1.2 
0.696042 0.0924537 1.178 
0.70264 0.0874308 1.114 
0.700781 0.0820154 1.045 
0.706209 0.0780127 0.994 
0.709071 0.074167 0.945 
0.708816 0.0703998 0.897 
0.708054 0.0669466 0.853 
0.709004 0.0639642 0.815 
0.711473 0.0613742 0.782 
0.708306 0.0583918 0.744 
0.717138 0.0567437 0.723 
-0.902076 0.0890734 1.102 
-0.862035 0.0894775 1.107 
-0.81864 0.0895583 1.108 
-0.776563 0.0898008 1.111 
-0.73227 0.0898008 1.111 
-0.689834 0.0900433 1.114 
-0.64658 0.090205 1.116 
-0.603706 0.0904474 1.119 
-0.559593 0.0905283 1.12 
-0.51724 0.0909324 1.125 
-0.473229 0.0910941 1.127 
-0.430198 0.0914982 1.132 
-0.386088 0.0917407 1.135 
-0.342339 0.0921449 1.14 
-0.297671 0.0923873 1.143 
-0.252984 0.0927107 1.147 
-0.208159 0.0931148 1.152 
-0.162935 0.0935189 1.157 
-0.116909 0.0935998 1.158 
-0.0709254 0.0938423 1.161 
-0.02466 0.0939231 1.162 
0.0217785 0.0944081 1.168 
0.0684027 0.0944889 1.169 
0.115303 0.0947314 1.172 
0.162443 0.0949739 1.175 
0.209644 0.0951355 1.177 
0.257441 0.0954588 1.181 
0.304783 0.0955397 1.182 
0.3528 0.0957822 1.185 
0.400043 0.0957822 1.185 
0.447664 0.095863 1.186 
0.497452 0.096348 1.192 
0.54726 0.0967521 1.197 
0.594485 0.0966713 1.196 
0.643778 0.0969137 1.199 
0.690426 0.0967521 1.197 
0.701765 0.0919832 1.138 
0.698551 0.0860019 1.064 
0.705454 0.0818796 1.013 
0.706082 0.0775148 0.959 
0.706284 0.0735542 0.91 
0.71074 0.0704019 0.871 
0.705239 0.0666029 0.824 
0.706739 0.0637739 0.789 
0.70732 0.0611066 0.756 
0.711122 0.0589242 0.729 
-0.921137 0.0912419 1.097 
-0.883 0.0918241 1.104 
-0.841266 0.0920736 1.107 
-0.799292 0.0923231 1.11 
-0.755039 0.0923231 1.11 
-0.712066 0.0924895 1.112 
-0.669535 0.092739 1.115 
-0.626203 0.0929054 1.117 
-0.582712 0.0930717 1.119 
-0.538581 0.0931549 1.12 
-0.496575 0.0936539 1.126 
-0.453288 0.0939866 1.13 
-0.407876 0.0939034 1.129 
-0.365758 0.094652 1.138 
-0.321233 0.0949015 1.141 
-0.27671 0.0952342 1.145 
-0.233886 0.0963987 1.159 
-0.186546 0.0958164 1.152 
-0.141228 0.0962323 1.157 
-0.0951013 0.0962323 1.157 
-0.0491434 0.096565 1.161 
-0.00286907 0.0969809 1.166 
0.0436543 0.097064 1.167 
0.0904893 0.0973967 1.171 
0.137409 0.0975631 1.173 
0.184802 0.0978958 1.177 
0.231923 0.097979 1.178 
0.279598 0.0982285 1.181 
0.327789 0.0985612 1.185 
0.375032 0.0985612 1.185 
0.422276 0.0985612 1.185 
0.471896 0.0990602 1.191 
0.520687 0.0993097 1.194 
0.569242 0.0994761 1.196 
0.616924 0.0994761 1.196 
0.666828 0.0998088 1.2 
0.69859 0.0975631 1.173 
0.704052 0.0921568 1.108 
0.702306 0.086501 1.04 
0.707295 0.0822591 0.989 
0.705198 0.0776845 0.934 
0.711434 0.0744407 0.895 
0.707881 0.0705315 0.848 
0.707579 0.0672878 0.809 
0.709653 0.064543 0.776 
0.709097 0.0617983 0.743 
0.71784 0.0600516 0.722 
-0.902197 0.0939856 1.099 
-0.86385 0.0945842 1.106 
-0.821238 0.0947552 1.108 
-0.779169 0.0950118 1.111 
-0.734875 0.0950118 1.111 
-0.692447 0.0952683 1.114 
-0.648616 0.0953539 1.115 
-0.60633 0.0956959 1.119 
-0.563224 0.0959525 1.122 
-0.518954 0.096038 1.123 
-0.475872 0.0963801 1.127 
-0.433235 0.0968932 1.133 
-0.388407 0.0969787 1.134 
-0.345013 0.0974918 1.14 
-0.300352 0.0977484 1.143 
-0.255451 0.098005 1.146 
-0.210312 0.0982615 1.149 
-0.165362 0.0987746 1.155 
-0.119522 0.0989457 1.157 
-0.0736481 0.0992877 1.161 
-0.027385 0.0993733 1.162 
0.019023 0.0998009 1.167 
0.0655489 0.0998009 1.167 
0.112555 0.100228 1.172 
0.159688 0.100485 1.175 
0.20706 0.100742 1.178 
0.254671 0.100998 1.181 
0.302011 0.101084 1.182 
0.350316 0.101426 1.186 
0.397264 0.10134 1.185 
0.444883 0.101426 1.186 
0.494241 0.101853 1.191 
0.544453 0.102366 1.197 
0.590691 0.10211 1.194 
0.640966 0.102537 1.199 
0.687044 0.102281 1.196 
0.700324 0.0974918 1.14 
0.702597 0.0918476 1.074 
0.706548 0.0870585 1.018 
0.706768 0.082355 0.963 
0.704924 0.077908 0.911 
0.711138 0.0747437 0.874 
0.705867 0.0707243 0.827 
0.706676 0.0676457 0.791 
0.707413 0.0648235 0.758 
0.709413 0.0623435 0.729 
-0.928008 0.0962993 1.096 
-0.888347 0.0967386 1.101 
-0.849054 0.0972658 1.107 
-0.807102 0.0975294 1.11 
-0.763536 0.0976173 1.111 
-0.71989 0.0977051 1.112 
-0.677379 0.0979687 1.115 
-0.633494 0.0980566 1.116 
-0.589529 0.0981445 1.117 
-0.546461 0.0984081 1.12 
-0.504497 0.0989352 1.126 
-0.46083 0.0991988 1.129 
-0.416187 0.0992867 1.13 
-0.373436 0.0999018 1.137 
-0.32926 0.100253 1.141 
-0.284766 0.100605 1.145 
-0.240996 0.101395 1.154 
-0.194989 0.101395 1.154 
-0.149498 0.101747 1.158 
-0.103063 0.101483 1.155 
-0.0572129 0.101835 1.159 
-0.011063 0.102362 1.165 
0.0354439 0.102538 1.167 
0.0821102 0.102713 1.169 
0.129046 0.102977 1.172 
0.176371 0.103328 1.176 
0.223446 0.103416 1.177 
0.271519 0.103856 1.182 
0.318912 0.103944 1.183 
0.366695 0.104119 1.185 
0.413939 0.104119 1.185 
0.46235 0.104383 1.188 
0.511429 0.104734 1.192 
0.560827 0.105086 1.196 
0.608509 0.105086 1.196 
0.658934 0.105525 1.201 
0.696222 0.103944 1.183 
0.703798 0.0984081 1.12 
0.701003 0.0921697 1.049 
0.70671 0.0876886 0.998 
0.706855 0.0830318 0.945 
0.71144 0.0793415 0.903 
0.706882 0.0750361 0.854 
0.707093 0.0716094 0.815 
0.709639 0.0687099 0.782 
0.708606 0.0657225 0.748 
0.715721 0.0637016 0.725 
-0.911676 0.09905 1.098 
-0.872644 0.0995913 1.104 
-0.831632 0.0999521 1.108 
-0.789591 0.100223 1.111 
-0.745297 0.100223 1.111 
-0.702266 0.100403 1.113 
-0.658484 0.100493 1.114 
-0.616827 0.100944 1.119 
-0.572726 0.101035 1.12 
-0.529017 0.101215 1.122 
-0.486012 0.101576 1.126 
-0.443471 0.102117 1.132 
-0.398341 0.102117 1.132 
-0.355083 0.102658 1.138 
-0.310529 0.102929 1.141 
-0.266201 0.10338 1.146 
-0.221667 0.103921 1.152 
-0.175739 0.103921 1.152 
-0.130375 0.104372 1.157 
-0.0843935 0.104553 1.159 
-0.0382525 0.104733 1.161 
0.00806881 0.105184 1.166 
0.0545548 0.105184 1.166 
0.101474 0.105635 1.171 
0.148412 0.105816 1.173 
0.196176 0.106357 1.179 
0.24318 0.106357 1.179 
0.290677 0.106537 1.181 
0.339191 0.106988 1.186 
0.386148 0.106898 1.185 
0.433392 0.106898 1.185 
0.483069 0.10744 1.191 
0.532779 0.107891 1.196 
0.57949 0.10771 1.194 
0.628668 0.107981 1.197 
0.67752 0.108161 1.199 
0.69447 0.103561 1.148 
0.702839 0.0983284 1.09 
0.702476 0.0925549 1.026 
0.707878 0.0881347 0.977 
0.70708 0.0834438 0.925 
0.715004 0.0801962 0.889 
0.705706 0.0754151 0.836 
0.707212 0.0721676 0.8 
0.709542 0.0692809 0.768 
0.707393 0.0662138 0.734 
-0.93828 0.101718 1.099 
-0.892837 0.101532 1.097 
-0.856843 0.102458 1.107 
-0.814177 0.102643 1.109 
-0.770658 0.102736 1.11 
-0.727059 0.102828 1.111 
-0.685224 0.103198 1.115 
-0.641346 0.103291 1.116 
-0.597388 0.103384 1.117 
-0.55434 0.103661 1.12 
-0.511964 0.104124 1.125 
-0.467943 0.104309 1.127 
-0.425264 0.104864 1.133 
-0.3811 0.105142 1.136 
-0.336992 0.105512 1.14 
-0.292566 0.105883 1.144 
-0.24782 0.106253 1.148 
-0.20258 0.10653 1.151 
-0.157509 0.107086 1.157 
-0.111189 0.106901 1.155 
-0.0653671 0.107271 1.159 
-0.0191932 0.107456 1.161 
0.0272334 0.108011 1.167 
0.0736961 0.107919 1.166 
0.120801 0.108474 1.172 
0.168097 0.108844 1.176 
0.215165 0.108937 1.177 
0.26298 0.109307 1.181 
0.310589 0.109492 1.183 
0.358358 0.109677 1.185 
0.405601 0.109677 1.185 
0.453227 0.10977 1.186 
0.502621 0.110233 1.191 
0.552413 0.110695 1.196 
0.599091 0.11051 1.194 
0.649943 0.111066 1.2 
0.695459 0.110695 1.196 
0.703995 0.104864 1.133 
0.700235 0.0980154 1.059 
0.704596 0.0930174 1.005 
0.706134 0.0882046 0.953 
0.709772 0.0841322 0.909 
0.70908 0.0799672 0.864 
0.704801 0.0758023 0.819 
0.706838 0.0726554 0.785 
0.709925 0.0698788 0.755 
0.713561 0.0673798 0.728 
-0.914251 0.1042 1.098 
-0.87444 0.104675 1.103 
-0.834231 0.105149 1.108 
-0.792196 0.105434 1.111 
-0.74723 0.105339 1.11 
-0.704876 0.105624 1.113 
-0.661097 0.105718 1.114 
-0.618344 0.106003 1.117 
-0.574839 0.106193 1.119 
-0.531649 0.106478 1.122 
