# .PCD v.7 - Point Cloud Data file format
VERSION .7
FIELDS x y z
SIZE 4 4 4
TYPE F F F
COUNT 1 1 1
WIDTH 1794
HEIGHT 1
VIEWPOINT 0 0 0 1 0 0 0
POINTS 1794
DATA ascii
-0.181872 -0.14565 0.686 
-0.155649 -0.146712 0.691 
-0.126846 -0.147136 0.693 
-0.0993606 -0.147348 0.694 
-0.0716923 -0.147348 0.694 
-0.0442143 -0.147985 0.697 
-0.016497 -0.148622 0.7 
0.0113779 -0.148198 0.698 
0.0394866 -0.149259 0.703 
0.0675137 -0.149259 0.703 
0.0956768 -0.149472 0.704 
0.124095 -0.149896 0.706 
0.152242 -0.149896 0.706 
0.180644 -0.150109 0.707 
0.209422 -0.150533 0.709 
0.238023 -0.150746 0.71 
0.266705 -0.150958 0.711 
0.295466 -0.15117 0.712 
0.324761 -0.151595 0.714 
0.347291 -0.149047 0.702 
0.356999 -0.140554 0.662 
0.359057 -0.130575 0.615 
0.359875 -0.122507 0.577 
0.362864 -0.115289 0.543 
0.376015 -0.112741 0.531 
0.398681 -0.113165 0.533 
0.419931 -0.113165 0.533 
0.442008 -0.113378 0.534 
0.465033 -0.113802 0.536 
0.486402 -0.113802 0.536 
0.509666 -0.114227 0.538 
0.533089 -0.114652 0.54 
-0.539677 -0.139632 0.665 
-0.513165 -0.139632 0.665 
-0.488849 -0.140262 0.668 
-0.463601 -0.140682 0.67 
-0.437541 -0.140892 0.671 
-0.426707 -0.146351 0.697 
-0.383628 -0.145511 0.693 
-0.337755 -0.141941 0.676 
-0.311724 -0.142361 0.678 
-0.285953 -0.142991 0.681 
-0.259183 -0.143201 0.682 
-0.231653 -0.142991 0.681 
-0.205103 -0.143411 0.683 
-0.178915 -0.144251 0.687 
-0.152408 -0.145091 0.691 
-0.125221 -0.145511 0.693 
-0.0977331 -0.145721 0.694 
-0.0700647 -0.145721 0.694 
-0.0425797 -0.146351 0.697 
-0.0148554 -0.146981 0.7 
0.0129962 -0.146351 0.697 
0.0411352 -0.147611 0.703 
0.0691624 -0.147611 0.703 
0.0973278 -0.147821 0.704 
0.125751 -0.148241 0.706 
0.154116 -0.148451 0.707 
0.182302 -0.148451 0.707 
0.211084 -0.148871 0.709 
0.239688 -0.149081 0.71 
0.26875 -0.1495 0.712 
0.297136 -0.1495 0.712 
0.326436 -0.14992 0.714 
0.34844 -0.147191 0.701 
0.35646 -0.138792 0.661 
0.359359 -0.129763 0.618 
0.359143 -0.121364 0.578 
0.363589 -0.114645 0.546 
0.37477 -0.111495 0.531 
0.396685 -0.111705 0.532 
0.418681 -0.111915 0.533 
0.440756 -0.112125 0.534 
0.463776 -0.112545 0.536 
0.485145 -0.112545 0.536 
0.507459 -0.112755 0.537 
0.530838 -0.113175 0.539 
-0.539677 -0.138072 0.665 
-0.513165 -0.138072 0.665 
-0.488849 -0.138695 0.668 
-0.463601 -0.13911 0.67 
-0.437541 -0.139318 0.671 
-0.426707 -0.144716 0.697 
-0.385253 -0.143886 0.693 
-0.33934 -0.140356 0.676 
-0.313314 -0.140771 0.678 
-0.28755 -0.141394 0.681 
-0.260782 -0.141602 0.682 
-0.23325 -0.141394 0.681 
-0.206705 -0.141809 0.683 
-0.180526 -0.14264 0.687 
-0.154029 -0.14347 0.691 
-0.126846 -0.143886 0.693 
-0.0992175 -0.143886 0.693 
-0.0716923 -0.144093 0.694 
-0.0441508 -0.144509 0.696 
-0.016497 -0.145339 0.7 
0.0113453 -0.144509 0.696 
0.0394866 -0.145962 0.703 
0.0675137 -0.145962 0.703 
0.0973278 -0.14617 0.704 
0.125751 -0.146585 0.706 
0.154116 -0.146793 0.707 
0.182302 -0.146793 0.707 
0.211382 -0.147415 0.71 
0.239351 -0.147208 0.709 
0.26875 -0.147831 0.712 
0.297136 -0.147831 0.712 
0.325979 -0.148038 0.713 
0.34844 -0.145547 0.701 
0.356521 -0.137865 0.664 
0.359359 -0.128314 0.618 
0.358522 -0.119801 0.577 
0.364963 -0.114195 0.55 
0.373525 -0.11025 0.531 
0.395438 -0.110458 0.532 
0.417431 -0.110665 0.533 
0.439503 -0.110873 0.534 
0.462519 -0.111288 0.536 
0.483888 -0.111288 0.536 
0.5062 -0.111496 0.537 
0.529574 -0.111911 0.539 
-0.540423 -0.136307 0.664 
-0.514725 -0.136513 0.665 
-0.490415 -0.137129 0.668 
-0.465172 -0.137539 0.67 
-0.439115 -0.137744 0.671 
-0.428956 -0.143287 0.698 
-0.392812 -0.142055 0.692 
-0.347327 -0.137539 0.67 
-0.323965 -0.138976 0.677 
-0.298291 -0.139592 0.68 
-0.271579 -0.139797 0.681 
-0.244429 -0.139797 0.681 
-0.217917 -0.140208 0.683 
-0.190967 -0.140413 0.684 
-0.165612 -0.142055 0.692 
-0.137823 -0.14185 0.691 
-0.110594 -0.142261 0.693 
-0.0830851 -0.142466 0.694 
-0.0555765 -0.142876 0.696 
-0.0279884 -0.143698 0.7 
-8.02313e-05 -0.142671 0.695 
0.0278665 -0.143903 0.701 
0.0559731 -0.144313 0.703 
0.0840003 -0.144313 0.703 
0.112346 -0.144724 0.705 
0.140652 -0.144929 0.706 
0.169038 -0.145134 0.707 
0.197504 -0.14534 0.708 
0.226687 -0.145956 0.711 
0.253239 -0.144929 0.706 
0.283777 -0.146161 0.712 
0.31304 -0.146571 0.714 
0.337201 -0.144724 0.705 
0.352354 -0.139592 0.68 
0.356768 -0.130149 0.634 
0.356736 -0.121527 0.592 
0.364276 -0.116395 0.567 
0.366301 -0.109826 0.535 
0.385457 -0.10921 0.532 
0.407431 -0.109415 0.533 
0.428681 -0.109415 0.533 
0.451618 -0.109826 0.535 
0.473832 -0.110031 0.536 
0.495201 -0.110031 0.536 
0.518498 -0.110442 0.538 
-0.549663 -0.134344 0.662 
-0.524851 -0.13475 0.664 
-0.502132 -0.135765 0.669 
-0.474749 -0.135562 0.668 
-0.451472 -0.136577 0.673 
-0.433474 -0.139418 0.687 
-0.401967 -0.140229 0.691 
-0.375502 -0.140635 0.693 
-0.335574 -0.137591 0.678 
-0.308999 -0.137794 0.679 
-0.282759 -0.1382 0.681 
-0.255609 -0.1382 0.681 
-0.228794 -0.138403 0.682 
-0.202195 -0.138809 0.684 
-0.176204 -0.139824 0.689 
-0.149167 -0.140229 0.691 
-0.12197 -0.140635 0.693 
-0.094478 -0.140838 0.694 
-0.0668096 -0.140838 0.694 
-0.0392541 -0.141244 0.696 
-0.0115226 -0.141447 0.697 
0.0162421 -0.141244 0.696 
0.0443694 -0.142462 0.702 
0.0724597 -0.142665 0.703 
0.10063 -0.142868 0.704 
0.129062 -0.143274 0.706 
0.157432 -0.143476 0.707 
0.185356 -0.143274 0.706 
0.214712 -0.144085 0.71 
0.242334 -0.143679 0.708 
0.272853 -0.144897 0.714 
0.300475 -0.144491 0.712 
0.328861 -0.144491 0.712 
0.350222 -0.14165 0.698 
0.356386 -0.133533 0.658 
0.359359 -0.125415 0.618 
0.357279 -0.116689 0.575 
0.364738 -0.109992 0.542 
0.378506 -0.10776 0.531 
0.401181 -0.108165 0.533 
0.422431 -0.108165 0.533 
0.445345 -0.108571 0.535 
0.467547 -0.108774 0.536 
0.488916 -0.108774 0.536 
0.511237 -0.108977 0.537 
0.535622 -0.109586 0.54 
-0.533439 -0.133394 0.665 
-0.509214 -0.133995 0.668 
-0.482582 -0.133995 0.668 
-0.458681 -0.134798 0.672 
-0.432532 -0.134998 0.673 
-0.42258 -0.140615 0.701 
-0.383628 -0.13901 0.693 
-0.342004 -0.135399 0.675 
-0.316027 -0.135801 0.677 
-0.290317 -0.136402 0.68 
-0.263594 -0.136603 0.681 
-0.236444 -0.136603 0.681 
-0.209908 -0.137004 0.683 
-0.183214 -0.137405 0.685 
-0.157497 -0.13881 0.692 
-0.129909 -0.13881 0.692 
-0.102468 -0.13901 0.693 
-0.0749474 -0.139211 0.694 
-0.0474153 -0.139612 0.696 
-0.019752 -0.140214 0.699 
0.00808085 -0.139612 0.696 
0.0361378 -0.140815 0.702 
0.0642164 -0.141016 0.703 
0.0922436 -0.141016 0.703 
0.120613 -0.141417 0.705 
0.14872 -0.141417 0.705 
0.177328 -0.141818 0.707 
0.206096 -0.14222 0.709 
0.234693 -0.14242 0.71 
0.262999 -0.14242 0.71 
0.291716 -0.142621 0.711 
0.321413 -0.143223 0.714 
0.344488 -0.141016 0.703 
0.355029 -0.134397 0.67 
0.35838 -0.126172 0.629 
0.357534 -0.116744 0.582 
0.366953 -0.110927 0.553 
0.372821 -0.106314 0.53 
0.395438 -0.106715 0.532 
0.417431 -0.106915 0.533 
0.439503 -0.107116 0.534 
0.462519 -0.107517 0.536 
0.483888 -0.107517 0.536 
0.505257 -0.107517 0.536 
0.529574 -0.108119 0.539 
-0.541164 -0.131438 0.663 
-0.517837 -0.132231 0.667 
-0.490415 -0.132429 0.668 
-0.465172 -0.132825 0.67 
-0.439115 -0.133024 0.671 
-0.428956 -0.138376 0.698 
-0.390129 -0.137385 0.693 
-0.348882 -0.13342 0.673 
-0.323965 -0.134213 0.677 
-0.298291 -0.134808 0.68 
-0.271579 -0.135006 0.681 
-0.244429 -0.135006 0.681 
-0.217917 -0.135402 0.683 
-0.190967 -0.135601 0.684 
-0.165612 -0.137187 0.692 
-0.137823 -0.136988 0.691 
-0.110434 -0.137187 0.692 
-0.0829654 -0.137385 0.693 
-0.0555765 -0.13798 0.696 
-0.0279084 -0.138376 0.698 
-8.03468e-05 -0.13798 0.696 
0.0278267 -0.138773 0.7 
0.0558935 -0.139169 0.702 
0.0840003 -0.139367 0.703 
0.112346 -0.139764 0.705 
0.140652 -0.139962 0.706 
0.169038 -0.14016 0.707 
0.197225 -0.14016 0.707 
0.226687 -0.140953 0.711 
0.253598 -0.14016 0.707 
0.283777 -0.141152 0.712 
0.31304 -0.141548 0.714 
0.337201 -0.139764 0.705 
0.353908 -0.135402 0.683 
0.356027 -0.126481 0.638 
0.355947 -0.11756 0.593 
0.363586 -0.112604 0.568 
0.365616 -0.105864 0.534 
0.385457 -0.105467 0.532 
0.407431 -0.105665 0.533 
0.429485 -0.105864 0.534 
0.451618 -0.106062 0.535 
0.473832 -0.10626 0.536 
0.495201 -0.10626 0.536 
0.518498 -0.106657 0.538 
-0.552768 -0.129687 0.662 
-0.528761 -0.130274 0.665 
-0.504514 -0.130862 0.668 
-0.477167 -0.130666 0.667 
-0.453953 -0.131646 0.672 
-0.432882 -0.133409 0.681 
-0.398255 -0.13576 0.693 
-0.353608 -0.132429 0.676 
-0.327141 -0.132625 0.677 
-0.301037 -0.133017 0.679 
-0.27437 -0.133213 0.68 
-0.247623 -0.133409 0.681 
-0.220797 -0.133605 0.682 
-0.194175 -0.133997 0.684 
-0.168613 -0.135368 0.691 
-0.141064 -0.135368 0.691 
-0.11368 -0.135564 0.692 
-0.0862158 -0.13576 0.693 
-0.0587564 -0.136152 0.695 
-0.0310929 -0.136347 0.696 
-0.00334483 -0.136347 0.696 
0.0244383 -0.136543 0.697 
0.0526009 -0.137523 0.702 
0.0805882 -0.137523 0.702 
0.109039 -0.138111 0.705 
0.137341 -0.138306 0.706 
0.165722 -0.138502 0.707 
0.193909 -0.138502 0.707 
0.223352 -0.139286 0.711 
0.250282 -0.138502 0.707 
0.280438 -0.139482 0.712 
0.309691 -0.139874 0.714 
0.334842 -0.138502 0.707 
0.353786 -0.134976 0.689 
0.355248 -0.125769 0.642 
0.356739 -0.117345 0.599 
0.361557 -0.111468 0.569 
0.365616 -0.104611 0.534 
0.385457 -0.10422 0.532 
0.407431 -0.104415 0.533 
0.429485 -0.104611 0.534 
0.451618 -0.104807 0.535 
0.473832 -0.105003 0.536 
0.495201 -0.105003 0.536 
0.518498 -0.105395 0.538 
-0.549663 -0.128134 0.662 
-0.526432 -0.128909 0.666 
-0.501381 -0.129296 0.668 
-0.474749 -0.129296 0.668 
-0.450801 -0.13007 0.672 
-0.433474 -0.132973 0.687 
-0.398255 -0.134135 0.693 
-0.363144 -0.132005 0.682 
-0.330316 -0.131038 0.677 
-0.304221 -0.131425 0.679 
-0.277151 -0.131425 0.679 
-0.250817 -0.131812 0.681 
-0.223996 -0.132005 0.682 
-0.197094 -0.132199 0.683 
-0.171606 -0.133554 0.69 
-0.144306 -0.133747 0.691 
-0.116926 -0.133941 0.692 
-0.0893371 -0.133941 0.692 
-0.0620162 -0.134522 0.695 
-0.034308 -0.134522 0.695 
-0.00660931 -0.134715 0.696 
0.0211691 -0.134909 0.697 
0.0493083 -0.135877 0.702 
0.0772956 -0.135877 0.702 
0.105583 -0.136264 0.704 
0.134219 -0.136844 0.707 
0.162176 -0.136651 0.706 
0.190323 -0.136651 0.706 
0.219708 -0.137425 0.71 
0.247315 -0.137038 0.708 
0.277098 -0.137812 0.712 
0.306342 -0.138199 0.714 
0.332932 -0.137425 0.71 
0.352081 -0.133941 0.692 
0.355528 -0.125424 0.648 
0.355928 -0.116134 0.6 
0.361557 -0.110134 0.569 
0.365729 -0.103746 0.536 
0.384931 -0.103166 0.533 
0.405419 -0.102972 0.532 
0.428232 -0.103359 0.534 
0.450364 -0.103553 0.535 
0.472575 -0.103746 0.536 
0.493944 -0.103746 0.536 
0.516275 -0.10394 0.537 
-0.549663 -0.126582 0.662 
-0.526432 -0.127347 0.666 
-0.501381 -0.127729 0.668 
-0.474749 -0.127729 0.668 
-0.450801 -0.128494 0.672 
-0.432843 -0.131171 0.686 
-0.39988 -0.132509 0.693 
-0.36688 -0.130597 0.683 
-0.336169 -0.129259 0.676 
-0.310133 -0.129641 0.678 
-0.283521 -0.129832 0.679 
-0.256828 -0.130024 0.68 
-0.230393 -0.130406 0.682 
-0.203203 -0.130406 0.682 
-0.177304 -0.131362 0.687 
-0.150788 -0.132127 0.691 
-0.123417 -0.132318 0.692 
-0.0958286 -0.132318 0.692 
-0.0684372 -0.132701 0.694 
-0.0408276 -0.132892 0.695 
-0.0131383 -0.133083 0.696 
0.0146518 -0.133465 0.698 
0.0427839 -0.134421 0.703 
0.0707103 -0.13423 0.702 
0.0989788 -0.134613 0.704 
0.127768 -0.135377 0.708 
0.155333 -0.134804 0.705 
0.1837 -0.134995 0.706 
0.212447 -0.135377 0.708 
0.241693 -0.135951 0.711 
0.26966 -0.13576 0.71 
0.299225 -0.136334 0.713 
0.32811 -0.136525 0.714 
0.348586 -0.133465 0.698 
0.355382 -0.126008 0.659 
0.360806 -0.119125 0.623 
0.358004 -0.109755 0.574 
0.369547 -0.10574 0.553 
0.381714 -0.101724 0.532 
0.402924 -0.101724 0.532 
0.425728 -0.102107 0.534 
0.447854 -0.102298 0.535 
0.470061 -0.102489 0.536 
0.49143 -0.102489 0.536 
0.513756 -0.10268 0.537 
-0.556713 -0.125218 0.663 
-0.53108 -0.125407 0.664 
-0.506887 -0.125974 0.667 
-0.480296 -0.125974 0.667 
-0.455744 -0.12654 0.67 
-0.433515 -0.127862 0.677 
-0.408006 -0.130884 0.693 
-0.377084 -0.129751 0.687 
-0.343078 -0.127296 0.674 
-0.317145 -0.127673 0.676 
-0.291482 -0.12824 0.679 
-0.264802 -0.128429 0.68 
-0.238041 -0.128618 0.681 
-0.210891 -0.128618 0.681 
-0.18536 -0.129751 0.687 
-0.15866 -0.130318 0.69 
-0.131531 -0.130695 0.692 
-0.103943 -0.130695 0.692 
-0.0764646 -0.130884 0.693 
-0.0489771 -0.131262 0.695 
-0.0212995 -0.131451 0.696 
0.00646714 -0.131828 0.698 
0.0344915 -0.132584 0.702 
0.0623898 -0.132395 0.701 
0.0905949 -0.132773 0.703 
0.119128 -0.133339 0.706 
0.147066 -0.133151 0.705 
0.175422 -0.133339 0.706 
0.203857 -0.133528 0.707 
0.233685 -0.134473 0.712 
0.260598 -0.133717 0.708 
0.290456 -0.134473 0.712 
0.319738 -0.13485 0.714 
0.342839 -0.132773 0.703 
0.357678 -0.128051 0.678 
0.357472 -0.118986 0.63 
0.357534 -0.10992 0.582 
0.369616 -0.106709 0.565 
0.37477 -0.100288 0.531 
0.396685 -0.100477 0.532 
0.418681 -0.100666 0.533 
0.441581 -0.101043 0.535 
0.46291 -0.101043 0.535 
0.485145 -0.101232 0.536 
0.506514 -0.101232 0.536 
0.530838 -0.101799 0.539 
-0.53569 -0.123477 0.662 
-0.513144 -0.124409 0.667 
-0.486552 -0.124409 0.667 
-0.46134 -0.124782 0.669 
-0.435968 -0.125155 0.671 
-0.425073 -0.130005 0.697 
-0.391189 -0.129072 0.692 
-0.35677 -0.126648 0.679 
-0.328243 -0.126088 0.676 
-0.302183 -0.126461 0.678 
-0.275559 -0.126648 0.679 
-0.248488 -0.126648 0.679 
-0.222396 -0.127207 0.682 
-0.195779 -0.12758 0.684 
-0.169248 -0.12814 0.687 
-0.142479 -0.128699 0.69 
-0.115136 -0.128886 0.691 
-0.0875875 -0.128886 0.691 
-0.0603863 -0.129632 0.695 
-0.0326781 -0.129632 0.695 
-0.00498422 -0.130005 0.697 
0.0228037 -0.130005 0.697 
0.0509546 -0.130938 0.702 
0.0790543 -0.131124 0.703 
0.107386 -0.131497 0.705 
0.136838 -0.132803 0.712 
0.1636 -0.131497 0.705 
0.191979 -0.131684 0.706 
0.221373 -0.13243 0.71 
0.248976 -0.132057 0.708 
0.278377 -0.132616 0.711 
0.307586 -0.132989 0.713 
0.333655 -0.132057 0.708 
0.353192 -0.128886 0.691 
0.355248 -0.119746 0.642 
0.355928 -0.111912 0.6 
0.360856 -0.106317 0.57 
0.365729 -0.0999752 0.536 
0.384931 -0.0994156 0.533 
0.405419 -0.0992291 0.532 
0.428232 -0.0996021 0.534 
0.450364 -0.0997886 0.535 
0.472575 -0.0999752 0.536 
0.493944 -0.0999752 0.536 
0.516275 -0.100162 0.537 
-0.549663 -0.121924 0.662 
-0.525642 -0.122477 0.665 
-0.500631 -0.122845 0.667 
-0.474749 -0.123029 0.668 
-0.45013 -0.123582 0.671 
-0.432212 -0.12616 0.685 
-0.406381 -0.127634 0.693 
-0.372741 -0.125608 0.682 
-0.340991 -0.12395 0.673 
-0.315093 -0.124319 0.675 
-0.28989 -0.125055 0.679 
-0.263207 -0.125239 0.68 
-0.236097 -0.125239 0.68 
-0.209294 -0.125424 0.681 
-0.184016 -0.126713 0.688 
-0.156814 -0.126897 0.689 
-0.129721 -0.127265 0.691 
-0.102172 -0.127265 0.691 
-0.0748394 -0.127634 0.693 
-0.047279 -0.127818 0.694 
-0.0196672 -0.128186 0.696 
0.00812729 -0.128923 0.7 
0.0360863 -0.129107 0.701 
0.0639424 -0.128923 0.7 
0.0923748 -0.12966 0.704 
0.120955 -0.130212 0.707 
0.14872 -0.129844 0.705 
0.177077 -0.130028 0.706 
0.205224 -0.130028 0.706 
0.235024 -0.130949 0.711 
0.261888 -0.130212 0.707 
0.292537 -0.131317 0.713 
0.321413 -0.131501 0.714 
0.343998 -0.129291 0.702 
0.357148 -0.124134 0.674 
0.358711 -0.115478 0.627 
0.357666 -0.106822 0.58 
0.368315 -0.103323 0.561 
0.372279 -0.0977973 0.531 
0.39419 -0.0979814 0.532 
0.416181 -0.0981656 0.533 
0.438251 -0.0983498 0.534 
0.459541 -0.0983498 0.534 
0.482631 -0.0987181 0.536 
0.504 -0.0987181 0.536 
0.52733 -0.0990865 0.538 
-0.53569 -0.120372 0.662 
-0.511606 -0.120917 0.665 
-0.485094 -0.120917 0.665 
-0.46134 -0.121645 0.669 
-0.435968 -0.122008 0.671 
-0.425073 -0.126736 0.697 
-0.389003 -0.125645 0.691 
-0.354654 -0.123281 0.678 
-0.326657 -0.122917 0.676 
-0.30015 -0.123099 0.677 
-0.273966 -0.123463 0.679 
-0.246896 -0.123463 0.679 
-0.220473 -0.123827 0.681 
-0.194743 -0.124736 0.686 
-0.167393 -0.124736 0.686 
-0.14086 -0.125463 0.69 
-0.113351 -0.125463 0.69 
-0.0860914 -0.125827 0.692 
-0.0586719 -0.12619 0.694 
-0.0310482 -0.126372 0.695 
-0.00334963 -0.126736 0.697 
0.0244383 -0.126736 0.697 
0.052451 -0.127281 0.7 
0.080703 -0.127827 0.703 
0.109039 -0.12819 0.705 
0.138508 -0.129463 0.712 
0.165253 -0.12819 0.705 
0.193634 -0.128372 0.706 
0.223038 -0.1291 0.71 
0.250282 -0.128554 0.707 
0.280044 -0.129281 0.711 
0.309258 -0.129645 0.713 
0.334842 -0.128554 0.707 
0.354813 -0.125645 0.691 
0.35453 -0.116008 0.638 
0.355347 -0.107644 0.592 
0.363633 -0.102916 0.566 
0.366301 -0.0972793 0.535 
0.386181 -0.0969156 0.533 
0.406666 -0.0967338 0.532 
0.429485 -0.0970975 0.534 
0.450774 -0.0970975 0.534 
0.473832 -0.0974611 0.536 
0.495201 -0.0974611 0.536 
0.517534 -0.097643 0.537 
-0.546558 -0.118819 0.662 
-0.522523 -0.119358 0.665 
-0.49601 -0.119358 0.665 
-0.471616 -0.119896 0.668 
-0.446317 -0.120255 0.67 
-0.431504 -0.123665 0.689 
-0.39988 -0.124383 0.693 
-0.365269 -0.12205 0.68 
-0.335672 -0.121153 0.675 
-0.309219 -0.121332 0.676 
-0.283103 -0.121691 0.678 
-0.25645 -0.121871 0.679 
-0.230056 -0.122229 0.681 
-0.202906 -0.122229 0.681 
-0.177304 -0.123306 0.687 
-0.150133 -0.123486 0.688 
-0.123239 -0.124024 0.691 
-0.0956901 -0.124024 0.691 
-0.0684372 -0.124563 0.694 
-0.0407689 -0.124563 0.694 
-0.0131383 -0.124922 0.696 
0.0146518 -0.125281 0.698 
0.0426622 -0.125819 0.701 
0.0707103 -0.125999 0.702 
0.0989788 -0.126358 0.704 
0.12849 -0.127794 0.712 
0.155113 -0.126358 0.704 
0.18344 -0.126537 0.705 
0.212147 -0.126896 0.707 
0.241014 -0.127255 0.709 
0.2689 -0.127076 0.708 
0.299645 -0.128152 0.714 
0.32811 -0.128152 0.714 
0.349085 -0.12546 0.699 
0.355921 -0.11846 0.66 
0.35791 -0.110922 0.618 
0.358407 -0.103922 0.579 
0.367654 -0.100153 0.558 
0.371034 -0.0953067 0.531 
0.392943 -0.0954862 0.532 
0.414152 -0.0954862 0.532 
0.436999 -0.0958451 0.534 
0.458288 -0.0958451 0.534 
0.481374 -0.0962041 0.536 
0.502743 -0.0962041 0.536 
0.526068 -0.0965631 0.538 
-0.537243 -0.117267 0.662 
-0.512394 -0.117621 0.664 
-0.486653 -0.117798 0.665 
-0.462909 -0.118507 0.669 
-0.436889 -0.118684 0.67 
-0.425483 -0.123112 0.695 
-0.389566 -0.122581 0.692 
-0.354131 -0.119924 0.677 
-0.326174 -0.11957 0.675 
-0.299707 -0.119747 0.676 
-0.273966 -0.120278 0.679 
-0.246896 -0.120278 0.679 
-0.220473 -0.120632 0.681 
-0.194743 -0.121518 0.686 
-0.167393 -0.121518 0.686 
-0.14086 -0.122227 0.69 
-0.113187 -0.12205 0.689 
-0.0860914 -0.122581 0.692 
-0.0586719 -0.122935 0.694 
-0.0310482 -0.123112 0.695 
-0.00334483 -0.12329 0.696 
0.0244383 -0.123467 0.697 
0.0523761 -0.123821 0.699 
0.080703 -0.124529 0.703 
0.109039 -0.124884 0.705 
0.138508 -0.126124 0.712 
0.165253 -0.124884 0.705 
0.193634 -0.125061 0.706 
0.222409 -0.125415 0.708 
0.250282 -0.125238 0.707 
0.280438 -0.126124 0.712 
0.309258 -0.126301 0.713 
0.334842 -0.125238 0.707 
0.354813 -0.122404 0.691 
0.354694 -0.113547 0.641 
0.357114 -0.106638 0.602 
0.360856 -0.10097 0.57 
0.36743 -0.0967185 0.546 
0.379751 -0.0940614 0.531 
0.401676 -0.0942385 0.532 
0.423681 -0.0944157 0.533 
0.445765 -0.0945928 0.534 
0.467929 -0.09477 0.535 
0.489258 -0.09477 0.535 
0.512496 -0.0951242 0.537 
0.5349 -0.0953014 0.538 
-0.529523 -0.116064 0.664 
-0.50305 -0.116064 0.664 
-0.477296 -0.116239 0.665 
-0.453495 -0.116938 0.669 
-0.433204 -0.118686 0.679 
-0.410663 -0.120958 0.692 
-0.38086 -0.120259 0.688 
-0.345726 -0.117637 0.673 
-0.319368 -0.117812 0.674 
-0.293365 -0.118161 0.676 
-0.267991 -0.118861 0.68 
-0.240527 -0.118686 0.679 
-0.214085 -0.119035 0.681 
-0.188856 -0.120259 0.688 
-0.161193 -0.120084 0.687 
-0.134777 -0.120958 0.692 
-0.107034 -0.120783 0.691 
-0.079715 -0.121133 0.693 
-0.0521617 -0.121308 0.694 
-0.0245639 -0.121657 0.696 
0.00318871 -0.121832 0.697 
0.0310211 -0.122007 0.698 
0.0587646 -0.121832 0.697 
0.0874218 -0.123056 0.704 
0.115653 -0.12323 0.705 
0.144168 -0.12358 0.707 
0.171867 -0.12323 0.705 
0.200257 -0.123405 0.706 
0.229051 -0.123755 0.708 
0.256914 -0.12358 0.707 
0.287117 -0.124454 0.712 
0.316389 -0.124804 0.714 
0.340025 -0.123056 0.704 
0.357635 -0.11956 0.684 
0.354517 -0.110121 0.63 
0.356133 -0.103304 0.591 
0.362348 -0.0985843 0.564 
0.365729 -0.0936901 0.536 
0.384209 -0.0929909 0.532 
0.405419 -0.0929909 0.532 
0.427431 -0.0931657 0.533 
0.449522 -0.0933405 0.534 
0.471693 -0.0935153 0.535 
0.493022 -0.0935153 0.535 
0.516275 -0.0938649 0.537 
-0.548833 -0.113989 0.661 
-0.524851 -0.114507 0.664 
-0.498379 -0.114507 0.664 
-0.474039 -0.115024 0.667 
-0.448788 -0.115369 0.669 
-0.431581 -0.117956 0.684 
-0.404172 -0.119335 0.692 
-0.371141 -0.117611 0.682 
-0.339412 -0.116059 0.673 
-0.313046 -0.116231 0.674 
-0.287449 -0.116748 0.677 
-0.261612 -0.117266 0.68 
-0.234502 -0.117266 0.68 
-0.207697 -0.117438 0.681 
-0.182137 -0.118473 0.687 
-0.154748 -0.118473 0.687 
-0.1281 -0.119163 0.691 
-0.100552 -0.119163 0.691 
-0.0733198 -0.11968 0.694 
-0.0456515 -0.11968 0.694 
-0.018035 -0.120025 0.696 
0.009741 -0.12037 0.698 
0.0376226 -0.120542 0.699 
0.0654903 -0.120542 0.699 
0.0940258 -0.121405 0.704 
0.122613 -0.121922 0.707 
0.15016 -0.121405 0.704 
0.17848 -0.121577 0.705 
0.20688 -0.12175 0.706 
0.23536 -0.121922 0.707 
0.263546 -0.121922 0.707 
0.294621 -0.123129 0.714 
0.323087 -0.123129 0.714 
0.345644 -0.12106 0.702 
0.358197 -0.116059 0.673 
0.35585 -0.107264 0.622 
0.356781 -0.100538 0.583 
0.363728 -0.096227 0.558 
0.369237 -0.0917433 0.532 
0.389713 -0.0915708 0.531 
0.411657 -0.0917433 0.532 
0.43368 -0.0919157 0.533 
0.45493 -0.0919157 0.533 
0.477966 -0.0922606 0.535 
0.500229 -0.0924331 0.536 
0.522571 -0.0926055 0.537 
-0.539532 -0.112439 0.661 
-0.514732 -0.112779 0.663 
-0.489036 -0.112949 0.664 
-0.46535 -0.11363 0.668 
-0.439375 -0.1138 0.669 
-0.426892 -0.117712 0.692 
-0.393379 -0.117882 0.693 
-0.357834 -0.115331 0.678 
-0.328852 -0.114651 0.674 
-0.301981 -0.114651 0.674 
-0.277151 -0.115501 0.679 
-0.250449 -0.115671 0.68 
-0.223667 -0.115841 0.681 
-0.197383 -0.116352 0.684 
-0.170611 -0.116692 0.686 
-0.143888 -0.117202 0.689 
-0.11625 -0.117032 0.688 
-0.0893371 -0.117712 0.692 
-0.061927 -0.118053 0.694 
-0.0342587 -0.118053 0.694 
-0.00659981 -0.118223 0.695 
0.0212299 -0.118903 0.699 
0.0490273 -0.118733 0.698 
0.0774057 -0.119584 0.703 
0.105733 -0.119924 0.705 
0.134409 -0.120434 0.708 
0.161717 -0.119754 0.704 
0.190053 -0.119924 0.705 
0.218779 -0.120264 0.707 
0.246966 -0.120264 0.707 
0.27632 -0.120774 0.71 
0.306342 -0.121455 0.714 
0.331995 -0.120434 0.708 
0.353098 -0.118053 0.694 
0.35498 -0.110058 0.647 
0.357822 -0.103424 0.608 
0.360068 -0.0974699 0.573 
0.365537 -0.0930472 0.547 
0.376015 -0.0903255 0.531 
0.397185 -0.0903255 0.531 
0.419143 -0.0904956 0.532 
0.442008 -0.0908359 0.534 
0.463297 -0.0908359 0.534 
0.485494 -0.091006 0.535 
0.507771 -0.0911761 0.536 
0.531115 -0.0915163 0.538 
-0.531835 -0.111225 0.663 
-0.505403 -0.111225 0.663 
-0.480415 -0.11156 0.665 
-0.456633 -0.112231 0.669 
-0.433175 -0.11307 0.674 
-0.413478 -0.116425 0.694 
-0.384142 -0.115922 0.691 
-0.34782 -0.11307 0.674 
-0.320473 -0.112902 0.673 
-0.293642 -0.112902 0.673 
-0.269189 -0.113909 0.679 
-0.242475 -0.114076 0.68 
-0.215682 -0.114244 0.681 
-0.189916 -0.115083 0.686 
-0.162804 -0.115251 0.687 
-0.136203 -0.115922 0.691 
-0.108497 -0.115754 0.69 
-0.0814576 -0.116425 0.694 
-0.0538668 -0.116593 0.695 
-0.0261585 -0.116593 0.695 
0.00155189 -0.116761 0.696 
0.0294263 -0.117264 0.699 
0.057048 -0.116761 0.696 
0.085649 -0.117935 0.703 
0.114 -0.11827 0.705 
0.142308 -0.118438 0.706 
0.169972 -0.118103 0.704 
0.198601 -0.118438 0.706 
0.227069 -0.118606 0.707 
0.255256 -0.118606 0.707 
0.285447 -0.119445 0.712 
0.314715 -0.11978 0.714 
0.338374 -0.118103 0.704 
0.358633 -0.115586 0.689 
0.355842 -0.106527 0.635 
0.357148 -0.0998169 0.595 
0.361666 -0.0947841 0.565 
0.365729 -0.0899191 0.536 
0.383487 -0.0890803 0.531 
0.405419 -0.089248 0.532 
0.427431 -0.0894158 0.533 
0.449522 -0.0895835 0.534 
0.471693 -0.0897513 0.535 
0.493022 -0.0897513 0.535 
0.516275 -0.0900868 0.537 
-0.544182 -0.109339 0.661 
-0.519396 -0.10967 0.663 
-0.494451 -0.11 0.665 
-0.47005 -0.110497 0.668 
-0.444082 -0.110662 0.669 
-0.430513 -0.114136 0.69 
-0.401505 -0.114632 0.693 
-0.367942 -0.112813 0.682 
-0.336755 -0.111489 0.674 
-0.309884 -0.111489 0.674 
-0.284273 -0.111985 0.677 
-0.258423 -0.112482 0.68 
-0.231312 -0.112482 0.68 
-0.205103 -0.112978 0.683 
-0.178134 -0.113143 0.684 
-0.151967 -0.11397 0.689 
-0.124859 -0.114301 0.691 
-0.0974514 -0.114467 0.692 
-0.0701657 -0.114963 0.695 
-0.0424575 -0.114963 0.695 
-0.0147705 -0.115128 0.696 
0.0130335 -0.115625 0.699 
0.0408427 -0.115459 0.698 
0.0689656 -0.115955 0.701 
0.0971895 -0.116286 0.703 
0.125573 -0.116617 0.705 
0.153462 -0.116452 0.704 
0.181529 -0.116452 0.704 
0.210191 -0.116782 0.706 
0.238338 -0.116782 0.706 
0.266862 -0.116948 0.707 
0.29797 -0.118106 0.714 
0.325521 -0.117775 0.712 
0.347943 -0.11579 0.7 
0.357058 -0.11 0.665 
0.357331 -0.102061 0.617 
0.357788 -0.0956094 0.578 
0.363701 -0.0913087 0.552 
0.372821 -0.0876696 0.53 
0.394694 -0.087835 0.531 
0.416648 -0.0880004 0.532 
0.43868 -0.0881658 0.533 
0.460793 -0.0883312 0.534 
0.482985 -0.0884966 0.535 
0.505257 -0.088662 0.536 
0.527609 -0.0888274 0.537 
-0.531033 -0.107952 0.662 
-0.505403 -0.108115 0.663 
-0.481137 -0.108604 0.666 
-0.456633 -0.109093 0.669 
-0.432532 -0.109745 0.673 
-0.4169 -0.113659 0.697 
-0.386879 -0.113007 0.693 
-0.349919 -0.110072 0.675 
-0.322051 -0.109745 0.673 
-0.29522 -0.109745 0.673 
-0.270782 -0.110724 0.679 
-0.244429 -0.11105 0.681 
-0.217279 -0.11105 0.681 
-0.190967 -0.111539 0.684 
-0.164415 -0.112028 0.687 
-0.137823 -0.112681 0.691 
-0.110115 -0.112518 0.69 
-0.0829654 -0.113007 0.693 
-0.0554966 -0.113333 0.695 
-0.0278284 -0.113496 0.696 
-8.02313e-05 -0.113333 0.695 
0.027787 -0.113985 0.699 
0.0554158 -0.113496 0.696 
0.0840003 -0.114638 0.703 
0.112346 -0.114964 0.705 
0.140453 -0.114964 0.705 
0.168321 -0.114801 0.704 
0.196946 -0.115127 0.706 
0.225093 -0.115127 0.706 
0.253598 -0.11529 0.707 
0.283777 -0.116105 0.712 
0.31304 -0.116431 0.714 
0.336723 -0.114801 0.704 
0.357536 -0.112518 0.69 
0.356962 -0.103875 0.637 
0.357748 -0.0971892 0.596 
0.361092 -0.0913187 0.56 
0.365616 -0.0870789 0.534 
0.384732 -0.0865897 0.531 
0.405902 -0.0865897 0.531 
0.428681 -0.0869158 0.533 
0.44993 -0.0869158 0.533 
0.472948 -0.087242 0.535 
0.495201 -0.087405 0.536 
0.51657 -0.087405 0.536 
-0.540263 -0.106078 0.66 
-0.516286 -0.10656 0.663 
-0.491332 -0.106881 0.665 
-0.466916 -0.107364 0.668 
-0.440944 -0.107524 0.669 
-0.427895 -0.11106 0.691 
-0.398255 -0.111382 0.693 
-0.364209 -0.109453 0.681 
-0.333594 -0.108328 0.674 
-0.306723 -0.108328 0.674 
-0.281513 -0.108971 0.678 
-0.255609 -0.109453 0.681 
-0.228123 -0.109292 0.68 
-0.2019 -0.109774 0.683 
-0.17467 -0.109774 0.683 
-0.148951 -0.110899 0.69 
-0.121442 -0.110899 0.69 
-0.0942057 -0.111221 0.692 
-0.0670022 -0.111864 0.696 
-0.0392541 -0.111864 0.696 
-0.011506 -0.111864 0.696 
0.0163121 -0.112346 0.699 
0.0441165 -0.112185 0.698 
0.0723566 -0.112828 0.702 
0.100487 -0.112989 0.703 
0.12888 -0.11331 0.705 
0.156764 -0.11315 0.704 
0.185093 -0.11331 0.705 
0.213503 -0.113471 0.706 
0.241992 -0.113632 0.707 
0.270561 -0.113793 0.708 
0.300897 -0.114596 0.713 
0.327937 -0.114114 0.71 
0.349721 -0.112025 0.697 
0.354009 -0.104149 0.648 
0.356982 -0.0978809 0.609 
0.358724 -0.0920948 0.573 
0.364138 -0.0872731 0.543 
0.37726 -0.0853444 0.531 
0.39843 -0.0853444 0.531 
0.42039 -0.0855051 0.532 
0.44326 -0.0858266 0.534 
0.46455 -0.0858266 0.534 
0.486749 -0.0859873 0.535 
0.509028 -0.086148 0.536 
0.532376 -0.0864695 0.538 
-0.524823 -0.104847 0.662 
-0.500689 -0.105322 0.665 
-0.476316 -0.105797 0.668 
-0.450357 -0.105955 0.669 
-0.431919 -0.108014 0.682 
-0.408006 -0.109756 0.693 
-0.378731 -0.109281 0.69 
-0.343078 -0.106747 0.674 
-0.315738 -0.106589 0.673 
-0.289765 -0.106906 0.675 
-0.264802 -0.107698 0.68 
-0.237691 -0.107698 0.68 
-0.210891 -0.107856 0.681 
-0.18428 -0.108173 0.683 
-0.1582 -0.108965 0.688 
-0.131341 -0.10944 0.691 
-0.103793 -0.10944 0.691 
-0.0766853 -0.110073 0.695 
-0.0489771 -0.110073 0.695 
-0.0212995 -0.110232 0.696 
0.00645788 -0.11039 0.697 
0.0342458 -0.11039 0.697 
0.0622118 -0.110707 0.699 
0.0904661 -0.111182 0.702 
0.11896 -0.111657 0.705 
0.146858 -0.111499 0.704 
0.174925 -0.111499 0.704 
0.203569 -0.111815 0.706 
0.231715 -0.111815 0.706 
0.26023 -0.111974 0.707 
0.290456 -0.112766 0.712 
0.319738 -0.113082 0.714 
0.341376 -0.110865 0.7 
0.358205 -0.107539 0.679 
0.358139 -0.0991451 0.626 
0.356781 -0.0923348 0.583 
0.363076 -0.088217 0.557 
0.367298 -0.0840991 0.531 
0.388468 -0.0840991 0.531 
0.409638 -0.0840991 0.531 
0.431619 -0.0842575 0.532 
0.45368 -0.0844159 0.533 
0.476712 -0.0847326 0.535 
0.498972 -0.084891 0.536 
0.520341 -0.084891 0.536 
-0.53562 -0.102982 0.66 
-0.51085 -0.103294 0.662 
-0.487385 -0.103918 0.666 
-0.462217 -0.10423 0.668 
-0.436237 -0.104386 0.669 
-0.424258 -0.108131 0.693 
-0.395005 -0.108131 0.693 
-0.359424 -0.105791 0.678 
-0.329943 -0.105011 0.673 
-0.303111 -0.105011 0.673 
-0.278333 -0.105791 0.678 
-0.252414 -0.106259 0.681 
-0.224934 -0.106103 0.68 
-0.198696 -0.106571 0.683 
-0.171466 -0.106571 0.683 
-0.145715 -0.107663 0.69 
-0.118206 -0.107663 0.69 
-0.09096 -0.107975 0.692 
-0.0637377 -0.108599 0.696 
-0.0359896 -0.108599 0.696 
-0.0082297 -0.108443 0.695 
0.0195906 -0.109067 0.699 
0.0474583 -0.109067 0.699 
0.0756493 -0.109536 0.702 
0.103784 -0.109692 0.703 
0.131999 -0.109848 0.704 
0.160293 -0.110004 0.705 
0.188667 -0.11016 0.706 
0.216814 -0.11016 0.706 
0.245308 -0.110316 0.707 
0.274655 -0.110784 0.71 
0.304241 -0.111252 0.713 
0.329868 -0.110316 0.707 
0.350964 -0.108131 0.693 
0.354293 -0.10033 0.643 
0.356293 -0.0940882 0.603 
0.359519 -0.0889391 0.57 
0.364138 -0.0847262 0.543 
0.37655 -0.0826978 0.53 
0.39843 -0.0828538 0.531 
0.42039 -0.0830099 0.532 
0.44243 -0.0831659 0.533 
0.46542 -0.083478 0.535 
0.486749 -0.083478 0.535 
0.509028 -0.083634 0.536 
0.531387 -0.08379 0.537 
-0.524823 -0.101742 0.662 
-0.500689 -0.102203 0.665 
-0.476316 -0.102664 0.668 
-0.450357 -0.102818 0.669 
-0.432552 -0.104969 0.683 
-0.409631 -0.106506 0.693 
-0.380901 -0.106199 0.691 
-0.344659 -0.103586 0.674 
-0.316845 -0.103279 0.672 
-0.291348 -0.10374 0.675 
-0.266004 -0.104354 0.679 
-0.239286 -0.104508 0.68 
-0.212488 -0.104662 0.681 
-0.185882 -0.104969 0.683 
-0.159581 -0.105584 0.687 
-0.132962 -0.106199 0.691 
-0.105566 -0.106352 0.692 
-0.0782025 -0.10666 0.694 
-0.0505341 -0.10666 0.694 
-0.0229647 -0.107121 0.697 
0.00481637 -0.106967 0.696 
0.0325645 -0.106967 0.696 
0.0606592 -0.107582 0.7 
0.0888197 -0.107889 0.702 
0.11714 -0.108197 0.704 
0.145413 -0.10835 0.705 
0.17352 -0.10835 0.705 
0.202485 -0.108811 0.708 
0.23006 -0.108504 0.706 
0.258938 -0.108811 0.708 
0.288787 -0.109426 0.712 
0.318064 -0.109734 0.714 
0.339735 -0.107582 0.7 
0.356088 -0.104201 0.678 
0.358139 -0.0962089 0.626 
0.356781 -0.0896003 0.583 
0.362424 -0.0854508 0.556 
0.367298 -0.0816085 0.531 
0.387736 -0.0814549 0.53 
0.409638 -0.0816085 0.531 
0.430808 -0.0816085 0.531 
0.45368 -0.0819159 0.533 
0.476712 -0.0822233 0.535 
0.498972 -0.082377 0.536 
0.520341 -0.082377 0.536 
-0.539445 -0.0997352 0.659 
-0.514729 -0.100038 0.661 
-0.491332 -0.100643 0.665 
-0.466916 -0.101097 0.668 
-0.440944 -0.101249 0.669 
-0.427895 -0.104578 0.691 
-0.398255 -0.104881 0.693 
-0.364744 -0.103216 0.682 
-0.333594 -0.102005 0.674 
-0.306268 -0.101854 0.673 
-0.281098 -0.102459 0.677 
-0.255233 -0.102913 0.68 
-0.228123 -0.102913 0.68 
-0.2019 -0.103367 0.683 
-0.174414 -0.103216 0.682 
-0.148735 -0.104275 0.689 
-0.121618 -0.104578 0.691 
-0.0942057 -0.10473 0.692 
-0.0668096 -0.105032 0.694 
-0.0392541 -0.105335 0.696 
-0.011506 -0.105335 0.696 
0.0162887 -0.105638 0.698 
0.0441797 -0.105789 0.699 
0.0723566 -0.106243 0.702 
0.100487 -0.106394 0.703 
0.128697 -0.106546 0.704 
0.156987 -0.106697 0.705 
0.185618 -0.107 0.707 
0.213805 -0.107 0.707 
0.241649 -0.106848 0.706 
0.270943 -0.107302 0.709 
0.300475 -0.107756 0.712 
0.327937 -0.107454 0.71 
0.348215 -0.105032 0.694 
0.353677 -0.0988271 0.653 
0.356452 -0.0927734 0.613 
0.356658 -0.086871 0.574 
0.363673 -0.0832388 0.55 
0.371578 -0.0802119 0.53 
0.393449 -0.0803633 0.531 
0.414619 -0.0803633 0.531 
0.43661 -0.0805146 0.532 
0.459541 -0.0808173 0.534 
0.48173 -0.0809686 0.535 
0.50306 -0.0809686 0.535 
0.525369 -0.08112 0.536 
-0.532524 -0.0983387 0.66 
-0.507745 -0.0986367 0.662 
-0.484988 -0.0993817 0.667 
-0.459771 -0.0996797 0.669 
-0.434394 -0.0999777 0.671 
-0.42283 -0.103703 0.696 
-0.390129 -0.103256 0.693 
-0.353608 -0.100723 0.676 
-0.325208 -0.100276 0.673 
-0.297933 -0.100127 0.672 
-0.273563 -0.101021 0.678 
-0.24726 -0.101319 0.68 
-0.220149 -0.101319 0.68 
-0.193891 -0.101766 0.683 
-0.166661 -0.101766 0.683 
-0.140656 -0.10266 0.689 
-0.113516 -0.102958 0.691 
-0.0862158 -0.103256 0.693 
-0.0586719 -0.103405 0.694 
-0.0311822 -0.104001 0.698 
-0.00334002 -0.103554 0.695 
0.0244383 -0.103852 0.697 
0.052451 -0.104299 0.7 
0.0805882 -0.104597 0.702 
0.10873 -0.104746 0.703 
0.137146 -0.105044 0.705 
0.165253 -0.105044 0.705 
0.194183 -0.105491 0.708 
0.221781 -0.105193 0.706 
0.250636 -0.105491 0.708 
0.27965 -0.105789 0.71 
0.309258 -0.106236 0.713 
0.333421 -0.104895 0.704 
0.351218 -0.101915 0.684 
0.354141 -0.0953588 0.64 
0.355928 -0.0893988 0.6 
0.358957 -0.0844819 0.567 
0.364065 -0.0806079 0.541 
0.377793 -0.078969 0.53 
0.399676 -0.079118 0.531 
0.420846 -0.079118 0.531 
0.44368 -0.079416 0.533 
0.465802 -0.079565 0.534 
0.488004 -0.079714 0.535 
0.509333 -0.079714 0.535 
0.531654 -0.079863 0.536 
-0.52403 -0.0969375 0.661 
-0.499936 -0.0973775 0.664 
-0.476316 -0.0979641 0.668 
-0.450357 -0.0981108 0.669 
-0.432552 -0.100164 0.683 
-0.408006 -0.10163 0.693 
-0.379829 -0.101484 0.692 
-0.342569 -0.0986974 0.673 
-0.315269 -0.0985507 0.672 
-0.289336 -0.098844 0.674 
-0.264412 -0.0995773 0.679 
-0.237342 -0.0995773 0.679 
-0.210891 -0.0998706 0.681 
-0.184011 -0.100017 0.682 
-0.15774 -0.100604 0.686 
-0.131341 -0.101337 0.691 
-0.103943 -0.101484 0.692 
-0.0764646 -0.10163 0.693 
-0.0489066 -0.101777 0.694 
-0.0213607 -0.102364 0.698 
0.00643935 -0.101924 0.695 
0.0341967 -0.10207 0.696 
0.0623898 -0.102804 0.701 
0.0904661 -0.10295 0.702 
0.118791 -0.103244 0.704 
0.147066 -0.10339 0.705 
0.175422 -0.103537 0.706 
0.204722 -0.104124 0.71 
0.231715 -0.103537 0.706 
0.261334 -0.104124 0.71 
0.289641 -0.104124 0.71 
0.31929 -0.104563 0.713 
0.340401 -0.102364 0.698 
0.353457 -0.0982574 0.67 
0.356905 -0.0922447 0.629 
0.357083 -0.0862319 0.588 
0.36177 -0.0816856 0.557 
0.367298 -0.0778727 0.531 
0.387736 -0.077726 0.53 
0.409638 -0.0778727 0.531 
0.430808 -0.0778727 0.531 
0.45368 -0.078166 0.533 
0.476712 -0.0784593 0.535 
0.498972 -0.0786059 0.536 
0.520341 -0.0786059 0.536 
-0.537899 -0.0950988 0.659 
-0.513179 -0.0953874 0.661 
-0.490509 -0.0961089 0.666 
-0.46535 -0.0963975 0.668 
-0.439375 -0.0965419 0.669 
-0.427509 -0.100005 0.693 
-0.395005 -0.100005 0.693 
-0.360485 -0.0981292 0.68 
-0.330433 -0.0972634 0.674 
-0.302661 -0.0969748 0.672 
-0.277922 -0.0976963 0.677 
-0.251673 -0.0979849 0.679 
-0.224603 -0.0979849 0.679 
-0.198696 -0.0985622 0.683 
-0.171466 -0.0985622 0.683 
-0.145292 -0.0992837 0.688 
-0.118549 -0.0998609 0.692 
-0.0910914 -0.100005 0.693 
-0.063463 -0.100005 0.693 
-0.036093 -0.100727 0.698 
-0.0082297 -0.100294 0.695 
0.0195626 -0.100727 0.698 
0.0475262 -0.101015 0.7 
0.0756493 -0.101304 0.702 
0.103784 -0.101448 0.703 
0.131999 -0.101593 0.704 
0.160521 -0.101881 0.706 
0.189736 -0.102458 0.71 
0.217121 -0.102026 0.707 
0.245308 -0.102026 0.707 
0.274655 -0.102458 0.71 
0.304241 -0.102891 0.713 
0.329868 -0.102026 0.707 
0.349445 -0.0995723 0.69 
0.354009 -0.0935114 0.648 
0.353702 -0.0867289 0.601 
0.357554 -0.0821111 0.569 
0.364869 -0.078792 0.546 
0.375307 -0.0764831 0.53 
0.397185 -0.0766274 0.531 
0.418355 -0.0766274 0.531 
0.440353 -0.0767717 0.532 
0.46243 -0.076916 0.533 
0.485494 -0.0772046 0.535 
0.506824 -0.0772046 0.535 
0.52914 -0.0773489 0.536 
-0.527881 -0.0936953 0.66 
-0.503848 -0.0941212 0.663 
-0.481016 -0.094831 0.668 
-0.455064 -0.0949729 0.669 
-0.434796 -0.0963926 0.679 
-0.411257 -0.09838 0.693 
-0.383628 -0.09838 0.693 
-0.345212 -0.0953988 0.672 
-0.318421 -0.0953988 0.672 
-0.292063 -0.0955408 0.673 
-0.267203 -0.0962506 0.678 
-0.239818 -0.0961086 0.677 
-0.214085 -0.0966765 0.681 
-0.187209 -0.0968184 0.682 
-0.160254 -0.0969604 0.683 
-0.134582 -0.0980961 0.691 
-0.107189 -0.0982381 0.692 
-0.079715 -0.09838 0.693 
-0.0521617 -0.098522 0.694 
-0.0246698 -0.0992318 0.699 
0.00317956 -0.098664 0.695 
0.0309322 -0.0988059 0.696 
0.0591018 -0.0995157 0.701 
0.0871734 -0.0996577 0.702 
0.115325 -0.0997997 0.703 
0.14376 -0.100084 0.705 
0.17211 -0.100226 0.706 
0.201959 -0.101077 0.712 
0.228727 -0.100368 0.707 
0.257641 -0.100651 0.709 
0.28631 -0.100793 0.71 
0.315946 -0.101219 0.713 
0.338576 -0.0995157 0.701 
0.351883 -0.0955408 0.673 
0.355643 -0.0897203 0.632 
0.355869 -0.08319 0.586 
0.361111 -0.0792151 0.558 
0.366742 -0.0755241 0.532 
0.386494 -0.0752401 0.53 
0.408393 -0.0753821 0.531 
0.429563 -0.0753821 0.531 
0.45243 -0.075666 0.533 
0.475457 -0.07595 0.535 
0.496786 -0.07595 0.535 
0.519084 -0.0760919 0.536 
-0.539445 -0.0920078 0.659 
-0.514729 -0.0922871 0.661 
-0.491332 -0.0928455 0.665 
-0.466916 -0.0932644 0.668 
-0.440944 -0.093404 0.669 
-0.428515 -0.0966152 0.692 
-0.39663 -0.0967548 0.693 
-0.363677 -0.0953587 0.683 
-0.332013 -0.0941021 0.674 
-0.30469 -0.0939625 0.673 
-0.279097 -0.0943813 0.676 
-0.252893 -0.0946606 0.678 
-0.225862 -0.0946606 0.678 
-0.200005 -0.095219 0.682 
-0.173068 -0.0953587 0.683 
-0.146692 -0.0959171 0.687 
-0.120345 -0.0967548 0.693 
-0.0927166 -0.0967548 0.693 
-0.0650882 -0.0967548 0.693 
-0.03773 -0.0974529 0.698 
-0.00984541 -0.0968944 0.694 
0.0179257 -0.0974529 0.698 
0.045819 -0.0975925 0.699 
0.0738975 -0.0978718 0.701 
0.102136 -0.098151 0.703 
0.130348 -0.0982906 0.704 
0.158865 -0.0985699 0.706 
0.188336 -0.0992679 0.711 
0.215768 -0.0988491 0.708 
0.24365 -0.0987095 0.707 
0.27299 -0.0991283 0.71 
0.302145 -0.0994076 0.712 
0.329138 -0.0989887 0.709 
0.348835 -0.0966152 0.692 
0.353033 -0.0906117 0.649 
0.353114 -0.0837704 0.6 
0.357554 -0.0794423 0.569 
0.366206 -0.0765103 0.548 
0.375307 -0.0739972 0.53 
0.397185 -0.0741368 0.531 
0.417567 -0.0739972 0.53 
0.440353 -0.0742764 0.532 
0.463297 -0.0745557 0.534 
0.485494 -0.0746953 0.535 
0.506824 -0.0746953 0.535 
0.52914 -0.0748349 0.536 
-0.530976 -0.0905996 0.66 
-0.506957 -0.0910115 0.663 
-0.484149 -0.0916978 0.668 
-0.458202 -0.0918351 0.669 
-0.43411 -0.0923842 0.673 
-0.414507 -0.0951296 0.693 
-0.387437 -0.0952669 0.694 
-0.346788 -0.0922469 0.672 
-0.319997 -0.0922469 0.672 
-0.293205 -0.0922469 0.672 
-0.268793 -0.0930705 0.678 
-0.240693 -0.0926587 0.675 
-0.215365 -0.0933451 0.68 
-0.189086 -0.0937569 0.683 
-0.161856 -0.0937569 0.683 
-0.136203 -0.0948551 0.691 
-0.108811 -0.0949924 0.692 
-0.0813402 -0.0951296 0.693 
-0.0537117 -0.0951296 0.693 
-0.0263467 -0.0960905 0.7 
0.00154966 -0.0954042 0.695 
0.0293 -0.0955414 0.696 
0.0574579 -0.0962278 0.701 
0.0855271 -0.0963651 0.702 
0.113514 -0.0963651 0.702 
0.142106 -0.0967769 0.705 
0.170455 -0.0969142 0.706 
0.200289 -0.0977378 0.712 
0.227391 -0.0971887 0.708 
0.255617 -0.0971887 0.708 
0.283844 -0.0971887 0.708 
0.313833 -0.0977378 0.712 
0.337413 -0.0963651 0.702 
0.351867 -0.092796 0.676 
0.355281 -0.0870306 0.634 
0.356309 -0.0808533 0.589 
0.361111 -0.0765979 0.558 
0.366742 -0.0730288 0.532 
0.385764 -0.072617 0.529 
0.408393 -0.0728915 0.531 
0.430371 -0.0730288 0.532 
0.45243 -0.0731661 0.533 
0.474568 -0.0733033 0.534 
0.496786 -0.0734406 0.535 
0.518116 -0.0734406 0.535 
-0.544081 -0.0889169 0.659 
-0.519379 -0.0891868 0.661 
-0.495264 -0.0895915 0.664 
-0.471616 -0.0901312 0.668 
-0.445651 -0.0902662 0.669 
-0.432131 -0.0930996 0.69 
-0.401505 -0.0935044 0.693 
-0.373337 -0.0933695 0.692 
-0.334677 -0.0908059 0.673 
-0.307846 -0.0908059 0.673 
-0.28185 -0.0910757 0.675 
-0.256073 -0.0914805 0.678 
-0.229042 -0.0914805 0.678 
-0.203203 -0.0920202 0.682 
-0.176272 -0.0921552 0.683 
-0.149696 -0.0925599 0.686 
-0.123774 -0.0936393 0.694 
-0.095967 -0.0935044 0.693 
-0.0683386 -0.0935044 0.693 
-0.0410038 -0.094179 0.698 
-0.0131194 -0.0937743 0.695 
0.0146518 -0.094179 0.698 
0.0424796 -0.094179 0.698 
0.0705089 -0.0944489 0.7 
0.0988382 -0.0948537 0.703 
0.126865 -0.0948537 0.703 
0.155333 -0.0951235 0.705 
0.184221 -0.0955283 0.708 
0.212747 -0.0956632 0.709 
0.240334 -0.0953934 0.707 
0.26966 -0.0957982 0.71 
0.297966 -0.0957982 0.71 
0.327191 -0.096068 0.712 
0.346588 -0.0936393 0.694 
0.354303 -0.088647 0.657 
0.356172 -0.0829801 0.615 
0.356658 -0.0774481 0.574 
0.364334 -0.0743448 0.551 
0.372821 -0.0715113 0.53 
0.393951 -0.0715113 0.53 
0.415081 -0.0715113 0.53 
0.437857 -0.0717812 0.532 
0.45993 -0.0719161 0.533 
0.482985 -0.0721859 0.535 
0.504314 -0.0721859 0.535 
0.526626 -0.0723209 0.536 
-0.532524 -0.087504 0.66 
-0.508512 -0.0879018 0.663 
-0.484988 -0.0884321 0.667 
-0.459084 -0.0885647 0.668 
-0.434394 -0.0889624 0.671 
-0.421008 -0.0918792 0.693 
-0.389625 -0.0921444 0.695 
-0.348364 -0.089095 0.672 
-0.322051 -0.0892276 0.673 
-0.29522 -0.0892276 0.673 
-0.270383 -0.0898905 0.678 
-0.242276 -0.0894927 0.675 
-0.21696 -0.0901557 0.68 
-0.190687 -0.0905534 0.683 
-0.163458 -0.0905534 0.683 
-0.137624 -0.0914815 0.69 
-0.110434 -0.0917466 0.692 
-0.0829654 -0.0918792 0.693 
-0.0553369 -0.0918792 0.693 
-0.0279084 -0.0925421 0.698 
-8.02313e-05 -0.0921444 0.695 
0.0277075 -0.0924096 0.697 
0.0557343 -0.0928073 0.7 
0.0838808 -0.0930725 0.702 
0.111868 -0.0930725 0.702 
0.140254 -0.0933376 0.704 
0.168799 -0.0936028 0.706 
0.19862 -0.0943983 0.712 
0.22573 -0.093868 0.708 
0.253239 -0.0936028 0.706 
0.282183 -0.093868 0.708 
0.312163 -0.0943983 0.712 
0.336245 -0.093205 0.703 
0.351836 -0.0900231 0.679 
0.355469 -0.0844546 0.637 
0.355347 -0.0784885 0.592 
0.360386 -0.0746436 0.563 
0.365152 -0.0711965 0.537 
0.380802 -0.0701358 0.529 
0.403411 -0.070401 0.531 
0.424581 -0.070401 0.531 
0.446591 -0.0705335 0.532 
0.46868 -0.0706661 0.533 
0.491768 -0.0709313 0.535 
0.513097 -0.0709313 0.535 
-0.551098 -0.0859562 0.66 
-0.52558 -0.0860864 0.661 
-0.501493 -0.0864772 0.664 
-0.477167 -0.0868679 0.667 
-0.451926 -0.0871283 0.669 
-0.432882 -0.0886912 0.681 
-0.40904 -0.0901238 0.692 
-0.382003 -0.090254 0.693 
-0.343125 -0.0873888 0.671 
-0.316845 -0.087519 0.672 
-0.290485 -0.0876493 0.673 
-0.265613 -0.0883005 0.678 
-0.237175 -0.0877795 0.674 
-0.212488 -0.0886912 0.681 
-0.185882 -0.0889516 0.683 
-0.158652 -0.0889516 0.683 
-0.133154 -0.0901238 0.692 
-0.105566 -0.0901238 0.692 
-0.0780898 -0.090254 0.693 
-0.050607 -0.0905145 0.695 
-0.0229317 -0.0906447 0.696 
0.00481637 -0.0906447 0.696 
0.0325645 -0.0906447 0.696 
0.0606592 -0.0911657 0.7 
0.0888197 -0.0914261 0.702 
0.116807 -0.0914261 0.702 
0.145207 -0.0916866 0.704 
0.173766 -0.0919471 0.706 
0.202771 -0.0923378 0.709 
0.230711 -0.0922076 0.708 
0.258572 -0.0920773 0.707 
0.287164 -0.0922076 0.708 
0.317173 -0.0927285 0.712 
0.34022 -0.0912959 0.701 
0.351361 -0.0871283 0.669 
0.35577 -0.0816584 0.627 
0.355414 -0.075928 0.583 
0.36177 -0.0725418 0.557 
0.366742 -0.0692859 0.532 
0.385764 -0.0688952 0.529 
0.408393 -0.0691557 0.531 
0.430371 -0.0692859 0.532 
0.451581 -0.0692859 0.532 
0.47368 -0.0694162 0.533 
0.496786 -0.0696766 0.535 
0.519084 -0.0698069 0.536 
-0.546454 -0.0844084 0.66 
-0.52093 -0.0845363 0.661 
-0.496822 -0.08492 0.664 
-0.472474 -0.0853036 0.667 
-0.447219 -0.0855594 0.669 
-0.431234 -0.0877336 0.686 
-0.404172 -0.0885009 0.692 
-0.376039 -0.088373 0.691 
-0.338404 -0.0858152 0.671 
-0.312117 -0.0859431 0.672 
-0.28575 -0.086071 0.673 
-0.260843 -0.0867104 0.678 
-0.233122 -0.0864547 0.676 
-0.207697 -0.0870941 0.681 
-0.181077 -0.0873499 0.683 
-0.154072 -0.0874778 0.684 
-0.128471 -0.0886288 0.693 
-0.100697 -0.0885009 0.692 
-0.0732142 -0.0886288 0.693 
-0.0458488 -0.0891404 0.697 
-0.0180091 -0.0888846 0.695 
0.00971309 -0.0890125 0.696 
0.0374612 -0.0890125 0.696 
0.065584 -0.0895241 0.7 
0.0938922 -0.0899077 0.703 
0.121919 -0.0899077 0.703 
0.15016 -0.0900356 0.704 
0.178733 -0.0902914 0.706 
0.207173 -0.0904193 0.707 
0.23536 -0.0904193 0.707 
0.263919 -0.0905472 0.708 
0.292145 -0.0905472 0.708 
0.322182 -0.0910587 0.712 
0.344659 -0.0895241 0.7 
0.352874 -0.0847921 0.663 
0.355278 -0.0794206 0.621 
0.356169 -0.0744328 0.582 
0.361773 -0.0709798 0.555 
0.367849 -0.0677825 0.53 
0.388979 -0.0677825 0.53 
0.410883 -0.0679104 0.531 
0.432867 -0.0680383 0.532 
0.45493 -0.0681662 0.533 
0.47618 -0.0681662 0.533 
0.499296 -0.068422 0.535 
0.521598 -0.0685498 0.536 
-0.544907 -0.0828606 0.66 
-0.520951 -0.0832372 0.663 
-0.49601 -0.0834883 0.665 
-0.470204 -0.0836139 0.666 
-0.445651 -0.0839905 0.669 
-0.430252 -0.0862503 0.687 
-0.400926 -0.0868781 0.692 
-0.368482 -0.0857481 0.683 
-0.335756 -0.0843671 0.672 
-0.309425 -0.0844927 0.673 
-0.283013 -0.0846182 0.674 
-0.257663 -0.0851204 0.678 
-0.230632 -0.0851204 0.678 
-0.204803 -0.0856226 0.682 
-0.177873 -0.0857481 0.683 
-0.151085 -0.0859992 0.685 
-0.125221 -0.0870036 0.693 
-0.0973106 -0.0867525 0.691 
-0.0699638 -0.0870036 0.693 
-0.0425797 -0.0875058 0.697 
-0.0147281 -0.0871291 0.694 
0.0129776 -0.0873802 0.696 
0.0407256 -0.0873802 0.696 
0.0688673 -0.0878824 0.7 
0.0970513 -0.0881335 0.702 
0.125217 -0.0882591 0.703 
0.153462 -0.0883846 0.704 
0.182045 -0.0886357 0.706 
0.210191 -0.0886357 0.706 
0.238338 -0.0886357 0.706 
0.266862 -0.0887612 0.707 
0.295466 -0.0888868 0.708 
0.324607 -0.0891379 0.71 
0.346452 -0.0875058 0.697 
0.353299 -0.0826095 0.658 
0.35646 -0.0775876 0.618 
0.355816 -0.0724402 0.577 
0.362406 -0.0693016 0.552 
0.369092 -0.0665396 0.53 
0.390222 -0.0665396 0.53 
0.412128 -0.0666651 0.531 
0.434114 -0.0667906 0.532 
0.45618 -0.0669162 0.533 
0.47743 -0.0669162 0.533 
0.50055 -0.0671673 0.535 
0.522855 -0.0672928 0.536 
-0.541811 -0.0813128 0.66 
-0.517841 -0.0816824 0.663 
-0.492891 -0.0819288 0.665 
-0.466379 -0.0819288 0.665 
-0.442513 -0.0824216 0.669 
-0.427651 -0.0847624 0.688 
-0.400926 -0.0852552 0.692 
-0.367403 -0.0839 0.681 
-0.335756 -0.0827912 0.672 
-0.309425 -0.0829144 0.673 
-0.283433 -0.0831608 0.675 
-0.257663 -0.0835304 0.678 
-0.230972 -0.0836536 0.679 
-0.204803 -0.0840232 0.682 
-0.177873 -0.0841464 0.683 
-0.151305 -0.084516 0.686 
-0.12504 -0.0852552 0.692 
-0.0973106 -0.085132 0.691 
-0.0699638 -0.0853784 0.693 
-0.0425797 -0.0858712 0.697 
-0.0147281 -0.0855016 0.694 
0.0129776 -0.085748 0.696 
0.0407842 -0.0858712 0.697 
0.0687689 -0.0861176 0.699 
0.0970513 -0.0864872 0.702 
0.125217 -0.0866104 0.703 
0.153462 -0.0867336 0.704 
0.182045 -0.08698 0.706 
0.210191 -0.08698 0.706 
0.238338 -0.08698 0.706 
0.266862 -0.0871032 0.707 
0.295466 -0.0872264 0.708 
0.324607 -0.0874728 0.71 
0.346452 -0.0858712 0.697 
0.353836 -0.0811896 0.659 
0.355884 -0.0760151 0.617 
0.355816 -0.0710871 0.577 
0.362406 -0.068007 0.552 
0.369092 -0.0652966 0.53 
0.390222 -0.0652966 0.53 
0.412128 -0.0654198 0.531 
0.434114 -0.065543 0.532 
0.45618 -0.0656662 0.533 
0.47743 -0.0656662 0.533 
0.50055 -0.0659126 0.535 
0.522855 -0.0660358 0.536 
-0.543359 -0.0797649 0.66 
-0.52018 -0.0802484 0.664 
-0.494451 -0.0803692 0.665 
-0.467939 -0.0803692 0.665 
-0.444082 -0.0808527 0.669 
-0.428641 -0.0830281 0.687 
-0.400926 -0.0836323 0.692 
-0.366324 -0.0820612 0.679 
-0.335756 -0.0812152 0.672 
-0.309425 -0.0813361 0.673 
-0.283433 -0.0815778 0.675 
-0.257663 -0.0819404 0.678 
-0.230972 -0.0820612 0.679 
-0.204803 -0.0824238 0.682 
-0.177873 -0.0825446 0.683 
-0.151305 -0.0829072 0.686 
-0.12504 -0.0836323 0.692 
-0.0973106 -0.0835115 0.691 
-0.0699638 -0.0837532 0.693 
-0.0425186 -0.0841158 0.696 
-0.0147493 -0.0839949 0.695 
0.0129776 -0.0841158 0.696 
0.0407842 -0.0842366 0.697 
0.0687689 -0.0844783 0.699 
0.0970513 -0.0848409 0.702 
0.125217 -0.0849618 0.703 
0.153462 -0.0850826 0.704 
0.182045 -0.0853243 0.706 
0.209894 -0.0852035 0.705 
0.238338 -0.0853243 0.706 
0.266862 -0.0854452 0.707 
0.295049 -0.0854452 0.707 
0.32415 -0.0856869 0.709 
