# .PCD v.7 - Point Cloud Data file format
VERSION .7
FIELDS x y z
SIZE 4 4 4
TYPE F F F
COUNT 1 1 1
WIDTH 1825
HEIGHT 1
VIEWPOINT 0 0 0 1 0 0 0
POINTS 1825
DATA ascii
0.206148 -0.422524 0.882 
0.247258 -0.422524 0.882 
0.289676 -0.42444 0.886 
0.32649 -0.418691 0.874 
0.368068 -0.419649 0.876 
0.409365 -0.420128 0.877 
0.447675 -0.417733 0.872 
0.48776 -0.417254 0.871 
0.52957 -0.418212 0.873 
0.566342 -0.415338 0.867 
0.600455 -0.411026 0.858 
0.635968 -0.408152 0.852 
0.678059 -0.409589 0.855 
0.717071 -0.40911 0.854 
0.757762 -0.409589 0.855 
0.796681 -0.40911 0.854 
0.831589 -0.406715 0.849 
-0.417836 -0.265011 0.555 
-0.418847 -0.285066 0.597 
-0.417874 -0.304644 0.638 
-0.41673 -0.327086 0.685 
-0.413452 -0.351439 0.736 
-0.411601 -0.381521 0.799 
-0.510108 -0.523338 1.096 
-0.458185 -0.522383 1.094 
-0.409427 -0.525248 1.1 
-0.359132 -0.52668 1.103 
-0.303537 -0.519518 1.088 
-0.25143 -0.516653 1.082 
-0.200998 -0.516653 1.082 
-0.149591 -0.51331 1.075 
-0.0979062 -0.513788 1.076 
-0.0439973 -0.509013 1.066 
0.0325511 -0.426883 0.894 
0.0741377 -0.426406 0.893 
0.11615 -0.427838 0.896 
0.157207 -0.425928 0.892 
0.19767 -0.423541 0.887 
0.237666 -0.421153 0.882 
0.279092 -0.421631 0.883 
0.317347 -0.417811 0.875 
0.357722 -0.417333 0.874 
0.399371 -0.418288 0.876 
0.437689 -0.415901 0.871 
0.478836 -0.416378 0.872 
0.521267 -0.417811 0.875 
0.557555 -0.414468 0.868 
0.590434 -0.409216 0.857 
0.629644 -0.408738 0.856 
0.666413 -0.406828 0.852 
0.706125 -0.406828 0.852 
0.747588 -0.407783 0.854 
0.780939 -0.404441 0.847 
0.822355 -0.405396 0.849 
-0.420995 -0.261293 0.549 
-0.417177 -0.277476 0.583 
-0.414754 -0.295085 0.62 
-0.415729 -0.317931 0.668 
-0.413956 -0.342204 0.719 
-0.411132 -0.369809 0.777 
-0.519908 -0.517827 1.088 
-0.473508 -0.522587 1.098 
-0.422715 -0.523063 1.099 
-0.372166 -0.524015 1.101 
-0.316185 -0.5164 1.085 
-0.266103 -0.517352 1.087 
-0.214843 -0.515924 1.084 
-0.161589 -0.507357 1.066 
-0.108902 -0.501169 1.053 
-0.0612412 -0.513068 1.078 
0.0157056 -0.420735 0.884 
0.0578747 -0.427874 0.899 
0.0995554 -0.426922 0.897 
0.140734 -0.425018 0.893 
0.181949 -0.424066 0.891 
0.221221 -0.419783 0.882 
0.262332 -0.419783 0.882 
0.301722 -0.417403 0.877 
0.342599 -0.417403 0.877 
0.384351 -0.418355 0.879 
0.420483 -0.413596 0.869 
0.461517 -0.414072 0.87 
0.500337 -0.412644 0.867 
0.538877 -0.411216 0.864 
0.577808 -0.410264 0.862 
0.615118 -0.40836 0.858 
0.650529 -0.405505 0.852 
0.692671 -0.406932 0.855 
0.730809 -0.405981 0.853 
0.763341 -0.402173 0.845 
0.808426 -0.405029 0.851 
-0.426916 -0.253325 0.534 
-0.420222 -0.273249 0.576 
-0.415229 -0.28843 0.608 
-0.415524 -0.309777 0.653 
-0.416422 -0.335869 0.708 
-0.411042 -0.360063 0.759 
-0.408826 -0.391847 0.826 
-0.486712 -0.520407 1.097 
-0.436375 -0.521355 1.099 
-0.383047 -0.518509 1.093 
-0.329368 -0.51424 1.084 
-0.279871 -0.516137 1.088 
-0.227895 -0.513291 1.082 
-0.173034 -0.500482 1.055 
-0.120484 -0.493366 1.04 
-0.0742246 -0.508547 1.072 
-0.0238058 -0.499059 1.052 
0.0425104 -0.426477 0.899 
0.0836619 -0.422682 0.891 
0.125613 -0.424105 0.894 
0.166721 -0.422682 0.891 
0.205914 -0.417938 0.881 
0.246978 -0.417938 0.881 
0.286734 -0.416041 0.877 
0.326117 -0.414143 0.873 
0.367648 -0.415092 0.875 
0.405631 -0.412245 0.869 
0.447162 -0.413194 0.871 
0.48664 -0.412245 0.869 
0.525931 -0.411297 0.867 
0.563729 -0.409399 0.863 
0.597655 -0.40513 0.854 
0.633728 -0.402758 0.849 
0.674093 -0.403232 0.85 
0.714552 -0.403706 0.851 
0.756876 -0.40513 0.854 
0.793882 -0.403706 0.851 
0.824732 -0.399437 0.842 
-0.41812 -0.264789 0.56 
-0.417919 -0.282284 0.597 
-0.417537 -0.302143 0.639 
-0.414602 -0.323893 0.685 
-0.412841 -0.349427 0.739 
-0.410654 -0.379215 0.802 
-0.50546 -0.518702 1.097 
-0.450601 -0.514447 1.088 
-0.402095 -0.517284 1.094 
-0.350782 -0.516811 1.093 
-0.297642 -0.513028 1.085 
-0.245248 -0.509245 1.077 
-0.194144 -0.506881 1.072 
-0.143101 -0.503099 1.064 
-0.0943869 -0.507827 1.074 
-0.0439973 -0.504044 1.066 
0.0239734 -0.418461 0.885 
0.0659605 -0.423189 0.895 
0.107436 -0.422243 0.893 
0.148058 -0.419406 0.887 
0.189187 -0.418934 0.886 
0.229443 -0.417042 0.882 
0.268713 -0.414205 0.876 
0.307777 -0.411841 0.871 
0.350774 -0.414678 0.877 
0.389865 -0.412787 0.873 
0.427597 -0.40995 0.867 
0.468548 -0.410423 0.868 
0.50666 -0.408531 0.864 
0.546931 -0.408531 0.864 
0.584484 -0.40664 0.86 
0.621664 -0.404748 0.856 
0.657698 -0.402384 0.851 
0.698183 -0.402857 0.852 
0.737029 -0.402384 0.851 
0.76848 -0.398129 0.842 
0.814441 -0.401439 0.849 
-0.426053 -0.252137 0.535 
-0.418987 -0.272402 0.578 
-0.415786 -0.288897 0.613 
-0.414376 -0.309162 0.656 
-0.415978 -0.335082 0.711 
-0.411376 -0.36006 0.764 
-0.525932 -0.5104 1.083 
-0.479843 -0.515113 1.093 
-0.431252 -0.51794 1.099 
-0.376915 -0.513699 1.09 
-0.323417 -0.509457 1.081 
-0.274042 -0.511342 1.085 
-0.222234 -0.508515 1.079 
-0.16748 -0.495319 1.051 
-0.11759 -0.491549 1.043 
-0.0708936 -0.505216 1.072 
-0.0204783 -0.494376 1.049 
0.0467526 -0.424155 0.9 
0.0876178 -0.418971 0.889 
0.12949 -0.420385 0.892 
0.170491 -0.418971 0.889 
0.209305 -0.413787 0.878 
0.251084 -0.415201 0.881 
0.288832 -0.410488 0.871 
0.330564 -0.411902 0.874 
0.371726 -0.412373 0.875 
0.407324 -0.407189 0.864 
0.450704 -0.410016 0.87 
0.488996 -0.408131 0.866 
0.526916 -0.406246 0.862 
0.565778 -0.405304 0.86 
0.599522 -0.401062 0.851 
0.636183 -0.399177 0.847 
0.675662 -0.399177 0.847 
0.71683 -0.40012 0.849 
0.757293 -0.400591 0.85 
0.795974 -0.40012 0.849 
0.826689 -0.395878 0.84 
-0.418242 -0.262579 0.559 
-0.418145 -0.279959 0.596 
-0.416564 -0.298748 0.636 
-0.414905 -0.320356 0.682 
-0.41289 -0.345251 0.735 
-0.411601 -0.375314 0.799 
-0.502051 -0.515293 1.097 
-0.447632 -0.511536 1.089 
-0.396508 -0.511066 1.088 
-0.345796 -0.511066 1.088 
-0.293728 -0.508717 1.083 
-0.241003 -0.50402 1.073 
-0.189745 -0.500732 1.066 
-0.138481 -0.495095 1.054 
-0.0907953 -0.50308 1.071 
-0.0405322 -0.498853 1.062 
0.0296399 -0.418059 0.89 
0.0709632 -0.41712 0.888 
0.112606 -0.418059 0.89 
0.152704 -0.414302 0.882 
0.193595 -0.413832 0.881 
0.234659 -0.413832 0.881 
0.271967 -0.408195 0.869 
0.312111 -0.407725 0.868 
0.355819 -0.411483 0.876 
0.393027 -0.407725 0.868 
0.432486 -0.406786 0.866 
0.473396 -0.407256 0.867 
0.510844 -0.404907 0.862 
0.550383 -0.404437 0.861 
0.588457 -0.403028 0.858 
0.622589 -0.39927 0.85 
0.66065 -0.398331 0.848 
0.701827 -0.39927 0.85 
0.740573 -0.3988 0.849 
0.773713 -0.395512 0.842 
0.816821 -0.397391 0.846 
-0.42439 -0.250474 0.535 
-0.419885 -0.270606 0.578 
-0.416059 -0.286524 0.612 
-0.414376 -0.307123 0.656 
-0.415978 -0.332873 0.711 
-0.411914 -0.358155 0.765 
-0.520403 -0.506566 1.082 
-0.473011 -0.509844 1.089 
-0.425354 -0.513589 1.097 
-0.37047 -0.508439 1.086 
-0.31779 -0.505162 1.079 
-0.267497 -0.505162 1.079 
-0.216198 -0.502821 1.074 
-0.163045 -0.493457 1.054 
-0.113377 -0.491117 1.049 
-0.0658355 -0.501417 1.071 
-0.0155295 -0.489244 1.045 
0.0509476 -0.421358 0.9 
0.0914518 -0.414804 0.886 
0.133498 -0.417145 0.891 
0.173849 -0.414336 0.885 
0.212911 -0.410122 0.876 
0.254321 -0.411058 0.878 
0.291546 -0.405909 0.867 
0.33502 -0.409654 0.875 
0.374945 -0.408718 0.873 
0.409447 -0.402631 0.86 
0.454759 -0.407313 0.87 
0.491325 -0.404036 0.863 
0.529086 -0.402163 0.859 
0.568461 -0.401695 0.858 
0.60278 -0.39795 0.85 
0.640887 -0.397013 0.848 
0.678808 -0.396077 0.846 
0.719089 -0.396545 0.847 
0.755881 -0.395141 0.844 
0.797105 -0.396077 0.846 
0.830604 -0.393268 0.84 
-0.418242 -0.260842 0.559 
-0.417444 -0.27764 0.595 
-0.415909 -0.296305 0.635 
-0.413845 -0.318236 0.682 
-0.411748 -0.342967 0.735 
-0.410359 -0.372831 0.799 
-0.497734 -0.510951 1.095 
-0.444656 -0.508618 1.09 
-0.390598 -0.504419 1.081 
-0.340842 -0.505352 1.083 
-0.290095 -0.504885 1.082 
-0.237226 -0.499752 1.071 
-0.183984 -0.490887 1.052 
-0.134052 -0.48762 1.045 
-0.0872223 -0.498353 1.068 
-0.0370218 -0.492753 1.056 
0.0310924 -0.416227 0.892 
0.072017 -0.412494 0.884 
0.113605 -0.413894 0.887 
0.153376 -0.409694 0.878 
0.1943 -0.409694 0.878 
0.235759 -0.410628 0.88 
0.272059 -0.403628 0.865 
0.312738 -0.404095 0.866 
0.356772 -0.408294 0.875 
0.393012 -0.403628 0.865 
0.433831 -0.404095 0.866 
0.473101 -0.403162 0.864 
0.510995 -0.401295 0.86 
0.549798 -0.400362 0.858 
0.589103 -0.399895 0.857 
0.621708 -0.395229 0.847 
0.660406 -0.394762 0.846 
0.701493 -0.395696 0.848 
0.740144 -0.395229 0.847 
0.77318 -0.391963 0.84 
0.816201 -0.393829 0.844 
-0.422529 -0.256253 0.551 
-0.418454 -0.270205 0.581 
-0.415623 -0.286947 0.617 
-0.415707 -0.308341 0.663 
-0.415566 -0.332989 0.716 
-0.412619 -0.359498 0.773 
-0.514883 -0.502739 1.081 
-0.467076 -0.50553 1.087 
-0.41641 -0.50553 1.087 
-0.364062 -0.503204 1.082 
-0.311601 -0.499949 1.075 
-0.261495 -0.499949 1.075 
-0.210209 -0.497158 1.069 
-0.158732 -0.492043 1.058 
-0.109419 -0.492043 1.058 
-0.0606163 -0.496228 1.067 
0.0129293 -0.410191 0.882 
0.0548974 -0.416701 0.896 
0.0951499 -0.410191 0.882 
0.137651 -0.414376 0.891 
0.179499 -0.408795 0.879 
0.219717 -0.4074 0.876 
0.25906 -0.405075 0.871 
0.298625 -0.40368 0.868 
0.341427 -0.40647 0.874 
0.379541 -0.40368 0.868 
0.416612 -0.400424 0.861 
0.459926 -0.403215 0.867 
0.495143 -0.399029 0.858 
0.534511 -0.398564 0.857 
0.574456 -0.398564 0.857 
0.607949 -0.394378 0.848 
0.648238 -0.394843 0.849 
0.68457 -0.392983 0.845 
0.723099 -0.392518 0.844 
0.758824 -0.390658 0.84 
0.802727 -0.392983 0.845 
-1.74223 -0.887631 1.915 
-0.420097 -0.261886 0.565 
-0.416761 -0.277182 0.598 
-0.415551 -0.296186 0.639 
-0.411726 -0.316117 0.682 
-0.411135 -0.342074 0.738 
-0.408897 -0.371275 0.801 
-0.49422 -0.505695 1.091 
-0.442962 -0.505231 1.09 
-0.385448 -0.498742 1.076 
-0.335607 -0.499206 1.077 
-0.286203 -0.500596 1.08 
-0.233243 -0.495034 1.068 
-0.17831 -0.481129 1.038 
-0.129678 -0.480201 1.036 
-0.0837465 -0.494107 1.066 
-0.0335487 -0.486691 1.05 
0.0339021 -0.413919 0.893 
0.0745102 -0.408357 0.881 
0.116099 -0.410211 0.885 
0.155749 -0.406039 0.876 
0.196355 -0.405576 0.875 
0.237952 -0.406966 0.878 
0.274111 -0.400013 0.863 
0.315064 -0.40094 0.865 
0.357847 -0.403722 0.871 
0.395243 -0.400477 0.864 
0.437026 -0.401867 0.867 
0.474133 -0.399086 0.861 
0.512473 -0.397696 0.858 
0.549889 -0.395842 0.854 
0.589694 -0.395842 0.854 
0.622865 -0.39167 0.845 
0.661467 -0.391207 0.844 
0.702467 -0.392134 0.846 
0.741022 -0.39167 0.845 
0.774867 -0.388889 0.839 
0.816883 -0.39028 0.842 
-0.420817 -0.254541 0.551 
-0.418082 -0.269323 0.583 
-0.415718 -0.286416 0.62 
-0.41739 -0.309052 0.669 
-0.416227 -0.333074 0.721 
-0.412339 -0.358944 0.777 
-0.513931 -0.498456 1.079 
-0.466646 -0.50169 1.086 
-0.413729 -0.498918 1.08 
-0.36339 -0.498918 1.08 
-0.310442 -0.494761 1.071 
-0.260765 -0.495222 1.072 
-0.209816 -0.492913 1.067 
-0.158432 -0.487831 1.056 
-0.109522 -0.489217 1.059 
-0.0602754 -0.490141 1.061 
0.0115721 -0.407912 0.883 
0.0532067 -0.411607 0.891 
0.0933543 -0.405602 0.878 
0.136113 -0.411146 0.89 
0.174803 -0.404678 0.876 
0.214157 -0.401906 0.87 
0.255586 -0.403292 0.873 
0.293901 -0.400058 0.866 
0.335809 -0.401906 0.87 
0.374197 -0.399597 0.865 
0.410682 -0.395901 0.857 
0.456411 -0.400982 0.868 
0.491144 -0.396363 0.858 
0.529279 -0.394977 0.855 
0.567799 -0.394053 0.853 
0.603996 -0.391743 0.848 
0.643522 -0.391743 0.848 
0.67902 -0.389433 0.843 
0.718313 -0.389433 0.843 
0.75401 -0.387585 0.839 
0.795007 -0.388509 0.841 
0.832222 -0.387585 0.839 
-0.419327 -0.265195 0.576 
-0.415647 -0.280849 0.61 
-0.417049 -0.302488 0.657 
-0.414658 -0.324587 0.705 
-0.412125 -0.35037 0.761 
-0.524691 -0.495859 1.077 
-0.476254 -0.497701 1.081 
-0.425868 -0.497701 1.081 
-0.373399 -0.494938 1.075 
-0.321187 -0.491715 1.068 
-0.272932 -0.494478 1.074 
-0.221835 -0.492176 1.069 
-0.167021 -0.477903 1.038 
-0.117611 -0.473759 1.029 
-0.0720176 -0.489874 1.064 
-0.0218342 -0.476982 1.036 
0.0450016 -0.411144 0.893 
0.0849755 -0.403317 0.876 
0.127386 -0.408382 0.887 
0.166447 -0.402857 0.875 
0.205809 -0.400094 0.869 
0.248581 -0.403777 0.877 
0.284838 -0.397332 0.863 
0.326569 -0.399173 0.867 
0.364864 -0.396871 0.862 
0.403162 -0.39503 0.858 
0.449869 -0.401015 0.871 
0.483146 -0.39503 0.858 
0.522528 -0.394569 0.857 
0.557878 -0.391346 0.85 
0.595388 -0.389965 0.847 
0.634118 -0.389505 0.846 
0.668773 -0.386742 0.84 
0.711297 -0.388584 0.844 
0.746189 -0.386282 0.839 
0.784359 -0.385822 0.838 
0.824401 -0.386282 0.839 
-0.421445 -0.260629 0.568 
-0.41625 -0.277148 0.604 
-0.415085 -0.29642 0.646 
-0.411196 -0.316609 0.69 
-0.413093 -0.345058 0.752 
-0.408205 -0.372589 0.812 
-0.486781 -0.49648 1.082 
-0.437155 -0.497398 1.084 
-0.38235 -0.491891 1.072 
-0.330523 -0.489138 1.066 
-0.282944 -0.492809 1.074 
-0.230283 -0.487303 1.062 
-0.174995 -0.471702 1.028 
-0.127203 -0.472161 1.029 
-0.0820133 -0.488679 1.065 
-0.031583 -0.476749 1.039 
0.0380644 -0.409757 0.893 
0.0782596 -0.402415 0.877 
0.119816 -0.404709 0.882 
0.159649 -0.401497 0.875 
0.199517 -0.399662 0.871 
0.241217 -0.401497 0.875 
0.278134 -0.395991 0.863 
0.319096 -0.396909 0.865 
0.357752 -0.395073 0.861 
0.396959 -0.394156 0.859 
0.442594 -0.399203 0.87 
0.47537 -0.392779 0.856 
0.51587 -0.393238 0.857 
0.550627 -0.389567 0.849 
0.588809 -0.388649 0.847 
0.62532 -0.386814 0.843 
0.661459 -0.384978 0.839 
0.70474 -0.387273 0.844 
0.739671 -0.384978 0.839 
0.775993 -0.383602 0.836 
0.818858 -0.385437 0.84 
-0.420817 -0.251972 0.551 
-0.416474 -0.270264 0.591 
-0.41525 -0.288556 0.631 
-0.414578 -0.31005 0.678 
-0.411215 -0.333829 0.73 
-0.410258 -0.363096 0.794 
-0.504523 -0.495713 1.084 
-0.456929 -0.498915 1.091 
-0.399005 -0.490226 1.072 
-0.350993 -0.49297 1.078 
-0.297399 -0.487482 1.066 
-0.24655 -0.485196 1.061 
-0.195239 -0.480623 1.051 
-0.146669 -0.481994 1.054 
-0.0983749 -0.48611 1.063 
-0.048185 -0.479708 1.049 
0.0225473 -0.403796 0.883 
0.0633434 -0.40151 0.878 
0.104267 -0.40151 0.878 
0.145356 -0.401967 0.879 
0.185055 -0.399223 0.873 
0.225229 -0.398309 0.871 
0.264605 -0.396479 0.867 
0.303961 -0.395107 0.864 
0.343037 -0.393736 0.861 
0.382279 -0.392821 0.859 
0.4233 -0.393736 0.861 
0.461279 -0.391906 0.857 
0.498884 -0.390077 0.853 
0.538011 -0.38962 0.852 
0.579079 -0.390534 0.854 
0.610913 -0.385504 0.843 
0.650206 -0.385504 0.843 
0.689498 -0.385504 0.843 
0.727061 -0.384589 0.841 
0.759883 -0.381388 0.834 
0.802587 -0.383218 0.838 
-2.94769 -1.42785 3.133 
-0.41997 -0.260687 0.572 
-0.415232 -0.280284 0.615 
-0.417994 -0.303071 0.665 
-0.416096 -0.325859 0.715 
-0.411678 -0.350469 0.769 
-0.519408 -0.489016 1.073 
-0.470708 -0.490383 1.076 
-0.418992 -0.48856 1.072 
-0.36937 -0.489016 1.073 
-0.316381 -0.484459 1.063 
-0.26834 -0.487193 1.069 
-0.218309 -0.486737 1.068 
-0.164584 -0.475344 1.043 
-0.114302 -0.468507 1.028 
-0.0681302 -0.480813 1.055 
-0.0185071 -0.469419 1.03 
0.0459734 -0.403336 0.885 
0.0860408 -0.397867 0.873 
0.128474 -0.403336 0.885 
0.167422 -0.397867 0.873 
0.206444 -0.394677 0.866 
0.248519 -0.397411 0.872 
0.286179 -0.393309 0.863 
0.32716 -0.394221 0.865 
0.364504 -0.391031 0.858 
0.403081 -0.389663 0.855 
0.449668 -0.395588 0.868 
0.481091 -0.388296 0.852 
0.522637 -0.389663 0.855 
0.556567 -0.385562 0.846 
0.594591 -0.38465 0.844 
0.63393 -0.38465 0.844 
0.668483 -0.381916 0.838 
0.710919 -0.383739 0.842 
0.743929 -0.380548 0.835 
0.782848 -0.380548 0.835 
0.825705 -0.382371 0.839 
-0.41986 -0.254348 0.56 
-0.41629 -0.272516 0.6 
-0.414213 -0.290683 0.64 
-0.411409 -0.311122 0.685 
-0.413274 -0.338828 0.746 
-0.406916 -0.364263 0.802 
-0.495187 -0.491437 1.082 
-0.446398 -0.493253 1.086 
-0.389584 -0.485532 1.069 
-0.339122 -0.484624 1.067 
-0.288033 -0.482353 1.062 
-0.23696 -0.479173 1.055 
-0.183693 -0.468727 1.032 
-0.136511 -0.471906 1.039 
-0.0898627 -0.481444 1.06 
-0.0396543 -0.471906 1.039 
0.0280349 -0.401052 0.883 
0.0685649 -0.397419 0.875 
0.109599 -0.398327 0.877 
0.14979 -0.39651 0.873 
0.189826 -0.395148 0.87 
0.229847 -0.394239 0.868 
0.269371 -0.392877 0.865 
0.308257 -0.39106 0.861 
0.34677 -0.389243 0.857 
0.385812 -0.388335 0.855 
0.430642 -0.392877 0.865 
0.464427 -0.387427 0.853 
0.504185 -0.387427 0.853 
0.540118 -0.384701 0.847 
0.58165 -0.386064 0.85 
0.613959 -0.381522 0.84 
0.652335 -0.381068 0.839 
0.695561 -0.383339 0.844 
0.730547 -0.381068 0.839 
0.762314 -0.377434 0.831 
0.806831 -0.380159 0.837 
-0.42108 -0.248046 0.548 
-0.419127 -0.265699 0.587 
-0.416461 -0.282447 0.624 
-0.416553 -0.303721 0.671 
-0.415135 -0.327258 0.723 
-0.412035 -0.353511 0.781 
-0.510828 -0.483871 1.069 
-0.463589 -0.486587 1.075 
-0.411176 -0.483871 1.069 
-0.362363 -0.485229 1.072 
-0.309774 -0.481155 1.063 
-0.260717 -0.482061 1.065 
-0.211474 -0.482966 1.067 
-0.159163 -0.475271 1.05 
-0.108753 -0.468934 1.036 
-0.0611651 -0.474366 1.048 
-0.012106 -0.466218 1.03 
0.0496456 -0.396965 0.877 
0.0899035 -0.394249 0.871 
0.132449 -0.400133 0.884 
0.170902 -0.393796 0.87 
0.209995 -0.39108 0.864 
0.250845 -0.391986 0.866 
0.289529 -0.389722 0.861 
0.32966 -0.389722 0.861 
0.367215 -0.387007 0.855 
0.406114 -0.386101 0.853 
0.449532 -0.38927 0.86 
0.483354 -0.384291 0.849 
0.524158 -0.385196 0.851 
0.559848 -0.38248 0.845 
0.597816 -0.381575 0.843 
0.636352 -0.381122 0.842 
0.671586 -0.378859 0.837 
0.711448 -0.379312 0.838 
0.745134 -0.376596 0.832 
0.785798 -0.377501 0.834 
0.826649 -0.378406 0.836 
-0.420486 -0.25351 0.562 
-0.415597 -0.2702 0.599 
-0.41486 -0.289146 0.641 
-0.41261 -0.309896 0.687 
-0.413828 -0.336961 0.747 
-0.405901 -0.360868 0.8 
-0.490461 -0.486721 1.079 
-0.43976 -0.48627 1.078 
-0.385901 -0.481759 1.068 
-0.333289 -0.4777 1.059 
-0.28366 -0.477249 1.058 
-0.234125 -0.476797 1.057 
-0.180311 -0.465069 1.031 
-0.132127 -0.464618 1.03 
-0.0863239 -0.476797 1.057 
-0.0360402 -0.463716 1.028 
0.0306741 -0.396955 0.88 
0.0712023 -0.394249 0.874 
0.11194 -0.394249 0.874 
0.151804 -0.391993 0.869 
0.192087 -0.391542 0.868 
0.231741 -0.390189 0.865 
0.270801 -0.388385 0.861 
0.309849 -0.387031 0.858 
0.349025 -0.386129 0.856 
0.387106 -0.384325 0.852 
0.43333 -0.390189 0.865 
0.465435 -0.383423 0.85 
0.506242 -0.384325 0.852 
0.540827 -0.380716 0.844 
0.581541 -0.381618 0.846 
0.615102 -0.37801 0.838 
0.65338 -0.377559 0.837 
0.695702 -0.379363 0.841 
0.730532 -0.377108 0.836 
0.763976 -0.374401 0.83 
0.807497 -0.376656 0.835 
-0.420995 -0.246793 0.549 
-0.418413 -0.263426 0.586 
-0.417128 -0.280957 0.625 
-0.416553 -0.301636 0.671 
-0.415135 -0.325012 0.723 
-0.412035 -0.351084 0.781 
-0.505608 -0.478751 1.065 
-0.458537 -0.481449 1.071 
-0.407472 -0.4801 1.068 
-0.358362 -0.480999 1.07 
-0.305895 -0.476953 1.061 
-0.255716 -0.475605 1.058 
-0.207573 -0.478302 1.064 
-0.155307 -0.47021 1.046 
-0.105738 -0.466614 1.038 
-0.0577981 -0.47021 1.046 
0.0128854 -0.395139 0.879 
0.0534882 -0.392441 0.873 
0.0939632 -0.391542 0.871 
0.135179 -0.39334 0.875 
0.174756 -0.390643 0.869 
0.213279 -0.387047 0.861 
0.25341 -0.387047 0.861 
0.292519 -0.385698 0.858 
0.332123 -0.385249 0.857 
0.370331 -0.383451 0.853 
0.410571 -0.3839 0.854 
0.450376 -0.3839 0.854 
0.486163 -0.380753 0.847 
0.526263 -0.381203 0.848 
0.564454 -0.380304 0.846 
0.600317 -0.378056 0.841 
0.638756 -0.377607 0.84 
0.673874 -0.375359 0.835 
0.712793 -0.375359 0.835 
0.746311 -0.372662 0.829 
0.786845 -0.373561 0.831 
0.827565 -0.37446 0.833 
-0.418342 -0.253108 0.565 
-0.415312 -0.270579 0.604 
-0.417554 -0.29253 0.653 
-0.412609 -0.311793 0.696 
-0.412941 -0.338672 0.756 
-0.523809 -0.477097 1.065 
-0.478176 -0.481129 1.074 
-0.425326 -0.477993 1.067 
-0.375241 -0.477545 1.066 
-0.323111 -0.473961 1.058 
-0.274574 -0.475305 1.061 
-0.226181 -0.477545 1.066 
-0.170369 -0.46097 1.029 
-0.121336 -0.456938 1.02 
-0.0759641 -0.470377 1.05 
-0.0261997 -0.456042 1.018 
0.0386566 -0.391981 0.875 
0.0789867 -0.389741 0.87 
0.119812 -0.390637 0.872 
0.159721 -0.388845 0.868 
0.199486 -0.387501 0.865 
0.238973 -0.386157 0.862 
0.27857 -0.379885 0.848 
0.322596 -0.385261 0.86 
0.360573 -0.383021 0.855 
0.399019 -0.381677 0.852 
0.442851 -0.385261 0.86 
0.475074 -0.37899 0.846 
0.518155 -0.381677 0.852 
0.55001 -0.376302 0.84 
0.589163 -0.376302 0.84 
0.626819 -0.375406 0.838 
0.6627 -0.373614 0.834 
0.702415 -0.374062 0.835 
0.737783 -0.37227 0.831 
0.774647 -0.371374 0.829 
0.817211 -0.373166 0.833 
-0.41986 -0.249998 0.56 
-0.414419 -0.264283 0.592 
-0.41524 -0.284372 0.637 
-0.415207 -0.306247 0.686 
-0.412841 -0.329908 0.739 
-0.40707 -0.354907 0.795 
-0.491983 -0.479906 1.075 
-0.440233 -0.478121 1.071 
-0.388126 -0.475442 1.065 
-0.336579 -0.472764 1.059 
-0.285863 -0.470531 1.054 
-0.236736 -0.470531 1.054 
-0.184405 -0.462496 1.036 
-0.133468 -0.458924 1.028 
-0.0873836 -0.468746 1.05 
-0.0373811 -0.455799 1.021 
0.0305347 -0.391068 0.876 
0.0711209 -0.389729 0.873 
0.111299 -0.387943 0.869 
0.151105 -0.386157 0.865 
0.191644 -0.386604 0.866 
0.231205 -0.385264 0.863 
0.267655 -0.379907 0.851 
0.308404 -0.381247 0.854 
0.348209 -0.381247 0.854 
0.386197 -0.379461 0.85 
0.430826 -0.383925 0.86 
0.46434 -0.378568 0.848 
0.503865 -0.378568 0.848 
0.538905 -0.375443 0.841 
0.579479 -0.376336 0.843 
0.612899 -0.372764 0.835 
0.6526 -0.373211 0.836 
0.690739 -0.372764 0.835 
0.727911 -0.371872 0.833 
0.761214 -0.369193 0.827 
0.803629 -0.370979 0.831 
-0.419665 -0.246458 0.554 
-0.415479 -0.261139 0.587 
-0.41655 -0.280269 0.63 
-0.416071 -0.301178 0.677 
-0.41405 -0.324311 0.729 
-0.41031 -0.350113 0.787 
-0.49568 -0.473787 1.065 
-0.446459 -0.474232 1.066 
-0.396028 -0.473343 1.064 
-0.345457 -0.472008 1.061 
-0.29433 -0.469339 1.055 
-0.243994 -0.467114 1.05 
-0.194682 -0.466225 1.048 
-0.14486 -0.463111 1.041 
-0.0952675 -0.46578 1.047 
-0.0458008 -0.459107 1.032 
0.0277809 -0.389262 0.875 
0.0683298 -0.387927 0.872 
0.108474 -0.386148 0.868 
0.148246 -0.384368 0.864 
0.188735 -0.384813 0.865 
0.228788 -0.384368 0.864 
0.2647 -0.37814 0.85 
0.305034 -0.37903 0.852 
0.345556 -0.37992 0.854 
0.384007 -0.378585 0.851 
0.42666 -0.381254 0.857 
0.461704 -0.37725 0.848 
0.500639 -0.376806 0.847 
0.536292 -0.374136 0.841 
0.575491 -0.374136 0.841 
0.609574 -0.371022 0.834 
0.650002 -0.371912 0.836 
0.686496 -0.370577 0.833 
0.724451 -0.370133 0.832 
0.75681 -0.367018 0.825 
0.799119 -0.368798 0.829 
-0.419865 -0.244711 0.552 
-0.416592 -0.259784 0.586 
-0.416515 -0.27796 0.627 
-0.415704 -0.298352 0.673 
-0.414031 -0.321405 0.725 
-0.411706 -0.348004 0.785 
-0.499468 -0.469473 1.059 
-0.450958 -0.47036 1.061 
-0.40264 -0.471689 1.064 
-0.352051 -0.47036 1.061 
-0.301742 -0.46903 1.058 
-0.250281 -0.46504 1.049 
-0.202347 -0.467256 1.054 
-0.151039 -0.460606 1.039 
-0.10271 -0.46105 1.04 
-0.0542349 -0.46105 1.04 
0.0223685 -0.388346 0.876 
0.0628384 -0.386129 0.871 
0.102961 -0.384356 0.867 
0.142711 -0.382583 0.863 
0.183147 -0.383026 0.864 
0.222901 -0.382139 0.862 
0.259722 -0.377263 0.851 
0.299388 -0.377263 0.851 
0.339451 -0.377706 0.852 
0.378718 -0.377263 0.851 
0.419859 -0.378593 0.854 
0.456973 -0.376376 0.849 
0.49479 -0.375046 0.846 
0.532328 -0.373716 0.843 
0.569586 -0.372386 0.84 
0.604391 -0.369727 0.834 
0.644806 -0.370613 0.836 
0.678865 -0.367953 0.83 
0.717552 -0.367953 0.83 
0.74986 -0.36485 0.823 
0.791094 -0.36618 0.826 
-0.418411 -0.237669 0.538 
-0.419712 -0.255781 0.579 
-0.418499 -0.272568 0.617 
-0.415007 -0.290239 0.657 
-0.412467 -0.311443 0.705 
-0.410837 -0.337066 0.763 
-0.514762 -0.468269 1.06 
-0.467111 -0.470036 1.064 
-0.41791 -0.470478 1.065 
-0.367233 -0.469153 1.062 
-0.318032 -0.469595 1.063 
-0.266465 -0.46606 1.055 
-0.218115 -0.467827 1.059 
-0.163974 -0.454575 1.029 
-0.115448 -0.452366 1.024 
-0.069108 -0.461643 1.045 
0.0100847 -0.38566 0.873 
0.0504847 -0.383451 0.868 
0.0909424 -0.383451 0.868 
0.130946 -0.382125 0.865 
0.171066 -0.381684 0.864 
0.209625 -0.378591 0.857 
0.248405 -0.376824 0.853 
0.285123 -0.372848 0.844 
0.327538 -0.376382 0.852 
0.366388 -0.375499 0.85 
0.40744 -0.376824 0.853 
0.444577 -0.374615 0.848 
0.481248 -0.372407 0.843 
0.52548 -0.375941 0.851 
0.55452 -0.368872 0.835 
0.59415 -0.369314 0.836 
0.632359 -0.368872 0.835 
0.667259 -0.366664 0.83 
0.705095 -0.366222 0.829 
0.739249 -0.364013 0.824 
0.777656 -0.364013 0.824 
0.818044 -0.364897 0.826 
-0.41986 -0.246517 0.56 
-0.414149 -0.259284 0.589 
-0.416239 -0.279093 0.634 
-0.415355 -0.299783 0.681 
-0.413468 -0.323114 0.734 
-0.410775 -0.349967 0.795 
-0.49217 -0.467063 1.061 
-0.441881 -0.466182 1.059 
-0.393263 -0.467063 1.061 
-0.342513 -0.465302 1.057 
-0.292136 -0.463541 1.053 
-0.241209 -0.460019 1.045 
-0.191396 -0.457378 1.039 
-0.140401 -0.454297 1.032 
-0.0931041 -0.458258 1.041 
-0.0435978 -0.448134 1.018 
0.0290071 -0.383423 0.871 
0.0695248 -0.382983 0.87 
0.10957 -0.381222 0.866 
0.148895 -0.37858 0.86 
0.189639 -0.379901 0.863 
0.230397 -0.380782 0.865 
0.26383 -0.371097 0.843 
0.305279 -0.373738 0.849 
0.344852 -0.373738 0.849 
0.384877 -0.374178 0.85 
0.426493 -0.375939 0.854 
0.460838 -0.371537 0.844 
0.501362 -0.372417 0.846 
0.53632 -0.369336 0.839 
0.575426 -0.369336 0.839 
0.608672 -0.365814 0.831 
0.649743 -0.367135 0.834 
0.683662 -0.364494 0.828 
0.722255 -0.364494 0.828 
0.755335 -0.361852 0.822 
0.796545 -0.363173 0.825 
-0.417688 -0.23512 0.536 
-0.418348 -0.250473 0.571 
-0.417118 -0.266703 0.608 
-0.415635 -0.285126 0.65 
-0.412016 -0.304866 0.695 
-0.41021 -0.329431 0.751 
-0.526623 -0.46673 1.064 
-0.477478 -0.467169 1.065 
-0.426633 -0.465853 1.062 
-0.377133 -0.465853 1.062 
-0.326707 -0.464537 1.059 
-0.275776 -0.461905 1.053 
-0.226049 -0.460589 1.05 
-0.172048 -0.447429 1.02 
-0.123895 -0.445236 1.015 
-0.0784723 -0.456202 1.04 
-0.0290457 -0.441727 1.007 
0.0410445 -0.380753 0.868 
0.0813145 -0.379876 0.866 
0.121538 -0.379438 0.865 
0.160921 -0.377244 0.86 
0.200772 -0.376806 0.859 
0.24053 -0.376367 0.858 
0.274636 -0.368471 0.84 
0.318645 -0.374174 0.853 
0.356723 -0.372419 0.849 
0.396762 -0.372858 0.85 
0.436894 -0.373296 0.851 
0.47264 -0.370226 0.844 
0.515618 -0.372858 0.85 
0.543479 -0.364962 0.832 
0.585058 -0.366717 0.836 
0.622532 -0.365839 0.834 
0.658232 -0.364085 0.83 
0.69524 -0.363207 0.828 
0.73206 -0.36233 0.826 
0.770561 -0.36233 0.826 
0.805143 -0.360575 0.822 
-0.419377 -0.239532 0.548 
-0.417502 -0.256142 0.586 
-0.416231 -0.275812 0.631 
-0.414406 -0.295481 0.676 
-0.413484 -0.319085 0.73 
-0.412206 -0.346622 0.793 
-0.493835 -0.460706 1.054 
-0.44513 -0.461143 1.055 
-0.398208 -0.463766 1.061 
-0.346125 -0.460269 1.053 
-0.297044 -0.460269 1.053 
-0.245373 -0.455461 1.042 
-0.196427 -0.454587 1.04 
-0.147099 -0.451964 1.034 
-0.0992867 -0.453712 1.038 
-0.0503167 -0.448467 1.026 
0.0195119 -0.380279 0.87 
0.0597177 -0.378094 0.865 
0.100151 -0.378531 0.866 
0.139704 -0.376345 0.861 
0.179418 -0.375471 0.859 
0.219201 -0.375034 0.858 
0.255568 -0.369789 0.846 
0.295349 -0.370226 0.847 
0.334827 -0.370226 0.847 
0.374306 -0.370226 0.847 
0.414762 -0.3711 0.849 
0.450589 -0.36804 0.842 
0.490998 -0.368914 0.844 
0.530337 -0.368914 0.844 
0.564276 -0.365418 0.836 
0.598913 -0.362795 0.83 
0.640672 -0.364543 0.834 
0.673027 -0.361047 0.826 
0.709804 -0.360172 0.824 
0.743671 -0.357987 0.819 
0.784709 -0.359298 0.822 
-0.420357 -0.231712 0.532 
-0.418798 -0.247392 0.568 
-0.417541 -0.268734 0.617 
-0.412096 -0.284849 0.654 
-0.41429 -0.30924 0.71 
-0.411262 -0.33363 0.766 
-0.512334 -0.459504 1.055 
-0.464916 -0.461246 1.059 
-0.416733 -0.462553 1.062 
-0.364467 -0.459068 1.054 
-0.317135 -0.461682 1.06 
-0.264697 -0.456455 1.048 
-0.215025 -0.454713 1.044 
-0.162858 -0.445131 1.022 
-0.114884 -0.443824 1.019 
-0.0687112 -0.452535 1.039 
-0.0197365 -0.44034 1.011 
0.0436409 -0.377185 0.866 
0.0973478 -0.37675 0.865 
0.137188 -0.375443 0.862 
0.176543 -0.373701 0.858 
0.215778 -0.372394 0.855 
0.253238 -0.36891 0.847 
0.292025 -0.368039 0.845 
0.332196 -0.36891 0.847 
0.371236 -0.368474 0.846 
0.411639 -0.369345 0.848 
0.446908 -0.365861 0.84 
0.487797 -0.367168 0.843 
0.52834 -0.368039 0.845 
0.561007 -0.363683 0.835 
0.596334 -0.361505 0.83 
0.638081 -0.363248 0.834 
0.67046 -0.359763 0.826 
0.706385 -0.358457 0.823 
0.740221 -0.356279 0.818 
0.782154 -0.358021 0.822 
-0.421184 -0.230885 0.532 
-0.42023 -0.244773 0.564 
-0.417375 -0.263435 0.607 
-0.415363 -0.281229 0.648 
-0.412501 -0.301193 0.694 
-0.409186 -0.324194 0.747 
-0.527283 -0.460903 1.062 
-0.476884 -0.460035 1.06 
-0.425057 -0.457431 1.054 
-0.377 -0.458733 1.057 
-0.327733 -0.458733 1.057 
-0.276885 -0.456129 1.051 
-0.225729 -0.451789 1.041 
-0.172441 -0.439637 1.013 
-0.124854 -0.438335 1.01 
-0.0797801 -0.449619 1.036 
-0.0305191 -0.435731 1.004 
0.032915 -0.376274 0.867 
0.0972352 -0.374972 0.864 
0.13687 -0.373236 0.86 
0.176132 -0.3715 0.856 
0.215525 -0.370632 0.854 
0.252939 -0.36716 0.846 
0.292025 -0.366726 0.845 
0.332196 -0.367594 0.847 
0.370797 -0.366726 0.845 
0.411153 -0.367594 0.847 
0.446376 -0.364122 0.839 
0.486639 -0.36499 0.841 
0.527089 -0.365858 0.843 
0.561007 -0.362386 0.835 
0.596334 -0.360216 0.83 
0.638081 -0.361952 0.834 
0.669649 -0.358046 0.825 
0.704669 -0.35631 0.821 
0.740221 -0.355008 0.818 
0.782154 -0.356744 0.822 
-0.420278 -0.230924 0.534 
-0.419822 -0.245194 0.567 
-0.417691 -0.265087 0.613 
-0.41324 -0.281519 0.651 
-0.412894 -0.303574 0.702 
-0.408876 -0.326493 0.755 
-0.515612 -0.456226 1.055 
-0.466881 -0.456658 1.056 
-0.418056 -0.457091 1.057 
-0.367742 -0.455793 1.054 
-0.319521 -0.457091 1.057 
-0.267953 -0.453199 1.048 
-0.217433 -0.449739 1.04 
-0.165222 -0.439793 1.017 
-0.117124 -0.437198 1.011 
-0.0715936 -0.447144 1.034 
-0.0227875 -0.435469 1.007 
0.0395587 -0.374062 0.865 
0.104067 -0.374062 0.865 
0.142716 -0.369737 0.855 
0.182141 -0.368873 0.853 
0.22294 -0.370602 0.857 
0.258897 -0.364981 0.844 
0.29859 -0.365413 0.845 
0.336776 -0.364116 0.842 
0.376915 -0.364981 0.844 
0.41576 -0.364548 0.843 
0.451274 -0.361521 0.836 
0.492 -0.362818 0.839 
0.527941 -0.360656 0.834 
0.568173 -0.361521 0.836 
0.600603 -0.357629 0.827 
0.642241 -0.359359 0.831 
0.674419 -0.355899 0.823 
0.711047 -0.355034 0.821 
0.74475 -0.352872 0.816 
0.787581 -0.355034 0.821 
-0.419247 -0.231818 0.538 
-0.418348 -0.246037 0.571 
-0.416971 -0.266719 0.619 
-0.412572 -0.283524 0.658 
-0.413824 -0.307223 0.713 
-0.413152 -0.333507 0.774 
-0.505012 -0.452432 1.05 
-0.457808 -0.454156 1.054 
-0.410232 -0.455879 1.058 
-0.356825 -0.450709 1.046 
-0.310427 -0.454156 1.054 
-0.258077 -0.448554 1.041 
-0.208549 -0.4464 1.036 
-0.15825 -0.440798 1.023 
-0.110243 -0.439505 1.02 
-0.0632537 -0.443383 1.029 
-0.0150242 -0.435627 1.011 
0.0473471 -0.370563 0.86 
0.115217 -0.374011 0.868 
0.153164 -0.367978 0.854 
0.193421 -0.36884 0.856 
0.233319 -0.36884 0.856 
0.26843 -0.362377 0.841 
0.309824 -0.364962 0.847 
0.347241 -0.362807 0.842 
0.386946 -0.363238 0.843 
0.42371 -0.361084 0.838 
0.46277 -0.361084 0.838 
0.504823 -0.363238 0.843 
0.533789 -0.356344 0.827 
0.57718 -0.35936 0.834 
0.612359 -0.357206 0.829 
0.648643 -0.355913 0.826 
0.682984 -0.353759 0.821 
0.720373 -0.353328 0.82 
0.759518 -0.353759 0.821 
0.79487 -0.352466 0.818 
-0.419377 -0.235275 0.548 
-0.419517 -0.25116 0.585 
-0.41743 -0.267904 0.624 
-0.413239 -0.285078 0.664 
-0.413956 -0.308691 0.719 
-0.414307 -0.336169 0.783 
-0.497537 -0.449942 1.048 
-0.450402 -0.451659 1.052 
-0.402894 -0.453377 1.056 
-0.349654 -0.448225 1.044 
-0.302435 -0.450371 1.049 
-0.250399 -0.44479 1.036 
-0.20133 -0.443073 1.032 
-0.152783 -0.441785 1.029 
-0.104617 -0.440926 1.027 
-0.0566377 -0.440067 1.025 
0.0126801 -0.371374 0.865 
0.0525692 -0.368369 0.858 
0.116297 -0.371803 0.866 
0.15431 -0.366222 0.853 
0.194751 -0.36751 0.856 
0.233553 -0.365793 0.852 
0.269416 -0.360641 0.84 
0.31114 -0.363646 0.847 
0.348135 -0.36107 0.841 
0.387335 -0.36107 0.841 
0.424505 -0.359353 0.837 
0.463518 -0.359353 0.837 
0.504932 -0.36107 0.841 
0.53378 -0.354201 0.825 
0.577782 -0.357635 0.833 
0.613647 -0.355918 0.829 
0.648353 -0.353771 0.824 
0.683426 -0.352054 0.82 
0.720767 -0.351625 0.819 
0.76172 -0.352913 0.822 
0.795168 -0.350766 0.817 
-0.420526 -0.23699 0.554 
-0.418927 -0.251535 0.588 
-0.417529 -0.269502 0.63 
-0.413426 -0.287041 0.671 
-0.414613 -0.311424 0.728 
-0.41467 -0.33923 0.793 
-0.490087 -0.447458 1.046 
-0.442598 -0.448742 1.049 
-0.394455 -0.449597 1.051 
-0.34218 -0.445319 1.041 
-0.294505 -0.446603 1.044 
-0.243254 -0.441897 1.033 
-0.193217 -0.437619 1.023 
-0.146103 -0.43933 1.027 
-0.0984258 -0.440186 1.029 
-0.0500715 -0.436764 1.021 
0.0180141 -0.369174 0.863 
0.0578339 -0.366608 0.857 
0.119917 -0.369174 0.863 
0.158471 -0.365324 0.854 
0.198509 -0.365752 0.855 
0.236688 -0.363186 0.849 
0.273657 -0.359763 0.841 
0.315832 -0.363186 0.849 
0.352474 -0.360191 0.842 
0.390789 -0.359336 0.84 
0.427383 -0.357197 0.835 
0.467978 -0.35848 0.838 
0.508247 -0.359336 0.84 
0.537625 -0.352919 0.825 
0.580268 -0.355485 0.831 
0.619001 -0.355485 0.831 
0.650611 -0.351635 0.822 
0.687248 -0.35078 0.82 
0.724584 -0.350352 0.819 
0.767415 -0.352491 0.824 
0.79702 -0.348641 0.815 
-0.420961 -0.237834 0.558 
-0.416894 -0.251048 0.589 
-0.417872 -0.269375 0.632 
-0.414227 -0.287277 0.674 
-0.414618 -0.311145 0.73 
-0.414481 -0.33885 0.795 
-0.490087 -0.445833 1.046 
-0.442176 -0.446686 1.048 
-0.393704 -0.447112 1.049 
-0.341523 -0.44285 1.039 
-0.293941 -0.444128 1.042 
-0.243018 -0.439866 1.032 
-0.192839 -0.435177 1.021 
-0.145819 -0.436882 1.025 
-0.0984258 -0.438587 1.029 
-0.0500715 -0.435177 1.021 
0.0179932 -0.367407 0.862 
0.0576989 -0.364424 0.855 
0.115626 -0.366981 0.861 
0.154129 -0.363145 0.852 
0.194296 -0.363998 0.854 
0.232456 -0.36144 0.848 
0.269416 -0.35803 0.84 
0.310405 -0.360162 0.845 
0.347721 -0.35803 0.84 
0.386413 -0.357604 0.839 
0.422984 -0.355473 0.834 
0.46241 -0.355899 0.835 
0.503131 -0.357178 0.838 
0.53378 -0.351637 0.825 
0.576395 -0.354194 0.831 
0.612167 -0.352489 0.827 
0.646779 -0.350358 0.822 
0.682593 -0.34908 0.819 
0.720767 -0.34908 0.819 
0.757087 -0.348227 0.817 
0.793221 -0.347375 0.815 
-0.418436 -0.233146 0.549 
-0.417178 -0.251406 0.592 
-0.415909 -0.269667 0.635 
-0.415513 -0.290052 0.683 
-0.413452 -0.312559 0.736 
-0.411601 -0.339314 0.799 
-0.481961 -0.444208 1.046 
-0.432378 -0.443359 1.044 
-0.384452 -0.444208 1.046 
-0.332489 -0.439961 1.036 
-0.285023 -0.441235 1.039 
-0.235001 -0.438263 1.032 
-0.18201 -0.426796 1.005 
-0.136242 -0.430194 1.013 
-0.09052 -0.437413 1.03 
-0.0415209 -0.427221 1.006 
0.0259987 -0.365644 0.861 
0.0709858 -0.321053 0.756 
0.124119 -0.363095 0.855 
0.163395 -0.361821 0.852 
0.203345 -0.362246 0.853 
0.241394 -0.359698 0.847 
0.279215 -0.357575 0.842 
0.320352 -0.359698 0.847 
0.357282 -0.35715 0.841 
0.39601 -0.356725 0.84 
0.431536 -0.353753 0.833 
0.470927 -0.354177 0.834 
0.5098 -0.354177 0.834 
0.544068 -0.351205 0.827 
0.583319 -0.351629 0.828 
0.625668 -0.353753 0.833 
0.654124 -0.348232 0.82 
0.6915 -0.347807 0.819 
0.729674 -0.347807 0.819 
0.767848 -0.347807 0.819 
0.801101 -0.345684 0.814 
-0.42172 -0.239486 0.566 
-0.416527 -0.253448 0.599 
-0.415207 -0.270796 0.64 
-0.415484 -0.291952 0.69 
-0.412211 -0.313955 0.742 
-0.407144 -0.338495 0.8 
-0.475717 -0.441314 1.043 
-0.427103 -0.441314 1.043 
-0.378851 -0.441737 1.044 
-0.327976 -0.438775 1.037 
-0.280181 -0.439621 1.039 
-0.230191 -0.436659 1.032 
-0.176443 -0.423119 1 
-0.130612 -0.425658 1.006 
-0.0855527 -0.434967 1.028 
-0.0364658 -0.421427 0.996 
0.029977 -0.363883 0.86 
0.073238 -0.319455 0.755 
0.126479 -0.360921 0.853 
0.165848 -0.360075 0.851 
0.205513 -0.360075 0.851 
0.24345 -0.357536 0.845 
0.282166 -0.35669 0.843 
0.321458 -0.35669 0.843 
0.359895 -0.355843 0.841 
0.39862 -0.35542 0.84 
0.434124 -0.352458 0.833 
0.471815 -0.351612 0.831 
0.510548 -0.351612 0.831 
0.547299 -0.350343 0.828 
0.583769 -0.349073 0.825 
0.628256 -0.352458 0.833 
0.655871 -0.346535 0.819 
0.694045 -0.346535 0.819 
0.730431 -0.345689 0.817 
0.767571 -0.345265 0.816 
0.804617 -0.344842 0.815 
-0.421584 -0.239028 0.567 
-0.41629 -0.252939 0.6 
-0.415507 -0.270645 0.642 
-0.415012 -0.291302 0.691 
-0.412166 -0.313645 0.744 
-0.52259 -0.440958 1.046 
-0.47157 -0.43885 1.041 
-0.423456 -0.439271 1.042 
-0.375607 -0.440115 1.044 
-0.32538 -0.438007 1.039 
-0.277219 -0.438428 1.04 
-0.226764 -0.434634 1.031 
-0.172989 -0.420723 0.998 
-0.126979 -0.422409 1.002 
-0.0822783 -0.432948 1.027 
-0.0331698 -0.41735 0.99 
0.0325354 -0.361282 0.857 
0.0743125 -0.317861 0.754 
0.127504 -0.358752 0.851 
0.166777 -0.357909 0.849 
0.206592 -0.358331 0.85 
0.244763 -0.356223 0.845 
0.283476 -0.35538 0.843 
0.322002 -0.354537 0.841 
0.360772 -0.354115 0.84 
0.398973 -0.353272 0.838 
0.434896 -0.350743 0.832 
0.471968 -0.349478 0.829 
0.511224 -0.3499 0.83 
0.548585 -0.349056 0.828 
0.583633 -0.346949 0.823 
0.628039 -0.350321 0.831 
0.657144 -0.345262 0.819 
0.695317 -0.345262 0.819 
0.730805 -0.343998 0.816 
0.766012 -0.342733 0.813 
0.805884 -0.343576 0.815 
-0.42172 -0.237727 0.566 
-0.416293 -0.250327 0.596 
-0.414588 -0.267128 0.636 
-0.415812 -0.288548 0.687 
-0.414516 -0.311649 0.742 
-0.409118 -0.33559 0.799 
-0.476662 -0.435972 1.038 
-0.430344 -0.438073 1.043 
-0.380631 -0.436812 1.04 
-0.329921 -0.433872 1.033 
-0.282318 -0.434712 1.035 
-0.233624 -0.433872 1.033 
-0.17991 -0.420852 1.002 
-0.133871 -0.422952 1.007 
-0.0886608 -0.431352 1.027 
-0.0378605 -0.416652 0.992 
0.0286075 -0.36079 0.859 
0.0707981 -0.316689 0.754 
0.123248 -0.35659 0.849 
0.16282 -0.35659 0.849 
0.202153 -0.35617 0.848 
0.240824 -0.35491 0.845 
0.278883 -0.35323 0.841 
0.318083 -0.35323 0.841 
0.356432 -0.35239 0.839 
0.393652 -0.35071 0.835 
0.429464 -0.34819 0.829 
0.468104 -0.34819 0.829 
0.506744 -0.34819 0.829 
0.54341 -0.34693 0.826 
0.579796 -0.34567 0.823 
0.621912 -0.34777 0.828 
0.652529 -0.34357 0.818 
0.690656 -0.34357 0.818 
0.72611 -0.34231 0.815 
0.760347 -0.34063 0.811 
0.800117 -0.34147 0.813 
-0.416062 -0.228897 0.547 
-0.416686 -0.24689 0.59 
-0.41689 -0.264466 0.632 
-0.415019 -0.283296 0.677 
-0.415749 -0.307148 0.734 
-0.412726 -0.332256 0.794 
-0.486807 -0.434778 1.039 
-0.440067 -0.436452 1.043 
-0.389576 -0.43436 1.038 
-0.338565 -0.431012 1.03 
-0.292248 -0.433523 1.036 
-0.242783 -0.431431 1.031 
-0.19095 -0.423061 1.011 
-0.144396 -0.424735 1.015 
-0.0982345 -0.429757 1.027 
-0.049532 -0.422643 1.01 
0.0166347 -0.360293 0.861 
0.0561068 -0.356108 0.851 
0.113746 -0.354434 0.847 
0.153767 -0.35569 0.85 
0.192021 -0.353179 0.844 
0.23136 -0.353179 0.844 
0.268775 -0.350668 0.838 
0.309671 -0.35276 0.843 
0.345652 -0.349413 0.835 
0.384111 -0.348994 0.834 
0.419941 -0.346483 0.828 
0.459641 -0.34732 0.83 
0.497728 -0.346902 0.829 
0.532485 -0.344391 0.823 
0.569459 -0.343554 0.821 
0.608466 -0.343973 0.822 
0.643632 -0.342299 0.818 
0.679259 -0.341044 0.815 
0.717246 -0.341044 0.815 
0.750601 -0.338951 0.81 
0.790301 -0.339788 0.812 
-0.418925 -0.226379 0.543 
-0.417502 -0.244306 0.586 
-0.418155 -0.261816 0.628 
-0.414891 -0.279326 0.67 
-0.414012 -0.301422 0.723 
-0.411874 -0.326436 0.783 
-0.493069 -0.434415 1.042 
-0.445355 -0.435248 1.044 
-0.394414 -0.432747 1.038 
-0.343032 -0.428995 1.029 
-0.296791 -0.431496 1.035 
-0.246868 -0.428578 1.028 
-0.195662 -0.421491 1.011 
-0.149127 -0.423158 1.015 
-0.10252 -0.426077 1.022 
-0.0545082 -0.423158 1.015 
0.0126362 -0.359372 0.862 
0.0521403 -0.354786 0.851 
0.108482 -0.353118 0.847 
0.148659 -0.354786 0.851 
0.186112 -0.350617 0.841 
0.225847 -0.351451 0.843 
0.263567 -0.349366 0.838 
0.304432 -0.351451 0.843 
0.339647 -0.347282 0.833 
0.378473 -0.347282 0.833 
0.415296 -0.345614 0.829 
0.455578 -0.346865 0.832 
0.491387 -0.34478 0.827 
0.527371 -0.343113 0.823 
0.563669 -0.341862 0.82 
0.601155 -0.341445 0.819 
0.638548 -0.341028 0.818 
0.67254 -0.338943 0.813 
0.712181 -0.339777 0.815 
0.745567 -0.337693 0.81 
0.784288 -0.33811 0.811 
-0.419967 -0.22429 0.54 
-0.417699 -0.24298 0.585 
-0.417179 -0.26084 0.628 
-0.414468 -0.2787 0.671 
-0.414031 -0.301129 0.725 
-0.411532 -0.326881 0.787 
-0.487951 -0.431134 1.038 
-0.441687 -0.433211 1.043 
-0.390058 -0.429888 1.035 
-0.339174 -0.426565 1.027 
-0.293574 -0.429888 1.035 
-0.244148 -0.427812 1.03 
-0.192521 -0.41992 1.011 
-0.145685 -0.42075 1.013 
-0.0996357 -0.425735 1.025 
-0.0508989 -0.417843 1.006 
0.0153147 -0.358033 0.862 
0.0546559 -0.352633 0.849 
0.110982 -0.351387 0.846 
0.151126 -0.353048 0.85 
0.188725 -0.34931 0.841 
0.228466 -0.350141 0.843 
0.266171 -0.348064 0.838 
0.306323 -0.34931 0.841 
0.342646 -0.346403 0.834 
0.380147 -0.345157 0.831 
0.416864 -0.343495 0.827 
0.457062 -0.344741 0.83 
0.49336 -0.34308 0.826 
0.529284 -0.341418 0.822 
0.564836 -0.339757 0.818 
0.6037 -0.340172 0.819 
0.640307 -0.339342 0.817 
0.675066 -0.33768 0.813 
0.713837 -0.338096 0.814 
0.74716 -0.336019 0.809 
0.786808 -0.33685 0.811 
-0.418006 -0.225106 0.544 
-0.416187 -0.243313 0.588 
-0.41655 -0.260692 0.63 
-0.414841 -0.279313 0.675 
-0.415186 -0.302486 0.731 
-0.410456 -0.327727 0.792 
-0.479181 -0.427453 1.033 
-0.433953 -0.430349 1.04 
-0.383255 -0.427866 1.034 
-0.332467 -0.424556 1.026 
-0.286865 -0.427866 1.034 
-0.23867 -0.427866 1.034 
-0.185869 -0.417521 1.009 
-0.138564 -0.416694 1.007 
-0.0930837 -0.423315 1.023 
-0.0423558 -0.409245 0.989 
0.022011 -0.356693 0.862 
0.0658491 -0.310762 0.751 
0.117415 -0.349659 0.845 
0.157172 -0.350486 0.847 
0.195258 -0.348004 0.841 
0.235015 -0.348831 0.843 
0.272681 -0.346762 0.838 
0.312112 -0.347176 0.839 
0.349125 -0.345107 0.834 
0.386137 -0.343452 0.83 
0.421753 -0.340969 0.824 
0.460718 -0.341383 0.825 
0.499171 -0.341383 0.825 
0.535018 -0.339728 0.821 
0.570492 -0.338072 0.817 
0.610807 -0.339314 0.82 
0.644279 -0.336831 0.814 
0.681382 -0.336417 0.813 
0.716622 -0.335176 0.81 
0.752513 -0.334348 0.808 
0.794086 -0.336003 0.812 
-0.416998 -0.225085 0.546 
-0.416187 -0.242399 0.588 
-0.415889 -0.259301 0.629 
-0.414841 -0.278264 0.675 
-0.414618 -0.300938 0.73 
-0.410127 -0.32526 0.789 
-0.479181 -0.425848 1.033 
-0.433953 -0.428733 1.04 
-0.382884 -0.425848 1.033 
-0.332143 -0.42255 1.025 
-0.286587 -0.425848 1.033 
-0.23867 -0.42626 1.034 
-0.186054 -0.416366 1.01 
-0.138427 -0.414717 1.006 
-0.0929017 -0.420901 1.021 
-0.0439368 -0.408121 0.99 
0.0206958 -0.355766 0.863 
0.0645962 -0.309183 0.75 
0.11479 -0.348346 0.845 
0.15454 -0.34917 0.847 
0.192416 -0.346285 0.84 
0.231844 -0.346697 0.841 
0.269754 -0.345048 0.837 
0.309505 -0.345872 0.839 
0.346118 -0.343399 0.833 
0.383096 -0.34175 0.829 
0.419192 -0.339689 0.824 
0.459265 -0.340925 0.827 
0.496006 -0.339689 0.824 
0.531819 -0.33804 0.82 
0.567953 -0.336803 0.817 
0.606776 -0.337215 0.818 
0.641749 -0.335566 0.814 
0.67802 -0.334742 0.812 
0.714105 -0.333917 0.81 
0.750931 -0.333505 0.809 
0.790588 -0.33433 0.811 
-0.418775 -0.223826 0.545 
-0.416985 -0.239843 0.584 
-0.416461 -0.256271 0.624 
-0.415511 -0.275573 0.671 
-0.413439 -0.296518 0.722 
-0.409084 -0.320338 0.78 
-0.486071 -0.424653 1.034 
-0.440417 -0.427118 1.04 
-0.38855 -0.423421 1.031 
-0.337853 -0.420136 1.023 
-0.293007 -0.424243 1.033 
-0.243911 -0.4226 1.029 
-0.192902 -0.416029 1.013 
-0.145398 -0.415208 1.011 
-0.0992469 -0.419314 1.021 
-0.0504941 -0.409869 0.998 
0.0139754 -0.354015 0.862 
0.0532112 -0.347854 0.847 
0.108225 -0.347033 0.845 
0.147961 -0.347854 0.847 
0.185669 -0.344569 0.839 
0.225311 -0.34539 0.841 
0.263252 -0.343747 0.837 
0.302987 -0.344569 0.839 
0.339239 -0.341694 0.832 
0.376201 -0.340051 0.828 
0.413292 -0.338819 0.825 
0.455031 -0.341283 0.831 
0.489011 -0.337998 0.823 
0.524808 -0.336355 0.819 
0.560232 -0.334712 0.815 
0.598219 -0.334712 0.815 
0.635426 -0.334302 0.814 
0.670885 -0.33307 0.811 
0.70956 -0.33348 0.812 
0.746487 -0.33307 0.811 
0.783321 -0.332659 0.81 
-0.419697 -0.22257 0.544 
-0.416293 -0.236481 0.578 
-0.416297 -0.252846 0.618 
-0.417179 -0.272894 0.667 
-0.411559 -0.290896 0.711 
-0.409155 -0.315444 0.771 
-0.498107 -0.425093 1.039 
-0.451843 -0.427138 1.044 
-0.397775 -0.42141 1.03 
-0.34705 -0.418137 1.022 
-0.302344 -0.422229 1.032 
-0.252764 -0.419774 1.026 
-0.202145 -0.414046 1.012 
-0.154669 -0.413228 1.01 
-0.107486 -0.412818 1.009 
-0.0604566 -0.412818 1.009 
-0.0130675 -0.401772 0.982 
0.0442072 -0.348175 0.851 
0.0990355 -0.34572 0.845 
0.138421 -0.34572 0.845 
0.176544 -0.343265 0.839 
0.21565 -0.343265 0.839 
0.254756 -0.343265 0.839 
0.295614 -0.345311 0.844 
0.329794 -0.339992 0.831 
0.36764 -0.339174 0.829 
0.40481 -0.337947 0.826 
0.44492 -0.339174 0.829 
0.47831 -0.335492 0.82 
0.51527 -0.334673 0.818 
0.552721 -0.334264 0.817 
0.588632 -0.333037 0.814 
0.627343 -0.333446 0.815 
0.661249 -0.3314 0.81 
0.701592 -0.332628 0.813 
0.735848 -0.330991 0.809 
0.772599 -0.330582 0.808 
-0.421645 -0.220095 0.54 
-0.415999 -0.231914 0.569 
-0.416582 -0.251478 0.617 
-0.417179 -0.271858 0.667 
-0.411559 -0.289791 0.711 
-0.409289 -0.313431 0.769 
-0.498759 -0.422663 1.037 
-0.452162 -0.424293 1.041 
-0.398988 -0.419402 1.029 
-0.348297 -0.416142 1.021 
-0.303653 -0.420218 1.031 
-0.254358 -0.41818 1.026 
-0.203718 -0.412474 1.012 
-0.155929 -0.410843 1.008 
-0.10738 -0.410843 1.008 
-0.0603368 -0.410436 1.007 
-0.0130409 -0.399431 0.98 
0.042885 -0.346853 0.851 
0.0962957 -0.344 0.844 
0.135795 -0.344407 0.845 
0.173937 -0.341962 0.839 
0.212789 -0.341554 0.838 
0.252149 -0.341962 0.839 
0.293338 -0.344407 0.845 
0.326818 -0.338294 0.83 
0.365064 -0.337886 0.829 
0.401756 -0.336256 0.825 
0.440743 -0.336663 0.826 
0.475182 -0.33381 0.819 
0.512102 -0.332995 0.817 
0.550182 -0.332995 0.817 
0.586103 -0.331772 0.814 
0.624044 -0.331772 0.814 
0.658732 -0.330142 0.81 
0.697346 -0.330549 0.811 
0.731521 -0.328919 0.807 
0.770088 -0.329327 0.808 
-0.421755 -0.218444 0.538 
-0.417915 -0.230624 0.568 
-0.417541 -0.25052 0.617 
-0.418215 -0.270821 0.667 
-0.410922 -0.287468 0.708 
-0.409416 -0.311424 0.767 
-0.497797 -0.42024 1.035 
-0.450859 -0.421458 1.038 
-0.3986 -0.417398 1.028 
-0.347955 -0.41415 1.02 
-0.303358 -0.41821 1.03 
-0.254358 -0.416586 1.026 
-0.203718 -0.410901 1.012 
-0.156084 -0.409683 1.009 
-0.108514 -0.407653 1.004 
-0.0619013 -0.408871 1.007 
-0.0145635 -0.397908 0.98 
0.0441553 -0.345125 0.85 
0.0974913 -0.342282 0.843 
0.136946 -0.342688 0.844 
0.175241 -0.340658 0.839 
0.213836 -0.339846 0.837 
0.253151 -0.340252 0.838 
0.294302 -0.342688 0.844 
0.328107 -0.337004 0.83 
0.365468 -0.335786 0.827 
0.403038 -0.334974 0.825 
0.441491 -0.334974 0.825 
0.476454 -0.332538 0.819 
0.512115 -0.330914 0.815 
0.550102 -0.330914 0.815 
0.586646 -0.330101 0.813 
0.62454 -0.330101 0.813 
0.659175 -0.328477 0.809 
0.696883 -0.328477 0.809 
0.732775 -0.327665 0.807 
0.772298 -0.328477 0.809 
-0.421701 -0.218012 0.539 
-0.417915 -0.229742 0.568 
-0.418098 -0.248752 0.615 
-0.418797 -0.268167 0.663 
-0.410712 -0.283942 0.702 
-0.410299 -0.30821 0.762 
-0.50165 -0.417823 1.033 
-0.453502 -0.417823 1.033 
-0.403391 -0.415801 1.028 
-0.35271 -0.412565 1.02 
-0.30786 -0.416205 1.029 
-0.259393 -0.415396 1.027 
-0.209258 -0.410947 1.016 
-0.159831 -0.405689 1.003 
-0.112179 -0.402453 0.995 
-0.0667934 -0.40852 1.01 
-0.0191704 -0.397195 0.982 
0.0376405 -0.344613 0.852 
0.0799572 -0.304165 0.752 
0.131701 -0.341377 0.844 
0.169824 -0.33895 0.838 
0.208136 -0.337737 0.835 
0.247647 -0.338546 0.837 
0.28803 -0.340164 0.841 
0.322949 -0.335714 0.83 
0.359893 -0.334097 0.826 
0.397428 -0.333288 0.824 
0.435306 -0.332883 0.823 
0.470213 -0.330456 0.817 
0.506427 -0.329243 0.814 
0.545706 -0.330052 0.816 
0.580878 -0.328434 0.812 
0.619488 -0.328838 0.813 
0.65253 -0.326412 0.807 
0.691 -0.326816 0.808 
0.725956 -0.325603 0.805 
0.767271 -0.32722 0.809 
0.801993 -0.326007 0.806 
-0.418203 -0.228054 0.566 
-0.417821 -0.2482 0.616 
-0.418166 -0.266734 0.662 
-0.411297 -0.283254 0.703 
-0.410299 -0.307026 0.762 
-0.499077 -0.415412 1.031 
-0.451022 -0.415412 1.031 
-0.401013 -0.413397 1.026 
-0.350781 -0.410577 1.019 
-0.305963 -0.414203 1.028 
-0.257546 -0.413397 1.026 
-0.207271 -0.408562 1.014 
-0.15843 -0.404533 1.004 
-0.110855 -0.401713 0.997 
-0.065095 -0.406145 1.008 
-0.0176267 -0.395266 0.981 
0.0389185 -0.342886 0.851 
0.0811255 -0.302997 0.752 
0.132855 -0.339663 0.843 
0.170718 -0.336842 0.836 
0.209182 -0.336037 0.834 
