# .PCD v.7 - Point Cloud Data file format
VERSION .7
FIELDS x y z
SIZE 4 4 4
TYPE F F F
COUNT 1 1 1
WIDTH 1823
HEIGHT 1
VIEWPOINT 0 0 0 1 0 0 0
POINTS 1823
DATA ascii
0.432805 -0.183169 0.458 
0.45008 -0.182769 0.457 
-0.391375 -0.204757 0.515 
-0.371563 -0.205155 0.516 
-0.355072 -0.20754 0.522 
-0.337463 -0.209528 0.527 
-0.318855 -0.211118 0.531 
-0.301048 -0.213504 0.537 
-0.282764 -0.215889 0.543 
-0.264963 -0.21907 0.551 
-0.2452 -0.221058 0.556 
-0.225039 -0.223046 0.561 
-0.20448 -0.225034 0.566 
-0.184165 -0.227817 0.573 
-0.162728 -0.229805 0.578 
-0.141376 -0.232588 0.585 
-0.119264 -0.234974 0.591 
0.219505 -0.220263 0.554 
0.232434 -0.211914 0.533 
0.239881 -0.200383 0.504 
0.261522 -0.201576 0.507 
0.285625 -0.204359 0.514 
0.310286 -0.207142 0.521 
0.335505 -0.209926 0.528 
0.361282 -0.212709 0.535 
0.388333 -0.215889 0.543 
0.416021 -0.21907 0.551 
0.444348 -0.222251 0.559 
0.472477 -0.225034 0.566 
0.467459 -0.20913 0.526 
0.438401 -0.181299 0.456 
-0.399536 -0.201573 0.51 
-0.383664 -0.203944 0.516 
-0.363796 -0.20434 0.517 
-0.347167 -0.206711 0.523 
-0.33006 -0.209083 0.529 
-0.31189 -0.211059 0.534 
-0.293321 -0.213035 0.539 
-0.275363 -0.215802 0.546 
-0.255087 -0.218173 0.552 
-0.235613 -0.220545 0.558 
-0.216426 -0.223706 0.566 
-0.194546 -0.224497 0.568 
-0.173717 -0.226868 0.574 
-0.152935 -0.23003 0.582 
-0.131292 -0.232797 0.589 
0.213263 -0.223311 0.565 
0.225773 -0.213825 0.541 
0.236369 -0.20434 0.517 
0.250022 -0.198806 0.503 
0.273834 -0.201573 0.51 
0.298204 -0.20434 0.517 
0.322516 -0.206711 0.523 
0.348619 -0.209873 0.531 
0.374664 -0.21264 0.538 
0.402739 -0.216197 0.547 
0.430756 -0.219359 0.555 
0.461042 -0.223311 0.565 
0.4602 -0.209083 0.529 
0.452702 -0.193668 0.49 
0.44999 -0.18102 0.458 
-0.391375 -0.202341 0.515 
-0.371563 -0.202734 0.516 
-0.355072 -0.205092 0.522 
-0.338103 -0.207449 0.528 
-0.318855 -0.208628 0.531 
-0.300488 -0.210592 0.536 
-0.282764 -0.213343 0.543 
-0.264482 -0.216093 0.55 
-0.2452 -0.21845 0.556 
-0.225441 -0.220808 0.562 
-0.20448 -0.222379 0.566 
-0.184165 -0.225129 0.573 
-0.162728 -0.227094 0.578 
-0.141376 -0.229844 0.585 
-0.115106 -0.232202 0.591 
0.220007 -0.216879 0.552 
0.233246 -0.209021 0.532 
0.241764 -0.197627 0.503 
0.26442 -0.199591 0.508 
0.288596 -0.202341 0.515 
0.31333 -0.205092 0.522 
0.338622 -0.207842 0.529 
0.364472 -0.210592 0.536 
0.39088 -0.213343 0.543 
0.418606 -0.216486 0.551 
0.447769 -0.220022 0.56 
0.475132 -0.222379 0.566 
0.445566 -0.192912 0.491 
0.440434 -0.179553 0.457 
-0.397143 -0.199181 0.51 
-0.381244 -0.201524 0.516 
-0.36207 -0.202305 0.518 
-0.344714 -0.204258 0.523 
-0.328198 -0.206992 0.53 
-0.309385 -0.208554 0.534 
-0.291333 -0.210897 0.54 
-0.274301 -0.214412 0.549 
-0.253793 -0.215584 0.552 
-0.234305 -0.217927 0.558 
-0.215099 -0.221052 0.566 
-0.193214 -0.221833 0.568 
-0.172371 -0.224176 0.574 
-0.15157 -0.227301 0.582 
-0.129911 -0.230034 0.589 
0.219781 -0.217927 0.558 
0.232485 -0.209335 0.536 
0.240585 -0.196447 0.503 
0.262711 -0.198009 0.507 
0.28683 -0.200743 0.514 
0.312106 -0.203868 0.522 
0.336743 -0.206211 0.528 
0.363215 -0.209335 0.536 
0.389606 -0.212069 0.543 
0.417314 -0.215193 0.551 
0.445659 -0.218318 0.559 
0.473805 -0.221052 0.566 
0.470125 -0.206601 0.529 
0.439362 -0.178482 0.457 
-0.393898 -0.198761 0.512 
-0.376403 -0.200314 0.516 
-0.35859 -0.201867 0.52 
-0.341107 -0.203808 0.525 
-0.323836 -0.206137 0.531 
-0.305516 -0.208078 0.536 
-0.287858 -0.210796 0.543 
-0.269151 -0.213125 0.549 
-0.249065 -0.214678 0.553 
-0.229481 -0.217007 0.559 
-0.209789 -0.219724 0.566 
-0.188547 -0.221277 0.57 
-0.167277 -0.223218 0.575 
-0.146361 -0.226324 0.583 
-0.124597 -0.229041 0.59 
0.218332 -0.217783 0.561 
0.2304 -0.208466 0.537 
0.240357 -0.196044 0.505 
0.261006 -0.196432 0.506 
0.285069 -0.199149 0.513 
0.310881 -0.202643 0.522 
0.33487 -0.204584 0.527 
0.361282 -0.20769 0.535 
0.388333 -0.210796 0.543 
0.416021 -0.213901 0.551 
0.444348 -0.217007 0.559 
0.472477 -0.219724 0.566 
0.470125 -0.205361 0.529 
0.460913 -0.18168 0.468 
-0.384128 -0.198718 0.515 
-0.364302 -0.199104 0.516 
-0.347727 -0.201419 0.522 
-0.331926 -0.204506 0.53 
-0.312556 -0.205664 0.533 
-0.294039 -0.207593 0.538 
-0.278163 -0.211837 0.549 
-0.256743 -0.212223 0.55 
-0.238231 -0.21531 0.558 
-0.218694 -0.218011 0.565 
-0.196863 -0.218783 0.567 
-0.176409 -0.221484 0.574 
-0.155397 -0.224185 0.581 
-0.134055 -0.227272 0.589 
-0.110948 -0.228044 0.591 
0.224018 -0.21068 0.546 
0.234982 -0.201419 0.522 
0.246483 -0.194088 0.503 
0.269716 -0.196403 0.509 
0.293997 -0.199104 0.516 
0.318226 -0.201419 0.522 
0.344234 -0.204506 0.53 
0.370189 -0.207207 0.537 
0.397432 -0.210294 0.545 
0.424544 -0.212995 0.552 
0.454641 -0.216854 0.562 
0.480442 -0.218397 0.566 
0.450172 -0.189457 0.491 
0.462883 -0.181354 0.47 
-0.381244 -0.197894 0.516 
-0.361371 -0.198277 0.517 
-0.344714 -0.200578 0.523 
-0.328817 -0.203647 0.531 
-0.309385 -0.204797 0.534 
-0.290793 -0.206715 0.539 
-0.2748 -0.210933 0.55 
-0.253333 -0.211317 0.551 
-0.234305 -0.214002 0.558 
-0.215099 -0.21707 0.566 
-0.192874 -0.217453 0.567 
-0.172371 -0.220138 0.574 
-0.15157 -0.223206 0.582 
-0.129911 -0.22589 0.589 
0.212313 -0.21707 0.566 
0.225334 -0.208249 0.543 
0.235912 -0.197894 0.516 
0.250022 -0.192908 0.503 
0.273297 -0.195209 0.509 
0.297627 -0.197894 0.516 
0.322516 -0.200578 0.523 
0.348619 -0.203647 0.531 
0.374664 -0.206331 0.538 
0.402739 -0.209783 0.547 
0.430756 -0.212851 0.555 
0.460226 -0.216303 0.564 
0.484424 -0.21707 0.566 
0.451553 -0.187922 0.49 
0.465658 -0.184854 0.482 
-0.388204 -0.195921 0.514 
-0.369143 -0.196684 0.516 
-0.352624 -0.198971 0.522 
-0.336263 -0.201639 0.529 
-0.31696 -0.202782 0.532 
-0.29853 -0.204688 0.537 
-0.281249 -0.207738 0.545 
-0.261426 -0.209262 0.549 
-0.243029 -0.212312 0.557 
-0.223201 -0.214599 0.563 
-0.202182 -0.216123 0.567 
-0.181477 -0.21841 0.573 
-0.160294 -0.220697 0.579 
-0.138632 -0.222985 0.585 
-0.116492 -0.225272 0.591 
0.220298 -0.211931 0.556 
0.233306 -0.203926 0.535 
0.242461 -0.191347 0.502 
0.265089 -0.193253 0.507 
0.289241 -0.195921 0.514 
0.314554 -0.198971 0.522 
0.339862 -0.201639 0.529 
0.365729 -0.204307 0.536 
0.392153 -0.206975 0.543 
0.419898 -0.210025 0.551 
0.448281 -0.213074 0.559 
0.47646 -0.215742 0.566 
0.447627 -0.187536 0.492 
0.464393 -0.186392 0.489 
-0.394327 -0.19358 0.511 
-0.377614 -0.195474 0.516 
-0.359809 -0.196989 0.52 
-0.341686 -0.198504 0.524 
-0.325081 -0.201156 0.531 
-0.306773 -0.20305 0.536 
-0.288066 -0.204944 0.541 
-0.270438 -0.207975 0.549 
-0.249909 -0.209111 0.552 
-0.230792 -0.211763 0.559 
-0.211117 -0.214415 0.566 
-0.188885 -0.214794 0.567 
-0.168626 -0.217824 0.575 
-0.147475 -0.220476 0.582 
-0.12598 -0.223507 0.59 
0.214968 -0.214415 0.566 
0.227461 -0.205323 0.542 
0.238419 -0.19358 0.511 
0.25592 -0.190549 0.503 
0.279265 -0.192822 0.509 
0.304855 -0.196231 0.518 
0.329277 -0.198504 0.524 
0.35685 -0.202293 0.534 
0.383805 -0.205323 0.542 
0.411397 -0.208354 0.55 
0.438839 -0.211005 0.557 
0.468495 -0.214415 0.566 
0.465676 -0.201156 0.531 
0.457299 -0.185624 0.49 
0.467253 -0.181457 0.479 
-0.382921 -0.193887 0.515 
-0.363796 -0.19464 0.517 
-0.347167 -0.196899 0.523 
-0.330684 -0.199534 0.53 
-0.31189 -0.20104 0.534 
-0.292233 -0.20217 0.537 
-0.276876 -0.206687 0.549 
-0.255917 -0.20744 0.551 
-0.236922 -0.210076 0.558 
-0.216984 -0.212335 0.564 
-0.195533 -0.213464 0.567 
-0.175063 -0.216099 0.574 
-0.154035 -0.218735 0.581 
-0.132673 -0.221747 0.589 
-0.109747 -0.222876 0.592 
0.223608 -0.205181 0.545 
0.234532 -0.196146 0.521 
0.247662 -0.189369 0.503 
0.270909 -0.191628 0.509 
0.294635 -0.193887 0.515 
0.319451 -0.196522 0.522 
0.345476 -0.199534 0.53 
0.371448 -0.20217 0.537 
0.39871 -0.205181 0.545 
0.425838 -0.207817 0.552 
0.454336 -0.210829 0.56 
0.481769 -0.213088 0.566 
0.452475 -0.184852 0.491 
0.469049 -0.181463 0.482 
-0.383382 -0.192305 0.514 
-0.364302 -0.193053 0.516 
-0.348393 -0.195672 0.523 
-0.331926 -0.198291 0.53 
-0.312556 -0.199414 0.533 
-0.293492 -0.20091 0.537 
-0.277657 -0.205026 0.548 
-0.256743 -0.205774 0.55 
-0.238231 -0.208767 0.558 
-0.21792 -0.210638 0.563 
-0.196516 -0.21176 0.566 
-0.176409 -0.214753 0.574 
-0.155397 -0.217372 0.581 
-0.134055 -0.220365 0.589 
0.205258 -0.215502 0.576 
0.220694 -0.208393 0.557 
0.232369 -0.198291 0.53 
0.241764 -0.18819 0.503 
0.263379 -0.189312 0.506 
0.286355 -0.191183 0.511 
0.31273 -0.194924 0.521 
0.337982 -0.197543 0.528 
0.364472 -0.200536 0.536 
0.39088 -0.203155 0.543 
0.418606 -0.206148 0.551 
0.44617 -0.208767 0.558 
0.475132 -0.21176 0.566 
0.450103 -0.185571 0.496 
0.466281 -0.181455 0.485 
-0.39193 -0.189984 0.511 
-0.375193 -0.191843 0.516 
-0.358058 -0.193702 0.521 
-0.340523 -0.195561 0.526 
-0.32259 -0.19742 0.531 
-0.304259 -0.199279 0.536 
-0.286056 -0.20151 0.542 
-0.267863 -0.204112 0.549 
-0.248664 -0.206343 0.555 
-0.22817 -0.20783 0.559 
-0.208462 -0.210433 0.566 
-0.186882 -0.211548 0.569 
-0.166217 -0.214151 0.576 
-0.144746 -0.216381 0.582 
-0.123422 -0.219728 0.591 
0.210296 -0.213779 0.575 
0.222674 -0.204112 0.549 
0.232979 -0.194446 0.523 
0.244816 -0.186638 0.502 
0.267995 -0.188869 0.508 
0.291652 -0.1911 0.514 
0.317002 -0.194074 0.522 
0.342343 -0.196677 0.529 
0.368243 -0.199279 0.536 
0.395427 -0.202253 0.544 
0.422482 -0.204856 0.551 
0.450903 -0.20783 0.559 
0.479114 -0.210433 0.566 
0.454778 -0.182549 0.491 
0.469694 -0.180318 0.485 
-0.387894 -0.189155 0.512 
-0.370353 -0.190633 0.516 
-0.353848 -0.19285 0.522 
-0.337503 -0.195436 0.529 
-0.317609 -0.196175 0.531 
-0.299231 -0.198022 0.536 
-0.28149 -0.200608 0.543 
-0.262713 -0.202825 0.549 
-0.244335 -0.20578 0.557 
-0.222926 -0.206519 0.559 
-0.203153 -0.209105 0.566 
-0.182502 -0.211322 0.572 
-0.161652 -0.213908 0.579 
-0.139765 -0.215755 0.584 
-0.117878 -0.218342 0.591 
0.213595 -0.211692 0.573 
0.224061 -0.200608 0.543 
0.234849 -0.191742 0.519 
0.248842 -0.18583 0.503 
0.271569 -0.187678 0.508 
0.296417 -0.190633 0.516 
0.320675 -0.19285 0.522 
0.346719 -0.195805 0.53 
0.372708 -0.198392 0.537 
0.400722 -0.201717 0.546 
0.427133 -0.203933 0.552 
0.455649 -0.206889 0.56 
0.482243 -0.208736 0.565 
0.453851 -0.181028 0.49 
0.468556 -0.17918 0.485 
-0.389533 -0.187588 0.511 
-0.372773 -0.189423 0.516 
-0.356297 -0.191626 0.522 
-0.339342 -0.193828 0.528 
-0.319497 -0.194563 0.53 
-0.301745 -0.196765 0.536 
-0.284037 -0.199335 0.543 
-0.265288 -0.201537 0.549 
-0.246504 -0.204107 0.556 
-0.225548 -0.205208 0.559 
-0.205807 -0.207778 0.566 
-0.184861 -0.209614 0.571 
-0.164083 -0.212183 0.578 
-0.14226 -0.214019 0.583 
-0.12065 -0.216956 0.591 
0.211644 -0.211082 0.575 
0.222738 -0.200436 0.546 
0.234082 -0.190892 0.52 
0.24717 -0.184284 0.502 
0.270377 -0.186486 0.508 
0.294635 -0.189056 0.515 
0.319451 -0.191626 0.522 
0.345476 -0.194563 0.53 
0.371448 -0.197132 0.537 
0.39871 -0.200069 0.545 
0.425838 -0.202639 0.552 
0.453525 -0.205208 0.559 
0.480918 -0.207411 0.565 
0.454288 -0.179144 0.488 
0.471802 -0.17841 0.486 
-0.385043 -0.187119 0.513 
-0.366723 -0.188213 0.516 
-0.350176 -0.190402 0.522 
-0.333781 -0.192955 0.529 
-0.313873 -0.193684 0.531 
-0.29546 -0.195508 0.536 
-0.278693 -0.198791 0.545 
-0.259322 -0.200615 0.55 
-0.240416 -0.203168 0.557 
-0.218993 -0.203897 0.559 
-0.19917 -0.206451 0.566 
-0.179101 -0.209369 0.574 
-0.15785 -0.211557 0.58 
-0.13612 -0.213746 0.586 
-0.11372 -0.21557 0.591 
0.214939 -0.209004 0.573 
0.224919 -0.197697 0.542 
0.235156 -0.188578 0.517 
0.250022 -0.183471 0.503 
0.272223 -0.18493 0.507 
0.297627 -0.188213 0.516 
0.321899 -0.190402 0.522 
0.347962 -0.19332 0.53 
0.373967 -0.195873 0.537 
0.402003 -0.199156 0.546 
0.429203 -0.201709 0.553 
0.456962 -0.204262 0.56 
0.482712 -0.205721 0.564 
0.455845 -0.17727 0.486 
0.477177 -0.178 0.488 
-0.385493 -0.185553 0.512 
-0.367933 -0.187003 0.516 
-0.3514 -0.189177 0.522 
-0.335022 -0.191714 0.529 
-0.315119 -0.192439 0.531 
-0.296717 -0.194251 0.536 
-0.279457 -0.19715 0.544 
-0.260612 -0.199325 0.55 
-0.241723 -0.201862 0.557 
-0.21991 -0.202224 0.558 
-0.200852 -0.205486 0.567 
-0.180133 -0.20766 0.573 
-0.15921 -0.210197 0.58 
-0.137495 -0.212372 0.586 
-0.115106 -0.214184 0.591 
0.209765 -0.210559 0.581 
0.221302 -0.20005 0.552 
0.230967 -0.189902 0.524 
0.241284 -0.181929 0.502 
0.262859 -0.183016 0.505 
0.285794 -0.184828 0.51 
0.31273 -0.188815 0.521 
0.337982 -0.191352 0.528 
0.364472 -0.194251 0.536 
0.39088 -0.196788 0.543 
0.417846 -0.199325 0.55 
0.44617 -0.202224 0.558 
0.475132 -0.205123 0.566 
0.452475 -0.177943 0.491 
0.469166 -0.176855 0.488 
-0.392359 -0.183632 0.51 
-0.375674 -0.185433 0.515 
-0.35859 -0.187233 0.52 
-0.341757 -0.189393 0.526 
-0.322616 -0.190474 0.529 
-0.304946 -0.192634 0.535 
-0.286797 -0.194794 0.541 
-0.269641 -0.198035 0.55 
-0.249065 -0.199115 0.553 
-0.22907 -0.200915 0.558 
-0.208677 -0.202716 0.563 
-0.188878 -0.205596 0.571 
-0.167568 -0.207397 0.576 
-0.146361 -0.209917 0.583 
-0.124597 -0.212437 0.59 
-0.102445 -0.215318 0.598 
0.215728 -0.204516 0.568 
0.226202 -0.194074 0.539 
0.237221 -0.183992 0.511 
0.253561 -0.181112 0.503 
0.27579 -0.182552 0.507 
0.301841 -0.186153 0.517 
0.326195 -0.188313 0.523 
0.352355 -0.191194 0.531 
0.378449 -0.193714 0.538 
0.407331 -0.197315 0.548 
0.43466 -0.199835 0.555 
0.463372 -0.202716 0.563 
0.485817 -0.202716 0.563 
0.457182 -0.174631 0.485 
0.482413 -0.176791 0.491 
-0.38384 -0.18351 0.513 
-0.365512 -0.184583 0.516 
-0.348952 -0.186729 0.522 
-0.332541 -0.189233 0.529 
-0.313217 -0.190306 0.532 
-0.294203 -0.191737 0.536 
-0.277924 -0.195314 0.546 
-0.258502 -0.197103 0.551 
-0.23911 -0.199249 0.557 
-0.217682 -0.199965 0.559 
-0.198193 -0.202826 0.567 
-0.177755 -0.20533 0.574 
-0.15676 -0.207834 0.581 
-0.134746 -0.209623 0.586 
-0.112524 -0.211769 0.592 
0.206776 -0.210338 0.588 
0.218864 -0.199965 0.559 
0.230615 -0.18816 0.526 
0.240585 -0.179932 0.503 
0.261675 -0.180648 0.505 
0.284598 -0.182436 0.51 
0.311508 -0.186371 0.521 
0.335468 -0.18816 0.526 
0.362537 -0.191379 0.535 
0.389606 -0.194241 0.543 
0.416556 -0.196745 0.55 
0.444862 -0.199607 0.558 
0.473805 -0.202469 0.566 
0.448781 -0.175997 0.492 
0.462684 -0.173851 0.486 
0.487019 -0.17564 0.491 
-0.376882 -0.183017 0.515 
-0.358426 -0.184083 0.518 
-0.342338 -0.186571 0.525 
-0.323857 -0.187992 0.529 
-0.305628 -0.189769 0.534 
-0.288066 -0.192257 0.541 
-0.270931 -0.195455 0.55 
-0.249909 -0.196166 0.552 
-0.230379 -0.198298 0.558 
-0.209998 -0.200075 0.563 
-0.190217 -0.202918 0.571 
-0.168626 -0.20434 0.575 
-0.147729 -0.207183 0.583 
-0.12598 -0.20967 0.59 
-0.103848 -0.212513 0.598 
0.211491 -0.206827 0.582 
0.222193 -0.195811 0.551 
0.23331 -0.185149 0.521 
0.244816 -0.178397 0.502 
0.266939 -0.179819 0.506 
0.291652 -0.182662 0.514 
0.317002 -0.185505 0.522 
0.342343 -0.187992 0.529 
0.368243 -0.19048 0.536 
0.395427 -0.193323 0.544 
0.422482 -0.195811 0.551 
0.450903 -0.198654 0.559 
0.479114 -0.201141 0.566 
0.451553 -0.174133 0.49 
0.471088 -0.174133 0.49 
-0.392359 -0.180044 0.51 
-0.375674 -0.181809 0.515 
-0.3579 -0.183222 0.519 
-0.341107 -0.18534 0.525 
-0.322616 -0.186752 0.529 
-0.304376 -0.188517 0.534 
-0.287327 -0.191341 0.542 
-0.269641 -0.194165 0.55 
-0.248614 -0.194871 0.552 
-0.22907 -0.19699 0.558 
-0.209048 -0.199108 0.564 
-0.188878 -0.201579 0.571 
-0.167277 -0.202991 0.575 
-0.146361 -0.205815 0.583 
-0.124597 -0.208287 0.59 
-0.102616 -0.211464 0.599 
0.210487 -0.205815 0.583 
0.221703 -0.195224 0.553 
0.231408 -0.18534 0.525 
0.241284 -0.17722 0.502 
0.262859 -0.178279 0.505 
0.286355 -0.180397 0.511 
0.31273 -0.183928 0.521 
0.337341 -0.186046 0.527 
0.363792 -0.18887 0.535 
0.39088 -0.191694 0.543 
0.417846 -0.194165 0.55 
0.44617 -0.19699 0.558 
0.475132 -0.199814 0.566 
0.450172 -0.173337 0.491 
0.46592 -0.171925 0.487 
-0.393555 -0.178848 0.51 
-0.376882 -0.180602 0.515 
-0.358426 -0.181654 0.518 
-0.341686 -0.183758 0.524 
-0.323857 -0.185511 0.529 
-0.305628 -0.187265 0.534 
-0.288066 -0.189719 0.541 
-0.270931 -0.192876 0.55 
-0.249909 -0.193577 0.552 
-0.229966 -0.19533 0.557 
-0.210371 -0.197785 0.564 
-0.190217 -0.20024 0.571 
-0.168332 -0.201292 0.574 
-0.147475 -0.204097 0.582 
-0.12598 -0.206903 0.59 
-0.103848 -0.209708 0.598 
0.209178 -0.205851 0.587 
0.221203 -0.194629 0.555 
0.231492 -0.185161 0.528 
0.240106 -0.176043 0.502 
0.261675 -0.177095 0.505 
0.285156 -0.179199 0.511 
0.311508 -0.182706 0.521 
0.335468 -0.184459 0.526 
0.361859 -0.187265 0.534 
0.389606 -0.190421 0.543 
0.416556 -0.192876 0.55 
0.444862 -0.195681 0.558 
0.473805 -0.198486 0.566 
0.450404 -0.171835 0.49 
0.46898 -0.171484 0.489 
-0.392359 -0.177652 0.51 
-0.375674 -0.179394 0.515 
-0.3579 -0.180787 0.519 
-0.340458 -0.182529 0.524 
-0.322616 -0.184271 0.529 
-0.304376 -0.186012 0.534 
-0.287327 -0.188799 0.542 
-0.269641 -0.191586 0.55 
-0.248614 -0.192282 0.552 
-0.22866 -0.194024 0.557 
-0.209419 -0.196811 0.565 
-0.189209 -0.199249 0.572 
-0.166986 -0.199946 0.574 
-0.146361 -0.203081 0.583 
-0.124808 -0.205868 0.591 
-0.102616 -0.208654 0.599 
0.208509 -0.205171 0.589 
0.219781 -0.194372 0.558 
0.229883 -0.184619 0.53 
0.238225 -0.175214 0.503 
0.258793 -0.175562 0.504 
0.282206 -0.177652 0.51 
0.307878 -0.180787 0.519 
0.331734 -0.182529 0.524 
0.358009 -0.185316 0.532 
0.385634 -0.188451 0.541 
0.413977 -0.191586 0.55 
0.442244 -0.194372 0.558 
0.470318 -0.196811 0.565 
0.445566 -0.171034 0.491 
0.459457 -0.168944 0.485 
0.485703 -0.171382 0.492 
-0.379297 -0.178186 0.515 
-0.360159 -0.178878 0.517 
-0.343487 -0.180954 0.523 
-0.326338 -0.18303 0.529 
-0.307556 -0.184414 0.533 
-0.290066 -0.186836 0.54 
-0.273511 -0.190296 0.55 
-0.252041 -0.190642 0.551 
-0.232161 -0.192372 0.556 
-0.212638 -0.194794 0.563 
-0.19222 -0.19687 0.569 
-0.171025 -0.1986 0.574 
-0.150205 -0.201368 0.582 
-0.128748 -0.204136 0.59 
-0.106474 -0.206558 0.597 
0.204707 -0.20552 0.594 
0.217623 -0.195832 0.566 
0.227457 -0.185452 0.536 
0.236292 -0.17611 0.509 
0.253561 -0.174034 0.503 
0.276878 -0.17611 0.509 
0.301841 -0.178878 0.517 
0.325572 -0.180608 0.522 
0.351691 -0.183376 0.53 
0.377042 -0.185452 0.536 
0.407331 -0.189604 0.548 
0.43466 -0.192026 0.555 
0.463372 -0.194794 0.563 
0.489269 -0.196178 0.567 
0.453969 -0.16746 0.484 
0.481088 -0.170228 0.492 
-0.383987 -0.17526 0.51 
-0.367933 -0.177322 0.516 
-0.3514 -0.179384 0.522 
-0.334389 -0.181446 0.528 
-0.315119 -0.182477 0.531 
-0.296717 -0.184195 0.536 
-0.279971 -0.187288 0.545 
-0.261086 -0.18935 0.551 
-0.241289 -0.191068 0.556 
-0.220698 -0.192443 0.56 
-0.200498 -0.194504 0.566 
-0.180133 -0.19691 0.573 
-0.158661 -0.198628 0.578 
-0.137495 -0.201377 0.586 
-0.115301 -0.203439 0.592 
-0.680426 -16.4824 47.963 
0.209534 -0.202065 0.588 
0.220694 -0.191412 0.557 
0.231126 -0.182133 0.53 
0.239405 -0.172855 0.503 
0.259975 -0.173198 0.504 
0.283958 -0.175604 0.511 
0.30969 -0.178697 0.52 
0.334234 -0.180759 0.526 
0.359256 -0.18282 0.532 
0.387618 -0.186257 0.542 
0.415266 -0.189006 0.55 
0.443553 -0.191755 0.558 
0.471643 -0.194161 0.565 
0.445566 -0.168731 0.491 
0.45851 -0.166325 0.484 
0.485703 -0.169074 0.492 
-0.385183 -0.174064 0.51 
-0.369143 -0.176112 0.516 
-0.351949 -0.177818 0.521 
-0.334991 -0.179866 0.527 
-0.316364 -0.181231 0.531 
-0.297974 -0.182938 0.536 
-0.280733 -0.185668 0.544 
-0.262378 -0.188057 0.551 
-0.242156 -0.189423 0.555 
-0.221615 -0.190788 0.559 
-0.201825 -0.193177 0.566 
-0.18116 -0.195225 0.572 
-0.159463 -0.19659 0.576 
-0.138869 -0.200003 0.586 
-0.116492 -0.20171 0.591 
-0.738237 -15.2412 44.656 
0.208863 -0.201368 0.59 
0.219781 -0.190447 0.558 
0.23075 -0.181573 0.532 
0.238225 -0.171675 0.503 
0.258793 -0.172016 0.504 
0.282759 -0.174405 0.511 
0.307878 -0.177136 0.519 
0.332368 -0.179184 0.525 
0.357336 -0.181231 0.531 
0.385634 -0.184644 0.541 
0.413977 -0.187716 0.55 
0.441452 -0.190105 0.557 
0.470318 -0.192836 0.565 
0.442604 -0.166897 0.489 
0.462869 -0.165532 0.485 
-0.399946 -0.172529 0.509 
-0.381891 -0.173546 0.512 
-0.364302 -0.174902 0.516 
-0.347727 -0.176936 0.522 
-0.3313 -0.179308 0.529 
-0.311383 -0.179986 0.531 
-0.293492 -0.18202 0.537 
-0.276643 -0.185071 0.546 
-0.257209 -0.186765 0.551 
-0.237377 -0.18846 0.556 
-0.217533 -0.190494 0.562 
-0.196863 -0.192189 0.567 
-0.176102 -0.194222 0.573 
-0.154862 -0.196256 0.579 
-0.133827 -0.199307 0.588 
-0.111136 -0.200663 0.592 
-0.512402 -18.2898 53.959 
0.209891 -0.199646 0.589 
0.220298 -0.18846 0.556 
0.231562 -0.179986 0.531 
0.240106 -0.170156 0.502 
0.261156 -0.170834 0.504 
0.285156 -0.173207 0.511 
0.311508 -0.176597 0.521 
0.336743 -0.178969 0.528 
0.359826 -0.179986 0.531 
0.388889 -0.183715 0.542 
0.416556 -0.186426 0.55 
0.444862 -0.189138 0.558 
0.472968 -0.191511 0.565 
0.454072 -0.16575 0.489 
0.476032 -0.165411 0.488 
-0.388009 -0.171335 0.509 
-0.372773 -0.173692 0.516 
-0.354249 -0.174702 0.519 
-0.336771 -0.176385 0.524 
-0.319497 -0.178404 0.53 
-0.301182 -0.180087 0.535 
-0.284037 -0.18278 0.543 
-0.265771 -0.185136 0.55 
-0.245174 -0.186146 0.553 
-0.225145 -0.187829 0.558 
-0.205807 -0.190522 0.566 
-0.184861 -0.192205 0.571 
-0.163232 -0.193552 0.575 
-0.14226 -0.196245 0.583 
-0.120446 -0.198601 0.59 
-0.0984022 -0.20163 0.599 
0.201404 -0.20365 0.605 
0.214714 -0.193888 0.576 
0.224061 -0.18278 0.543 
0.236206 -0.175711 0.522 
0.24717 -0.168979 0.502 
0.270377 -0.170999 0.508 
0.294635 -0.173355 0.515 
0.319451 -0.175711 0.522 
0.344825 -0.178068 0.529 
0.369373 -0.179751 0.534 
0.397979 -0.183117 0.544 
0.425067 -0.185473 0.551 
0.453525 -0.188166 0.559 
0.481769 -0.190522 0.566 
0.457182 -0.163257 0.485 
-0.392784 -0.170142 0.509 
-0.376882 -0.172147 0.515 
-0.357734 -0.172816 0.517 
-0.341034 -0.174821 0.523 
-0.323857 -0.176827 0.529 
-0.305056 -0.178164 0.533 
-0.288599 -0.181173 0.542 
-0.269946 -0.183178 0.548 
-0.249456 -0.184181 0.551 
-0.229966 -0.186187 0.557 
-0.211117 -0.189195 0.566 
-0.189218 -0.189863 0.568 
-0.168332 -0.191869 0.574 
-0.147475 -0.194543 0.582 
-0.125767 -0.196883 0.589 
-0.103848 -0.199891 0.598 
0.198485 -0.206577 0.618 
0.211931 -0.196215 0.587 
0.220901 -0.184181 0.551 
0.233171 -0.176827 0.529 
0.242461 -0.167802 0.502 
0.264566 -0.169139 0.506 
0.288678 -0.171479 0.513 
0.313951 -0.174153 0.521 
0.339862 -0.176827 0.529 
0.362999 -0.17783 0.532 
0.392153 -0.181507 0.543 
0.419898 -0.184181 0.551 
0.447479 -0.186521 0.558 
0.47646 -0.189195 0.566 
0.457182 -0.162119 0.485 
-0.393977 -0.168948 0.509 
-0.378089 -0.17094 0.515 
-0.358946 -0.171603 0.517 
-0.341606 -0.173263 0.522 
-0.325097 -0.175586 0.529 
-0.305731 -0.176582 0.532 
-0.289335 -0.17957 0.541 
-0.271231 -0.181893 0.548 
-0.250748 -0.182889 0.551 
-0.231272 -0.18488 0.557 
-0.212069 -0.187536 0.565 
-0.190214 -0.188199 0.567 
-0.169678 -0.190523 0.574 
-0.14884 -0.193178 0.582 
-0.127148 -0.195502 0.589 
-0.101212 -0.198821 0.599 
0.200406 -0.204132 0.615 
0.213221 -0.19351 0.583 
0.221863 -0.181561 0.547 
0.234761 -0.174923 0.527 
0.244816 -0.166625 0.502 
0.267467 -0.168284 0.507 
0.291652 -0.170608 0.514 
0.317002 -0.173263 0.522 
0.342343 -0.175586 0.529 
0.366182 -0.176914 0.533 
0.3947 -0.180233 0.543 
0.422482 -0.182889 0.551 
0.450903 -0.185544 0.559 
0.479114 -0.187868 0.566 
0.45615 -0.162642 0.49 
-0.397558 -0.167754 0.509 
-0.379489 -0.168743 0.512 
-0.361882 -0.170061 0.516 
-0.345279 -0.172039 0.522 
-0.328819 -0.174346 0.529 
-0.308892 -0.175005 0.531 
-0.291515 -0.177312 0.538 
-0.274082 -0.179949 0.546 
-0.254625 -0.181597 0.551 
-0.235191 -0.183574 0.557 
-0.215279 -0.185551 0.563 
-0.193861 -0.18654 0.566 
-0.173717 -0.189177 0.574 
-0.152147 -0.190825 0.579 
-0.131069 -0.193791 0.588 
-0.108542 -0.195439 0.593 
-0.0857594 -0.197416 0.599 
0.208535 -0.195439 0.593 
0.218473 -0.183904 0.558 
0.230797 -0.176323 0.535 
0.240106 -0.165447 0.502 
0.261156 -0.166106 0.504 
0.285156 -0.168413 0.511 
0.31091 -0.17138 0.52 
0.336743 -0.174016 0.528 
0.360504 -0.175335 0.532 
0.388889 -0.17863 0.542 
0.416556 -0.181267 0.55 
0.444064 -0.183574 0.557 
0.472968 -0.186211 0.565 
0.457363 -0.166106 0.504 
0.460349 -0.158197 0.48 
-0.395171 -0.166561 0.509 
-0.377824 -0.16787 0.513 
-0.360159 -0.169178 0.517 
-0.342831 -0.170815 0.522 
-0.326338 -0.173105 0.529 
-0.306402 -0.17376 0.531 
-0.289529 -0.176378 0.539 
-0.272019 -0.178995 0.547 
-0.252041 -0.180304 0.551 
-0.232996 -0.182595 0.558 
-0.213016 -0.184558 0.564 
-0.191206 -0.185213 0.566 
-0.171025 -0.187831 0.574 
-0.149947 -0.190121 0.581 
-0.128093 -0.192085 0.587 
-0.106117 -0.194703 0.595 
-0.0772017 -0.195684 0.598 
0.202735 -0.199284 0.609 
0.215087 -0.188812 0.577 
0.224061 -0.177687 0.543 
0.236206 -0.170815 0.522 
0.24717 -0.16427 0.502 
0.270377 -0.166233 0.508 
0.294635 -0.168524 0.515 
0.319451 -0.170815 0.522 
0.344825 -0.173105 0.529 
0.370065 -0.175069 0.535 
0.397979 -0.178014 0.544 
0.425067 -0.180304 0.551 
0.453525 -0.182922 0.559 
0.481769 -0.185213 0.566 
0.457081 -0.16067 0.491 
0.462376 -0.155108 0.474 
-0.385183 -0.165692 0.51 
-0.369143 -0.167641 0.516 
-0.351949 -0.169266 0.521 
-0.334356 -0.17089 0.526 
-0.315768 -0.17219 0.53 
-0.297974 -0.174139 0.536 
-0.280217 -0.176413 0.543 
-0.261426 -0.178362 0.549 
-0.242156 -0.180312 0.555 
-0.222012 -0.181936 0.56 
-0.201469 -0.183561 0.565 
-0.180527 -0.185185 0.57 
-0.159463 -0.187134 0.576 
-0.138395 -0.189733 0.584 
-0.116295 -0.191683 0.59 
-0.0941879 -0.194607 0.599 
0.0551772 -0.131904 0.406 
0.206775 -0.194932 0.6 
0.217238 -0.183561 0.565 
0.227457 -0.174139 0.536 
0.237486 -0.165367 0.509 
0.25474 -0.163418 0.503 
0.278618 -0.165692 0.51 
0.302468 -0.167641 0.516 
0.328048 -0.17024 0.524 
0.352934 -0.17219 0.53 
0.379005 -0.174464 0.537 
0.40787 -0.177713 0.547 
0.435177 -0.179987 0.554 
0.462216 -0.181936 0.56 
0.492329 -0.18486 0.569 
0.457182 -0.15757 0.485 
0.465837 -0.153671 0.473 
-0.381145 -0.164818 0.511 
-0.364302 -0.166431 0.516 
-0.347727 -0.168366 0.522 
-0.330674 -0.170302 0.528 
-0.310796 -0.170947 0.53 
-0.292946 -0.172882 0.536 
-0.276643 -0.176107 0.546 
-0.256743 -0.177397 0.55 
-0.237804 -0.179655 0.557 
-0.217533 -0.181268 0.562 
-0.196516 -0.182558 0.566 
-0.176102 -0.184816 0.573 
-0.154862 -0.186751 0.579 
-0.130846 -0.189331 0.587 
-0.108542 -0.191267 0.593 
-0.0801404 -0.193202 0.599 
0.199449 -0.200298 0.621 
0.212653 -0.189977 0.589 
0.2205 -0.177397 0.55 
0.233171 -0.170624 0.529 
0.243638 -0.161915 0.502 
0.265753 -0.163206 0.506 
0.289881 -0.165463 0.513 
0.315173 -0.168044 0.521 
0.341103 -0.170624 0.529 
0.366301 -0.172559 0.535 
0.393427 -0.17514 0.543 
0.42119 -0.17772 0.551 
0.448787 -0.179978 0.558 
0.477787 -0.182558 0.566 
0.458545 -0.162561 0.504 
0.460009 -0.153207 0.475 
-0.387575 -0.1633 0.51 
-0.370843 -0.164901 0.515 
-0.354392 -0.166822 0.521 
-0.336182 -0.168103 0.525 
-0.317654 -0.169383 0.529 
-0.300488 -0.171625 0.536 
-0.282764 -0.173866 0.543 
-0.263039 -0.175147 0.547 
-0.243877 -0.177068 0.553 
-0.224237 -0.178989 0.559 
-0.203757 -0.18059 0.564 
-0.182879 -0.182191 0.569 
-0.162165 -0.184433 0.576 
-0.140893 -0.186674 0.583 
-0.11886 -0.188595 0.589 
-0.0969975 -0.191797 0.599 
-0.0731166 -0.191797 0.599 
0.203068 -0.195319 0.61 
0.216283 -0.183472 0.573 
0.224938 -0.172585 0.539 
0.237283 -0.166182 0.519 
0.251201 -0.161058 0.503 
0.274491 -0.16298 0.509 
0.298258 -0.164901 0.515 
0.323123 -0.167142 0.522 
0.348546 -0.169383 0.529 
0.374528 -0.171625 0.536 
0.403283 -0.174827 0.546 
0.429722 -0.176748 0.552 
0.457457 -0.178989 0.559 
0.486609 -0.181551 0.567 
0.459847 -0.159778 0.499 
0.460291 -0.151453 0.473 
-0.383987 -0.162104 0.51 
-0.367933 -0.164011 0.516 
-0.3514 -0.165918 0.522 
-0.333122 -0.167189 0.526 
-0.314525 -0.168461 0.53 
-0.296717 -0.170368 0.536 
-0.279457 -0.172911 0.544 
-0.259664 -0.174182 0.548 
-0.240855 -0.176407 0.555 
-0.220698 -0.177996 0.56 
-0.200144 -0.179585 0.565 
-0.179504 -0.181493 0.571 
-0.158661 -0.183718 0.578 
-0.13726 -0.185943 0.585 
-0.115106 -0.18785 0.591 
-0.0927832 -0.190392 0.599 
0.0488707 -0.130001 0.409 
0.202629 -0.194842 0.613 
0.214474 -0.184035 0.579 
0.222787 -0.172593 0.543 
0.234982 -0.165918 0.522 
0.24717 -0.159561 0.502 
0.270377 -0.161468 0.508 
0.294635 -0.163693 0.515 
0.319451 -0.165918 0.522 
0.344825 -0.168143 0.529 
0.370757 -0.170368 0.536 
0.397979 -0.172911 0.544 
0.425067 -0.175136 0.551 
0.453525 -0.177678 0.559 
0.481769 -0.179903 0.566 
0.458815 -0.159879 0.503 
0.457143 -0.15225 0.479 
0.468286 -0.149708 0.471 
-0.369143 -0.162801 0.516 
-0.352624 -0.164694 0.522 
-0.33372 -0.16564 0.525 
-0.315768 -0.167218 0.53 
-0.297974 -0.169111 0.536 
-0.280733 -0.171635 0.544 
-0.26095 -0.172897 0.548 
-0.24172 -0.17479 0.554 
-0.222012 -0.176683 0.56 
-0.201469 -0.17826 0.565 
-0.180844 -0.180154 0.571 
-0.15974 -0.182047 0.577 
-0.138395 -0.184255 0.584 
-0.116492 -0.186464 0.591 
-0.0941879 -0.188988 0.599 
0.0488707 -0.129042 0.409 
0.198751 -0.198137 0.628 
0.210247 -0.186148 0.59 
0.218316 -0.173843 0.551 
0.231492 -0.166587 0.528 
0.242461 -0.158384 0.502 
0.264043 -0.15933 0.505 
0.288678 -0.161854 0.513 
0.312746 -0.163747 0.519 
0.338577 -0.166271 0.527 
0.365046 -0.168795 0.535 
0.392153 -0.171319 0.543 
0.419136 -0.173528 0.55 
0.447479 -0.176052 0.558 
0.47646 -0.178576 0.566 
0.458319 -0.160592 0.509 
0.456045 -0.15302 0.485 
0.463619 -0.149234 0.473 
-0.379489 -0.160338 0.512 
-0.362583 -0.161904 0.517 
-0.345279 -0.16347 0.522 
-0.328197 -0.165349 0.528 
-0.308892 -0.166288 0.531 
-0.291515 -0.16848 0.538 
-0.274584 -0.171299 0.547 
-0.254163 -0.172238 0.55 
-0.235613 -0.174743 0.558 
-0.214132 -0.17537 0.56 
-0.193861 -0.177249 0.566 
-0.173717 -0.179754 0.574 
-0.152935 -0.182259 0.582 
-0.131069 -0.184138 0.588 
-0.108542 -0.185704 0.593 
-0.0859026 -0.187896 0.6 
0.185507 -0.204807 0.654 
0.202629 -0.191967 0.613 
0.213363 -0.18038 0.576 
0.221967 -0.16942 0.541 
0.234532 -0.163156 0.521 
0.248347 -0.157206 0.502 
0.272103 -0.159398 0.509 
0.295843 -0.161277 0.515 
0.320675 -0.16347 0.522 
0.345411 -0.165349 0.528 
0.372014 -0.167854 0.536 
0.399988 -0.170672 0.545 
0.426359 -0.172551 0.551 
0.454836 -0.175057 0.559 
0.48395 -0.177562 0.567 
0.458165 -0.156893 0.501 
0.456189 -0.149691 0.478 
-0.398374 -0.157583 0.507 
-0.381891 -0.159137 0.512 
-0.364302 -0.160381 0.516 
-0.347727 -0.162245 0.522 
-0.330048 -0.163799 0.527 
-0.310796 -0.164732 0.53 
-0.293492 -0.166908 0.537 
-0.27715 -0.170016 0.547 
-0.256743 -0.170948 0.55 
-0.237804 -0.173124 0.557 
-0.216759 -0.174056 0.56 
-0.196516 -0.175921 0.566 
-0.176409 -0.178408 0.574 
-0.155397 -0.180583 0.581 
-0.1336 -0.182448 0.587 
-0.108542 -0.184313 0.593 
-0.0859026 -0.186489 0.6 
-0.0548547 -0.186178 0.599 
0.199068 -0.195503 0.629 
0.209891 -0.18307 0.589 
0.21937 -0.169083 0.544 
0.232196 -0.162867 0.524 
0.244816 -0.156029 0.502 
0.267467 -0.157583 0.507 
0.291652 -0.159759 0.514 
0.315788 -0.161624 0.52 
0.341049 -0.163799 0.527 
0.368243 -0.166597 0.536 
0.395427 -0.169083 0.544 
0.421716 -0.170948 0.55 
0.450096 -0.173435 0.558 
0.479114 -0.175921 0.566 
0.457363 -0.156651 0.504 
0.455668 -0.149502 0.481 
0.467181 -0.146394 0.471 
-0.383091 -0.157937 0.512 
-0.365512 -0.15917 0.516 
-0.348952 -0.161021 0.522 
-0.330655 -0.162255 0.526 
-0.312039 -0.163489 0.53 
-0.294752 -0.165648 0.537 
-0.278433 -0.168733 0.547 
-0.258032 -0.169658 0.55 
-0.238681 -0.171509 0.556 
-0.218072 -0.172743 0.56 
-0.197843 -0.174594 0.566 
-0.177755 -0.177062 0.574 
-0.15649 -0.178912 0.58 
-0.134746 -0.180763 0.586 
-0.112524 -0.182614 0.592 
-0.0901239 -0.185082 0.6 
-0.0619818 -0.185082 0.6 
0.194451 -0.198346 0.643 
0.20643 -0.184773 0.599 
0.217812 -0.170584 0.553 
0.229883 -0.163489 0.53 
0.239628 -0.154543 0.501 
0.261156 -0.155469 0.504 
0.285714 -0.157937 0.512 
0.309116 -0.159479 0.517 
0.334192 -0.161638 0.524 
0.361859 -0.164723 0.534 
0.388889 -0.167191 0.542 
0.416556 -0.169658 0.55 
0.444862 -0.172126 0.558 
0.472968 -0.174285 0.565 
0.457125 -0.157011 0.509 
0.456963 -0.145906 0.473 
-0.392012 -0.155511 0.508 
-0.37615 -0.157348 0.514 
-0.359118 -0.158879 0.519 
-0.33973 -0.159491 0.521 
-0.323857 -0.16194 0.529 
-0.305628 -0.163471 0.534 
-0.288599 -0.16592 0.542 
-0.269453 -0.16745 0.547 
-0.249456 -0.168675 0.551 
-0.230379 -0.170818 0.558 
-0.209252 -0.171736 0.561 
-0.189218 -0.173879 0.568 
-0.168332 -0.175716 0.574 
-0.147475 -0.178164 0.582 
-0.125767 -0.180307 0.589 
-0.103327 -0.182144 0.595 
-0.0804079 -0.183981 0.601 
-0.0562595 -0.183369 0.599 
0.195931 -0.195307 0.638 
0.207141 -0.182756 0.597 
0.218413 -0.167756 0.548 
0.231492 -0.161634 0.528 
0.239628 -0.153368 0.501 
0.261156 -0.154287 0.504 
0.285714 -0.156736 0.512 
0.309116 -0.158266 0.517 
0.334192 -0.160409 0.524 
0.361859 -0.163471 0.534 
0.389606 -0.166226 0.543 
0.416556 -0.168369 0.55 
0.444862 -0.170818 0.558 
0.472968 -0.17296 0.565 
0.456227 -0.155511 0.508 
0.45624 -0.148164 0.484 
-0.390396 -0.154624 0.509 
-0.374466 -0.156446 0.515 
-0.35737 -0.157965 0.52 
-0.337287 -0.158269 0.521 
-0.321375 -0.160699 0.529 
-0.303124 -0.162218 0.534 
-0.286056 -0.164648 0.542 
-0.267375 -0.166471 0.548 
-0.246872 -0.167382 0.551 
-0.227762 -0.169509 0.558 
-0.207357 -0.171028 0.563 
-0.186882 -0.17285 0.569 
-0.16564 -0.174369 0.574 
-0.144994 -0.177103 0.583 
-0.123213 -0.17923 0.59 
-0.100874 -0.181356 0.597 
-0.077589 -0.182571 0.601 
-0.05345 -0.181964 0.599 
0.195044 -0.194419 0.64 
0.20643 -0.181964 0.599 
0.217403 -0.170724 0.562 
0.228255 -0.161611 0.532 
0.237752 -0.152497 0.502 
0.258279 -0.152801 0.503 
0.282759 -0.155231 0.511 
0.306098 -0.15675 0.516 
0.331101 -0.158877 0.523 
0.358009 -0.161611 0.532 
0.386347 -0.164648 0.542 
0.413224 -0.166775 0.549 
0.441452 -0.169205 0.557 
0.468653 -0.171028 0.563 
0.494588 -0.172243 0.567 
0.456045 -0.147333 0.485 
-0.386815 -0.15343 0.509 
-0.370843 -0.155239 0.515 
-0.353712 -0.156746 0.52 
-0.334261 -0.157349 0.522 
-0.317654 -0.159459 0.529 
-0.300488 -0.161569 0.536 
-0.282764 -0.163679 0.543 
-0.264001 -0.165487 0.549 
-0.242995 -0.16609 0.551 
-0.224237 -0.168502 0.559 
-0.204119 -0.17031 0.565 
-0.183843 -0.17242 0.572 
-0.161883 -0.173325 0.575 
-0.140893 -0.175736 0.583 
-0.119264 -0.178148 0.591 
-0.0968355 -0.180258 0.598 
-0.0734828 -0.181463 0.602 
-0.0493179 -0.180861 0.6 
0.190177 -0.195631 0.649 
0.203068 -0.183875 0.61 
0.213595 -0.172722 0.573 
0.222844 -0.16187 0.537 
0.234702 -0.15554 0.516 
0.248347 -0.15132 0.502 
0.271569 -0.153129 0.508 
0.295843 -0.155239 0.515 
0.320675 -0.157349 0.522 
0.345411 -0.159157 0.528 
0.372708 -0.16187 0.537 
0.399988 -0.164282 0.545 
0.426359 -0.16609 0.551 
0.454836 -0.168502 0.559 
0.483096 -0.170612 0.566 
0.455422 -0.150114 0.498 
-0.39159 -0.152236 0.509 
-0.375674 -0.154031 0.515 
-0.357211 -0.154928 0.518 
-0.338508 -0.155825 0.521 
-0.322616 -0.158218 0.529 
-0.304376 -0.159714 0.534 
-0.287327 -0.162106 0.542 
-0.268661 -0.163901 0.548 
-0.248164 -0.164798 0.551 
-0.22907 -0.166892 0.558 
-0.209048 -0.168686 0.564 
-0.187886 -0.169883 0.568 
-0.166986 -0.171677 0.574 
-0.14611 -0.17407 0.582 
-0.124386 -0.176163 0.589 
-0.102103 -0.178257 0.596 
-0.0789985 -0.179753 0.601 
-0.0549463 -0.179453 0.6 
0.182013 -0.196801 0.658 
0.199068 -0.188127 0.629 
0.208822 -0.175266 0.586 
0.218495 -0.163004 0.545 
0.23273 -0.157919 0.528 
0.240803 -0.149844 0.501 
0.262338 -0.150741 0.504 
0.287475 -0.153433 0.513 
0.310329 -0.154629 0.517 
0.335421 -0.156723 0.524 
0.363112 -0.159714 0.534 
0.39088 -0.162405 0.543 
0.417086 -0.1642 0.549 
0.44617 -0.166892 0.558 
0.474293 -0.168985 0.565 
0.454999 -0.150741 0.504 
-0.393203 -0.150746 0.508 
-0.377355 -0.152526 0.514 
-0.358946 -0.153417 0.517 
-0.340298 -0.154307 0.52 
-0.325097 -0.156978 0.529 
-0.305731 -0.157868 0.532 
-0.2888 -0.160242 0.54 
-0.271231 -0.162616 0.548 
-0.250748 -0.163506 0.551 
-0.231688 -0.165583 0.558 
-0.211318 -0.167067 0.563 
-0.190214 -0.168254 0.567 
-0.169678 -0.170331 0.574 
-0.14884 -0.172705 0.582 
-0.126716 -0.174189 0.587 
-0.104722 -0.176563 0.595 
-0.0818174 -0.178343 0.601 
-0.0577605 -0.178046 0.6 
0.17584 -0.195257 0.658 
0.195931 -0.189323 0.638 
0.206794 -0.176859 0.596 
0.21779 -0.167067 0.563 
0.228684 -0.158165 0.533 
0.237752 -0.148965 0.502 
0.258279 -0.149262 0.503 
0.282759 -0.151636 0.511 
0.306098 -0.15312 0.516 
0.331101 -0.155197 0.523 
0.358009 -0.157868 0.532 
0.386347 -0.160835 0.542 
0.411719 -0.162319 0.547 
0.441452 -0.165286 0.557 
0.468653 -0.167067 0.563 
0.494588 -0.168254 0.567 
-0.388009 -0.149849 0.509 
-0.372051 -0.151615 0.515 
-0.354249 -0.152793 0.519 
-0.335486 -0.153676 0.522 
-0.318894 -0.155737 0.529 
-0.301182 -0.157503 0.535 
-0.284037 -0.159859 0.543 
-0.265771 -0.161919 0.55 
-0.244287 -0.162214 0.551 
-0.225145 -0.164274 0.558 
-0.205807 -0.16663 0.566 
-0.184537 -0.167807 0.57 
-0.163232 -0.169279 0.575 
-0.14226 -0.171634 0.583 
-0.12065 -0.17399 0.591 
-0.0982379 -0.17605 0.598 
-0.072071 -0.177228 0.602 
-0.0481503 -0.177522 0.603 
0.173279 -0.194303 0.66 
0.194451 -0.189298 0.643 
0.205368 -0.176639 0.6 
0.216296 -0.16663 0.566 
0.2262 -0.157798 0.536 
0.235153 -0.148377 0.504 
0.25474 -0.148083 0.503 
0.278618 -0.150143 0.51 
0.301881 -0.151615 0.515 
0.327422 -0.153971 0.523 
0.352934 -0.156031 0.53 
0.380416 -0.158681 0.539 
0.406379 -0.160447 0.545 
0.435177 -0.163097 0.554 
0.463041 -0.165158 0.561 
0.489733 -0.16663 0.566 
-0.389203 -0.148655 0.509 
-0.373258 -0.150408 0.515 
-0.354781 -0.151284 0.518 
-0.33671 -0.152452 0.522 
-0.320135 -0.154496 0.529 
-0.301871 -0.155957 0.534 
-0.284785 -0.158293 0.542 
-0.266576 -0.160337 0.549 
-0.24558 -0.160921 0.551 
-0.226453 -0.162966 0.558 
-0.206769 -0.16501 0.565 
-0.185548 -0.166178 0.569 
-0.16458 -0.167931 0.575 
-0.143381 -0.169975 0.582 
-0.122036 -0.172604 0.591 
-0.0996404 -0.174648 0.598 
-0.0761796 -0.175524 0.601 
-0.0523059 -0.175816 0.602 
0.0477305 -0.186038 0.637 
0.1681 -0.193924 0.664 
0.19047 -0.189835 0.65 
0.203401 -0.178445 0.611 
0.213595 -0.167347 0.573 
0.223259 -0.157125 0.538 
0.234365 -0.148947 0.51 
0.251201 -0.146903 0.503 
0.274491 -0.148655 0.509 
0.298258 -0.150408 0.515 
0.323123 -0.152452 0.522 
0.348546 -0.154496 0.529 
0.375226 -0.156833 0.537 
0.401806 -0.158877 0.544 
0.429722 -0.161214 0.552 
0.457457 -0.163258 0.559 
0.485751 -0.165302 0.566 
-0.395171 -0.147462 0.509 
-0.377824 -0.14862 0.513 
-0.359462 -0.14949 0.516 
-0.342174 -0.150938 0.521 
-0.325721 -0.152966 0.528 
-0.306979 -0.154125 0.532 
-0.289529 -0.156153 0.539 
-0.272019 -0.15847 0.547 
-0.252041 -0.159629 0.551 
-0.232161 -0.161078 0.556 
-0.212638 -0.163106 0.563 
-0.191206 -0.163975 0.566 
-0.171025 -0.166293 0.574 
-0.149947 -0.168321 0.581 
-0.127657 -0.169479 0.585 
-0.105939 -0.172087 0.594 
-0.0830884 -0.173825 0.6 
-0.0595621 -0.174984 0.604 
0.0341241 -0.183675 0.634 
0.0687525 -0.184834 0.638 
0.166794 -0.192656 0.665 
0.190109 -0.189469 0.654 
0.203621 -0.17846 0.616 
0.212622 -0.166293 0.574 
0.223259 -0.155863 0.538 
0.234247 -0.1492 0.515 
0.250022 -0.145723 0.503 
0.27276 -0.147172 0.508 
0.296474 -0.14891 0.514 
0.321899 -0.151228 0.522 
0.347306 -0.153256 0.529 
0.373271 -0.155284 0.536 
0.40053 -0.157601 0.544 
0.427651 -0.159629 0.551 
0.456146 -0.161947 0.559 
0.484424 -0.163975 0.566 
-0.393977 -0.146268 0.509 
-0.376621 -0.147417 0.513 
-0.358252 -0.148279 0.516 
-0.341606 -0.150004 0.522 
-0.325097 -0.152015 0.529 
-0.305731 -0.152877 0.532 
-0.2888 -0.155176 0.54 
-0.270736 -0.157188 0.547 
-0.250748 -0.158337 0.551 
-0.231272 -0.160061 0.557 
-0.211318 -0.161785 0.563 
-0.189879 -0.162648 0.566 
-0.169678 -0.164946 0.574 
-0.148584 -0.166958 0.581 
-0.126716 -0.168682 0.587 
-0.104722 -0.170981 0.595 
-0.0816813 -0.172418 0.6 
-0.0582418 -0.173855 0.605 
-0.0160138 -0.17759 0.618 
0.0492243 -0.18305 0.637 
0.0749716 -0.183912 0.64 
0.137053 -0.188798 0.657 
0.1681 -0.190809 0.664 
0.191056 -0.187361 0.652 
0.204067 -0.176154 0.613 
0.213595 -0.164659 0.573 
0.223259 -0.154601 0.538 
0.234365 -0.146555 0.51 
0.251201 -0.144544 0.503 
0.274491 -0.146268 0.509 
0.2971 -0.147417 0.513 
0.323123 -0.150004 0.522 
0.348546 -0.152015 0.529 
0.374528 -0.154027 0.536 
0.401806 -0.156326 0.544 
0.429722 -0.158625 0.552 
0.457457 -0.160636 0.559 
0.485751 -0.162648 0.566 
-0.390396 -0.145074 0.509 
-0.374466 -0.146784 0.515 
-0.355309 -0.147354 0.517 
-0.337934 -0.148779 0.522 
-0.321375 -0.150775 0.529 
-0.302556 -0.151915 0.533 
-0.285529 -0.154195 0.541 
-0.267375 -0.15619 0.548 
-0.246872 -0.157045 0.551 
-0.227762 -0.15904 0.558 
-0.207725 -0.16075 0.564 
-0.186225 -0.161605 0.567 
-0.165929 -0.163885 0.575 
-0.144746 -0.165881 0.582 
-0.123422 -0.168446 0.591 
-0.100874 -0.170156 0.597 
-0.077589 -0.171296 0.601 
-0.0540746 -0.172721 0.606 
-0.0203288 -0.175856 0.617 
0.0371563 -0.180986 0.635 
0.0688602 -0.182127 0.639 
0.12146 -0.186972 0.656 
0.149414 -0.189252 0.664 
0.174297 -0.187542 0.658 
0.19474 -0.182127 0.639 
0.206775 -0.171011 0.6 
0.216629 -0.15961 0.56 
0.227861 -0.1522 0.534 
0.236804 -0.143934 0.505 
0.256429 -0.143649 0.504 
0.279814 -0.145359 0.51 
0.303089 -0.146784 0.515 
0.32802 -0.148779 0.522 
0.354177 -0.15106 0.53 
0.38168 -0.153625 0.539 
0.406909 -0.15505 0.544 
0.437264 -0.158185 0.555 
0.465184 -0.16018 0.562 
0.491061 -0.16132 0.566 
-0.393977 -0.14388 0.509 
-0.376621 -0.145011 0.513 
-0.358252 -0.145859 0.516 
-0.341606 -0.147555 0.522 
-0.324483 -0.149251 0.528 
-0.305156 -0.150099 0.531 
-0.288265 -0.152361 0.539 
-0.270241 -0.154339 0.546 
-0.250748 -0.155753 0.551 
-0.230857 -0.157166 0.556 
-0.210943 -0.158862 0.562 
-0.189879 -0.159993 0.566 
-0.169678 -0.162254 0.574 
-0.148584 -0.164233 0.581 
-0.126932 -0.166212 0.588 
-0.104722 -0.16819 0.595 
-0.0816813 -0.169604 0.6 
-0.0583381 -0.1713 0.606 
-0.0345729 -0.173278 0.613 
-0.0102331 -0.174975 0.619 
0.0161023 -0.177236 0.627 
0.0416239 -0.179497 0.635 
0.0719698 -0.180911 0.64 
0.0991608 -0.18402 0.651 
0.128365 -0.184303 0.652 
0.15791 -0.188543 0.667 
0.182013 -0.185999 0.658 
0.198751 -0.177519 0.628 
0.208822 -0.165646 0.586 
0.218316 -0.155753 0.551 
0.231126 -0.149817 0.53 
0.239405 -0.142184 0.503 
0.259975 -0.142467 0.504 
0.283402 -0.144163 0.51 
0.307308 -0.145859 0.516 
0.332328 -0.147838 0.523 
0.358581 -0.150099 0.531 
0.386903 -0.152926 0.541 
0.412246 -0.154339 0.546 
0.442758 -0.157449 0.557 
0.470808 -0.159427 0.564 
0.495043 -0.159993 0.566 
-0.386379 -0.142967 0.51 
-0.370353 -0.144649 0.516 
-0.352493 -0.14577 0.52 
-0.333675 -0.146611 0.523 
-0.317011 -0.148574 0.53 
-0.298673 -0.149975 0.535 
-0.28149 -0.152218 0.543 
-0.263192 -0.15418 0.55 
-0.241703 -0.154461 0.551 
-0.222527 -0.156423 0.558 
-0.202794 -0.158385 0.565 
-0.182183 -0.160067 0.571 
-0.160814 -0.161469 0.576 
-0.139286 -0.163151 0.582 
-0.117878 -0.165674 0.591 
-0.0954331 -0.167636 0.598 
-0.072071 -0.168757 0.602 
-0.0485496 -0.170439 0.608 
-0.0246697 -0.172962 0.617 
-7.2035e-05 -0.174924 0.624 
0.0249646 -0.176046 0.628 
0.050559 -0.178008 0.635 
0.0784608 -0.180531 0.644 
0.106076 -0.183895 0.656 
0.131826 -0.183334 0.654 
0.161039 -0.186979 0.667 
0.185099 -0.184456 0.658 
0.200733 -0.175205 0.625 
0.210401 -0.16231 0.579 
0.219774 -0.152779 0.545 
0.231753 -0.146611 0.523 
0.242461 -0.140725 0.502 
0.264043 -0.141565 0.505 
0.287553 -0.143247 0.511 
0.311541 -0.144929 0.517 
0.337935 -0.147452 0.526 
0.363682 -0.149415 0.533 
0.392153 -0.152218 0.543 
0.417612 -0.15362 0.548 
0.447479 -0.156423 0.558 
0.475618 -0.158385 0.565 
-11.6481 -3.30271 11.881 
-0.381595 -0.141771 0.51 
-0.365512 -0.143439 0.516 
-0.348952 -0.145107 0.522 
-0.329398 -0.145663 0.524 
-0.312039 -0.147331 0.53 
-0.294752 -0.149277 0.537 
-0.277415 -0.1515 0.545 
-0.258032 -0.15289 0.55 
-0.236964 -0.153446 0.552 
-0.217682 -0.155392 0.559 
-0.197843 -0.157338 0.566 
-0.177755 -0.159562 0.574 
-0.155681 -0.160396 0.577 
-0.134056 -0.162064 0.583 
-0.112524 -0.164566 0.592 
-0.0899737 -0.166512 0.599 
-0.0667548 -0.168179 0.605 
-0.0429166 -0.169291 0.609 
-0.0189125 -0.171793 0.618 
0.00580931 -0.174295 0.627 
0.0309539 -0.175129 0.63 
0.0566047 -0.176797 0.636 
0.0832494 -0.179577 0.646 
0.11086 -0.182635 0.657 
0.137053 -0.182635 0.657 
0.165234 -0.184858 0.665 
0.188863 -0.182079 0.655 
0.202833 -0.171793 0.618 
0.21285 -0.158728 0.571 
0.222823 -0.150111 0.54 
0.233039 -0.143161 0.515 
0.247662 -0.139825 0.503 
0.270377 -0.141215 0.508 
0.292346 -0.142049 0.511 
0.318839 -0.144829 0.521 
0.344173 -0.146775 0.528 
0.370065 -0.148721 0.535 
0.397247 -0.150945 0.543 
0.424295 -0.15289 0.55 
0.453525 -0.155392 0.559 
0.481769 -0.157338 0.566 
-12.0327 -3.43224 12.452 
-0.375887 -0.141126 0.512 
-0.358252 -0.142229 0.516 
-0.341606 -0.143883 0.522 
-0.325097 -0.145812 0.529 
-0.305156 -0.146363 0.531 
-0.2888 -0.148844 0.54 
-0.269746 -0.150222 0.545 
-0.250748 -0.151876 0.551 
-0.230442 -0.152979 0.555 
-0.210192 -0.154357 0.56 
-0.189879 -0.156011 0.566 
-0.169678 -0.158216 0.574 
-0.148329 -0.15987 0.58 
-0.126932 -0.162075 0.588 
-0.10437 -0.163453 0.593 
-0.0816813 -0.165382 0.6 
-0.0584344 -0.167312 0.607 
-0.0346293 -0.169241 0.614 
-0.0102331 -0.17062 0.619 
0.0146552 -0.1731 0.628 
0.0400083 -0.174478 0.633 
0.06576 -0.175857 0.638 
0.0926251 -0.178613 0.648 
0.119922 -0.180818 0.656 
0.147411 -0.182472 0.662 
0.172754 -0.181369 0.658 
0.193544 -0.176408 0.64 
0.207079 -0.166761 0.605 
0.216242 -0.154081 0.559 
0.227434 -0.146915 0.533 
0.236086 -0.139472 0.506 
0.255247 -0.138921 0.504 
0.278072 -0.140299 0.509 
0.301881 -0.141953 0.515 
0.326796 -0.143883 0.522 
0.352268 -0.145812 0.529 
0.379005 -0.148017 0.537 
0.406379 -0.150222 0.545 
0.434391 -0.152427 0.553 
0.463041 -0.154633 0.561 
0.489733 -0.156011 0.566 
-0.386815 -0.139106 0.509 
-0.370843 -0.140745 0.515 
-0.353032 -0.141839 0.519 
-0.334261 -0.142659 0.522 
-0.318254 -0.144845 0.53 
-0.299927 -0.146211 0.535 
-0.282764 -0.148398 0.543 
-0.26352 -0.149764 0.548 
-0.242995 -0.150584 0.551 
-0.223836 -0.152497 0.558 
-0.203757 -0.154137 0.564 
-0.183522 -0.15605 0.571 
-0.161883 -0.157143 0.575 
-0.140651 -0.159056 0.582 
-0.119264 -0.161516 0.591 
-0.0963497 -0.162609 0.595 
-0.0705418 -0.164249 0.601 
-0.0472012 -0.166435 0.609 
-0.0232228 -0.168621 0.617 
0.00139358 -0.170808 0.625 
0.0264794 -0.171901 0.629 
0.0520481 -0.173541 0.635 
0.0784608 -0.176 0.644 
0.105914 -0.179006 0.655 
0.132028 -0.179006 0.655 
0.161039 -0.182286 0.667 
0.184818 -0.179553 0.657 
0.200412 -0.170534 0.624 
0.210764 -0.158509 0.58 
0.219774 -0.148944 0.545 
0.231967 -0.141565 0.518 
0.244816 -0.137193 0.502 
0.266939 -0.138286 0.506 
0.289382 -0.139379 0.51 
0.31518 -0.141839 0.519 
0.341049 -0.144025 0.527 
0.366869 -0.145938 0.534 
0.3947 -0.148398 0.543 
0.421716 -0.150311 0.55 
0.450096 -0.152497 0.558 
0.478268 -0.15441 0.565 
-12.5139 -3.50876 12.95 
-0.375887 -0.138725 0.512 
-0.358252 -0.139809 0.516 
-0.341606 -0.141434 0.522 
-0.325097 -0.143331 0.529 
-0.305156 -0.143873 0.531 
-0.288265 -0.14604 0.539 
-0.269746 -0.147666 0.545 
-0.250748 -0.149292 0.551 
-0.230442 -0.150376 0.555 
-0.210192 -0.15173 0.56 
-0.189879 -0.153356 0.566 
-0.169678 -0.155524 0.574 
-0.148073 -0.156878 0.579 
-0.126716 -0.159046 0.587 
-0.104194 -0.160401 0.592 
-0.0816813 -0.162568 0.6 
-0.0584344 -0.164465 0.607 
-0.0346857 -0.166632 0.615 
-0.0102331 -0.167716 0.619 
0.0146552 -0.170155 0.628 
0.0400083 -0.171509 0.633 
0.06576 -0.172864 0.638 
0.0974841 -0.176116 0.65 
0.123968 -0.176928 0.653 
0.152758 -0.18018 0.665 
0.177114 -0.178012 0.657 
0.19619 -0.17178 0.634 
0.208541 -0.161755 0.597 
0.216775 -0.150917 0.557 
0.227397 -0.143602 0.53 
0.236335 -0.136557 0.504 
0.256429 -0.136557 0.504 
0.279265 -0.137912 0.509 
0.303678 -0.139809 0.516 
0.32802 -0.141434 0.522 
0.354177 -0.143602 0.53 
0.380264 -0.145499 0.537 
0.407657 -0.147666 0.545 
0.436476 -0.150105 0.554 
0.465184 -0.152272 0.562 
0.491061 -0.153356 0.566 
-0.385621 -0.136718 0.509 
-0.370353 -0.138599 0.516 
-0.351815 -0.139404 0.519 
-0.333675 -0.140479 0.523 
-0.317011 -0.142359 0.53 
-0.299231 -0.143971 0.536 
-0.282009 -0.146119 0.544 
-0.262235 -0.147194 0.548 
-0.241703 -0.148 0.551 
-0.222527 -0.14988 0.558 
-0.202076 -0.151223 0.563 
-0.182502 -0.15364 0.572 
