# .PCD v.7 - Point Cloud Data file format
VERSION .7
FIELDS x y z
SIZE 4 4 4
TYPE F F F
COUNT 1 1 1
WIDTH 1862
HEIGHT 1
VIEWPOINT 0 0 0 1 0 0 0
POINTS 1862
DATA ascii
-1.24876 -0.326727 1.719 
-1.19311 -0.333569 1.755 
-1.04564 -0.330908 1.741 
-1.00382 -0.344403 1.812 
-0.763563 -0.337751 1.777 
-0.683418 -0.339081 1.784 
-0.603967 -0.341172 1.795 
-0.527548 -0.345924 1.82 
-0.425283 -0.345543 1.818 
-0.346353 -0.351435 1.849 
-0.26805 -0.362079 1.905 
-0.176905 -0.357328 1.88 
-0.0863564 -0.357328 1.88 
0.00128311 -0.360749 1.898 
0.091168 -0.366451 1.928 
0.372898 -0.424612 2.234 
0.432454 -0.376715 1.982 
0.523873 -0.367401 1.933 
2.06693 -1.0832 5.699 
2.59342 -1.19078 6.265 
0.727318 -0.270086 1.421 
0.829292 -0.282251 1.485 
0.922711 -0.289854 1.525 
1.05547 -0.295175 1.553 
1.16489 -0.304869 1.604 
1.27521 -0.313612 1.65 
1.32917 -0.30829 1.622 
1.46973 -0.322545 1.697 
1.57986 -0.329007 1.731 
1.74112 -0.344973 1.815 
-1.38788 -0.327261 1.736 
-1.28166 -0.322925 1.713 
-1.22049 -0.334613 1.775 
-1.04605 -0.341588 1.812 
-0.934333 -0.333859 1.771 
-0.717838 -0.335555 1.78 
-0.646642 -0.341776 1.813 
-0.568959 -0.345924 1.835 
-0.466366 -0.341776 1.813 
-0.386284 -0.345735 1.834 
-0.309166 -0.355349 1.885 
-0.220249 -0.353653 1.876 
-0.134861 -0.35912 1.905 
-0.0465761 -0.363078 1.926 
0.0435318 -0.365906 1.941 
0.134831 -0.368168 1.953 
0.380671 -0.371184 1.969 
0.473166 -0.37175 1.972 
0.597067 -0.376463 1.997 
2.04249 -1.02646 5.445 
2.54728 -1.13033 5.996 
0.763681 -0.275419 1.461 
0.84772 -0.280698 1.489 
0.942992 -0.288615 1.531 
1.07927 -0.293328 1.556 
1.19991 -0.305582 1.621 
1.30221 -0.311991 1.655 
1.38102 -0.312368 1.657 
1.49346 -0.319909 1.697 
1.61981 -0.329523 1.748 
1.73633 -0.336309 1.784 
-1.35685 -0.32232 1.724 
-1.2558 -0.322507 1.725 
-1.20878 -0.331668 1.774 
-1.01892 -0.341951 1.829 
-0.766324 -0.332229 1.777 
-0.689267 -0.335033 1.792 
-0.61115 -0.338025 1.808 
-0.529793 -0.339894 1.818 
-0.444321 -0.339333 1.815 
-0.36448 -0.34382 1.839 
-0.286494 -0.353355 1.89 
-0.196931 -0.350738 1.876 
-0.110541 -0.354103 1.894 
-0.022637 -0.360086 1.926 
0.0672739 -0.360834 1.93 
0.164879 -0.224353 1.2 
0.412638 -0.36663 1.961 
0.497872 -0.362143 1.937 
0.61815 -0.374856 2.005 
2.03963 -1.0208 5.46 
2.56028 -1.13504 6.071 
0.751867 -0.270532 1.447 
0.844226 -0.278758 1.491 
0.936396 -0.285676 1.528 
1.06169 -0.289415 1.548 
1.18292 -0.301941 1.615 
1.29247 -0.310167 1.659 
1.3442 -0.304372 1.628 
1.47504 -0.31615 1.691 
1.5897 -0.323442 1.73 
1.71764 -0.332603 1.779 
-1.37321 -0.319085 1.721 
-1.28924 -0.318158 1.716 
-1.24471 -0.331878 1.79 
-1.10081 -0.323906 1.747 
-1.04447 -0.34189 1.844 
-0.927333 -0.330766 1.784 
-0.69321 -0.332805 1.795 
-0.614638 -0.335586 1.81 
-0.532617 -0.33707 1.818 
-0.447633 -0.336884 1.817 
-0.366938 -0.340592 1.837 
-0.288665 -0.349492 1.885 
-0.199846 -0.347823 1.876 
-0.113483 -0.351161 1.894 
-0.0257092 -0.358206 1.932 
0.0643419 -0.358206 1.932 
0.162879 -0.222303 1.199 
0.402263 -0.36247 1.955 
0.489853 -0.359875 1.941 
0.598861 -0.37137 2.003 
2.06693 -1.05663 5.699 
2.55603 -1.15787 6.245 
2.65325 -1.07536 5.8 
0.828565 -0.276627 1.492 
0.906535 -0.279223 1.506 
1.02454 -0.284043 1.532 
1.13386 -0.29387 1.585 
1.25269 -0.304809 1.644 
1.32528 -0.303882 1.639 
1.43246 -0.310556 1.675 
1.53127 -0.314821 1.698 
1.69957 -0.332249 1.792 
1.74926 -0.325945 1.758 
-1.31549 -0.314757 1.712 
-1.25037 -0.322662 1.755 
-1.14896 -0.325604 1.771 
-0.99243 -0.30538 1.661 
-1.0015 -0.334245 1.818 
-0.753978 -0.328546 1.787 
-0.666105 -0.334613 1.82 
-0.586704 -0.337738 1.837 
-0.498898 -0.336267 1.829 
-0.416362 -0.338474 1.841 
-0.331091 -0.339025 1.844 
-0.250858 -0.346931 1.887 
-0.165322 -0.352079 1.915 
-0.0751494 -0.34785 1.892 
0.0133129 -0.355204 1.932 
0.103364 -0.355204 1.932 
0.355479 -0.370832 2.017 
0.443252 -0.365684 1.989 
0.524104 -0.357594 1.945 
0.634989 -0.369361 2.009 
2.08478 -1.00108 5.445 
2.49878 -1.06966 5.818 
0.772428 -0.27008 1.469 
0.852347 -0.273757 1.489 
0.937845 -0.278538 1.515 
1.0361 -0.280928 1.528 
1.15805 -0.293797 1.598 
1.28113 -0.30538 1.661 
1.33156 -0.299313 1.628 
1.44807 -0.307954 1.675 
1.55986 -0.314757 1.712 
1.68945 -0.324317 1.764 
-1.36782 -0.310091 1.701 
-1.29914 -0.312644 1.715 
-1.25724 -0.326681 1.792 
-1.11321 -0.320483 1.758 
-1.02624 -0.334884 1.837 
-0.920131 -0.327592 1.797 
-0.672498 -0.33215 1.822 
-0.586704 -0.334884 1.837 
-0.498898 -0.333426 1.829 
-0.41704 -0.33616 1.844 
-0.330732 -0.335796 1.842 
-0.249927 -0.342723 1.88 
-0.165581 -0.34965 1.918 
-0.0751494 -0.344911 1.892 
0.0133474 -0.353114 1.937 
0.103043 -0.351109 1.926 
0.357349 -0.376266 2.064 
0.437951 -0.363323 1.993 
0.526259 -0.356031 1.953 
0.634357 -0.365875 2.007 
2.06488 -0.987152 5.415 
2.51199 -1.0701 5.87 
2.77753 -1.067 5.853 
0.859852 -0.270168 1.482 
0.94836 -0.275819 1.513 
1.03339 -0.277824 1.524 
1.15515 -0.290585 1.594 
1.27881 -0.302253 1.658 
1.33238 -0.296966 1.629 
1.44721 -0.305169 1.674 
1.55439 -0.311003 1.706 
1.67796 -0.319389 1.752 
-1.35773 -0.306364 1.695 
-1.2631 -0.311606 1.724 
-1.03765 -0.33203 1.837 
-0.744951 -0.323896 1.792 
-0.653041 -0.3295 1.823 
-0.550774 -0.329319 1.822 
-0.463293 -0.327511 1.812 
-0.385108 -0.332934 1.842 
-0.301038 -0.334922 1.853 
-0.216291 -0.337452 1.867 
-0.133217 -0.347755 1.924 
-0.0437421 -0.349382 1.933 
0.0469791 -0.354081 1.959 
0.151955 -0.217076 1.201 
0.381781 -0.362757 2.007 
0.46396 -0.354081 1.959 
0.566607 -0.361311 1.999 
0.663081 -0.363118 2.009 
2.21013 -1.00657 5.569 
2.56461 -1.04525 5.783 
0.825466 -0.270938 1.499 
0.892348 -0.270034 1.494 
0.956189 -0.268407 1.485 
1.05855 -0.277083 1.533 
1.18529 -0.290639 1.608 
1.29942 -0.299677 1.658 
1.35511 -0.294977 1.632 
1.46801 -0.302568 1.674 
1.58483 -0.31016 1.716 
1.68616 -0.314136 1.738 
-1.35036 -0.306239 1.709 
-1.04784 -0.32613 1.82 
-0.931607 -0.323083 1.803 
-0.645601 -0.325771 1.818 
-0.531026 -0.32828 1.832 
-0.443447 -0.326667 1.823 
-0.359853 -0.327922 1.83 
-0.279357 -0.333656 1.862 
-0.194947 -0.337777 1.885 
-0.1072 -0.338136 1.887 
-0.0197364 -0.346737 1.935 
0.0702724 -0.345841 1.93 
0.169762 -0.214135 1.195 
0.403889 -0.35713 1.993 
0.48432 -0.34817 1.943 
0.597371 -0.361789 2.019 
2.06693 -1.02122 5.699 
2.38822 -1.04559 5.835 
2.80244 -1.10149 6.147 
0.849997 -0.267534 1.493 
0.927594 -0.269863 1.506 
0.987188 -0.266996 1.49 
1.09351 -0.276314 1.542 
1.23038 -0.291725 1.628 
1.31669 -0.294054 1.641 
1.41441 -0.298534 1.666 
1.49922 -0.299968 1.674 
1.64415 -0.31269 1.745 
1.7146 -0.310719 1.734 
-1.3239 -0.304828 1.716 
-0.990293 -0.322058 1.813 
-0.713852 -0.321881 1.812 
-0.607877 -0.325434 1.832 
-0.524693 -0.330408 1.86 
-0.433053 -0.326677 1.839 
-0.346959 -0.326322 1.837 
-0.265604 -0.331651 1.867 
-0.181356 -0.336803 1.896 
-0.0923454 -0.334493 1.883 
-0.00471433 -0.344441 1.939 
0.0850887 -0.342132 1.926 
0.171332 -0.211923 1.193 
0.408211 -0.355099 1.999 
0.488343 -0.345862 1.947 
0.60259 -0.359895 2.026 
2.08137 -1.0065 5.666 
2.43736 -1.04594 5.888 
2.80614 -1.07507 6.052 
0.852938 -0.263971 1.486 
0.934613 -0.267523 1.506 
0.9948 -0.264859 1.491 
1.10641 -0.27534 1.55 
1.23645 -0.28884 1.626 
1.32434 -0.291505 1.641 
1.43071 -0.297722 1.676 
1.50793 -0.297544 1.675 
1.64186 -0.308025 1.734 
1.71971 -0.307492 1.731 
-1.26493 -0.307268 1.745 
-1.00543 -0.320474 1.82 
-0.772932 -0.30357 1.724 
-0.697052 -0.321707 1.827 
-0.585745 -0.322939 1.834 
-0.500535 -0.323116 1.835 
-0.421111 -0.32787 1.862 
-0.332707 -0.326285 1.853 
-0.248199 -0.32875 1.867 
-0.165926 -0.338435 1.922 
-0.0749508 -0.332272 1.887 
0.0134714 -0.344246 1.955 
0.102508 -0.337378 1.916 
0.34235 -0.390204 2.216 
0.411728 -0.352346 2.001 
0.492377 -0.343541 1.951 
0.607531 -0.357804 2.032 
2.0836 -0.986251 5.601 
2.45727 -1.03362 5.87 
2.82495 -1.06567 6.052 
2.97005 -1.00051 5.682 
0.932273 -0.265184 1.506 
0.987158 -0.261134 1.483 
1.09474 -0.270642 1.537 
1.22709 -0.284729 1.617 
1.32179 -0.288955 1.641 
1.4264 -0.294766 1.674 
1.50532 -0.294942 1.675 
1.63255 -0.304098 1.727 
1.71305 -0.304098 1.727 
-1.03597 -0.319217 1.829 
-0.946046 -0.317647 1.82 
-0.715033 -0.316774 1.815 
-0.598684 -0.319392 1.83 
-0.523767 -0.32585 1.867 
-0.432301 -0.322533 1.848 
-0.346165 -0.322533 1.848 
-0.263266 -0.326548 1.871 
-0.178881 -0.331784 1.901 
-0.0896097 -0.32934 1.887 
-0.00170877 -0.339812 1.947 
0.0878982 -0.335449 1.922 
0.161928 -0.208041 1.192 
0.393237 -0.354996 2.034 
0.468127 -0.34051 1.951 
0.581702 -0.354298 2.03 
0.661995 -0.346793 1.987 
2.2859 -0.974756 5.585 
3.05182 -1.16831 6.694 
2.88153 -0.994653 5.699 
0.902321 -0.261622 1.499 
0.955976 -0.257259 1.474 
1.05388 -0.264589 1.516 
1.16682 -0.274537 1.573 
1.28823 -0.285184 1.634 
1.35437 -0.283089 1.622 
1.4767 -0.29234 1.675 
1.58633 -0.298274 1.709 
1.67768 -0.300368 1.721 
-1.0337 -0.316549 1.83 
-0.943218 -0.314819 1.82 
-0.723453 -0.315165 1.822 
-0.589832 -0.316376 1.829 
-0.504483 -0.318105 1.839 
-0.424687 -0.322603 1.865 
-0.338484 -0.323295 1.869 
-0.251369 -0.323295 1.869 
-0.168297 -0.331252 1.915 
-0.0778 -0.326062 1.885 
0.010434 -0.338171 1.955 
0.0994792 -0.331252 1.915 
0.16891 -0.20567 1.189 
0.403284 -0.349587 2.021 
0.480252 -0.337479 1.951 
0.597245 -0.352874 2.04 
2.08955 -0.971614 5.617 
2.40662 -0.994447 5.749 
2.93371 -1.0908 6.306 
2.95995 -1.00033 5.783 
0.912948 -0.260331 1.505 
0.962193 -0.254796 1.473 
1.05884 -0.261715 1.513 
1.17191 -0.271575 1.57 
1.28791 -0.280915 1.624 
1.36193 -0.280569 1.622 
1.48982 -0.290775 1.681 
1.60083 -0.296829 1.716 
1.68277 -0.297175 1.718 
-1.2119 -0.291592 1.701 
-1.01095 -0.313705 1.83 
-0.744951 -0.307191 1.792 
-0.625403 -0.312848 1.825 
-0.539747 -0.312506 1.823 
-0.450785 -0.309763 1.807 
-0.37508 -0.316963 1.849 
-0.292491 -0.320905 1.872 
-0.207649 -0.324677 1.894 
-0.120314 -0.327248 1.909 
-0.0315813 -0.329819 1.924 
0.0589726 -0.334791 1.953 
0.148856 -0.239993 1.4 
0.376668 -0.350904 2.047 
0.454091 -0.337533 1.969 
0.556402 -0.344047 2.007 
0.644767 -0.341305 1.991 
2.1668 -0.917974 5.355 
3.12801 -1.18831 6.932 
2.82262 -0.962887 5.617 
2.80987 -0.877175 5.117 
0.94837 -0.253707 1.48 
1.03729 -0.258678 1.509 
1.13625 -0.265364 1.548 
1.24587 -0.273592 1.596 
1.34342 -0.278392 1.624 
1.46456 -0.287306 1.676 
1.55741 -0.290049 1.692 
1.65271 -0.292963 1.709 
-1.09584 -0.214886 1.265 
-1.19021 -0.289459 1.704 
-1.14667 -0.306106 1.802 
-0.772035 -0.292516 1.722 
-0.697976 -0.309503 1.822 
-0.564308 -0.309164 1.82 
-0.474735 -0.306106 1.802 
-0.406356 -0.318337 1.874 
-0.322072 -0.321394 1.892 
-0.231908 -0.318676 1.876 
-0.148009 -0.32649 1.922 
-0.0572993 -0.320205 1.885 
0.031696 -0.332096 1.955 
0.12547 -0.331077 1.949 
0.369041 -0.346535 2.04 
0.448428 -0.334814 1.971 
0.54852 -0.33991 2.001 
0.639863 -0.338891 1.995 
2.13852 -0.904728 5.326 
3.10647 -1.17754 6.932 
2.78918 -0.948724 5.585 
2.79397 -0.869225 5.117 
0.947833 -0.253106 1.49 
1.02138 -0.254126 1.496 
1.11882 -0.260581 1.534 
1.22214 -0.267545 1.575 
1.3301 -0.27468 1.617 
1.45849 -0.285042 1.678 
1.54311 -0.286231 1.685 
1.63993 -0.289459 1.704 
-1.0978 -0.211405 1.256 
-1.31705 -0.290851 1.728 
-1.16923 -0.295564 1.756 
-1.01371 -0.308861 1.835 
-0.76802 -0.289336 1.719 
-0.733116 -0.308356 1.832 
-0.604891 -0.306841 1.823 
-0.53304 -0.314583 1.869 
-0.43423 -0.310375 1.844 
-0.356025 -0.317276 1.885 
-0.266884 -0.315762 1.876 
-0.181739 -0.319801 1.9 
-0.0931791 -0.319801 1.9 
-0.00475323 -0.329059 1.955 
0.126372 -0.330405 1.963 
0.360213 -0.341009 2.026 
0.442976 -0.332257 1.974 
0.541218 -0.336128 1.997 
0.63557 -0.336801 2.001 
2.1406 -0.911433 5.415 
2.95821 -1.12671 6.694 
2.76315 -0.940047 5.585 
2.78473 -0.86582 5.144 
0.947834 -0.252643 1.501 
1.00491 -0.249445 1.482 
1.10298 -0.256178 1.522 
1.19783 -0.261395 1.553 
1.31602 -0.270821 1.609 
1.44202 -0.280752 1.668 
1.52979 -0.282603 1.679 
1.63391 -0.287148 1.706 
-1.09504 -0.207453 1.244 
-1.33611 -0.283663 1.701 
-1.19021 -0.284164 1.704 
-1.16081 -0.297671 1.785 
-0.978762 -0.304008 1.823 
-0.751249 -0.295837 1.774 
-0.685899 -0.303508 1.82 
-0.567136 -0.303508 1.82 
-0.476052 -0.30134 1.807 
-0.407223 -0.31318 1.878 
-0.324626 -0.318016 1.907 
-0.232155 -0.31318 1.878 
-0.141741 -0.319851 1.918 
-0.0515784 -0.315182 1.89 
0.0377709 -0.326021 1.955 
0.149089 -0.198948 1.193 
0.38931 -0.338528 2.03 
0.464619 -0.325021 1.949 
0.575983 -0.337027 2.021 
0.653933 -0.328856 1.972 
2.20179 -0.900519 5.4 
3.26541 -1.19852 7.187 
2.79786 -0.93137 5.585 
2.83149 -0.86233 5.171 
0.946071 -0.246809 1.48 
1.02603 -0.249477 1.496 
1.11846 -0.254647 1.527 
1.20132 -0.257148 1.542 
1.32109 -0.26682 1.6 
1.45847 -0.278827 1.672 
1.54743 -0.280828 1.684 
1.65295 -0.285498 1.712 
-1.09323 -0.207007 1.253 
-1.33177 -0.282342 1.709 
-1.19285 -0.281516 1.704 
-1.1553 -0.297046 1.798 
-0.966716 -0.301837 1.827 
-0.734317 -0.303159 1.835 
-0.607723 -0.301176 1.823 
-0.531043 -0.307619 1.862 
-0.437574 -0.302993 1.834 
-0.364378 -0.313567 1.898 
-0.27344 -0.310758 1.881 
-0.181547 -0.313567 1.898 
-0.0936204 -0.315384 1.909 
-0.00477268 -0.324305 1.963 
0.0868117 -0.324636 1.965 
0.160706 -0.195442 1.183 
0.41214 -0.330914 2.003 
0.493891 -0.323314 1.957 
0.616501 -0.340661 2.062 
0.68289 -0.326453 1.976 
2.31594 -0.917406 5.553 
3.27213 -1.16588 7.057 
2.89243 -0.927979 5.617 
2.84371 -0.836619 5.064 
0.960887 -0.243023 1.471 
1.05884 -0.249961 1.513 
1.14504 -0.253431 1.534 
1.23637 -0.257561 1.559 
1.3443 -0.2645 1.601 
1.49248 -0.278212 1.684 
1.58683 -0.281021 1.701 
1.67787 -0.283003 1.713 
-1.07828 -0.205551 1.256 
-1.31973 -0.281651 1.721 
-1.18723 -0.280669 1.715 
-1.14667 -0.294907 1.802 
-0.959022 -0.300144 1.834 
-0.722519 -0.300144 1.834 
-0.602059 -0.298344 1.823 
-0.505409 -0.299817 1.832 
-0.425292 -0.303581 1.855 
-0.350338 -0.313891 1.918 
-0.255225 -0.307017 1.876 
-0.164027 -0.310945 1.9 
-0.0662256 -0.309145 1.889 
0.0226068 -0.320274 1.957 
0.114637 -0.322565 1.971 
0.177269 -0.19164 1.171 
0.427208 -0.322728 1.972 
0.521756 -0.324365 1.982 
0.634279 -0.335003 2.047 
0.778769 -0.346949 2.12 
2.37395 -0.924653 5.65 
2.82637 -0.984387 6.015 
2.87637 -0.911397 5.569 
2.82961 -0.822368 5.025 
0.962518 -0.240573 1.47 
1.06119 -0.247611 1.513 
1.14443 -0.250393 1.53 
1.22846 -0.253011 1.546 
1.34258 -0.261194 1.596 
1.49332 -0.275268 1.682 
1.59415 -0.279196 1.706 
1.68347 -0.280833 1.716 
-1.07548 -0.203438 1.255 
-1.32165 -0.27995 1.727 
-1.18549 -0.280112 1.728 
-1.03294 -0.299726 1.849 
-0.745671 -0.283354 1.748 
-0.687969 -0.294701 1.818 
-0.567759 -0.295349 1.822 
-0.464827 -0.294701 1.818 
-0.394098 -0.305562 1.885 
-0.308836 -0.308155 1.901 
-0.218956 -0.306372 1.89 
-0.112934 -0.313667 1.935 
-0.0230719 -0.318206 1.963 
0.068947 -0.320637 1.978 
0.150563 -0.192901 1.19 
0.373299 -0.323393 1.995 
0.4546 -0.315288 1.945 
0.560956 -0.324365 2.001 
0.6503 -0.32242 1.989 
2.1779 -0.900151 5.553 
2.89792 -1.07052 6.604 
2.69555 -0.900151 5.553 
2.82616 -0.861084 5.312 
0.944282 -0.245422 1.514 
0.986027 -0.238452 1.471 
1.08183 -0.244611 1.509 
1.16362 -0.247043 1.524 
1.26301 -0.252717 1.559 
1.36823 -0.258876 1.597 
1.51313 -0.27152 1.675 
1.6444 -0.280598 1.731 
-1.11092 -0.200846 1.251 
-1.36414 -0.273413 1.703 
-1.21861 -0.273413 1.703 
-1.1688 -0.287863 1.793 
-0.991986 -0.294927 1.837 
-0.745308 -0.293321 1.827 
-0.655873 -0.292679 1.823 
-0.517359 -0.294445 1.834 
-0.43423 -0.296051 1.844 
-0.361691 -0.307449 1.915 
-0.27101 -0.305844 1.905 
-0.172701 -0.30472 1.898 
-0.0787081 -0.306165 1.907 
0.0105194 -0.31644 1.971 
0.102284 -0.316119 1.969 
0.166779 -0.188483 1.174 
0.403484 -0.319651 1.991 
0.488807 -0.314835 1.961 
0.602992 -0.327197 2.038 
0.681202 -0.31933 1.989 
2.27935 -0.894092 5.569 
3.19406 -1.1248 7.006 
2.79909 -0.891523 5.553 
2.89381 -0.84368 5.255 
0.943955 -0.235363 1.466 
1.03438 -0.240501 1.498 
1.11452 -0.242749 1.512 
1.18578 -0.242909 1.513 
1.30778 -0.252863 1.575 
1.45047 -0.265546 1.654 
1.54696 -0.268918 1.675 
1.66772 -0.275982 1.719 
-1.08004 -0.198584 1.249 
-1.32678 -0.271244 1.706 
-1.16411 -0.286667 1.803 
-0.976651 -0.291755 1.835 
-0.738809 -0.291278 1.832 
-0.604559 -0.289688 1.822 
-0.489301 -0.290165 1.825 
-0.41354 -0.296842 1.867 
-0.336137 -0.305587 1.922 
-0.24373 -0.302089 1.9 
-0.154681 -0.301135 1.894 
-0.0609948 -0.30352 1.909 
0.0288345 -0.312742 1.967 
0.121436 -0.315127 1.982 
0.180444 -0.185705 1.168 
0.425865 -0.314809 1.98 
0.518154 -0.314809 1.98 
0.631715 -0.325779 2.049 
0.749934 -0.335955 2.113 
2.58174 -0.959213 6.033 
2.67313 -0.895615 5.633 
2.84552 -0.868109 5.46 
2.85303 -0.798947 5.025 
0.979171 -0.233881 1.471 
1.07694 -0.240399 1.512 
1.15196 -0.241353 1.518 
1.24044 -0.244851 1.54 
1.3446 -0.250893 1.578 
1.49724 -0.264885 1.666 
1.6335 -0.274742 1.728 
1.72198 -0.276014 1.736 
-1.06579 -0.19869 1.262 
-1.2272 -0.270011 1.715 
-1.06216 -0.293627 1.865 
-0.753247 -0.272057 1.728 
-0.709688 -0.287014 1.823 
-0.577833 -0.287644 1.827 
-0.449528 -0.29095 1.848 
-0.372831 -0.298507 1.896 
-0.288959 -0.303231 1.926 
-0.197223 -0.300239 1.907 
-0.107142 -0.305277 1.939 
-0.01705 -0.310473 1.972 
0.0750174 -0.311103 1.976 
0.159619 -0.184993 1.175 
0.395392 -0.314409 1.997 
0.491549 -0.310473 1.972 
0.597963 -0.318188 2.021 
0.686682 -0.315669 2.005 
2.38169 -0.90245 5.732 
2.99129 -1.01911 6.473 
2.80106 -0.866868 5.506 
2.94163 -0.833963 5.297 
0.972314 -0.231595 1.471 
1.06918 -0.237893 1.511 
1.14263 -0.238523 1.515 
1.22525 -0.240884 1.53 
1.32962 -0.247024 1.569 
1.48768 -0.261981 1.664 
1.61604 -0.270483 1.718 
1.72178 -0.274577 1.744 
-1.3575 -0.264696 1.698 
-1.21459 -0.267502 1.716 
-1.01228 -0.288079 1.848 
-0.741657 -0.284494 1.825 
-0.660191 -0.286053 1.835 
-0.502099 -0.283714 1.82 
-0.423917 -0.288235 1.849 
-0.349972 -0.298679 1.916 
-0.261483 -0.299615 1.922 
-0.169215 -0.294938 1.892 
-0.0794922 -0.300238 1.926 
0.0105247 -0.307409 1.972 
0.10244 -0.307409 1.972 
0.174701 -0.181764 1.166 
0.443698 -0.310371 1.991 
0.535421 -0.309747 1.987 
0.63973 -0.315515 2.024 
0.767437 -0.329857 2.116 
2.96813 -1.05442 6.764 
2.71197 -0.868135 5.569 
2.86536 -0.837113 5.37 
2.80061 -0.752466 4.827 
1.00865 -0.229777 1.474 
1.10147 -0.234922 1.507 
1.16938 -0.234454 1.504 
1.27822 -0.241781 1.551 
1.3836 -0.247704 1.589 
1.52738 -0.259552 1.665 
1.66572 -0.269373 1.728 
-1.07357 -0.192299 1.246 
-1.33231 -0.27425 1.777 
-1.14587 -0.276565 1.792 
-0.74528 -0.280887 1.82 
-0.667344 -0.283819 1.839 
-0.542282 -0.281195 1.822 
-0.44569 -0.284591 1.844 
-0.369495 -0.292307 1.894 
-0.28656 -0.297863 1.93 
-0.194667 -0.294931 1.911 
-0.101221 -0.299561 1.941 
-0.0109167 -0.304191 1.971 
0.0810754 -0.304654 1.974 
0.165927 -0.180261 1.168 
0.413375 -0.310056 2.009 
0.501462 -0.30666 1.987 
0.601253 -0.310364 2.011 
0.711229 -0.317618 2.058 
2.6973 -0.976312 6.326 
2.67998 -0.874452 5.666 
2.81366 -0.835715 5.415 
2.93582 -0.800218 5.185 
0.986969 -0.226716 1.469 
1.08633 -0.233352 1.512 
1.15757 -0.233506 1.513 
1.25326 -0.238291 1.544 
1.34411 -0.241686 1.566 
1.48859 -0.253878 1.645 
1.64899 -0.26746 1.733 
-1.08064 -0.189905 1.243 
-1.23793 -0.264309 1.73 
-1.02243 -0.283559 1.856 
-0.706856 -0.278517 1.823 
-0.58226 -0.279892 1.832 
-0.477633 -0.276989 1.813 
-0.405922 -0.286003 1.872 
-0.323945 -0.29074 1.903 
-0.237347 -0.293337 1.92 
-0.146004 -0.295629 1.935 
-0.0558128 -0.295629 1.935 
0.0351066 -0.301893 1.976 
0.127595 -0.302809 1.982 
0.371148 -0.308157 2.017 
0.464238 -0.307545 2.013 
0.548916 -0.302504 1.98 
0.654482 -0.308768 2.021 
0.771279 -0.318087 2.082 
3.03099 -1.02622 6.717 
2.77254 -0.85083 5.569 
2.9401 -0.82501 5.4 
0.971653 -0.224586 1.47 
1.06635 -0.230239 1.507 
1.14036 -0.231003 1.512 
1.22525 -0.233753 1.53 
1.32114 -0.238183 1.559 
1.46623 -0.250559 1.64 
1.60569 -0.260795 1.707 
1.72771 -0.267364 1.75 
-1.21502 -0.261318 1.728 
-0.757977 -0.266763 1.764 
-0.697976 -0.275534 1.822 
-0.590799 -0.277046 1.832 
-0.49934 -0.273719 1.81 
-0.41509 -0.283397 1.874 
-0.332465 -0.287481 1.901 
-0.247964 -0.29232 1.933 
-0.138684 -0.296252 1.959 
-0.0473257 -0.295949 1.957 
0.0444513 -0.29973 1.982 
0.136833 -0.29973 1.982 
0.375952 -0.306384 2.026 
0.46992 -0.306081 2.024 
0.55032 -0.29852 1.974 
0.6599 -0.306686 2.028 
0.77377 -0.31455 2.08 
2.90274 -0.962856 6.367 
2.75126 -0.827962 5.475 
2.96527 -0.81662 5.4 
3.52955 -0.864408 5.716 
1.09175 -0.228805 1.513 
1.16151 -0.228654 1.512 
1.25643 -0.23319 1.542 
1.34639 -0.236366 1.563 
1.4828 -0.246952 1.633 
1.64388 -0.260411 1.722 
-1.33651 -0.250701 1.675 
-1.22774 -0.258484 1.727 
-1.11269 -0.266267 1.779 
-0.725764 -0.274649 1.835 
-0.646514 -0.277343 1.853 
-0.554402 -0.274499 1.834 
-0.46764 -0.273751 1.829 
-0.334183 -0.283479 1.894 
-0.251746 -0.290215 1.939 
-0.146692 -0.297099 1.985 
-0.0537343 -0.294705 1.969 
0.0382925 -0.29665 1.982 
0.130872 -0.297099 1.985 
0.368203 -0.307277 2.053 
0.460053 -0.304733 2.036 
0.538597 -0.295752 1.976 
0.647935 -0.303835 2.03 
0.761575 -0.311618 2.082 
3.13013 -1.06387 7.108 
2.7136 -0.828735 5.537 
2.874 -0.801495 5.355 
3.09792 -0.786528 5.255 
1.08562 -0.226155 1.511 
1.15834 -0.226604 1.514 
1.25407 -0.231244 1.545 
1.3381 -0.233339 1.559 
1.47139 -0.243367 1.626 
1.62711 -0.25594 1.71 
-1.42509 -0.244544 1.651 
-1.33839 -0.260096 1.756 
-1.12102 -0.261577 1.766 
-0.753824 -0.270613 1.827 
-0.677451 -0.274168 1.851 
-0.589578 -0.273427 1.846 
-0.49317 -0.267798 1.808 
-0.369685 -0.278463 1.88 
-0.285808 -0.282166 1.905 
-0.161378 -0.292682 1.976 
-0.0660716 -0.29209 1.972 
0.0414763 -0.294312 1.987 
0.133956 -0.294015 1.985 
0.3691 -0.304828 2.058 
0.462086 -0.302903 2.045 
0.538052 -0.292386 1.974 
0.64985 -0.301569 2.036 
0.760843 -0.308087 2.08 
3.11941 -1.05668 7.134 
2.66546 -0.813319 5.491 
2.81818 -0.784584 5.297 
3.04887 -0.780437 5.269 
1.05278 -0.222326 1.501 
1.13321 -0.2244 1.515 
1.20859 -0.225288 1.521 
1.30725 -0.230176 1.554 
1.40898 -0.235064 1.587 
1.56238 -0.247654 1.672 
1.6923 -0.255505 1.725 
-1.32077 -0.244031 1.665 
-1.21982 -0.253704 1.731 
-1.03812 -0.270852 1.848 
-0.75304 -0.268507 1.832 
-0.677126 -0.272318 1.858 
-0.590524 -0.272318 1.858 
-0.490903 -0.265283 1.81 
-0.344675 -0.276568 1.887 
-0.26298 -0.28331 1.933 
-0.117258 -0.286828 1.957 
0.0228725 -0.290199 1.98 
0.116033 -0.292397 1.995 
0.270372 -0.309399 2.111 
0.435785 -0.303536 2.071 
0.521262 -0.297234 2.028 
0.60759 -0.293276 2.001 
0.748141 -0.313063 2.136 
0.867941 -0.320537 2.187 
2.64808 -0.823255 5.617 
2.72961 -0.772251 5.269 
3.07458 -0.798046 5.445 
3.55637 -0.852715 5.818 
1.13952 -0.221899 1.514 
1.22527 -0.224684 1.533 
1.31534 -0.227908 1.555 
1.41638 -0.232599 1.587 
1.57205 -0.24535 1.674 
1.69936 -0.252678 1.724 
-1.36051 -0.236658 1.632 
-1.30788 -0.242894 1.675 
-1.11784 -0.255365 1.761 
-0.877137 -0.26276 1.812 
-0.767902 -0.26392 1.82 
-0.693955 -0.268126 1.849 
-0.606129 -0.267401 1.844 
-0.485932 -0.264356 1.823 
-0.398045 -0.272041 1.876 
-0.307624 -0.269431 1.858 
-0.230658 -0.281177 1.939 
-0.134018 -0.287122 1.98 
0.0136299 -0.286832 1.978 
0.107056 -0.290168 2.001 
0.200523 -0.290458 2.003 
0.429764 -0.300608 2.073 
0.520293 -0.297128 2.049 
0.599569 -0.289297 1.995 
0.740115 -0.309164 2.132 
0.845788 -0.311484 2.148 
2.67699 -0.828884 5.716 
2.69882 -0.760004 5.241 
3.05766 -0.789586 5.445 
3.52735 -0.841065 5.8 
1.13631 -0.219837 1.516 
1.21812 -0.221867 1.53 
1.30966 -0.225347 1.554 
1.40166 -0.228538 1.576 
1.54625 -0.239559 1.652 
1.67042 -0.246519 1.7 
-1.38418 -0.234266 1.633 
-1.32415 -0.239 1.666 
-1.22101 -0.251338 1.752 
-1.03189 -0.264249 1.842 
-0.798128 -0.260806 1.818 
-0.722416 -0.264105 1.841 
-0.642485 -0.266544 1.858 
-0.556481 -0.266831 1.86 
-0.43859 -0.274434 1.913 
-0.34431 -0.270418 1.885 
-0.2623 -0.276586 1.928 
-0.171106 -0.284333 1.982 
-0.0793994 -0.286772 1.999 
0.0511974 -0.287632 2.005 
0.143641 -0.285624 1.991 
0.362128 -0.297388 2.073 
0.463442 -0.294231 2.051 
0.540233 -0.284333 1.982 
0.656872 -0.295236 2.058 
0.759746 -0.297961 2.077 
3.17483 -1.02343 7.134 
2.67803 -0.778975 5.43 
2.87498 -0.764055 5.326 
3.10623 -0.759895 5.297 
3.60759 -0.817565 5.699 
1.18182 -0.218056 1.52 
1.26915 -0.220925 1.54 
1.36618 -0.225085 1.569 
1.46959 -0.229819 1.602 
1.58185 -0.235414 1.641 
-1.41883 -0.231587 1.632 
-1.34276 -0.231587 1.632 
-1.30007 -0.237689 1.675 
-1.23468 -0.25713 1.812 
-0.870206 -0.260961 1.839 
-0.761579 -0.259968 1.832 
-0.692088 -0.267205 1.883 
-0.600437 -0.266779 1.88 
-0.479227 -0.264367 1.863 
-0.396184 -0.266921 1.881 
-0.305393 -0.264225 1.862 
-0.22741 -0.274868 1.937 
-0.130941 -0.28097 1.98 
0.0293036 -0.283666 1.999 
0.124377 -0.288065 2.03 
0.222664 -0.29289 2.064 
0.380591 -0.291045 2.051 
0.478278 -0.292322 2.06 
0.552826 -0.279834 1.972 
0.679071 -0.294734 2.077 
0.775881 -0.294734 2.077 
2.8757 -0.889028 6.265 
2.65704 -0.745705 5.255 
3.0069 -0.772667 5.445 
3.36369 -0.797074 5.617 
3.72415 -0.770538 5.43 
1.23246 -0.21839 1.539 
1.31352 -0.219951 1.55 
1.40275 -0.222647 1.569 
1.5295 -0.230736 1.626 
1.65465 -0.237831 1.676 
-1.38079 -0.22863 1.629 
-1.32889 -0.232841 1.659 
-1.31308 -0.246315 1.755 
-1.01371 -0.257543 1.835 
-0.79875 -0.254455 1.813 
-0.728034 -0.259367 1.848 
-0.635189 -0.261332 1.862 
-0.551074 -0.263999 1.881 
-0.455946 -0.268209 1.911 
-0.361114 -0.263999 1.881 
-0.257287 -0.26849 1.913 
-0.114218 -0.274665 1.957 
0.0611165 -0.284069 2.024 
0.153382 -0.280279 1.997 
0.259668 -0.295297 2.104 
0.431105 -0.289683 2.064 
0.526798 -0.289402 2.062 
0.613662 -0.283648 2.021 
0.749192 -0.300209 2.139 
3.16374 -1.00126 7.134 
2.65484 -0.757891 5.4 
2.84356 -0.74147 5.283 
3.11496 -0.747505 5.326 
3.5678 -0.792979 5.65 
1.18967 -0.213894 1.524 
1.28056 -0.217262 1.548 
1.37193 -0.22035 1.57 
1.46168 -0.222876 1.588 
1.57051 -0.227929 1.624 
-1.41275 -0.225544 1.625 
-1.34441 -0.226794 1.634 
-1.29921 -0.233733 1.684 
-1.01371 -0.254692 1.835 
-0.80024 -0.251222 1.81 
-0.731301 -0.256635 1.849 
-0.636213 -0.258856 1.865 
-0.554297 -0.262603 1.892 
-0.459395 -0.265518 1.913 
-0.364811 -0.261631 1.885 
-0.14684 -0.275789 1.987 
0.039046 -0.280508 2.021 
0.134366 -0.282867 2.038 
0.234085 -0.288697 2.08 
0.429225 -0.285227 2.055 
0.52782 -0.286754 2.066 
0.610522 -0.280508 2.021 
0.742381 -0.295498 2.129 
0.822245 -0.288697 2.08 
2.64104 -0.743255 5.355 
2.86743 -0.737287 5.312 
3.12323 -0.73923 5.326 
3.56582 -0.781841 5.633 
1.19201 -0.211942 1.527 
1.28138 -0.214996 1.549 
1.37106 -0.217772 1.569 
1.45708 -0.219715 1.583 
1.56084 -0.224018 1.614 
-1.40927 -0.222471 1.621 
-1.34606 -0.224529 1.636 
-1.30275 -0.232215 1.692 
-0.881167 -0.253076 1.844 
-0.771068 -0.24539 1.788 
-0.71273 -0.254311 1.853 
-0.617168 -0.255272 1.86 
-0.547014 -0.263232 1.918 
-0.454162 -0.262957 1.916 
-0.36181 -0.260761 1.9 
-0.250028 -0.261173 1.903 
-0.0881842 -0.272702 1.987 
0.0456175 -0.279152 2.034 
0.140423 -0.279152 2.034 
0.241242 -0.286289 2.086 
0.412457 -0.281485 2.051 
0.513504 -0.284504 2.073 
0.588936 -0.274623 2.001 
0.725161 -0.291916 2.127 
0.796398 -0.282034 2.055 
2.62237 -0.739053 5.385 
2.75918 -0.709683 5.171 
3.12436 -0.739053 5.385 
3.51075 -0.768697 5.601 
3.53841 -0.698566 5.09 
1.24527 -0.212177 1.546 
1.31648 -0.21204 1.545 
1.40197 -0.214099 1.56 
1.5125 -0.219589 1.6 
1.64758 -0.22796 1.661 
-1.37489 -0.220902 1.628 
-1.30704 -0.230807 1.701 
-0.85592 -0.249532 1.839 
-0.753032 -0.243969 1.798 
-0.695654 -0.253603 1.869 
-0.612121 -0.255096 1.88 
-0.537885 -0.261609 1.928 
-0.445696 -0.260252 1.918 
-0.358155 -0.261609 1.928 
-0.262956 -0.259302 1.911 
-0.130972 -0.262559 1.935 
-0.0452279 -0.291189 2.146 
0.0936147 -0.277756 2.047 
0.184594 -0.271243 1.999 
0.353713 -0.277213 2.043 
0.44696 -0.275992 2.034 
0.544163 -0.277213 2.043 
0.644708 -0.27952 2.06 
0.750793 -0.283319 2.088 
2.62061 -0.764337 5.633 
2.62623 -0.696221 5.131 
3.10999 -0.755653 5.569 
3.31268 -0.742898 5.475 
3.28385 -0.664741 4.899 
2.79221 -0.513991 3.788 
1.30148 -0.210318 1.55 
1.37904 -0.211132 1.556 
1.48422 -0.215881 1.591 
1.58482 -0.219545 1.618 
-1.38998 -0.217568 1.622 
-1.37449 -0.228835 1.706 
-1.32003 -0.233262 1.739 
-1.187 -0.228969 1.707 
-1.03597 -0.245334 1.829 
-0.818016 -0.243054 1.812 
-0.746513 -0.247346 1.844 
-0.683848 -0.256065 1.909 
-0.591283 -0.255796 1.907 
-0.503978 -0.256601 1.913 
-0.413945 -0.256065 1.909 
-0.330413 -0.260357 1.941 
-0.236852 -0.257004 1.916 
-0.118946 -0.259552 1.935 
-0.0319506 -0.288391 2.15 
0.100269 -0.27538 2.053 
0.191187 -0.268673 2.003 
0.358828 -0.2731 2.036 
0.454172 -0.273368 2.038 
0.547008 -0.272295 2.03 
0.654586 -0.277795 2.071 
0.755105 -0.27927 2.082 
2.64341 -0.7804 5.818 
2.63956 -0.70676 5.269 
3.02368 -0.740696 5.522 
3.2264 -0.728356 5.43 
3.50833 -0.734392 5.475 
3.32807 -0.636473 4.745 
3.07092 -0.54392 4.055 
1.32952 -0.207776 1.549 
1.40805 -0.208715 1.556 
1.51197 -0.213141 1.589 
-1.42222 -0.213457 1.61 
-1.36642 -0.216506 1.633 
-1.34741 -0.22698 1.712 
-1.21988 -0.220749 1.665 
-1.1704 -0.226185 1.706 
-1.00868 -0.216506 1.633 
-0.858777 -0.243818 1.839 
-0.745737 -0.2352 1.774 
-0.691082 -0.245144 1.849 
-0.612116 -0.250447 1.889 
-0.536276 -0.256281 1.933 
-0.444101 -0.255087 1.924 
-0.360502 -0.259463 1.957 
-0.26557 -0.255883 1.93 
-0.182073 -0.265296 2.001 
-0.0879623 -0.262777 1.982 
0.0298167 -0.269671 2.034 
0.126583 -0.273914 2.066 
0.237316 -0.27577 2.08 
0.389009 -0.27113 2.045 
0.488827 -0.273649 2.064 
0.55867 -0.261319 1.971 
0.695097 -0.279217 2.106 
0.783465 -0.27577 2.08 
2.63935 -0.744712 5.617 
2.64291 -0.678421 5.117 
3.15396 -0.742591 5.601 
3.30162 -0.717931 5.415 
3.25262 -0.646336 4.875 
3.14935 -0.584951 4.412 
3.57393 -0.615577 4.643 
1.33605 -0.205634 1.551 
1.41288 -0.206297 1.556 
1.51596 -0.21054 1.588 
-1.41986 -0.211348 1.613 
-1.36385 -0.214362 1.636 
-1.34977 -0.224713 1.715 
-1.22061 -0.218293 1.666 
-1.17109 -0.223665 1.707 
-1.00177 -0.213576 1.63 
-0.887349 -0.240961 1.839 
-0.77112 -0.231789 1.769 
-0.723313 -0.24345 1.858 
-0.634922 -0.24725 1.887 
-0.555375 -0.25105 1.916 
-0.466556 -0.251312 1.918 
-0.379124 -0.252622 1.928 
-0.29391 -0.256684 1.959 
-0.20591 -0.260877 1.991 
-0.0993185 -0.257208 1.963 
0.0047426 -0.278697 2.127 
0.110319 -0.27018 2.062 
0.205465 -0.264808 2.021 
0.368679 -0.267035 2.038 
0.468221 -0.269656 2.058 
0.546327 -0.261139 1.993 
0.667126 -0.272539 2.08 
0.767014 -0.273587 2.088 
2.63183 -0.733889 5.601 
2.65686 -0.674009 5.144 
3.16297 -0.735985 5.617 
3.29247 -0.707552 5.4 
3.2886 -0.653437 4.987 
3.25487 -0.60404 4.61 
3.00836 -0.52372 3.997 
1.31478 -0.202176 1.543 
1.3831 -0.201652 1.539 
1.50588 -0.208728 1.593 
1.63072 -0.21541 1.644 
-1.36723 -0.208842 1.613 
-1.39538 -0.225545 1.742 
-1.31418 -0.225545 1.742 
-1.18686 -0.220495 1.703 
-1.11919 -0.222826 1.721 
-0.861156 -0.20949 1.618 
-0.818567 -0.23396 1.807 
-0.742469 -0.23655 1.827 
-0.683379 -0.248073 1.916 
-0.589554 -0.247426 1.911 
-0.507815 -0.251051 1.939 
-0.413347 -0.248591 1.92 
-0.332964 -0.255583 1.974 
-0.237171 -0.251569 1.943 
-0.133632 -0.249886 1.93 
-0.0478153 -0.27358 2.113 
0.0653406 -0.266458 2.058 
0.158914 -0.262574 2.028 
0.347622 -0.262315 2.026 
0.450346 -0.267235 2.064 
0.542577 -0.265293 2.049 
0.634656 -0.263869 2.038 
0.745401 -0.269566 2.082 
0.844062 -0.270084 2.086 
2.63137 -0.682201 5.269 
2.96487 -0.703046 5.43 
3.20907 -0.701104 5.415 
3.48065 -0.704989 5.445 
3.31813 -0.626398 4.838 
2.82948 -0.50016 3.863 
1.29101 -0.200556 1.549 
1.36409 -0.200685 1.55 
1.46599 -0.204829 1.582 
1.53778 -0.20457 1.58 
-1.40762 -0.207488 1.622 
-1.36158 -0.212093 1.658 
-1.3269 -0.219128 1.713 
-1.20763 -0.215419 1.684 
-1.14054 -0.217593 1.701 
-1.00168 -0.209023 1.634 
-0.899184 -0.234607 1.834 
-0.791517 -0.228211 1.784 
-0.734968 -0.236781 1.851 
-0.658737 -0.243689 1.905 
-0.574432 -0.245608 1.92 
-0.481657 -0.243945 1.907 
-0.398538 -0.247527 1.935 
-0.314881 -0.252772 1.976 
-0.221088 -0.250853 1.961 
-0.114218 -0.250341 1.957 
-0.0152202 -0.274518 2.146 
0.0846075 -0.263517 2.06 
0.176328 -0.257249 2.011 
0.377036 -0.26211 2.049 
0.480612 -0.266587 2.084 
0.544758 -0.251364 1.965 
0.674884 -0.266587 2.084 
0.775354 -0.267738 2.093 
0.969715 -0.278739 2.179 
2.65296 -0.66506 5.199 
3.13697 -0.720578 5.633 
3.25891 -0.690772 5.4 
3.37994 -0.66506 5.199 
3.32198 -0.609926 4.768 
2.93542 -0.505159 3.949 
1.29812 -0.197766 1.546 
1.3622 -0.196614 1.537 
1.48608 -0.203778 1.593 
1.5427 -0.201475 1.575 
-1.39072 -0.204336 1.617 
-1.38856 -0.215709 1.707 
-1.3205 -0.217604 1.722 
-1.19638 -0.214066 1.694 
-1.1293 -0.216341 1.712 
-0.98536 -0.205726 1.628 
-0.900655 -0.232136 1.837 
-0.791517 -0.225439 1.784 
-0.733776 -0.233526 1.848 
-0.663086 -0.241235 1.909 
-0.578017 -0.242878 1.922 
-0.463103 -0.245279 1.941 
-0.376089 -0.247553 1.959 
-0.286523 -0.24907 1.971 
-0.197815 -0.253113 2.003 
-0.0939311 -0.249954 1.978 
0.032912 -0.256525 2.03 
0.130107 -0.261706 2.071 
0.281074 -0.264486 2.093 
0.434865 -0.263096 2.082 
0.529608 -0.261959 2.073 
0.606897 -0.253872 2.009 
0.725993 -0.263096 2.082 
0.81671 -0.261074 2.066 
2.63476 -0.660521 5.227 
3.02377 -0.693882 5.491 
3.23431 -0.684278 5.415 
3.42039 -0.671262 5.312 
3.29234 -0.602518 4.768 
2.91678 -0.500035 3.957 
3.58791 -0.578509 4.578 
1.35533 -0.195995 1.551 
1.43222 -0.196627 1.556 
1.50765 -0.197006 1.559 
-1.41266 -0.202447 1.622 
-1.36014 -0.205942 1.65 
-1.32544 -0.214429 1.718 
-1.19952 -0.21106 1.691 
-1.13263 -0.213306 1.709 
-1.00168 -0.203945 1.634 
-0.851101 -0.201948 1.618 
-0.81902 -0.225663 1.808 
-0.739625 -0.22716 1.82 
-0.675856 -0.239642 1.92 
-0.576227 -0.240391 1.926 
-0.41528 -0.242513 1.943 
-0.320364 -0.248504 1.991 
-0.22562 -0.246382 1.974 
-0.12638 -0.24426 1.957 
0.0139606 -0.252872 2.026 
0.110533 -0.257865 2.066 
0.273914 -0.26061 2.088 
0.43758 -0.261484 2.095 
0.531396 -0.259612 2.08 
0.605085 -0.250001 2.003 
0.725993 -0.259862 2.082 
0.817896 -0.258239 2.069 
2.62664 -0.6524 5.227 
2.95703 -0.67212 5.385 
3.23484 -0.677737 5.43 
3.43076 -0.666629 5.341 
3.26792 -0.589369 4.722 
2.95912 -0.500003 4.006 
3.57775 -0.56865 4.556 
1.35389 -0.191339 1.533 
1.47648 -0.198204 1.588 
1.50754 -0.192712 1.544 
-1.38062 -0.198941 1.614 
-1.37611 -0.212993 1.728 
-1.22387 -0.206337 1.674 
-1.14654 -0.210281 1.706 
-1.02762 -0.202516 1.643 
-0.873725 -0.199434 1.618 
-0.859711 -0.226921 1.841 
-0.736909 -0.216074 1.753 
-0.592795 -0.223347 1.812 
-0.416562 -0.240233 1.949 
-0.324108 -0.245903 1.995 
-0.230193 -0.244917 1.987 
-0.129817 -0.241959 1.963 
0.0013879 -0.253052 2.053 
0.09793 -0.255271 2.071 
0.194719 -0.25145 2.04 
0.392624 -0.254408 2.064 
0.503274 -0.261927 2.125 
0.552435 -0.240233 1.949 
0.693777 -0.259092 2.102 
0.785725 -0.25712 2.086 
0.97639 -0.270432 2.194 
2.74423 -0.635774 5.158 
3.20993 -0.671149 5.445 
3.48281 -0.674847 5.475 
3.21571 -0.580554 4.71 
2.96408 -0.500928 4.064 
3.51122 -0.55775 4.525 
1.35096 -0.188218 1.527 
1.48454 -0.196476 1.594 
1.49666 -0.188341 1.528 
-1.36294 -0.195338 1.605 
-1.34711 -0.208726 1.715 
-1.20236 -0.206292 1.695 
-1.07815 -0.20471 1.682 
-1.05708 -0.224669 1.846 
-0.893631 -0.22613 1.858 
-0.766199 -0.21469 1.764 
-0.677253 -0.220531 1.812 
-0.540694 -0.239883 1.971 
-0.389309 -0.237205 1.949 
-0.279869 -0.242073 1.989 
-0.18415 -0.238179 1.957 
-0.0883617 -0.242317 1.991 
0.042687 -0.248889 2.045 
0.139895 -0.252297 2.073 
0.332467 -0.249376 2.049 
0.440922 -0.256922 2.111 
0.536684 -0.254122 2.088 
0.606375 -0.243047 1.997 
0.726075 -0.252297 2.073 
0.822698 -0.252297 2.073 
2.62164 -0.631046 5.185 
2.92517 -0.644677 5.297 
3.32686 -0.659039 5.415 
3.35584 -0.617902 5.077 
3.21674 -0.553276 4.546 
3.07793 -0.496683 4.081 
3.70104 -0.55072 4.525 
1.38742 -0.184385 1.515 
1.48595 -0.187914 1.544 
-1.40221 -0.193445 1.61 
-1.36309 -0.206061 1.715 
-1.12466 -0.205341 1.709 
-0.910207 -0.22096 1.839 
-0.705406 -0.217716 1.812 
-0.579794 -0.230452 1.918 
-0.417845 -0.234898 1.955 
-0.332738 -0.239223 1.991 
-0.242588 -0.241867 2.013 
-0.140666 -0.238743 1.987 
-0.0488251 -0.242588 2.019 
0.0530359 -0.249557 2.077 
0.149052 -0.248235 2.066 
0.247961 -0.250878 2.088 
0.345201 -0.246192 2.049 
0.455547 -0.254483 2.118 
0.539135 -0.24463 2.036 
0.628739 -0.242588 2.019 
0.735018 -0.246673 2.053 
0.839611 -0.249316 2.075 
2.6844 -0.626355 5.213 
3.12729 -0.669129 5.569 
3.4418 -0.659757 5.491 
3.26608 -0.582739 4.85 
3.19909 -0.533837 4.443 
3.36784 -0.52783 4.393 
3.69086 -0.541167 4.504 
1.38193 -0.18131 1.509 
1.4821 -0.185035 1.54 
-1.39623 -0.19047 1.606 
-1.30328 -0.201974 1.703 
-1.07655 -0.222966 1.88 
-0.8941 -0.221187 1.865 
-0.663788 -0.219763 1.853 
-0.527909 -0.233521 1.969 
-0.38286 -0.230912 1.947 
-0.301411 -0.238265 2.009 
-0.205703 -0.235893 1.989 
-0.110126 -0.236367 1.993 
-0.0145322 -0.243009 2.049 
0.0832248 -0.249769 2.106 
0.17596 -0.242297 2.043 
0.273441 -0.244313 2.06 
0.371073 -0.245381 2.069 
0.482197 -0.25309 2.134 
0.545779 -0.23613 1.991 
0.666163 -0.24633 2.077 
0.755993 -0.244076 2.058 
0.965126 -0.264594 2.231 
2.73443 -0.614935 5.185 
3.28964 -0.654902 5.522 
3.42113 -0.631657 5.326 
3.21397 -0.553263 4.665 
3.05922 -0.493252 4.159 
3.50649 -0.531678 4.483 
1.34173 -0.181456 1.53 
1.42136 -0.182523 1.539 
1.47466 -0.18027 1.52 
-1.39541 -0.201552 1.722 
-1.29835 -0.198977 1.7 
-1.06722 -0.195348 1.669 
-0.906152 -0.217704 1.86 
-0.685881 -0.203775 1.741 
-0.588753 -0.220045 1.88 
-0.440005 -0.229291 1.959 
-0.349408 -0.229759 1.963 
-0.265007 -0.23608 2.017 
-0.158773 -0.236548 2.021 
-0.0577742 -0.234441 2.003 
0.0365101 -0.240528 2.055 
0.133711 -0.243103 2.077 
0.228633 -0.241113 2.06 
0.329063 -0.24439 2.088 
0.43292 -0.248136 2.12 
0.538757 -0.251413 2.148 
0.606982 -0.233973 1.999 
0.726776 -0.242869 2.075 
0.823492 -0.242869 2.075 
2.63288 -0.60208 5.144 
3.29305 -0.678861 5.8 
3.4418 -0.642694 5.491 
3.29099 -0.571999 4.887 
3.23581 -0.526001 4.494 
3.35251 -0.511838 4.373 
3.49372 -0.502826 4.296 
1.36022 -0.175334 1.498 
1.49209 -0.182941 1.563 
-1.39075 -0.184093 1.594 
-1.34958 -0.196104 1.698 
-1.14193 -0.19853 1.719 
-1.08905 -0.222667 1.928 
-0.854455 -0.212735 1.842 
-0.673476 -0.209848 1.817 
-0.585754 -0.221512 1.918 
-0.447302 -0.225324 1.951 
-0.357096 -0.225786 1.955 
-0.274136 -0.232715 2.015 
-0.164399 -0.232484 2.013 
-0.0702222 -0.231329 2.003 
0.0235656 -0.235602 2.04 
0.12121 -0.240684 2.084 
0.215831 -0.237912 2.06 
0.323657 -0.241954 2.095 
0.427338 -0.245419 2.125 
0.536789 -0.25027 2.167 
0.624007 -0.233755 2.024 
0.731833 -0.238143 2.062 
0.830754 -0.238952 2.069 
2.69964 -0.589468 5.104 
3.41064 -0.654374 5.666 
3.37186 -0.60044 5.199 
3.19708 -0.531145 4.599 
3.09174 -0.481368 4.168 
3.5107 -0.514283 4.453 
1.33476 -0.174854 1.514 
1.45359 -0.18086 1.566 
1.46407 -0.172082 1.49 
-1.39641 -0.19301 1.694 
-1.32523 -0.19415 1.704 
-1.09249 -0.192327 1.688 
-0.909562 -0.212722 1.867 
-0.688622 -0.193808 1.701 
-0.64312 -0.208164 1.827 
-0.563086 -0.218988 1.922 
-0.446844 -0.222065 1.949 
-0.356731 -0.22252 1.953 
-0.274408 -0.229812 2.017 
-0.166528 -0.227989 2.001 
-0.0734075 -0.228445 2.005 
0.0205061 -0.233686 2.051 
0.124567 -0.237674 2.086 
0.218287 -0.233914 2.053 
0.326912 -0.2387 2.095 
0.432058 -0.242915 2.132 
0.539657 -0.246675 2.165 
0.670654 -0.238244 2.091 
0.754891 -0.234142 2.055 
0.958151 -0.255107 2.239 
2.67328 -0.561029 4.924 
3.4313 -0.636342 5.585 
3.29635 -0.568207 4.987 
3.20896 -0.516708 4.535 
3.11715 -0.470905 4.133 
3.4251 -0.487312 4.277 
1.34195 -0.171021 1.501 
1.50504 -0.1823 1.6 
-1.4464 -0.193188 1.719 
-1.3464 -0.190379 1.694 
-1.25547 -0.18858 1.678 
-0.909085 -0.211057 1.878 
-0.682694 -0.191727 1.706 
-0.58884 -0.195773 1.742 
-0.505458 -0.216901 1.93 
-0.421743 -0.22016 1.959 
-0.33212 -0.221284 1.969 
-0.250354 -0.2305 2.051 
-0.143285 -0.227465 2.024 
-0.0486316 -0.226004 2.011 
0.0506722 -0.237467 2.113 
0.145701 -0.231961 2.064 
0.237216 -0.227465 2.024 
0.342531 -0.234995 2.091 
0.450935 -0.240839 2.143 
0.550307 -0.240614 2.141 
0.702905 -0.236006 2.1 
0.805744 -0.237467 2.113 
0.997414 -0.253651 2.257 
5.62529 -1.09844 9.774 
3.47219 -0.611931 5.445 
3.31882 -0.545063 4.85 
3.16774 -0.487072 4.334 
3.40785 -0.492579 4.383 
3.47768 -0.472462 4.204 
1.3908 -0.169812 1.511 
-1.36596 -0.174447 1.574 
-1.3551 -0.187857 1.695 
-1.26781 -0.186638 1.684 
-0.911032 -0.207918 1.876 
-0.688399 -0.189187 1.707 
-0.605184 -0.195726 1.766 
-0.513388 -0.213459 1.926 
-0.431314 -0.217338 1.961 
-0.339218 -0.216895 1.957 
-0.259154 -0.226648 2.045 
-0.156634 -0.225429 2.034 
-0.0610078 -0.222437 2.007 
0.0339334 -0.231968 2.093 
0.131175 -0.231414 2.088 
0.221931 -0.224764 2.028 
0.329851 -0.231968 2.093 
0.43823 -0.237842 2.146 
0.542268 -0.239615 2.162 
0.697706 -0.233187 2.104 
0.799178 -0.234185 2.113 
0.993907 -0.250144 2.257 
2.72727 -0.544288 4.911 
3.45265 -0.612005 5.522 
3.26728 -0.538968 4.863 
3.24319 -0.500288 4.514 
3.21642 -0.465931 4.204 
3.34743 -0.457064 4.124 
1.34923 -0.165248 1.491 
-1.3733 -0.172002 1.574 
-1.37252 -0.185443 1.697 
-1.2957 -0.18577 1.7 
-0.89081 -0.181836 1.664 
-0.7236 -0.18741 1.715 
-0.604156 -0.192655 1.763 
-0.515844 -0.210248 1.924 
-0.433918 -0.214073 1.959 
-0.341559 -0.213417 1.953 
-0.261689 -0.222924 2.04 
-0.162794 -0.22205 2.032 
-0.0673112 -0.219537 2.009 
0.0273642 -0.22817 2.088 
0.125642 -0.229918 2.104 
0.216692 -0.222706 2.038 
0.331671 -0.227733 2.084 
0.443004 -0.235273 2.153 
0.545123 -0.236038 2.16 
0.70264 -0.230465 2.109 
0.805119 -0.231667 2.12 
0.988206 -0.246091 2.252 
2.72913 -0.534035 4.887 
3.46341 -0.606813 5.553 
3.22755 -0.526167 4.815 
3.22901 -0.492182 4.504 
3.17553 -0.454482 4.159 
3.31267 -0.446832 4.089 
1.34318 -0.163041 1.492 
-1.37312 -0.169233 1.571 
-1.37292 -0.18216 1.691 
-1.30328 -0.183452 1.703 
-0.907519 -0.199395 1.851 
-0.700236 -0.184206 1.71 
-0.57372 -0.185391 1.721 
-0.489117 -0.206074 1.913 
-0.408732 -0.210598 1.955 
-0.321021 -0.212861 1.976 
-0.236333 -0.219755 2.04 
-0.137808 -0.219324 2.036 
-0.0425092 -0.217277 2.017 
0.0544914 -0.229881 2.134 
0.149052 -0.222556 2.066 
0.23858 -0.216416 2.009 
0.361429 -0.222879 2.069 
0.493273 -0.240115 2.229 
0.569305 -0.228911 2.125 
0.698397 -0.227942 2.116 
0.795141 -0.227403 2.111 
0.990384 -0.242269 2.249 
2.72353 -0.522457 4.85 
3.47469 -0.601633 5.585 
3.21204 -0.517394 4.803 
3.21486 -0.484107 4.494 
3.13554 -0.44328 4.115 
3.29257 -0.438648 4.072 
1.33944 -0.16083 1.493 
-1.37781 -0.166474 1.568 
-1.37328 -0.178895 1.685 
-1.31395 -0.18155 1.71 
-0.895284 -0.179639 1.692 
-0.712941 -0.18208 1.715 
-0.648797 -0.193971 1.827 
-0.581003 -0.204057 1.922 
-0.446385 -0.206712 1.947 
-0.356 -0.206924 1.949 
-0.274408 -0.214144 2.017 
-0.174134 -0.206712 1.947 
-0.0862106 -0.213719 2.013 
0.00785053 -0.220301 2.075 
0.107994 -0.227521 2.143 
0.200216 -0.219134 2.064 
0.293978 -0.217329 2.047 
0.438746 -0.229857 2.165 
0.543147 -0.231343 2.179 
0.693636 -0.245039 2.308 
0.735949 -0.225079 2.12 
0.833976 -0.224867 2.118 
1.02681 -0.237501 2.237 
5.53498 -1.00744 9.489 
3.43623 -0.574907 5.415 
3.32896 -0.518849 4.887 
3.16883 -0.462261 4.354 
3.27652 -0.449202 4.231 
3.32266 -0.429667 4.047 
1.35163 -0.157768 1.486 
-1.37625 -0.164142 1.569 
-1.36236 -0.175545 1.678 
-1.31094 -0.179207 1.713 
-0.894521 -0.192702 1.842 
-0.688586 -0.182136 1.741 
-0.563069 -0.179207 1.713 
-0.466353 -0.199293 1.905 
-0.382467 -0.203477 1.945 
-0.299011 -0.208499 1.993 
-0.205496 -0.207871 1.987 
-0.115552 -0.212788 2.034 
-0.0208788 -0.214148 2.047 
0.07821 -0.224714 2.148 
0.170857 -0.215299 2.058 
0.262374 -0.211742 2.024 
0.439759 -0.227016 2.17 
0.544393 -0.228481 2.184 
0.697222 -0.241453 2.308 
0.742537 -0.221785 2.12 
0.837779 -0.220844 2.111 
1.01712 -0.233398 2.231 
2.68553 -0.497552 4.756 
3.51628 -0.592752 5.666 
3.19657 -0.501214 4.791 
3.19289 -0.467946 4.473 
3.10937 -0.427773 4.089 
3.29351 -0.426937 4.081 
1.33712 -0.156191 1.493 
4.79379 -0.527054 5.038 
-1.39958 -0.17335 1.682 
-1.33768 -0.175515 1.703 
-0.90687 -0.174587 1.694 
-0.714214 -0.1784 1.731 
-0.614469 -0.183966 1.785 
-0.428704 -0.202311 1.963 
-0.334116 -0.200456 1.945 
-0.254099 -0.209216 2.03 
-0.160108 -0.21004 2.038 
-0.0643177 -0.207464 2.013 
0.0309454 -0.217564 2.111 
0.13032 -0.219213 2.127 
0.219427 -0.209628 2.034 
0.352501 -0.209834 2.036 
0.531533 -0.226839 2.201 
0.685572 -0.237558 2.305 
0.732458 -0.219419 2.129 
0.82466 -0.217564 2.111 
0.980841 -0.227149 2.204 
2.67079 -0.499851 4.85 
3.59253 -0.599615 5.818 
3.2295 -0.50119 4.863 
3.1861 -0.462027 4.483 
3.09667 -0.42142 4.089 
3.3363 -0.427707 4.15 
1.33516 -0.154181 1.496 
4.80723 -0.523246 5.077 
-1.40136 -0.170635 1.681 
-1.33875 -0.172666 1.701 
-0.897223 -0.18576 1.83 
-0.698041 -0.178452 1.758 
-0.585798 -0.175914 1.733 
-0.398394 -0.19784 1.949 
-0.308497 -0.198449 1.955 
-0.2236 -0.204133 2.011 
-0.132321 -0.207991 2.049 
-0.0366549 -0.207077 2.04 
0.0615235 -0.21804 2.148 
0.155848 -0.210224 2.071 
0.246285 -0.205148 2.021 
0.354966 -0.206265 2.032 
0.530032 -0.224232 2.209 
0.67395 -0.233672 2.302 
0.72491 -0.216822 2.136 
0.811346 -0.21337 2.102 
0.97728 -0.222912 2.196 
2.6855 -0.493635 4.863 
3.44483 -0.562051 5.537 
3.21204 -0.487544 4.803 
3.17122 -0.449986 4.433 
3.12258 -0.415981 4.098 
3.2861 -0.41253 4.064 
1.33958 -0.151044 1.488 
4.76076 -0.506222 4.987 
-1.37485 -0.167024 1.671 
-1.32957 -0.171222 1.713 
-0.761295 -0.17582 1.759 
-0.706753 -0.185916 1.86 
-0.59461 -0.194612 1.947 
-0.463171 -0.189114 1.892 
-0.385885 -0.194612 1.947 
-0.285762 -0.19861 1.987 
-0.193536 -0.19901 1.991 
-0.103467 -0.204407 2.045 
-0.00830473 -0.208305 2.084 
0.0930084 -0.218101 2.182 
0.184361 -0.206506 2.066 
0.277805 -0.204407 2.045 
0.433415 -0.217101 2.172 
0.543022 -0.2205 2.206 
0.686761 -0.229596 2.297 
0.738185 -0.213503 2.136 
0.823625 -0.209905 2.1 
0.992282 -0.2198 2.199 
2.65165 -0.471986 4.722 
3.45608 -0.556647 5.569 
3.23594 -0.48478 4.85 
3.16434 -0.443099 4.433 
3.12914 -0.411313 4.115 
3.31449 -0.410514 4.107 
1.33817 -0.148832 1.489 
4.75301 -0.498474 4.987 
-1.37827 -0.164526 1.672 
-1.32756 -0.16797 1.707 
-0.757548 -0.173481 1.763 
-0.706403 -0.181451 1.844 
-0.596447 -0.193161 1.963 
-0.468306 -0.185879 1.889 
-0.391532 -0.19139 1.945 
-0.282391 -0.195326 1.985 
-0.185552 -0.197294 2.005 
-0.0939356 -0.20123 2.045 
0.00141967 -0.206642 2.1 
0.103841 -0.216089 2.196 
0.194272 -0.203592 2.069 
0.298309 -0.195916 1.991 
0.509428 -0.226519 2.302 
0.588327 -0.216089 2.196 
0.702271 -0.217565 2.211 
0.75834 -0.204871 2.082 
0.9277 -0.212546 2.16 
1.05171 -0.217368 2.209 
4.54903 -0.75139 7.636 
3.40001 -0.517097 5.255 
3.27525 -0.464649 4.722 
3.11191 -0.413678 4.204 
3.40307 -0.425584 4.325 
3.4663 -0.40925 4.159 
1.36732 -0.145437 1.478 
-1.42081 -0.164447 1.698 
-1.3306 -0.163091 1.684 
-0.871506 -0.175487 1.812 
-0.704023 -0.176553 1.823 
-0.61412 -0.189918 1.961 
-0.4803 -0.183041 1.89 
-0.40362 -0.188368 1.945 
-0.28111 -0.19137 1.976 
-0.19293 -0.195341 2.017 
-0.0876667 -0.198246 2.047 
0.00796782 -0.20396 2.106 
0.11132 -0.213936 2.209 
0.200216 -0.199893 2.064 
0.502275 -0.222942 2.302 
0.583621 -0.213451 2.204 
0.739683 -0.208222 2.15 
0.815675 -0.202217 2.088 
0.988906 -0.211514 2.184 
2.61975 -0.444432 4.589 
3.37536 -0.521523 5.385 
3.26608 -0.469709 4.85 
3.14148 -0.422545 4.363 
3.17465 -0.401045 4.141 
3.28471 -0.391166 4.039 
1.34339 -0.143528 1.482 
-1.45793 -0.153232 1.608 
-1.32329 -0.157425 1.652 
-36.2037 -6.24507 65.535 
-0.705972 -0.170766 1.792 
-0.65113 -0.179438 1.883 
-0.489627 -0.180295 1.892 
-0.412686 -0.185346 1.945 
-0.282023 -0.186871 1.961 
-0.197133 -0.193255 2.028 
-0.104682 -0.197162 2.069 
-0.00841232 -0.201165 2.111 
0.0941593 -0.210504 2.209 
0.184004 -0.196495 2.062 
0.514283 -0.216888 2.276 
0.688348 -0.213839 2.244 
0.762238 -0.197734 2.075 
1.07883 -0.213839 2.244 
3.50502 -0.557753 5.853 
3.42864 -0.5062 5.312 
3.28383 -0.452168 4.745 
3.12532 -0.403187 4.231 
3.35159 -0.406713 4.268 
3.4823 -0.398899 4.186 
1.35948 -0.140272 1.472 
-1.4104 -0.158889 1.695 
-1.32118 -0.157671 1.682 
-27.4581 -4.82198 51.44 
-0.698834 -0.174544 1.862 
-0.598536 -0.185605 1.98 
-0.455313 -0.177731 1.896 
-0.32786 -0.180543 1.926 
-0.248102 -0.188136 2.007 
-0.158636 -0.193104 2.06 
