# .PCD v.7 - Point Cloud Data file format
VERSION .7
FIELDS x y z
SIZE 4 4 4
TYPE F F F
COUNT 1 1 1
WIDTH 1845
HEIGHT 1
VIEWPOINT 0 0 0 1 0 0 0
POINTS 1845
DATA ascii
-0.357318 -0.283889 0.96 
-0.324945 -0.295126 0.998 
-0.292935 -0.310504 1.05 
-0.250586 -0.327655 1.108 
-0.20756 -0.34185 1.156 
-0.162453 -0.361367 1.222 
-0.111107 -0.380589 1.287 
-0.054813 -0.408091 1.38 
0.010088 -0.432931 1.464 
0.0829266 -0.458363 1.55 
0.163181 -0.48202 1.63 
0.265566 -0.535249 1.81 
0.373711 -0.571623 1.933 
0.483484 -0.595872 2.015 
0.587146 -0.605926 2.049 
0.68465 -0.6077 2.055 
0.78651 -0.612432 2.071 
0.885598 -0.614206 2.077 
0.981462 -0.613615 2.075 
1.09117 -0.621008 2.1 
1.20037 -0.626922 2.12 
1.30225 -0.6284 2.125 
1.40262 -0.628992 2.127 
1.51305 -0.633723 2.143 
1.62047 -0.636681 2.153 
1.72482 -0.638159 2.158 
1.85585 -0.648805 2.194 
1.95187 -0.646735 2.187 
2.06695 -0.650875 2.201 
2.15771 -0.647326 2.189 
-0.560467 -0.202679 0.689 
-0.525286 -0.201502 0.685 
-0.506322 -0.206797 0.703 
-0.492416 -0.215034 0.731 
-0.4759 -0.223271 0.759 
-0.452711 -0.229448 0.78 
-0.434504 -0.23945 0.814 
-0.423465 -0.256511 0.872 
-0.397308 -0.266219 0.905 
-0.369252 -0.276809 0.941 
-0.340261 -0.289458 0.984 
-0.305466 -0.300342 1.021 
-0.272527 -0.317403 1.079 
-0.224564 -0.335936 1.142 
-0.178836 -0.350644 1.192 
-0.131344 -0.373589 1.27 
-0.0757845 -0.392415 1.334 
-0.0144734 -0.417419 1.419 
0.055599 -0.449189 1.527 
0.133747 -0.473899 1.611 
0.220373 -0.500079 1.7 
0.332215 -0.5545 1.885 
0.445926 -0.588623 2.001 
0.54593 -0.595977 2.026 
0.648264 -0.603331 2.051 
0.749302 -0.607743 2.066 
0.850101 -0.610979 2.077 
0.945999 -0.610391 2.075 
1.05628 -0.618333 2.102 
1.16799 -0.625687 2.127 
1.26296 -0.623628 2.12 
1.36305 -0.624216 2.122 
1.48125 -0.632453 2.15 
1.57999 -0.631865 2.148 
1.68011 -0.631865 2.148 
1.80012 -0.638925 2.172 
1.91624 -0.643925 2.189 
2.0321 -0.648338 2.204 
2.10577 -0.639513 2.174 
-0.565598 -0.199268 0.681 
-0.534641 -0.19956 0.682 
-0.513912 -0.20395 0.697 
-0.496621 -0.210387 0.719 
-0.479854 -0.217995 0.745 
-0.458274 -0.224432 0.767 
-0.4385 -0.232918 0.796 
-0.429133 -0.249012 0.851 
-0.408231 -0.261009 0.892 
-0.38022 -0.270665 0.925 
-0.352776 -0.283247 0.968 
-0.319099 -0.293781 1.004 
-0.286406 -0.308997 1.056 
-0.237794 -0.330357 1.129 
-0.193536 -0.34528 1.18 
-0.146637 -0.365471 1.249 
-0.0921726 -0.380979 1.302 
-0.0336866 -0.407606 1.393 
0.0330357 -0.431015 1.473 
0.109563 -0.464373 1.587 
0.191398 -0.48427 1.655 
0.297257 -0.536062 1.832 
0.412725 -0.578198 1.976 
0.513257 -0.587855 2.009 
0.619585 -0.600144 2.051 
0.719716 -0.603948 2.064 
0.81671 -0.604533 2.066 
0.915217 -0.605996 2.071 
1.02445 -0.613604 2.097 
1.12861 -0.617116 2.109 
1.23448 -0.62092 2.122 
1.34658 -0.627064 2.143 
1.44039 -0.624431 2.134 
1.55357 -0.62999 2.153 
1.6593 -0.632039 2.16 
1.77545 -0.637598 2.179 
1.89166 -0.642573 2.196 
1.98131 -0.638476 2.182 
2.0916 -0.64111 2.191 
-0.570691 -0.197045 0.677 
-0.545507 -0.199374 0.685 
-0.517327 -0.200829 0.69 
-0.501338 -0.207524 0.713 
-0.485832 -0.215382 0.74 
-0.465368 -0.222076 0.763 
-0.44445 -0.229644 0.789 
-0.425759 -0.239831 0.824 
-0.415121 -0.257876 0.886 
-0.386482 -0.266608 0.916 
-0.358049 -0.277668 0.954 
-0.32706 -0.289602 0.995 
-0.294223 -0.303572 1.043 
-0.255028 -0.315215 1.083 
-0.206483 -0.334715 1.15 
-0.16232 -0.35538 1.221 
-0.11102 -0.374299 1.286 
-0.0546541 -0.400494 1.376 
0.0100191 -0.423197 1.454 
0.0830871 -0.452011 1.553 
0.162781 -0.473258 1.626 
0.257203 -0.510223 1.753 
0.372744 -0.561158 1.928 
0.484923 -0.588226 2.021 
0.590298 -0.599577 2.06 
0.687648 -0.600741 2.064 
0.790688 -0.60598 2.082 
0.890289 -0.607727 2.088 
0.986665 -0.607145 2.086 
1.09688 -0.614421 2.111 
1.20321 -0.618496 2.125 
1.30777 -0.621115 2.134 
1.41185 -0.623153 2.141 
1.52506 -0.628683 2.16 
1.62724 -0.629265 2.162 
1.7416 -0.634213 2.179 
1.86177 -0.640616 2.201 
1.95544 -0.637706 2.191 
2.07916 -0.6444 2.214 
2.1311 -0.629265 2.162 
-0.559093 -0.198599 0.686 
-0.524813 -0.197731 0.683 
-0.50597 -0.202942 0.701 
-0.491526 -0.210758 0.728 
-0.476451 -0.219443 0.758 
-0.451013 -0.224365 0.775 
-0.431486 -0.23334 0.806 
-0.422871 -0.251289 0.868 
-0.396511 -0.260553 0.9 
-0.369532 -0.271554 0.938 
-0.340748 -0.284003 0.981 
-0.30388 -0.295583 1.021 
-0.268842 -0.310058 1.071 
-0.220822 -0.330323 1.141 
-0.176014 -0.346825 1.198 
-0.127698 -0.368538 1.273 
-0.0718541 -0.387355 1.338 
-0.0100569 -0.410516 1.418 
0.0603044 -0.441782 1.526 
0.138753 -0.46639 1.611 
0.22393 -0.488392 1.687 
0.333948 -0.539055 1.862 
0.453048 -0.580454 2.005 
0.557404 -0.592034 2.045 
0.658787 -0.597535 2.064 
0.759014 -0.600719 2.075 
0.866041 -0.607957 2.1 
0.956578 -0.603325 2.084 
1.06989 -0.612589 2.116 
1.1746 -0.615773 2.127 
1.28212 -0.619826 2.141 
1.38514 -0.621274 2.146 
1.4997 -0.627353 2.167 
1.59701 -0.625906 2.162 
1.70406 -0.628222 2.17 
1.81935 -0.633143 2.187 
1.92744 -0.63517 2.194 
2.04358 -0.639512 2.209 
2.10864 -0.628222 2.17 
-0.563711 -0.195806 0.68 
-0.532016 -0.195806 0.68 
-0.512094 -0.200413 0.696 
-0.494814 -0.206748 0.718 
-0.481267 -0.215674 0.749 
-0.456487 -0.220569 0.766 
-0.437263 -0.229208 0.796 
-0.424292 -0.243029 0.844 
-0.406846 -0.256851 0.892 
-0.377554 -0.265489 0.922 
-0.348909 -0.280463 0.974 
-0.31254 -0.290253 1.008 
-0.279519 -0.305514 1.061 
-0.233456 -0.323943 1.125 
-0.189065 -0.338341 1.175 
-0.142984 -0.360225 1.251 
-0.0880591 -0.374622 1.301 
-0.0293159 -0.400538 1.391 
0.0376895 -0.425013 1.476 
0.11435 -0.4564 1.585 
0.193928 -0.470222 1.633 
0.300966 -0.524068 1.82 
0.419289 -0.569564 1.978 
0.52493 -0.584538 2.03 
0.629315 -0.593752 2.062 
0.729296 -0.596919 2.073 
0.83309 -0.602102 2.091 
0.922542 -0.596919 2.073 
1.03883 -0.608437 2.113 
1.14109 -0.610453 2.12 
1.25218 -0.6165 2.141 
1.36397 -0.621971 2.16 
1.45787 -0.619091 2.15 
1.5704 -0.623987 2.167 
1.67372 -0.62485 2.17 
1.79449 -0.631761 2.194 
1.90281 -0.633777 2.201 
1.97898 -0.625426 2.172 
2.09649 -0.630321 2.189 
-0.571534 -0.194176 0.678 
-0.543914 -0.195608 0.683 
-0.516578 -0.197327 0.689 
-0.499932 -0.203627 0.711 
-0.487145 -0.212506 0.742 
-0.464758 -0.218234 0.762 
-0.44445 -0.225966 0.789 
-0.422659 -0.234272 0.818 
-0.414618 -0.252601 0.882 
-0.385788 -0.260907 0.911 
-0.358024 -0.272076 0.95 
-0.327285 -0.283818 0.991 
-0.293858 -0.296706 1.036 
-0.256236 -0.309594 1.081 
-0.206459 -0.326491 1.14 
-0.164351 -0.349976 1.222 
-0.112842 -0.367732 1.284 
-0.0565856 -0.392649 1.371 
0.00768537 -0.41241 1.44 
0.0805704 -0.4442 1.551 
0.160452 -0.466252 1.628 
0.249544 -0.492314 1.719 
0.367831 -0.549307 1.918 
0.486313 -0.584247 2.04 
0.588238 -0.591121 2.064 
0.688089 -0.594271 2.075 
0.790857 -0.598854 2.091 
0.890018 -0.599999 2.095 
0.986724 -0.599426 2.093 
1.10086 -0.608591 2.125 
1.20216 -0.609737 2.129 
1.31301 -0.615178 2.148 
1.42102 -0.618615 2.16 
1.53016 -0.622052 2.172 
1.6389 -0.624916 2.182 
1.75417 -0.629784 2.199 
1.86089 -0.631216 2.204 
1.96094 -0.630357 2.201 
2.09166 -0.638949 2.231 
2.12577 -0.618615 2.16 
-0.557709 -0.194547 0.683 
-0.525104 -0.194262 0.682 
-0.506336 -0.19939 0.7 
-0.490627 -0.206511 0.725 
-0.476998 -0.215626 0.757 
-0.450467 -0.219898 0.772 
-0.430591 -0.228443 0.802 
-0.422626 -0.245534 0.862 
-0.397533 -0.255219 0.896 
-0.370065 -0.265473 0.932 
-0.343095 -0.27886 0.979 
-0.308706 -0.2894 1.016 
-0.272668 -0.301933 1.06 
-0.230369 -0.321017 1.127 
-0.184783 -0.33355 1.171 
-0.139319 -0.356907 1.253 
-0.0838227 -0.369725 1.298 
-0.0250834 -0.39764 1.396 
0.0424191 -0.421851 1.481 
0.119426 -0.452045 1.587 
0.199733 -0.466856 1.639 
0.306284 -0.517843 1.818 
0.426295 -0.564557 1.982 
0.535687 -0.583072 2.047 
0.637881 -0.589338 2.069 
0.738932 -0.593041 2.082 
0.845611 -0.599878 2.106 
0.932121 -0.592472 2.08 
1.04985 -0.604435 2.122 
1.15146 -0.605859 2.127 
1.26589 -0.613265 2.153 
1.3783 -0.618677 2.172 
1.47272 -0.615829 2.162 
1.58441 -0.620101 2.177 
1.68976 -0.621526 2.182 
1.81116 -0.628362 2.206 
1.91659 -0.629216 2.209 
1.99487 -0.621526 2.182 
2.11002 -0.625513 2.196 
-0.569427 -0.19207 0.678 
-0.540205 -0.192919 0.681 
-0.515183 -0.195469 0.69 
-0.49621 -0.201701 0.712 
-0.486435 -0.2119 0.748 
-0.460626 -0.216149 0.763 
-0.441218 -0.224364 0.792 
-0.419107 -0.23258 0.821 
-0.411002 -0.251843 0.889 
-0.380374 -0.259209 0.915 
-0.355073 -0.272524 0.962 
-0.320231 -0.281305 0.993 
-0.287189 -0.294903 1.041 
-0.248068 -0.306518 1.082 
-0.203969 -0.321816 1.136 
-0.162453 -0.346178 1.222 
-0.110761 -0.363459 1.283 
-0.0544158 -0.388105 1.37 
0.00990889 -0.407369 1.438 
0.0828731 -0.438814 1.549 
0.163582 -0.462893 1.634 
0.251334 -0.485273 1.713 
0.372744 -0.54618 1.928 
0.493801 -0.583008 2.058 
0.592877 -0.586124 2.069 
0.694311 -0.590373 2.084 
0.797523 -0.594906 2.1 
0.894126 -0.594056 2.097 
0.991868 -0.594056 2.097 
1.1078 -0.603971 2.132 
1.20547 -0.603121 2.129 
1.32064 -0.610487 2.155 
1.43361 -0.615869 2.174 
1.53706 -0.616719 2.177 
1.65283 -0.622101 2.196 
1.76957 -0.627201 2.214 
1.86854 -0.625784 2.209 
1.96704 -0.624368 2.204 
2.10733 -0.635699 2.244 
2.14096 -0.615303 2.172 
-0.553714 -0.192143 0.682 
-0.521925 -0.192143 0.682 
-0.505229 -0.19806 0.703 
-0.488592 -0.204821 0.727 
-0.47347 -0.213273 0.757 
-0.447447 -0.217781 0.773 
-0.428449 -0.226797 0.805 
-0.418123 -0.242574 0.861 
-0.393796 -0.252716 0.897 
-0.366898 -0.263422 0.935 
-0.33957 -0.276664 0.982 
-0.306065 -0.288215 1.023 
-0.268738 -0.299766 1.064 
-0.230884 -0.315825 1.121 
-0.184052 -0.325404 1.155 
-0.138652 -0.351323 1.247 
-0.0833707 -0.36372 1.291 
-0.0251014 -0.393583 1.397 
0.0422759 -0.415841 1.476 
0.119049 -0.445704 1.582 
0.200464 -0.463454 1.645 
0.305779 -0.511349 1.815 
0.425435 -0.557271 1.978 
0.540136 -0.581501 2.064 
0.639731 -0.5846 2.075 
0.743545 -0.590234 2.095 
0.849626 -0.596151 2.116 
0.934809 -0.587699 2.086 
1.05331 -0.599813 2.129 
1.15255 -0.599813 2.129 
1.27001 -0.608547 2.16 
1.38147 -0.613337 2.177 
1.47954 -0.611928 2.172 
1.58951 -0.615309 2.184 
1.69905 -0.618126 2.194 
1.82184 -0.625169 2.219 
1.92266 -0.624324 2.216 
2.0031 -0.617281 2.191 
2.12924 -0.624324 2.216 
-0.56438 -0.189683 0.677 
-0.534399 -0.190243 0.679 
-0.512376 -0.193885 0.692 
-0.493998 -0.199489 0.712 
-0.483594 -0.209856 0.749 
-0.457669 -0.214058 0.764 
-0.439184 -0.222744 0.795 
-0.416292 -0.230589 0.823 
-0.40824 -0.249081 0.889 
-0.377943 -0.256646 0.916 
-0.35245 -0.269814 0.963 
-0.317465 -0.2785 0.994 
-0.283682 -0.291388 1.04 
-0.245158 -0.303716 1.084 
-0.20361 -0.317725 1.134 
-0.16016 -0.341541 1.219 
-0.108768 -0.359472 1.283 
-0.0501221 -0.383568 1.369 
0.0143873 -0.403181 1.439 
0.0875166 -0.43316 1.546 
0.169382 -0.459777 1.641 
0.257856 -0.482192 1.721 
0.382467 -0.545513 1.947 
0.504328 -0.581376 2.075 
0.600465 -0.580815 2.073 
0.704486 -0.586979 2.095 
0.808261 -0.591462 2.111 
0.903649 -0.589501 2.104 
1.0041 -0.590902 2.109 
1.11808 -0.599307 2.139 
1.21778 -0.599307 2.139 
1.33472 -0.607152 2.167 
1.44699 -0.611915 2.184 
1.54879 -0.611915 2.184 
1.67326 -0.620321 2.214 
1.78849 -0.624524 2.229 
1.88135 -0.620881 2.216 
1.97568 -0.618079 2.206 
2.12938 -0.633209 2.26 
2.15759 -0.611355 2.182 
-0.547058 -0.189188 0.679 
-0.518446 -0.190303 0.683 
-0.502998 -0.196711 0.706 
-0.48693 -0.204234 0.733 
-0.467589 -0.210921 0.757 
-0.444869 -0.217051 0.779 
-0.423769 -0.225131 0.808 
-0.410097 -0.239898 0.861 
-0.387583 -0.251322 0.902 
-0.359331 -0.261353 0.938 
-0.330415 -0.273612 0.982 
-0.298557 -0.286986 1.03 
-0.261009 -0.298967 1.073 
-0.221024 -0.313177 1.124 
-0.175986 -0.32683 1.173 
-0.127741 -0.349399 1.254 
-0.0720542 -0.36333 1.304 
-0.0121736 -0.392307 1.408 
0.0565288 -0.414876 1.489 
0.135319 -0.445804 1.6 
0.218816 -0.464751 1.668 
0.326254 -0.511281 1.835 
0.44724 -0.555305 1.993 
0.562358 -0.578152 2.075 
0.662568 -0.581217 2.086 
0.767082 -0.586789 2.106 
0.870995 -0.59069 2.12 
0.961574 -0.585675 2.102 
1.07921 -0.596541 2.141 
1.17239 -0.593198 2.129 
1.29611 -0.604622 2.17 
1.40821 -0.609358 2.187 
1.50462 -0.607129 2.179 
1.62461 -0.614095 2.204 
1.73909 -0.618274 2.219 
1.84834 -0.620225 2.226 
1.94771 -0.618832 2.221 
2.054 -0.619667 2.224 
2.17706 -0.62524 2.244 
-0.558893 -0.187856 0.678 
-0.528847 -0.18841 0.68 
-0.508118 -0.192566 0.695 
-0.490783 -0.198662 0.717 
-0.47969 -0.208359 0.752 
-0.453508 -0.212516 0.767 
-0.434642 -0.221105 0.798 
-0.417867 -0.232465 0.839 
-0.401785 -0.246596 0.89 
-0.373257 -0.255462 0.922 
-0.347118 -0.268484 0.969 
-0.313483 -0.278736 1.006 
-0.277458 -0.290096 1.047 
-0.238739 -0.305058 1.101 
-0.19355 -0.315033 1.137 
-0.147505 -0.339138 1.224 
-0.0945187 -0.354377 1.279 
-0.0376604 -0.382362 1.38 
0.0280335 -0.402034 1.451 
0.102258 -0.429741 1.551 
0.185467 -0.456618 1.648 
0.28313 -0.492914 1.779 
0.408203 -0.545558 1.969 
0.529688 -0.577976 2.086 
0.626316 -0.577422 2.084 
0.732131 -0.584349 2.109 
0.834763 -0.587396 2.12 
0.927412 -0.583517 2.106 
1.03921 -0.591275 2.134 
1.14134 -0.592661 2.139 
1.25033 -0.597094 2.155 
1.36456 -0.60319 2.177 
1.47074 -0.605129 2.184 
1.57758 -0.607069 2.191 
1.69734 -0.613441 2.214 
1.8233 -0.621199 2.242 
1.91405 -0.616766 2.226 
2.02052 -0.617597 2.229 
2.1511 -0.625355 2.257 
-0.569005 -0.185976 0.675 
-0.539136 -0.186527 0.677 
-0.515828 -0.189558 0.688 
-0.49712 -0.194793 0.707 
-0.481892 -0.202232 0.734 
-0.462928 -0.20912 0.759 
-0.442761 -0.216559 0.786 
-0.419042 -0.223447 0.811 
-0.403004 -0.237774 0.863 
-0.382537 -0.250723 0.91 
-0.353577 -0.260642 0.946 
-0.322242 -0.271387 0.985 
-0.288394 -0.283235 1.028 
-0.25241 -0.297286 1.079 
-0.210359 -0.309409 1.123 
-0.162985 -0.330073 1.198 
-0.113764 -0.350462 1.272 
-0.0573881 -0.369197 1.34 
0.00538376 -0.392065 1.423 
0.0769512 -0.420719 1.527 
0.157631 -0.44772 1.625 
0.242277 -0.464802 1.687 
0.361046 -0.522937 1.898 
0.49309 -0.573633 2.082 
0.588716 -0.572255 2.077 
0.696087 -0.581072 2.109 
0.797025 -0.583 2.116 
0.896499 -0.583551 2.118 
0.996159 -0.584103 2.12 
1.11047 -0.592368 2.15 
1.20167 -0.58796 2.134 
1.32431 -0.59843 2.172 
1.4413 -0.605042 2.196 
1.54014 -0.603665 2.191 
1.68049 -0.617716 2.242 
1.79056 -0.619645 2.249 
1.87432 -0.612757 2.224 
1.97798 -0.612757 2.224 
2.1247 -0.625431 2.27 
2.22264 -0.623226 2.262 
-0.551519 -0.185749 0.678 
-0.522218 -0.186571 0.681 
-0.505601 -0.192324 0.702 
-0.48568 -0.19753 0.721 
-0.472138 -0.206297 0.753 
-0.447488 -0.211228 0.771 
-0.428099 -0.219721 0.802 
-0.412781 -0.232871 0.85 
-0.393796 -0.245748 0.897 
-0.364151 -0.254241 0.928 
-0.337841 -0.267665 0.977 
-0.308458 -0.282459 1.031 
-0.267475 -0.29013 1.059 
-0.224653 -0.305747 1.116 
-0.178978 -0.316979 1.157 
-0.130168 -0.339718 1.24 
-0.0758144 -0.355882 1.299 
-0.0164547 -0.383553 1.4 
0.0512397 -0.402731 1.47 
0.128963 -0.433689 1.583 
0.212865 -0.455332 1.662 
0.321112 -0.499167 1.822 
0.442361 -0.543823 1.985 
0.561559 -0.570946 2.084 
0.663752 -0.575329 2.1 
0.768887 -0.580809 2.12 
0.870566 -0.582727 2.127 
0.966515 -0.580809 2.12 
1.0794 -0.58848 2.148 
1.17293 -0.585192 2.136 
1.29274 -0.594507 2.17 
1.4093 -0.601082 2.194 
1.50812 -0.599712 2.189 
1.63369 -0.608479 2.221 
1.74503 -0.611219 2.231 
1.86228 -0.615603 2.247 
1.95826 -0.612863 2.237 
2.06437 -0.613411 2.239 
2.19682 -0.621356 2.268 
-0.558518 -0.183879 0.675 
-0.529398 -0.184696 0.678 
-0.508075 -0.18851 0.692 
-0.490948 -0.194503 0.714 
-0.476257 -0.202403 0.743 
-0.454702 -0.208396 0.765 
-0.434931 -0.216296 0.794 
-0.410952 -0.223378 0.82 
-0.400914 -0.240268 0.882 
-0.375306 -0.25062 0.92 
-0.346516 -0.261244 0.959 
-0.315041 -0.275409 1.011 
-0.276928 -0.284671 1.045 
-0.239358 -0.298564 1.096 
-0.19566 -0.310278 1.139 
-0.15032 -0.331254 1.216 
-0.098416 -0.348143 1.278 
-0.0415534 -0.372388 1.367 
0.0232978 -0.391457 1.437 
0.096936 -0.420333 1.543 
0.17958 -0.447029 1.641 
0.274013 -0.478357 1.756 
0.399634 -0.533112 1.957 
0.524962 -0.57016 2.093 
0.624599 -0.572067 2.1 
0.73005 -0.57806 2.122 
0.828176 -0.577515 2.12 
0.930925 -0.579967 2.129 
1.03693 -0.58378 2.143 
1.14053 -0.585687 2.15 
1.24651 -0.588412 2.16 
1.36216 -0.594949 2.184 
1.46731 -0.596311 2.189 
1.58009 -0.600398 2.204 
1.70955 -0.609932 2.239 
1.82849 -0.614836 2.257 
1.9097 -0.607208 2.229 
2.04883 -0.617832 2.268 
2.16689 -0.621373 2.281 
-0.5732 -0.18283 0.675 
-0.541738 -0.18283 0.675 
-0.51708 -0.185268 0.684 
-0.499385 -0.190685 0.704 
-0.479164 -0.195831 0.723 
-0.465181 -0.204499 0.755 
-0.443089 -0.210728 0.778 
-0.421991 -0.218583 0.807 
-0.401638 -0.229147 0.846 
-0.383671 -0.245398 0.906 
-0.351994 -0.252982 0.934 
-0.323652 -0.265442 0.98 
-0.286239 -0.277901 1.026 
-0.250501 -0.291986 1.078 
-0.208614 -0.304175 1.123 
-0.163646 -0.31853 1.176 
-0.111261 -0.342908 1.266 
-0.052827 -0.360243 1.33 
0.00979863 -0.385162 1.422 
0.0819636 -0.414956 1.532 
0.16188 -0.437979 1.617 
0.245905 -0.45396 1.676 
0.371584 -0.520591 1.922 
0.503159 -0.567991 2.097 
0.599754 -0.566908 2.093 
0.706972 -0.574763 2.122 
0.805119 -0.574221 2.12 
0.909902 -0.578013 2.134 
1.01504 -0.581264 2.146 
1.12338 -0.585597 2.162 
1.21906 -0.58316 2.153 
1.34025 -0.592369 2.187 
1.4501 -0.595619 2.199 
1.55612 -0.596973 2.204 
1.70251 -0.612683 2.262 
1.81034 -0.613496 2.265 
1.88546 -0.603745 2.229 
2.00095 -0.607266 2.242 
2.14959 -0.619996 2.289 
2.25135 -0.618642 2.284 
-0.549893 -0.18205 0.676 
-0.521451 -0.183128 0.68 
-0.504881 -0.188783 0.701 
-0.485006 -0.1939 0.72 
-0.46963 -0.20171 0.749 
-0.446907 -0.207365 0.77 
-0.427031 -0.215444 0.8 
-0.40923 -0.226216 0.84 
-0.389953 -0.242644 0.901 
-0.357225 -0.249107 0.925 
-0.331429 -0.262842 0.976 
-0.297398 -0.276307 1.026 
-0.257846 -0.285464 1.06 
-0.218468 -0.299198 1.111 
-0.175236 -0.314549 1.168 
-0.126213 -0.333669 1.239 
-0.0720542 -0.351174 1.304 
-0.0120353 -0.374873 1.392 
0.0554658 -0.393455 1.461 
0.133543 -0.425233 1.579 
0.218423 -0.448393 1.665 
0.321276 -0.486635 1.807 
0.457528 -0.541573 2.011 
0.574836 -0.564733 2.097 
0.67771 -0.569042 2.113 
0.78134 -0.572812 2.127 
0.885448 -0.576044 2.139 
0.988371 -0.577929 2.146 
1.09651 -0.582238 2.162 
1.19064 -0.579007 2.15 
1.30826 -0.586816 2.179 
1.42406 -0.592741 2.201 
1.52873 -0.593549 2.204 
1.66921 -0.607284 2.255 
1.77589 -0.607822 2.257 
1.87442 -0.605668 2.249 
1.96869 -0.602436 2.237 
2.0989 -0.609977 2.265 
2.22783 -0.61644 2.289 
-0.556863 -0.180197 0.673 
-0.527056 -0.180732 0.675 
-0.507341 -0.185016 0.691 
-0.489573 -0.190639 0.712 
-0.473052 -0.197601 0.738 
-0.452919 -0.204027 0.762 
-0.432192 -0.211256 0.789 
-0.408948 -0.218485 0.816 
-0.392692 -0.236157 0.882 
-0.368324 -0.247403 0.924 
-0.340392 -0.258916 0.967 
-0.310529 -0.273642 1.022 
-0.268553 -0.279533 1.044 
-0.231476 -0.294259 1.099 
-0.187796 -0.306576 1.145 
-0.14241 -0.324783 1.213 
-0.0910399 -0.344329 1.286 
-0.0309793 -0.366552 1.369 
0.034365 -0.383688 1.433 
0.109346 -0.414747 1.549 
0.19268 -0.440184 1.644 
0.290275 -0.474456 1.772 
0.414461 -0.519706 1.941 
0.546294 -0.562279 2.1 
0.650311 -0.567634 2.12 
0.752305 -0.570043 2.129 
0.854338 -0.571918 2.136 
0.958363 -0.574595 2.146 
1.06431 -0.577808 2.158 
1.16489 -0.577808 2.158 
1.27486 -0.582092 2.174 
1.39012 -0.587983 2.196 
1.49451 -0.588786 2.199 
1.62025 -0.597354 2.231 
1.7366 -0.601638 2.247 
1.85199 -0.605119 2.26 
1.94347 -0.600835 2.244 
2.07909 -0.609938 2.278 
2.19103 -0.611545 2.284 
-0.565228 -0.179151 0.673 
-0.532273 -0.178619 0.671 
-0.512943 -0.182878 0.687 
-0.493523 -0.18767 0.705 
-0.475038 -0.193526 0.727 
-0.45875 -0.201246 0.756 
-0.438638 -0.208433 0.783 
-0.415495 -0.215354 0.809 
-0.393198 -0.224139 0.842 
-0.37652 -0.243837 0.916 
-0.346216 -0.252888 0.95 
-0.315603 -0.264335 0.993 
-0.279896 -0.274716 1.032 
-0.243699 -0.288825 1.085 
-0.201848 -0.301869 1.134 
-0.155956 -0.315977 1.187 
-0.107072 -0.336208 1.263 
-0.0501881 -0.35005 1.315 
0.0119404 -0.376404 1.414 
0.0850045 -0.41101 1.544 
0.163477 -0.428046 1.608 
0.249251 -0.447479 1.681 
0.375395 -0.508704 1.911 
0.51089 -0.559548 2.102 
0.612051 -0.562476 2.113 
0.716928 -0.567534 2.132 
0.810941 -0.563807 2.118 
0.925553 -0.573657 2.155 
1.03314 -0.57765 2.17 
1.13428 -0.57765 2.17 
1.23941 -0.579513 2.177 
1.35567 -0.585902 2.201 
1.46488 -0.588564 2.211 
1.57857 -0.592557 2.226 
1.71558 -0.60427 2.27 
1.81978 -0.603737 2.268 
1.89663 -0.594686 2.234 
2.03837 -0.605867 2.276 
2.1567 -0.609327 2.289 
2.26043 -0.608529 2.286 
-0.546982 -0.178635 0.675 
-0.519338 -0.179958 0.68 
-0.501986 -0.185251 0.7 
-0.482098 -0.190279 0.719 
-0.466055 -0.197689 0.747 
-0.444515 -0.203776 0.77 
-0.424014 -0.211451 0.799 
-0.403231 -0.220449 0.833 
-0.387085 -0.235004 0.888 
-0.358932 -0.244002 0.922 
-0.333434 -0.257499 0.973 
-0.301109 -0.269143 1.017 
-0.260941 -0.276818 1.046 
-0.223141 -0.291109 1.1 
-0.181557 -0.307517 1.162 
-0.134413 -0.324454 1.226 
-0.081617 -0.342714 1.295 
-0.0204484 -0.364151 1.376 
0.0457194 -0.381088 1.44 
0.124585 -0.412581 1.559 
0.210789 -0.440897 1.666 
0.306274 -0.468156 1.769 
0.428721 -0.516321 1.951 
0.562275 -0.558664 2.111 
0.665677 -0.562899 2.127 
0.767334 -0.564751 2.134 
0.872487 -0.568456 2.148 
0.978039 -0.571632 2.16 
1.08221 -0.573484 2.167 
1.18704 -0.575337 2.174 
1.29311 -0.577454 2.182 
1.40888 -0.583276 2.204 
1.51847 -0.585923 2.214 
1.65316 -0.597302 2.257 
1.76069 -0.598096 2.26 
1.86603 -0.598096 2.26 
1.97137 -0.598096 2.26 
2.09141 -0.602331 2.276 
2.21295 -0.606565 2.292 
-0.559168 -0.176797 0.672 
-0.52706 -0.176534 0.671 
-0.508345 -0.181006 0.688 
-0.48943 -0.186005 0.707 
-0.47391 -0.193109 0.734 
-0.453476 -0.19916 0.757 
-0.432555 -0.206 0.783 
-0.410728 -0.21363 0.812 
-0.387575 -0.222049 0.844 
-0.375698 -0.240465 0.914 
-0.345852 -0.249673 0.949 
-0.314967 -0.260723 0.991 
-0.280168 -0.271773 1.033 
-0.243699 -0.285453 1.085 
-0.197256 -0.299397 1.138 
-0.15169 -0.31492 1.197 
-0.101666 -0.333862 1.269 
-0.042559 -0.350437 1.332 
0.0207133 -0.371747 1.413 
0.0997196 -0.407527 1.549 
0.180465 -0.427785 1.626 
0.272643 -0.455147 1.73 
0.388199 -0.500135 1.901 
0.529477 -0.555384 2.111 
0.634712 -0.561435 2.134 
0.734866 -0.561962 2.136 
0.831691 -0.56012 2.129 
0.948852 -0.570907 2.17 
1.05338 -0.572748 2.177 
1.15326 -0.571959 2.174 
1.2644 -0.576432 2.191 
1.37775 -0.581167 2.209 
1.48876 -0.584324 2.221 
1.61092 -0.591165 2.247 
1.73322 -0.597216 2.27 
1.83497 -0.5959 2.265 
1.9294 -0.59248 2.252 
2.07954 -0.605635 2.302 
2.17734 -0.603004 2.292 
-0.571304 -0.176276 0.674 
-0.537485 -0.175491 0.671 
-0.514508 -0.178368 0.682 
-0.49546 -0.183076 0.7 
-0.476057 -0.188307 0.72 
-0.460935 -0.196153 0.75 
-0.441312 -0.203214 0.777 
-0.419173 -0.210276 0.804 
-0.395941 -0.218122 0.834 
-0.380187 -0.232245 0.888 
-0.352914 -0.241922 0.925 
-0.32621 -0.254737 0.974 
-0.292921 -0.265722 1.016 
-0.258133 -0.279322 1.068 
-0.215962 -0.289521 1.107 
-0.170228 -0.30626 1.171 
-0.122165 -0.323521 1.237 
-0.067898 -0.340521 1.302 
-0.00338926 -0.364583 1.394 
0.0654733 -0.387598 1.482 
0.147418 -0.410613 1.57 
0.236333 -0.439905 1.682 
0.336437 -0.470244 1.798 
0.466754 -0.522289 1.997 
0.602321 -0.555766 2.125 
0.704338 -0.55812 2.134 
0.803051 -0.557597 2.132 
0.916393 -0.566228 2.165 
1.02764 -0.571981 2.187 
1.13061 -0.572505 2.189 
1.23827 -0.57512 2.199 
1.34504 -0.576951 2.206 
1.45967 -0.581658 2.224 
1.57599 -0.586366 2.242 
1.71347 -0.597874 2.286 
1.80967 -0.594474 2.273 
1.89539 -0.588197 2.249 
2.02423 -0.595258 2.276 
2.14529 -0.599443 2.292 
2.26489 -0.602843 2.305 
-0.549079 -0.175489 0.675 
-0.520684 -0.176529 0.679 
-0.502 -0.181208 0.697 
-0.482985 -0.186408 0.717 
-0.465241 -0.192908 0.742 
-0.444586 -0.199147 0.766 
-0.423828 -0.206427 0.794 
-0.401922 -0.214486 0.825 
-0.381091 -0.224886 0.865 
-0.361012 -0.239185 0.92 
-0.334728 -0.251664 0.968 
-0.302475 -0.262843 1.011 
-0.262676 -0.270383 1.04 
-0.219923 -0.286242 1.101 
-0.177505 -0.30444 1.171 
-0.129118 -0.319779 1.23 
-0.075581 -0.336678 1.295 
-0.0140654 -0.358517 1.379 
0.052759 -0.376716 1.449 
0.136696 -0.405314 1.559 
0.226282 -0.438072 1.685 
0.320378 -0.46043 1.771 
0.442967 -0.506187 1.947 
0.581141 -0.551165 2.12 
0.684445 -0.554804 2.134 
0.786483 -0.556624 2.141 
0.894969 -0.562084 2.162 
1.00587 -0.567804 2.184 
1.11122 -0.569623 2.191 
1.22054 -0.573003 2.204 
1.32027 -0.571703 2.199 
1.43376 -0.576123 2.216 
1.54607 -0.579503 2.229 
1.69068 -0.593802 2.284 
1.78612 -0.590162 2.27 
1.87942 -0.586262 2.255 
2.00741 -0.593022 2.281 
2.12392 -0.595882 2.292 
2.2434 -0.599262 2.305 
-0.553501 -0.174182 0.674 
-0.523635 -0.174698 0.676 
-0.503047 -0.178575 0.691 
-0.48583 -0.18426 0.713 
-0.467831 -0.190463 0.737 
-0.447595 -0.196665 0.761 
-0.425664 -0.203126 0.786 
-0.404866 -0.211395 0.818 
-0.381983 -0.220182 0.852 
-0.366958 -0.23698 0.917 
-0.339773 -0.248351 0.961 
-0.308794 -0.25998 1.006 
-0.269454 -0.267475 1.035 
-0.233181 -0.281947 1.091 
-0.191521 -0.29616 1.146 
-0.143938 -0.3127 1.21 
-0.0927486 -0.331307 1.282 
-0.0345641 -0.347071 1.343 
0.0293904 -0.363869 1.408 
0.109134 -0.399532 1.546 
0.192328 -0.424083 1.641 
0.284378 -0.448634 1.736 
0.398119 -0.488949 1.892 
0.544909 -0.547871 2.12 
0.650707 -0.553815 2.143 
0.751644 -0.55459 2.146 
0.854447 -0.556399 2.153 
0.96633 -0.563118 2.179 
1.07181 -0.565186 2.187 
1.18395 -0.570096 2.206 
1.28677 -0.570096 2.206 
1.39589 -0.57268 2.216 
1.51136 -0.577332 2.234 
1.63573 -0.584568 2.262 
1.74963 -0.587411 2.273 
1.85803 -0.588186 2.276 
1.97274 -0.59077 2.286 
2.09203 -0.594388 2.3 
2.19349 -0.592838 2.294 
-0.560421 -0.172364 0.671 
-0.526779 -0.171593 0.668 
-0.507515 -0.175703 0.684 
-0.490237 -0.181098 0.705 
-0.471649 -0.186749 0.727 
-0.452817 -0.193171 0.752 
-0.433877 -0.20062 0.781 
-0.411724 -0.207813 0.809 
-0.387424 -0.215262 0.838 
-0.37206 -0.229904 0.895 
-0.346584 -0.241207 0.939 
-0.317329 -0.252766 0.984 
-0.283879 -0.264325 1.029 
-0.248985 -0.278967 1.086 
-0.201492 -0.290784 1.132 
-0.15635 -0.305682 1.19 
-0.106818 -0.323664 1.26 
-0.0500736 -0.337021 1.312 
0.0117546 -0.357571 1.392 
0.093926 -0.393791 1.533 
0.175305 -0.417423 1.625 
0.265877 -0.442084 1.721 
0.371633 -0.474707 1.848 
0.520688 -0.539953 2.102 
0.630141 -0.549971 2.141 
0.731638 -0.551256 2.146 
0.831664 -0.551256 2.146 
0.94949 -0.561788 2.187 
1.05479 -0.563586 2.194 
1.15969 -0.56487 2.199 
1.27195 -0.569237 2.216 
1.37834 -0.570522 2.221 
1.50254 -0.578485 2.252 
1.61893 -0.582595 2.268 
1.73833 -0.587218 2.286 
1.83681 -0.58465 2.276 
1.94972 -0.586705 2.284 
2.07059 -0.590815 2.3 
2.17495 -0.590044 2.297 
2.26115 -0.58465 2.276 
-0.533006 -0.170555 0.668 
-0.511638 -0.173874 0.681 
-0.492581 -0.17847 0.699 
-0.474478 -0.184087 0.721 
-0.457381 -0.190981 0.748 
-0.438898 -0.198385 0.777 
-0.416675 -0.205279 0.804 
-0.391934 -0.212173 0.831 
-0.370202 -0.222386 0.871 
-0.351175 -0.236939 0.928 
-0.323184 -0.248684 0.974 
-0.290334 -0.259918 1.018 
-0.256484 -0.274471 1.075 
-0.212906 -0.283152 1.109 
-0.170228 -0.298982 1.171 
-0.12177 -0.314812 1.233 
-0.0676372 -0.331153 1.297 
-0.00761567 -0.351068 1.375 
0.0596771 -0.370983 1.453 
0.143409 -0.396516 1.553 
0.236359 -0.434303 1.701 
0.330674 -0.454984 1.782 
0.448792 -0.493538 1.933 
0.592974 -0.54307 2.127 
0.69732 -0.547156 2.143 
0.80167 -0.55022 2.155 
0.910069 -0.555071 2.174 
1.02303 -0.561454 2.199 
1.12911 -0.563241 2.206 
1.2431 -0.568347 2.226 
1.34262 -0.56656 2.219 
1.45582 -0.57039 2.234 
1.56693 -0.572943 2.244 
1.70728 -0.585199 2.292 
1.79907 -0.580348 2.273 
1.9025 -0.579582 2.27 
2.04193 -0.589284 2.308 
2.14951 -0.589284 2.308 
2.26002 -0.59005 2.311 
-0.546639 -0.170533 0.672 
-0.519151 -0.171801 0.677 
-0.498399 -0.175608 0.692 
-0.481638 -0.181445 0.715 
-0.463987 -0.187789 0.74 
-0.443425 -0.193879 0.764 
-0.421693 -0.200477 0.79 
-0.398512 -0.207583 0.818 
-0.376686 -0.216972 0.855 
-0.362047 -0.233213 0.919 
-0.333801 -0.243872 0.961 
-0.302542 -0.255291 1.006 
-0.265054 -0.264681 1.043 
-0.227853 -0.278638 1.098 
-0.18649 -0.294118 1.159 
-0.139441 -0.309598 1.22 
-0.0868408 -0.325585 1.283 
-0.0283043 -0.340811 1.343 
0.0361063 -0.358829 1.414 
0.118666 -0.392072 1.545 
0.206352 -0.424301 1.672 
0.295677 -0.441304 1.739 
0.411827 -0.482414 1.901 
0.560454 -0.540273 2.129 
0.666194 -0.545603 2.15 
0.767475 -0.546364 2.153 
0.875486 -0.551185 2.172 
0.987516 -0.557276 2.196 
1.09136 -0.558037 2.199 
1.21557 -0.568188 2.239 
1.30638 -0.562351 2.216 
1.41157 -0.563113 2.219 
1.52524 -0.566919 2.234 
1.66146 -0.578085 2.278 
1.75755 -0.574786 2.265 
1.88533 -0.581638 2.292 
2.02258 -0.59052 2.327 
2.11639 -0.586459 2.311 
2.21352 -0.583668 2.3 
-0.55625 -0.169236 0.671 
-0.522628 -0.16848 0.668 
-0.503264 -0.172515 0.684 
-0.486544 -0.178064 0.706 
-0.469059 -0.184117 0.73 
-0.448144 -0.189666 0.752 
-0.429572 -0.197232 0.782 
-0.404183 -0.202781 0.804 
-0.38404 -0.212365 0.842 
-0.368545 -0.226993 0.9 
-0.3422 -0.237839 0.943 
-0.313744 -0.250197 0.992 
-0.277754 -0.259781 1.03 
-0.242682 -0.27441 1.088 
-0.19991 -0.28576 1.133 
-0.155929 -0.30291 1.201 
-0.10536 -0.319304 1.266 
-0.0481084 -0.33141 1.314 
0.0138274 -0.348813 1.383 
0.085139 -0.379331 1.504 
0.16515 -0.403544 1.6 
0.257856 -0.434062 1.721 
0.354573 -0.455248 1.805 
0.494363 -0.513005 2.034 
0.620162 -0.539992 2.141 
0.72399 -0.543019 2.153 
0.827788 -0.545289 2.162 
0.941014 -0.552603 2.191 
1.04695 -0.554621 2.199 
1.15728 -0.558404 2.214 
1.26902 -0.562187 2.229 
1.37599 -0.563448 2.234 
1.50066 -0.571267 2.265 
1.6041 -0.57051 2.262 
1.73825 -0.580094 2.3 
1.83422 -0.576563 2.286 
1.95012 -0.579338 2.297 
2.06703 -0.582112 2.308 
2.18214 -0.58413 2.316 
2.27922 -0.581355 2.305 
-0.535317 -0.167191 0.667 
-0.512544 -0.169948 0.678 
-0.493001 -0.17421 0.695 
-0.476513 -0.180225 0.719 
-0.458403 -0.186492 0.744 
-0.439102 -0.19326 0.771 
-0.416762 -0.199777 0.797 
-0.393426 -0.207046 0.826 
-0.369965 -0.215819 0.861 
-0.353585 -0.23136 0.923 
-0.325032 -0.242139 0.966 
-0.290482 -0.25392 1.013 
-0.256233 -0.267456 1.067 
-0.213661 -0.27673 1.104 
-0.172047 -0.293524 1.171 
-0.123385 -0.308313 1.23 
-0.0694375 -0.324105 1.293 
-0.00757136 -0.342654 1.367 
0.0593485 -0.362206 1.445 
0.135381 -0.387021 1.544 
0.22682 -0.423367 1.689 
0.320921 -0.444673 1.774 
0.435687 -0.480016 1.915 
0.584979 -0.534911 2.134 
0.689577 -0.538922 2.15 
0.796034 -0.543183 2.167 
0.905317 -0.548196 2.187 
1.01739 -0.553711 2.209 
1.12288 -0.554964 2.214 
1.24878 -0.565241 2.255 
1.34128 -0.559977 2.234 
1.44735 -0.560729 2.237 
1.55301 -0.561231 2.239 
1.7003 -0.575769 2.297 
1.79241 -0.571006 2.278 
1.90526 -0.573012 2.286 
2.06021 -0.586798 2.341 
2.16377 -0.585294 2.335 
2.25119 -0.57978 2.313 
-0.548953 -0.167151 0.671 
-0.51922 -0.167649 0.673 
-0.498725 -0.171386 0.688 
-0.482258 -0.177115 0.711 
-0.465541 -0.183592 0.737 
-0.443475 -0.188824 0.758 
-0.423221 -0.195799 0.786 
-0.395931 -0.200532 0.805 
-0.37889 -0.211991 0.851 
-0.365135 -0.228183 0.916 
-0.335112 -0.23715 0.952 
-0.305398 -0.249108 1 
-0.269139 -0.259072 1.04 
-0.232547 -0.273022 1.096 
-0.190734 -0.286972 1.152 
-0.14489 -0.303413 1.218 
-0.0926762 -0.319107 1.281 
-0.0340236 -0.32932 1.322 
0.0314434 -0.349249 1.402 
0.104316 -0.376402 1.511 
0.188738 -0.406544 1.632 
0.279733 -0.429461 1.724 
0.387034 -0.461596 1.853 
0.548769 -0.535083 2.148 
0.651002 -0.536827 2.155 
0.754935 -0.539318 2.165 
0.859404 -0.54156 2.174 
0.979295 -0.552022 2.216 
1.07281 -0.54704 2.196 
1.19979 -0.558499 2.242 
1.29672 -0.555261 2.229 
1.39873 -0.554513 2.226 
1.53084 -0.564976 2.268 
1.64016 -0.566222 2.273 
1.75225 -0.568214 2.281 
1.88464 -0.576186 2.313 
2.0114 -0.581666 2.335 
2.10843 -0.578428 2.322 
2.21093 -0.576933 2.316 
-0.557711 -0.165614 0.669 
-0.522593 -0.164376 0.664 
-0.502852 -0.168832 0.682 
-0.485569 -0.17403 0.703 
-0.468261 -0.179972 0.727 
-0.448117 -0.185665 0.75 
-0.429686 -0.193092 0.78 
-0.403415 -0.198043 0.8 
-0.384891 -0.208193 0.841 
-0.361311 -0.2176 0.879 
-0.341478 -0.231958 0.937 
-0.314332 -0.244831 0.989 
-0.278269 -0.25399 1.026 
-0.244372 -0.269339 1.088 
-0.200602 -0.278993 1.127 
-0.157138 -0.296074 1.196 
-0.10614 -0.309937 1.252 
-0.0500355 -0.324543 1.311 
0.0116449 -0.341377 1.379 
0.0838936 -0.366875 1.482 
0.164427 -0.394353 1.593 
0.256208 -0.423317 1.71 
0.352609 -0.444359 1.795 
0.490231 -0.499316 2.017 
0.622769 -0.532241 2.15 
0.728025 -0.535954 2.165 
0.833531 -0.538925 2.177 
0.946598 -0.545609 2.204 
1.05028 -0.546104 2.206 
1.16617 -0.552293 2.231 
1.27471 -0.554273 2.239 
1.384 -0.556254 2.247 
1.50927 -0.563928 2.278 
1.60836 -0.561452 2.268 
1.73977 -0.569869 2.302 
1.85188 -0.571354 2.308 
1.95945 -0.571354 2.308 
2.09121 -0.578038 2.335 
2.19534 -0.576801 2.33 
2.29306 -0.574077 2.319 
-0.529815 -0.163344 0.664 
-0.506224 -0.166788 0.678 
-0.487922 -0.171462 0.697 
-0.471771 -0.177612 0.722 
-0.453895 -0.184008 0.748 
-0.434156 -0.19065 0.775 
-0.410359 -0.196554 0.799 
-0.386304 -0.20418 0.83 
-0.361439 -0.212298 0.863 
-0.345448 -0.229272 0.932 
-0.31491 -0.242556 0.986 
-0.274553 -0.25338 1.03 
-0.240401 -0.268878 1.093 
-0.196389 -0.278718 1.133 
-0.152577 -0.296184 1.204 
-0.100865 -0.309714 1.259 
-0.0439584 -0.322752 1.312 
0.022552 -0.342186 1.391 
0.0932295 -0.365064 1.484 
0.176188 -0.39606 1.61 
0.267615 -0.42189 1.715 
0.366804 -0.44526 1.81 
0.526197 -0.519306 2.111 
0.639089 -0.531361 2.16 
0.744562 -0.534804 2.174 
0.84706 -0.535542 2.177 
0.965523 -0.545137 2.216 
1.06158 -0.541447 2.201 
1.18321 -0.550303 2.237 
1.28747 -0.550303 2.237 
1.39485 -0.551533 2.242 
1.52744 -0.561865 2.284 
1.62818 -0.559896 2.276 
1.74798 -0.564325 2.294 
1.87512 -0.570475 2.319 
1.98577 -0.571213 2.322 
2.11113 -0.575887 2.341 
2.20697 -0.572443 2.327 
2.30747 -0.570475 2.319 
-0.523076 -0.161824 0.662 
-0.503912 -0.166713 0.682 
-0.485277 -0.171357 0.701 
-0.468099 -0.177224 0.725 
-0.448683 -0.18309 0.749 
-0.429793 -0.190179 0.778 
-0.404152 -0.195313 0.799 
-0.385279 -0.205091 0.839 
-0.358138 -0.21218 0.868 
-0.341114 -0.228802 0.936 
-0.306959 -0.242002 0.99 
-0.272406 -0.252758 1.034 
-0.235737 -0.267669 1.095 
-0.192964 -0.279647 1.144 
-0.147332 -0.295047 1.207 
-0.0957513 -0.310203 1.269 
-0.0338435 -0.321447 1.315 
0.0293069 -0.343203 1.404 
0.100484 -0.363981 1.489 
0.184034 -0.394292 1.613 
0.275769 -0.41947 1.716 
0.377728 -0.445382 1.822 
0.548987 -0.528493 2.162 
0.65066 -0.529227 2.165 
0.757472 -0.533382 2.182 
0.859963 -0.533871 2.184 
0.980256 -0.544138 2.226 
1.07086 -0.537538 2.199 
1.1963 -0.548049 2.242 
1.3008 -0.548049 2.242 
1.40656 -0.548538 2.244 
1.53943 -0.558805 2.286 
1.64598 -0.558805 2.286 
1.75484 -0.559538 2.289 
1.89243 -0.568827 2.327 
2.00777 -0.570783 2.335 
2.1293 -0.574205 2.349 
2.2283 -0.571516 2.338 
-0.552511 -0.161281 0.664 
-0.519991 -0.160795 0.662 
-0.503173 -0.16541 0.681 
-0.485277 -0.170268 0.701 
-0.468099 -0.176097 0.725 
-0.448084 -0.181684 0.748 
-0.429793 -0.188971 0.778 
-0.404152 -0.194071 0.799 
-0.385005 -0.20573 0.847 
-0.358434 -0.214232 0.882 
-0.33855 -0.228562 0.941 
-0.309095 -0.239735 0.987 
-0.272143 -0.250908 1.033 
-0.232122 -0.265725 1.094 
-0.190402 -0.279327 1.15 
-0.1437 -0.293415 1.208 
-0.0921698 -0.309446 1.274 
-0.0338435 -0.319404 1.315 
0.0293486 -0.341507 1.406 
0.100214 -0.360696 1.485 
0.183578 -0.390815 1.609 
0.275609 -0.416561 1.715 
0.376691 -0.441336 1.817 
0.549748 -0.525863 2.165 
0.652162 -0.527078 2.17 
0.759208 -0.531207 2.187 
0.86272 -0.532178 2.191 
0.981577 -0.541408 2.229 
1.07184 -0.534607 2.201 
1.1963 -0.544566 2.242 
1.3037 -0.54578 2.247 
1.41157 -0.546995 2.252 
1.54347 -0.55671 2.292 
1.6503 -0.55671 2.292 
1.75714 -0.55671 2.292 
1.89731 -0.566669 2.333 
2.00605 -0.566669 2.333 
2.13745 -0.572741 2.358 
2.23688 -0.57007 2.347 
-0.549619 -0.160008 0.663 
-0.517151 -0.159525 0.661 
-0.501793 -0.164593 0.682 
-0.483788 -0.16942 0.702 
-0.466488 -0.175212 0.726 
-0.446356 -0.180763 0.749 
-0.427925 -0.188003 0.779 
-0.401669 -0.19283 0.799 
-0.38463 -0.205621 0.852 
-0.359143 -0.215757 0.894 
-0.33594 -0.228307 0.946 
-0.304804 -0.238443 0.988 
-0.267009 -0.25051 1.038 
-0.224706 -0.263301 1.091 
-0.184849 -0.279953 1.16 
-0.132987 -0.292744 1.213 
-0.0808607 -0.309638 1.283 
-0.0199728 -0.32436 1.344 
0.0454336 -0.345356 1.431 
0.118637 -0.365388 1.514 
0.204076 -0.394107 1.633 
0.297349 -0.418241 1.733 
0.406489 -0.449615 1.863 
0.574618 -0.523706 2.17 
0.676385 -0.524189 2.172 
0.784425 -0.528774 2.191 
0.892618 -0.532394 2.206 
1.00582 -0.537945 2.229 
1.10324 -0.534808 2.216 
1.22613 -0.543496 2.252 
1.34174 -0.54784 2.27 
1.44244 -0.545909 2.262 
1.56635 -0.552425 2.289 
1.69058 -0.558218 2.313 
1.78362 -0.553632 2.294 
1.92021 -0.56232 2.33 
2.068 -0.573181 2.375 
2.1842 -0.574629 2.381 
2.26433 -0.566906 2.349 
-0.540159 -0.158019 0.659 
-0.513308 -0.159218 0.664 
-0.497615 -0.164253 0.685 
-0.481323 -0.169768 0.708 
-0.462887 -0.175283 0.731 
-0.442893 -0.181038 0.755 
-0.422823 -0.187752 0.783 
-0.399648 -0.194226 0.81 
-0.381116 -0.205256 0.856 
-0.354168 -0.215567 0.899 
-0.329285 -0.227317 0.948 
-0.298031 -0.237627 0.991 
-0.264546 -0.249617 1.041 
-0.226193 -0.261366 1.09 
-0.186169 -0.277432 1.157 
-0.137727 -0.288942 1.205 
-0.0865024 -0.306446 1.278 
-0.0278828 -0.317236 1.323 
0.0363106 -0.340975 1.422 
0.107785 -0.35824 1.494 
0.191315 -0.386294 1.611 
0.284264 -0.412191 1.719 
0.387704 -0.438568 1.829 
0.56346 -0.522493 2.179 
0.665023 -0.522493 2.179 
0.772568 -0.526569 2.196 
0.878908 -0.528967 2.206 
0.994192 -0.535681 2.234 
1.08701 -0.530166 2.211 
1.20944 -0.538798 2.247 
1.32646 -0.543834 2.268 
1.43533 -0.545032 2.273 
1.55958 -0.551507 2.3 
1.67621 -0.554624 2.313 
1.76936 -0.550068 2.294 
1.91473 -0.561338 2.341 
2.02384 -0.561338 2.341 
2.15847 -0.568052 2.369 
2.26697 -0.567572 2.367 
-0.545279 -0.156995 0.659 
-0.515343 -0.157233 0.66 
-0.500733 -0.162474 0.682 
-0.482697 -0.167239 0.702 
-0.46536 -0.172956 0.726 
-0.445192 -0.178436 0.749 
-0.426166 -0.185344 0.778 
-0.401932 -0.191062 0.802 
-0.384096 -0.201306 0.845 
-0.353277 -0.206309 0.866 
-0.339289 -0.2237 0.939 
-0.30937 -0.234182 0.983 
-0.274813 -0.244188 1.025 
-0.24077 -0.258958 1.087 
-0.195526 -0.266343 1.118 
-0.151241 -0.280875 1.179 
-0.100779 -0.293978 1.234 
-0.0458566 -0.311607 1.308 
0.0159992 -0.329951 1.385 
0.0854982 -0.350201 1.47 
0.165959 -0.377359 1.584 
0.254928 -0.401182 1.684 
0.351438 -0.422862 1.775 
0.486027 -0.473367 1.987 
0.638049 -0.521966 2.191 
0.740172 -0.521966 2.191 
0.845371 -0.523872 2.199 
0.958643 -0.529828 2.224 
1.06326 -0.530304 2.226 
1.17907 -0.535783 2.249 
1.28847 -0.537689 2.257 
1.41034 -0.544122 2.284 
1.52543 -0.547219 2.297 
1.64813 -0.55246 2.319 
1.75016 -0.550554 2.311 
1.89084 -0.560321 2.352 
1.96049 -0.549124 2.305 
2.13072 -0.565801 2.375 
2.23387 -0.563895 2.367 
2.29666 -0.55246 2.319 
-0.52525 -0.155498 0.657 
-0.508179 -0.159758 0.675 
-0.490135 -0.164255 0.694 
-0.472959 -0.169698 0.717 
-0.454252 -0.175379 0.741 
-0.433875 -0.181295 0.766 
-0.412206 -0.187686 0.793 
-0.389913 -0.195023 0.824 
-0.364304 -0.202123 0.854 
-0.346157 -0.215614 0.911 
-0.321363 -0.228158 0.964 
-0.286467 -0.236441 0.999 
-0.251431 -0.247802 1.047 
-0.210992 -0.262239 1.108 
-0.165451 -0.275257 1.163 
-0.116313 -0.287801 1.216 
-0.0635089 -0.306498 1.295 
-0.00332847 -0.324012 1.369 
0.0637061 -0.34129 1.442 
0.139815 -0.364484 1.54 
0.226709 -0.390519 1.65 
0.322385 -0.41466 1.752 
0.433796 -0.445192 1.881 
0.608244 -0.519272 2.194 
0.707268 -0.516905 2.184 
0.815363 -0.520929 2.201 
0.926293 -0.525662 2.221 
1.03445 -0.528029 2.231 
1.15069 -0.533709 2.255 
1.25969 -0.535366 2.262 
1.38443 -0.54294 2.294 
1.49006 -0.542466 2.292 
1.60804 -0.546253 2.308 
1.73568 -0.552643 2.335 
1.85163 -0.554774 2.344 
1.94248 -0.549567 2.322 
2.11076 -0.565661 2.39 
2.24634 -0.571814 2.416 
2.27498 -0.55146 2.33 
-0.533013 -0.153771 0.654 
-0.510982 -0.156358 0.665 
-0.494422 -0.16106 0.685 
-0.478023 -0.166468 0.708 
-0.460108 -0.172111 0.732 
-0.44112 -0.178224 0.758 
-0.419173 -0.184102 0.783 
-0.40076 -0.192802 0.82 
-0.378456 -0.201267 0.856 
-0.348841 -0.20738 0.882 
-0.329712 -0.222193 0.945 
-0.297757 -0.231598 0.985 
-0.264374 -0.243119 1.034 
-0.220224 -0.257226 1.094 
-0.175231 -0.271804 1.156 
-0.126074 -0.282385 1.201 
-0.074939 -0.3019 1.284 
-0.0158318 -0.316713 1.347 
0.0500197 -0.337404 1.435 
0.123749 -0.357154 1.519 
0.208638 -0.383018 1.629 
0.302909 -0.407706 1.734 
0.410729 -0.436391 1.856 
0.589666 -0.517509 2.201 
0.689111 -0.515158 2.191 
0.796651 -0.518685 2.206 
0.908851 -0.524092 2.229 
1.01502 -0.525268 2.234 
1.12315 -0.527149 2.242 
1.24189 -0.533262 2.268 
1.36186 -0.538905 2.292 
1.47382 -0.540786 2.3 
1.58652 -0.542667 2.308 
1.72272 -0.551837 2.347 
1.80402 -0.543373 2.311 
1.94151 -0.551837 2.347 
2.06838 -0.55654 2.367 
2.20725 -0.563829 2.398 
2.29097 -0.55701 2.369 
-0.538285 -0.152522 0.653 
-0.513292 -0.154157 0.66 
-0.497883 -0.159062 0.681 
-0.4812 -0.1642 0.703 
-0.463104 -0.169572 0.726 
-0.443456 -0.175178 0.75 
-0.422115 -0.181017 0.775 
-0.402428 -0.188725 0.808 
-0.381086 -0.198535 0.85 
-0.350707 -0.203907 0.873 
-0.334874 -0.220257 0.943 
-0.302952 -0.229367 0.982 
-0.268181 -0.239177 1.024 
-0.226423 -0.252957 1.083 
-0.17937 -0.268139 1.148 
-0.127407 -0.279351 1.196 
-0.0748806 -0.299671 1.283 
-0.0158083 -0.314153 1.345 
0.0500197 -0.335174 1.435 
0.123993 -0.355495 1.522 
0.208638 -0.380487 1.629 
0.303258 -0.405479 1.736 
0.410065 -0.432807 1.853 
0.59181 -0.515958 2.209 
0.690683 -0.512922 2.196 
0.798456 -0.516425 2.211 
0.909666 -0.521096 2.231 
1.01729 -0.522965 2.239 
1.12415 -0.524133 2.244 
1.24463 -0.530906 2.273 
1.36483 -0.536512 2.297 
1.47895 -0.539081 2.308 
1.58858 -0.539782 2.311 
1.7286 -0.550059 2.355 
1.80558 -0.540249 2.313 
1.94565 -0.549359 2.352 
2.06314 -0.551461 2.361 
2.20264 -0.558935 2.393 
2.29097 -0.553329 2.369 
-0.538285 -0.151507 0.653 
-0.512515 -0.152899 0.659 
-0.497883 -0.158004 0.681 
-0.4812 -0.163108 0.703 
-0.462467 -0.168212 0.725 
-0.442865 -0.173781 0.749 
-0.42157 -0.179581 0.774 
-0.40193 -0.187238 0.807 
-0.379741 -0.196519 0.847 
-0.350305 -0.202319 0.872 
-0.334164 -0.218328 0.941 
-0.302644 -0.227609 0.981 
-0.267395 -0.236889 1.021 
-0.22347 -0.251739 1.085 
-0.175956 -0.266588 1.149 
-0.127194 -0.277028 1.194 
-0.0728872 -0.297678 1.283 
-0.0137186 -0.312063 1.345 
0.0522492 -0.332945 1.435 
0.127105 -0.355218 1.531 
0.211558 -0.378652 1.632 
0.306836 -0.403942 1.741 
0.41339 -0.430392 1.855 
0.596589 -0.513686 2.214 
0.695043 -0.510206 2.199 
0.802979 -0.513686 2.214 
0.913133 -0.51763 2.231 
1.02305 -0.520647 2.244 
1.13015 -0.521807 2.249 
1.2509 -0.528535 2.278 
1.37019 -0.533639 2.3 
1.48446 -0.536192 2.311 
1.59562 -0.537352 2.316 
1.73667 -0.547792 2.361 
1.81621 -0.538744 2.322 
1.95179 -0.5464 2.355 
2.07907 -0.551041 2.375 
2.20083 -0.553825 2.387 
2.29272 -0.549185 2.367 
-0.532591 -0.150032 0.651 
-0.509182 -0.153028 0.664 
-0.491917 -0.157407 0.683 
-0.476923 -0.163168 0.708 
-0.457717 -0.168238 0.73 
-0.438782 -0.17423 0.756 
-0.416889 -0.179992 0.781 
-0.398999 -0.18875 0.819 
-0.373154 -0.196585 0.853 
-0.343948 -0.202808 0.88 
-0.324274 -0.217097 0.942 
-0.292273 -0.226315 0.982 
-0.259805 -0.23853 1.035 
-0.215766 -0.254893 1.106 
-0.165101 -0.264572 1.148 
-0.11723 -0.277939 1.206 
-0.0651667 -0.296837 1.288 
-0.00540365 -0.312508 1.356 
0.0612099 -0.330946 1.436 
0.138583 -0.35791 1.553 
0.222787 -0.37796 1.64 
0.320393 -0.404694 1.756 
0.427209 -0.429814 1.865 
0.6109 -0.510707 2.216 
0.709354 -0.50725 2.201 
0.817477 -0.510707 2.216 
0.926998 -0.514164 2.231 
1.04069 -0.519004 2.252 
1.14973 -0.520847 2.26 
1.26395 -0.524535 2.276 
1.38749 -0.531218 2.305 
1.50012 -0.533062 2.313 
1.61557 -0.535597 2.324 
1.74467 -0.54205 2.352 
1.85193 -0.541359 2.349 
1.95975 -0.540898 2.347 
2.1141 -0.552651 2.398 
2.22866 -0.553343 2.401 
2.28793 -0.540898 2.347 
-0.529556 -0.14902 0.651 
-0.508373 -0.152683 0.667 
-0.49088 -0.157032 0.686 
-0.474292 -0.162297 0.709 
-0.455559 -0.167562 0.732 
-0.436409 -0.173514 0.758 
-0.414836 -0.179465 0.784 
-0.396147 -0.187935 0.821 
-0.370069 -0.195031 0.852 
-0.341602 -0.20167 0.881 
-0.321124 -0.217464 0.95 
-0.287918 -0.226163 0.988 
-0.253863 -0.237379 1.037 
-0.211183 -0.253861 1.109 
-0.164525 -0.261873 1.144 
-0.117036 -0.275607 1.204 
-0.0651161 -0.294607 1.287 
-0.00538771 -0.309486 1.352 
0.0611247 -0.328257 1.434 
0.139208 -0.357099 1.56 
0.222651 -0.375183 1.639 
0.320758 -0.402423 1.758 
0.426751 -0.426459 1.863 
0.611727 -0.507951 2.219 
0.710321 -0.504517 2.204 
0.818583 -0.507951 2.219 
0.926998 -0.510698 2.231 
1.043 -0.516649 2.257 
1.15227 -0.518481 2.265 
1.26506 -0.521456 2.278 
1.3893 -0.528324 2.308 
1.50401 -0.530842 2.319 
1.62183 -0.534047 2.333 
1.74689 -0.539083 2.355 
1.85429 -0.538396 2.352 
1.96392 -0.538396 2.352 
2.11675 -0.549612 2.401 
2.21288 -0.545721 2.384 
2.28988 -0.537709 2.349 
-0.531772 -0.147781 0.65 
-0.507648 -0.15051 0.662 
-0.491197 -0.155057 0.682 
-0.476249 -0.160741 0.707 
-0.457717 -0.16597 0.73 
-0.437621 -0.171426 0.754 
-0.415288 -0.176883 0.778 
-0.397538 -0.185523 0.816 
-0.372721 -0.192343 0.846 
-0.344319 -0.198709 0.874 
-0.324423 -0.212351 0.934 
-0.294422 -0.222582 0.979 
-0.259972 -0.232585 1.023 
-0.21962 -0.248046 1.091 
-0.176194 -0.258959 1.139 
-0.128293 -0.269872 1.187 
-0.0777609 -0.287605 1.265 
-0.0197796 -0.302611 1.331 
0.0451796 -0.323528 1.423 
0.120047 -0.34831 1.532 
0.202202 -0.367862 1.618 
0.295805 -0.391962 1.724 
0.401253 -0.418108 1.839 
0.591566 -0.507914 2.234 
0.687908 -0.50223 2.209 
0.79803 -0.506777 2.229 
0.905971 -0.50905 2.239 
1.0162 -0.512006 2.252 
1.12515 -0.513825 2.26 
1.249 -0.521555 2.294 
1.35947 -0.522919 2.3 
1.47879 -0.527239 2.319 
1.60193 -0.532241 2.341 
1.7337 -0.539289 2.372 
1.80928 -0.529058 2.327 
1.96224 -0.541335 2.381 
2.06277 -0.538607 2.369 
2.15484 -0.53406 2.349 
2.30675 -0.544063 2.393 
-0.538659 -0.146997 0.651 
-0.509939 -0.148352 0.657 
-0.495366 -0.15332 0.679 
-0.481474 -0.159191 0.705 
-0.460068 -0.163255 0.723 
-0.439932 -0.168449 0.746 
-0.418195 -0.173868 0.77 
-0.398193 -0.181094 0.802 
-0.374759 -0.188093 0.833 
-0.34924 -0.195545 0.866 
-0.327779 -0.207512 0.919 
-0.300447 -0.218803 0.969 
-0.267137 -0.228964 1.014 
-0.228479 -0.241383 1.069 
-0.186841 -0.252447 1.118 
-0.138301 -0.265995 1.178 
-0.0881374 -0.281124 1.245 
-0.0317762 -0.296704 1.314 
0.0315779 -0.31793 1.408 
0.103004 -0.336897 1.492 
0.183765 -0.3588 1.589 
0.274866 -0.382509 1.694 
0.372622 -0.402832 1.784 
0.5549 -0.490443 2.172 
0.670336 -0.501056 2.219 
0.780041 -0.50512 2.237 
0.885099 -0.505572 2.239 
0.99653 -0.509184 2.255 
1.10408 -0.510313 2.26 
1.22761 -0.517991 2.294 
1.33337 -0.517539 2.292 
1.45529 -0.522958 2.316 
1.59361 -0.53312 2.361 
1.70582 -0.533797 2.364 
1.79219 -0.526797 2.333 
1.94738 -0.539668 2.39 
2.02863 -0.531765 2.355 
2.13567 -0.531087 2.352 
2.30353 -0.544861 2.413 
-0.548075 -0.146883 0.655 
-0.512921 -0.146434 0.653 
-0.49874 -0.151368 0.675 
-0.481816 -0.156077 0.696 
-0.462288 -0.160562 0.716 
-0.44449 -0.166393 0.742 
-0.423716 -0.171999 0.767 
-0.401117 -0.177829 0.793 
-0.379769 -0.185454 0.827 
-0.3536 -0.192181 0.857 
-0.329026 -0.2016 0.899 
-0.307245 -0.215727 0.962 
-0.273862 -0.225146 1.004 
-0.235207 -0.233219 1.04 
-0.197398 -0.248692 1.109 
-0.148291 -0.259232 1.156 
-0.100126 -0.274929 1.226 
-0.0454358 -0.290626 1.296 
0.0159299 -0.309239 1.379 
0.0856146 -0.330094 1.472 
0.165959 -0.35521 1.584 
0.253415 -0.375392 1.674 
0.351833 -0.39849 1.777 
0.464746 -0.426073 1.9 
0.649697 -0.500299 2.231 
0.753685 -0.500299 2.231 
0.859979 -0.501644 2.237 
0.972867 -0.506129 2.257 
1.08332 -0.508596 2.268 
1.20004 -0.513305 2.289 
1.30502 -0.512633 2.286 
1.42701 -0.518239 2.311 
1.57192 -0.530797 2.367 
1.67371 -0.528106 2.355 
1.77061 -0.524294 2.338 
1.92139 -0.535954 2.39 
2.00046 -0.527433 2.352 
2.14149 -0.535282 2.387 
2.27446 -0.540439 2.41 
-0.551128 -0.145865 0.655 
-0.517419 -0.144974 0.651 
-0.50204 -0.149428 0.671 
-0.484094 -0.15366 0.69 
-0.466998 -0.158782 0.713 
-0.447757 -0.163904 0.736 
-0.428619 -0.169916 0.763 
-0.404388 -0.174816 0.785 
-0.385259 -0.183723 0.825 
-0.358576 -0.189959 0.853 
