# .PCD v.7 - Point Cloud Data file format
VERSION .7
FIELDS x y z
SIZE 4 4 4
TYPE F F F
COUNT 1 1 1
WIDTH 1888
HEIGHT 1
VIEWPOINT 0 0 0 1 0 0 0
POINTS 1888
DATA ascii
-0.556946 0.0980306 0.823 
-0.528038 0.0998173 0.838 
-0.51757 0.105654 0.887 
-0.493944 0.109585 0.92 
-0.450082 0.109346 0.918 
-0.430365 0.11554 0.97 
-0.413345 0.123997 1.041 
-0.384099 0.130549 1.096 
-0.337267 0.132216 1.11 
-0.283215 0.131144 1.101 
-0.23295 0.13174 1.106 
-0.180415 0.131025 1.1 
-0.128477 0.132097 1.109 
-0.0765096 0.131621 1.105 
-0.0256388 0.134956 1.133 
0.0278422 0.138291 1.161 
0.0815332 0.137576 1.155 
0.128102 0.130191 1.093 
0.174875 0.12364 1.038 
0.233102 0.128166 1.076 
0.263247 0.119114 1 
0.299013 0.114945 0.965 
0.331159 0.110657 0.929 
0.36277 0.107202 0.9 
0.395276 0.104701 0.879 
0.425824 0.1022 0.858 
0.444643 0.0975542 0.819 
0.471026 0.0951719 0.799 
0.491728 0.0920749 0.773 
0.512582 0.0886206 0.744 
0.531078 0.0860001 0.722 
0.549508 0.0830223 0.697 
0.565295 0.08064 0.677 
0.577455 0.0780195 0.655 
0.593133 0.0761137 0.639 
0.606345 0.0740888 0.622 
-0.620414 0.0901386 0.747 
-0.610682 0.0939999 0.779 
-0.587644 0.096172 0.797 
-0.565001 0.098706 0.818 
-0.537823 0.100757 0.835 
-0.525019 0.106308 0.881 
-0.502083 0.11029 0.914 
-0.456968 0.109687 0.909 
-0.428739 0.113427 0.94 
-0.418913 0.123443 1.023 
-0.386472 0.128511 1.065 
-0.355808 0.135751 1.125 
-0.298787 0.1337 1.108 
-0.248481 0.134424 1.114 
-0.19691 0.134665 1.116 
-0.144893 0.134665 1.116 
-0.0921273 0.133579 1.107 
-0.0411521 0.13563 1.124 
0.0114778 0.138526 1.148 
0.0666281 0.142026 1.177 
0.113953 0.133217 1.104 
0.158819 0.127907 1.06 
0.21112 0.127666 1.058 
0.250588 0.122839 1.018 
0.286034 0.117892 0.977 
0.318336 0.113186 0.938 
0.350091 0.109445 0.907 
0.383714 0.107032 0.887 
0.416432 0.10486 0.869 
0.435378 0.0999126 0.828 
0.46195 0.0973786 0.807 
0.48347 0.0942413 0.781 
0.502733 0.0905006 0.75 
0.524786 0.0883286 0.732 
0.541576 0.0850706 0.705 
0.55814 0.0826572 0.685 
0.57284 0.0802438 0.665 
0.586583 0.0779512 0.646 
0.59951 0.0757792 0.628 
-6.27232 0.796393 6.516 
-0.61559 0.0941103 0.77 
-0.593251 0.0963102 0.788 
-0.571354 0.0988769 0.809 
-0.551456 0.102177 0.836 
-0.529042 0.105477 0.863 
-0.509774 0.109999 0.9 
-0.465226 0.109388 0.895 
-0.438652 0.113299 0.927 
-0.427012 0.122343 1.001 
-0.397454 0.127843 1.046 
-0.372035 0.136399 1.116 
-0.31801 0.135543 1.109 
-0.2668 0.135788 1.111 
-0.214048 0.135177 1.106 
-0.164113 0.136521 1.117 
-0.111849 0.136277 1.115 
-0.0599321 0.136399 1.116 
-0.00809237 0.139454 1.141 
0.0463546 0.143365 1.173 
0.0965498 0.13701 1.121 
0.142827 0.13151 1.076 
0.188842 0.126499 1.035 
0.243269 0.129799 1.062 
0.272369 0.120754 0.988 
0.30714 0.116477 0.953 
0.33791 0.111955 0.916 
0.371048 0.109143 0.893 
0.404353 0.106943 0.875 
0.428349 0.10291 0.842 
0.45149 0.0993658 0.813 
0.477345 0.0969213 0.793 
0.496148 0.0934992 0.765 
0.514425 0.0904436 0.74 
0.531114 0.0875103 0.716 
0.548719 0.0850659 0.696 
0.56446 0.0826215 0.676 
0.576573 0.0799326 0.654 
0.592205 0.0779771 0.638 
0.60537 0.0758993 0.621 
-0.620082 0.0925835 0.748 
-0.609472 0.0964206 0.779 
-0.587142 0.0987723 0.798 
-0.56373 0.101248 0.818 
-0.534598 0.102981 0.832 
-0.523827 0.108798 0.879 
-0.501534 0.113006 0.913 
-0.455963 0.112264 0.907 
-0.427826 0.116101 0.938 
-0.419732 0.126869 1.025 
-0.383932 0.130954 1.058 
-0.356441 0.139494 1.127 
-0.299866 0.137638 1.112 
-0.249374 0.13838 1.118 
-0.197616 0.138628 1.12 
-0.145413 0.138628 1.12 
-0.0926266 0.137761 1.113 
-0.0413352 0.139742 1.129 
0.0114678 0.14197 1.147 
0.0665715 0.145559 1.176 
0.115564 0.136524 1.103 
0.159557 0.130459 1.054 
0.208487 0.130335 1.053 
0.249849 0.125631 1.015 
0.285448 0.12068 0.975 
0.317997 0.115977 0.937 
0.350477 0.112388 0.908 
0.384147 0.109912 0.888 
0.414994 0.107189 0.866 
0.434852 0.102362 0.827 
0.460805 0.0996387 0.805 
0.482232 0.0964206 0.779 
0.499903 0.0929549 0.751 
0.523649 0.0906032 0.732 
0.537956 0.087385 0.706 
0.556308 0.0851571 0.688 
0.569562 0.082434 0.666 
0.58347 0.0800823 0.647 
0.596555 0.0778543 0.629 
0.616918 0.0767404 0.62 
-0.615489 0.095375 0.761 
-0.599835 0.0986335 0.787 
-0.576033 0.100889 0.805 
-0.555905 0.104148 0.831 
-0.522773 0.105276 0.84 
-0.51068 0.111166 0.887 
-0.47184 0.11242 0.897 
-0.442016 0.115553 0.922 
-0.419383 0.121443 0.969 
-0.403954 0.131094 1.046 
-0.373197 0.137736 1.099 
-0.327539 0.140117 1.118 
-0.273704 0.13924 1.111 
-0.22252 0.139616 1.114 
-0.170596 0.139616 1.114 
-0.119311 0.140368 1.12 
-0.0665083 0.139115 1.11 
-0.0151301 0.142498 1.137 
0.0388982 0.146384 1.168 
0.0898228 0.140869 1.124 
0.136519 0.135229 1.079 
0.178328 0.129088 1.03 
0.23701 0.134227 1.071 
0.269571 0.12395 0.989 
0.304497 0.119563 0.954 
0.335795 0.115052 0.918 
0.369098 0.112169 0.895 
0.401175 0.109537 0.874 
0.426744 0.105777 0.844 
0.448412 0.101767 0.812 
0.474283 0.0992602 0.792 
0.493771 0.0958763 0.765 
0.511434 0.0926177 0.739 
0.529628 0.0898605 0.717 
0.546557 0.0872286 0.696 
0.56236 0.084722 0.676 
0.57542 0.0820901 0.655 
0.591148 0.0800849 0.639 
0.603441 0.077829 0.621 
-0.621245 0.0949078 0.748 
-0.609898 0.0987143 0.778 
-0.588382 0.101252 0.798 
-0.56431 0.103663 0.817 
-0.535891 0.105566 0.832 
-0.516828 0.109753 0.865 
-0.500749 0.115336 0.909 
-0.456363 0.114828 0.905 
-0.428368 0.118762 0.936 
-0.41968 0.129547 1.021 
-0.383389 0.13348 1.052 
-0.358192 0.142996 1.127 
-0.302136 0.141347 1.114 
-0.251785 0.142235 1.121 
-0.200246 0.142742 1.125 
-0.147547 0.142489 1.123 
-0.0951189 0.142362 1.122 
-0.0432419 0.143757 1.133 
0.00966041 0.145153 1.144 
0.0647443 0.149213 1.176 
0.115459 0.139824 1.102 
0.159103 0.133353 1.051 
0.209923 0.13348 1.052 
0.253075 0.128024 1.009 
0.288803 0.123203 0.971 
0.320988 0.118381 0.933 
0.354709 0.115209 0.908 
0.386974 0.112291 0.885 
0.417095 0.109372 0.862 
0.436585 0.104424 0.823 
0.462249 0.101633 0.801 
0.483991 0.0984605 0.776 
0.501392 0.0949078 0.748 
0.522635 0.0924971 0.729 
0.539053 0.0895788 0.706 
0.555757 0.0870412 0.686 
0.56974 0.0843766 0.665 
0.582669 0.081839 0.645 
0.596583 0.079682 0.628 
-6.33506 0.842539 6.56 
-0.61355 0.0979965 0.763 
-0.596167 0.101079 0.787 
-0.573703 0.103648 0.807 
-0.552696 0.106859 0.832 
-0.521328 0.1084 0.844 
-0.506545 0.113923 0.887 
-0.467484 0.114822 0.894 
-0.439627 0.118546 0.923 
-0.414653 0.123941 0.965 
-0.401087 0.134472 1.047 
-0.369446 0.141023 1.098 
-0.326094 0.14449 1.125 
-0.271955 0.143591 1.118 
-0.220631 0.144105 1.122 
-0.167884 0.14372 1.119 
-0.116348 0.14449 1.125 
-0.0617766 0.143591 1.118 
-0.00982188 0.145903 1.136 
0.0444182 0.15027 1.17 
0.0944698 0.143463 1.117 
0.140761 0.137812 1.073 
0.184729 0.132289 1.03 
0.240421 0.136656 1.064 
0.272518 0.126252 0.983 
0.307325 0.121886 0.949 
0.339333 0.117647 0.916 
0.372436 0.114693 0.893 
0.403394 0.111739 0.87 
0.426596 0.107372 0.836 
0.450526 0.103905 0.809 
0.474364 0.100694 0.784 
0.493963 0.0973544 0.758 
0.513233 0.0944003 0.735 
0.531105 0.0915748 0.713 
0.548508 0.089006 0.693 
0.563208 0.0863089 0.672 
0.576836 0.0837402 0.652 
0.592325 0.0816852 0.636 
0.606322 0.0796302 0.62 
-0.617902 0.0976221 0.751 
-0.605407 0.101392 0.78 
-0.582912 0.103862 0.799 
-0.560695 0.106721 0.821 
-0.530064 0.108281 0.833 
-0.509767 0.112961 0.869 
-0.492483 0.11855 0.912 
-0.449975 0.11855 0.912 
-0.421316 0.12258 0.943 
-0.416179 0.135189 1.04 
-0.373715 0.137399 1.057 
-0.346549 0.146758 1.129 
-0.288719 0.144158 1.109 
-0.240875 0.146498 1.127 
-0.188513 0.146628 1.128 
-0.135334 0.145978 1.123 
-0.0826946 0.145458 1.119 
-0.0256162 0.147148 1.132 
0.0278901 0.151178 1.163 
0.0814519 0.146758 1.129 
0.12885 0.141039 1.085 
0.171319 0.134669 1.036 
0.227623 0.138569 1.066 
0.25988 0.12986 0.999 
0.295094 0.12505 0.962 
0.327565 0.1205 0.927 
0.362774 0.1179 0.907 
0.392098 0.114131 0.878 
0.420199 0.110751 0.852 
0.441558 0.106331 0.818 
0.46737 0.103602 0.797 
0.487912 0.0997019 0.767 
0.505228 0.0961922 0.74 
0.525862 0.0937224 0.721 
0.54162 0.0907327 0.698 
0.559348 0.0883929 0.68 
0.57366 0.0857931 0.66 
0.586107 0.0831933 0.64 
0.600539 0.0811134 0.624 
-0.626217 0.0982628 0.747 
-0.609608 0.101288 0.77 
-0.590855 0.104314 0.793 
-0.565768 0.10655 0.81 
-0.542354 0.109444 0.832 
-0.514469 0.111812 0.85 
-0.499696 0.118652 0.902 
-0.458161 0.118783 0.903 
-0.429895 0.12273 0.933 
-0.415398 0.131938 1.003 
-0.385555 0.137989 1.049 
-0.358484 0.146934 1.117 
-0.307518 0.14746 1.121 
-0.256179 0.147986 1.125 
-0.20501 0.148907 1.132 
-0.151575 0.148249 1.127 
-0.0996599 0.14917 1.134 
-0.0470102 0.149828 1.139 
0.00608425 0.149959 1.14 
0.0609343 0.1543 1.173 
0.108709 0.145092 1.103 
0.152426 0.13812 1.05 
0.204886 0.1372 1.043 
0.247424 0.133911 1.018 
0.282708 0.128386 0.976 
0.315085 0.123256 0.937 
0.348804 0.119836 0.911 
0.381817 0.116942 0.889 
0.409923 0.113259 0.861 
0.432282 0.108786 0.827 
0.458304 0.105892 0.805 
0.478579 0.102209 0.777 
0.497569 0.0987889 0.751 
0.517681 0.0960265 0.73 
0.534324 0.093001 0.707 
0.552835 0.0906333 0.689 
0.566272 0.0877393 0.667 
0.580345 0.08524 0.648 
0.593589 0.0828722 0.63 
0.614054 0.0816883 0.621 
-0.614969 0.100621 0.756 
-0.598003 0.104215 0.783 
-0.576567 0.10701 0.804 
-0.554514 0.110071 0.827 
-0.525949 0.112201 0.843 
-0.503771 0.11646 0.875 
-0.473569 0.119122 0.895 
-0.443433 0.122316 0.919 
-0.414112 0.126442 0.95 
-0.406037 0.13882 1.043 
-0.364961 0.141748 1.065 
-0.335454 0.150799 1.133 
-0.2804 0.149601 1.124 
-0.229633 0.150666 1.132 
-0.173564 0.149335 1.122 
-0.121916 0.150133 1.128 
-0.0684173 0.148137 1.113 
-0.0168075 0.150533 1.131 
0.03702 0.155191 1.166 
0.0879198 0.149335 1.122 
0.134343 0.143079 1.075 
0.180295 0.136158 1.023 
0.236891 0.141482 1.063 
0.266767 0.131766 0.99 
0.301217 0.126841 0.953 
0.334393 0.122715 0.922 
0.369182 0.120053 0.902 
0.397548 0.11606 0.872 
0.421609 0.111668 0.839 
0.446438 0.108208 0.813 
0.471226 0.10528 0.791 
0.489466 0.10142 0.762 
0.507071 0.0979593 0.736 
0.526665 0.0952973 0.716 
0.543612 0.0925023 0.695 
0.55943 0.0898404 0.675 
0.573384 0.0871784 0.655 
0.590084 0.085182 0.64 
0.601511 0.0826531 0.621 
-0.623569 0.100719 0.748 
-0.605492 0.104623 0.777 
-0.581731 0.106913 0.794 
-0.561188 0.110144 0.818 
-0.533292 0.112299 0.834 
-0.501533 0.113914 0.846 
-0.494011 0.122128 0.907 
-0.451735 0.122128 0.907 
-0.423454 0.126302 0.938 
-0.415782 0.138825 1.031 
-0.37486 0.141518 1.051 
-0.347887 0.151078 1.122 
-0.294009 0.15027 1.116 
-0.244811 0.15202 1.129 
-0.19372 0.153232 1.138 
-0.139936 0.152424 1.132 
-0.0873268 0.152694 1.134 
-0.0345923 0.153232 1.138 
0.0186771 0.155117 1.152 
0.0716183 0.153502 1.14 
0.11972 0.147308 1.094 
0.160881 0.138825 1.031 
0.215031 0.141787 1.053 
0.252323 0.135458 1.006 
0.288505 0.130611 0.97 
0.319956 0.125225 0.93 
0.356662 0.122936 0.913 
0.385663 0.118762 0.882 
0.413708 0.115126 0.855 
0.436054 0.110683 0.822 
0.461095 0.107586 0.799 
0.48212 0.104085 0.773 
0.500722 0.100584 0.747 
0.519768 0.0976216 0.725 
0.53829 0.0949286 0.705 
0.554947 0.0922356 0.685 
0.568026 0.0892733 0.663 
0.580862 0.0865803 0.643 
0.595633 0.0844259 0.627 
-0.634106 0.101336 0.744 
-0.609577 0.103651 0.761 
-0.594476 0.107329 0.788 
-0.570487 0.109781 0.806 
-0.547466 0.112777 0.828 
-0.521778 0.115637 0.849 
-0.501844 0.120677 0.886 
-0.464706 0.121767 0.894 
-0.436759 0.125716 0.923 
-0.410375 0.131028 0.962 
-0.396694 0.142197 1.044 
-0.357367 0.146011 1.072 
-0.327186 0.155409 1.141 
-0.271603 0.154047 1.131 
-0.219854 0.154728 1.136 
-0.165289 0.15323 1.125 
-0.113655 0.154319 1.133 
-0.061221 0.155273 1.14 
-0.00804272 0.154456 1.134 
0.046157 0.159087 1.168 
0.0956885 0.151323 1.111 
0.141234 0.144921 1.064 
0.183115 0.139064 1.021 
0.238613 0.143832 1.056 
0.269026 0.134434 0.987 
0.30354 0.12953 0.951 
0.336893 0.125444 0.921 
0.37116 0.122584 0.9 
0.39888 0.118361 0.869 
0.422699 0.113867 0.836 
0.44786 0.110462 0.811 
0.472486 0.107465 0.789 
0.489898 0.103379 0.759 
0.507974 0.0999739 0.734 
0.527412 0.0972498 0.714 
0.544491 0.0942533 0.692 
0.56091 0.0916654 0.673 
0.573797 0.0888051 0.652 
0.590287 0.0867621 0.637 
0.604395 0.0844466 0.62 
-0.61892 0.103043 0.748 
-0.603854 0.107176 0.778 
-0.579994 0.109518 0.795 
-0.559329 0.112824 0.819 
-0.533246 0.115441 0.838 
-0.497135 0.11613 0.843 
-0.489886 0.124258 0.902 
-0.450326 0.124946 0.907 
-0.421997 0.129217 0.938 
-0.414975 0.141753 1.029 
-0.374146 0.144508 1.049 
-0.343984 0.1536 1.115 
-0.296204 0.155804 1.131 
-0.243487 0.155804 1.131 
-0.193301 0.157871 1.146 
-0.14013 0.158146 1.148 
-0.0857913 0.156631 1.137 
-0.0310016 0.156493 1.136 
0.0223534 0.159386 1.157 
0.0747651 0.156217 1.134 
0.122219 0.149605 1.086 
0.163289 0.14134 1.026 
0.217078 0.145335 1.055 
0.253381 0.138309 1.004 
0.289414 0.13335 0.968 
0.321055 0.127977 0.929 
0.358473 0.125911 0.914 
0.386594 0.121365 0.881 
0.414066 0.117507 0.853 
0.436799 0.113099 0.821 
0.461179 0.109793 0.797 
0.482071 0.106211 0.771 
0.500539 0.10263 0.745 
0.518739 0.0994612 0.722 
0.537855 0.0968438 0.703 
0.554388 0.0940886 0.683 
0.568198 0.0911957 0.662 
0.581861 0.0885783 0.643 
0.596646 0.0860987 0.625 
-0.631485 0.103787 0.745 
-0.608776 0.105877 0.76 
-0.594476 0.109778 0.788 
-0.569779 0.112146 0.805 
-0.546804 0.115211 0.827 
-0.523007 0.118554 0.851 
-0.498109 0.122176 0.877 
-0.465052 0.124266 0.892 
-0.436769 0.128167 0.92 
-0.411869 0.134018 0.962 
-0.397171 0.145023 1.041 
-0.356018 0.148088 1.063 
-0.329536 0.159233 1.143 
-0.271038 0.158258 1.136 
-0.218857 0.158815 1.14 
-0.164558 0.157701 1.132 
-0.107178 0.158676 1.139 
-0.0509489 0.15993 1.148 
0.00254633 0.159094 1.142 
0.0568498 0.162159 1.164 
0.10651 0.152964 1.098 
0.149072 0.144605 1.038 
0.19517 0.142934 1.026 
0.24465 0.143909 1.033 
0.277209 0.136247 0.978 
0.311242 0.131371 0.943 
0.345026 0.127609 0.916 
0.377986 0.124405 0.893 
0.404572 0.119947 0.861 
0.429982 0.115629 0.83 
0.455116 0.112285 0.806 
0.474957 0.108245 0.777 
0.494069 0.104623 0.751 
0.513574 0.101558 0.729 
0.531029 0.0984933 0.707 
0.548028 0.095707 0.687 
0.564007 0.0930601 0.668 
0.578215 0.0904132 0.649 
0.588777 0.0874877 0.628 
0.607223 0.0859552 0.617 
-0.612765 0.105508 0.749 
-0.599019 0.109593 0.778 
-0.577223 0.11241 0.798 
-0.556946 0.115932 0.823 
-0.531818 0.11889 0.844 
-0.49423 0.119313 0.847 
-0.479985 0.125934 0.894 
-0.44616 0.128187 0.91 
-0.417055 0.132413 0.94 
-0.408977 0.145091 1.03 
-0.367627 0.147768 1.049 
-0.338483 0.156924 1.114 
-0.294276 0.16115 1.144 
-0.238637 0.1596 1.133 
-0.189436 0.162699 1.155 
-0.136423 0.163685 1.162 
-0.078656 0.160023 1.136 
-0.0255709 0.159178 1.13 
0.0279141 0.163967 1.164 
0.0796978 0.159037 1.129 
0.125992 0.15143 1.075 
0.167416 0.143964 1.022 
0.222837 0.149176 1.059 
0.257811 0.140443 0.997 
0.292989 0.135231 0.96 
0.326829 0.130864 0.929 
0.363357 0.128469 0.912 
0.389399 0.123257 0.875 
0.41576 0.118749 0.843 
0.439938 0.114805 0.815 
0.464438 0.111565 0.792 
0.483629 0.107621 0.764 
0.502928 0.10424 0.74 
0.51999 0.10086 0.716 
0.539452 0.0983239 0.698 
0.554777 0.0953658 0.677 
0.569877 0.0926893 0.658 
0.584118 0.0901537 0.64 
0.596681 0.0876182 0.622 
-0.627697 0.106245 0.746 
-0.606838 0.10895 0.765 
-0.589101 0.112369 0.789 
-0.562826 0.114505 0.804 
-0.541033 0.117923 0.828 
-0.518217 0.121626 0.854 
-0.495218 0.125898 0.884 
-0.460177 0.127607 0.896 
-0.432424 0.13188 0.926 
-0.414905 0.140567 0.987 
-0.389084 0.148258 1.041 
-0.350704 0.152673 1.072 
-0.323742 0.164351 1.154 
-0.267849 0.16307 1.145 
-0.214855 0.163355 1.147 
-0.161111 0.16307 1.145 
-0.0991067 0.163497 1.148 
-0.0455186 0.163212 1.146 
0.00793124 0.163924 1.151 
0.063368 0.163924 1.151 
0.111222 0.155806 1.094 
0.152279 0.146264 1.027 
0.200732 0.146691 1.03 
0.246209 0.14427 1.013 
0.282129 0.138716 0.974 
0.314749 0.133304 0.936 
0.349953 0.130171 0.914 
0.381817 0.12661 0.889 
0.407066 0.121768 0.855 
0.432282 0.11778 0.827 
0.456027 0.114078 0.801 
0.475499 0.109947 0.772 
0.496907 0.106814 0.75 
0.513841 0.102969 0.723 
0.533151 0.100263 0.704 
0.55069 0.097557 0.685 
0.566458 0.094851 0.666 
0.57866 0.0918602 0.645 
0.591765 0.0891542 0.626 
0.610032 0.0875876 0.615 
-0.609827 0.108555 0.754 
-0.595262 0.112443 0.781 
-0.573886 0.115466 0.802 
-0.551222 0.118633 0.824 
-0.528374 0.122233 0.849 
-0.493983 0.123528 0.858 
-0.469865 0.127848 0.888 
-0.440538 0.131447 0.913 
-0.411496 0.13591 0.944 
-0.402144 0.148724 1.033 
-0.360849 0.151603 1.053 
-0.333086 0.161969 1.125 
-0.287634 0.166 1.153 
-0.231255 0.164129 1.14 
-0.18062 0.166432 1.156 
-0.128054 0.16816 1.168 
-0.064877 0.164417 1.142 
-0.0116277 0.164129 1.14 
0.0425276 0.16816 1.168 
0.0916551 0.158946 1.104 
0.136891 0.152035 1.056 
0.178885 0.146132 1.015 
0.235777 0.152323 1.058 
0.266951 0.141813 0.985 
0.301427 0.13663 0.949 
0.33619 0.132887 0.923 
0.370584 0.129863 0.902 
0.396615 0.124824 0.867 
0.422912 0.120793 0.839 
0.445498 0.116474 0.809 
0.470066 0.113306 0.787 
0.486787 0.108843 0.756 
0.506833 0.105676 0.734 
0.525935 0.102508 0.712 
0.544201 0.099773 0.693 
0.559864 0.0968935 0.673 
0.572784 0.0938701 0.652 
0.587447 0.0914226 0.635 
0.600525 0.0889751 0.618 
-0.61892 0.108854 0.748 
-0.603576 0.112492 0.773 
-0.580762 0.115111 0.791 
-0.559021 0.118313 0.813 
-0.537793 0.122097 0.839 
-0.50463 0.123552 0.849 
-0.488612 0.129809 0.892 
-0.452048 0.131265 0.902 
-0.423642 0.13563 0.932 
-0.410857 0.147127 1.011 
-0.375607 0.151929 1.044 
-0.340725 0.158333 1.088 
-0.310272 0.169393 1.164 
-0.250739 0.1659 1.14 
-0.201589 0.169247 1.163 
-0.147508 0.169393 1.164 
-0.0847638 0.166919 1.147 
-0.0310016 0.165318 1.136 
0.0224887 0.169393 1.164 
0.0761896 0.164299 1.129 
0.122652 0.156441 1.075 
0.16408 0.148582 1.021 
0.217888 0.152948 1.051 
0.254202 0.144799 0.995 
0.290308 0.139851 0.961 
0.324639 0.135485 0.931 
0.360523 0.13272 0.912 
0.387564 0.127627 0.877 
0.413959 0.122533 0.842 
0.440122 0.118313 0.813 
0.464493 0.114966 0.79 
0.481643 0.110454 0.759 
0.504078 0.107689 0.74 
0.519647 0.103906 0.714 
0.539762 0.101432 0.697 
0.554187 0.0982302 0.675 
0.569164 0.0954652 0.656 
0.583284 0.0928458 0.638 
0.597648 0.0905173 0.622 
-0.627055 0.110016 0.748 
-0.606441 0.112663 0.766 
-0.58713 0.115899 0.788 
-0.561577 0.118252 0.804 
-0.540399 0.121929 0.829 
-0.51689 0.125606 0.854 
-0.491051 0.129283 0.879 
-0.458273 0.131637 0.895 
-0.43052 0.136049 0.925 
-0.414759 0.146197 0.994 
-0.38622 0.153257 1.042 
-0.348346 0.158111 1.075 
-0.322654 0.171054 1.163 
-0.266599 0.169877 1.155 
-0.212396 0.169583 1.153 
-0.15948 0.170466 1.159 
-0.10133 0.169583 1.153 
-0.0475055 0.169289 1.151 
0.00619633 0.17076 1.161 
0.0614727 0.168995 1.149 
0.109322 0.160611 1.092 
0.15083 0.151198 1.028 
0.198359 0.150904 1.026 
0.244751 0.148109 1.007 
0.28126 0.142815 0.971 
0.315421 0.137961 0.938 
0.34957 0.134284 0.913 
0.380529 0.130313 0.886 
0.406114 0.125459 0.853 
0.432749 0.121047 0.823 
0.456798 0.11737 0.798 
0.474803 0.11281 0.767 
0.499237 0.11031 0.75 
0.512115 0.10575 0.719 
0.531968 0.103103 0.701 
0.550143 0.100456 0.683 
0.56664 0.0978082 0.665 
0.578864 0.0945724 0.643 
0.590844 0.0917779 0.624 
0.609994 0.0903071 0.614 
-0.610333 0.112813 0.759 
-0.592379 0.116231 0.782 
-0.570148 0.119204 0.802 
-0.547381 0.122474 0.824 
-0.526887 0.126784 0.853 
-0.493982 0.128568 0.865 
-0.464153 0.131541 0.885 
-0.436283 0.135702 0.913 
-0.408821 0.140905 0.948 
-0.396873 0.153984 1.036 
-0.356324 0.157403 1.059 
-0.330442 0.169442 1.14 
-0.284117 0.173604 1.168 
-0.225547 0.170483 1.147 
-0.174936 0.173307 1.166 
-0.120898 0.173753 1.169 
-0.0651043 0.170334 1.146 
-0.0117807 0.171672 1.155 
0.042564 0.173753 1.169 
0.091406 0.163646 1.101 
0.136372 0.156363 1.052 
0.178533 0.150566 1.013 
0.236 0.157403 1.059 
0.267391 0.14581 0.981 
0.302582 0.140905 0.948 
0.338356 0.137486 0.925 
0.37116 0.13377 0.9 
0.397044 0.128568 0.865 
0.423205 0.124406 0.837 
0.445797 0.11965 0.805 
0.468909 0.116083 0.781 
0.487195 0.111921 0.753 
0.506339 0.108503 0.73 
0.52482 0.105381 0.709 
0.544491 0.102854 0.692 
0.560076 0.0998818 0.672 
0.572917 0.0967605 0.651 
0.585654 0.0939365 0.632 
0.597592 0.091261 0.614 
-0.619893 0.112941 0.752 
-0.601174 0.116095 0.773 
-0.578305 0.118798 0.791 
-0.557864 0.122403 0.815 
-0.536461 0.126308 0.841 
-0.506722 0.128711 0.857 
-0.480939 0.132615 0.883 
-0.448249 0.135169 0.9 
-0.419843 0.139674 0.93 
-0.409287 0.151839 1.011 
-0.374343 0.156946 1.045 
-0.339658 0.163704 1.09 
-0.309523 0.175419 1.168 
-0.250278 0.172115 1.146 
-0.200298 0.175118 1.166 
-0.146451 0.175719 1.17 
-0.0907385 0.173466 1.155 
-0.0365841 0.171964 1.145 
0.0171072 0.175269 1.167 
0.0692344 0.169712 1.13 
0.116618 0.162352 1.081 
0.158198 0.153792 1.024 
0.208541 0.155744 1.037 
0.24672 0.149587 0.996 
0.283725 0.144781 0.964 
0.319453 0.140725 0.937 
0.35305 0.136821 0.911 
0.382054 0.132165 0.88 
0.407205 0.127209 0.847 
0.4335 0.123454 0.822 
0.457551 0.119399 0.795 
0.474698 0.114593 0.763 
0.500899 0.11249 0.749 
0.512203 0.107534 0.716 
0.532622 0.104981 0.699 
0.54984 0.102127 0.68 
0.566141 0.099424 0.662 
0.578961 0.0964202 0.642 
0.590865 0.0935667 0.623 
0.609953 0.0920648 0.613 
-0.608776 0.115323 0.76 
-0.589949 0.118661 0.782 
-0.568364 0.121848 0.803 
-0.545482 0.125186 0.825 
-0.525466 0.129739 0.855 
-0.493566 0.131863 0.869 
-0.460882 0.134139 0.884 
-0.43487 0.138995 0.916 
-0.409301 0.145064 0.956 
-0.395263 0.157204 1.036 
-0.355348 0.160997 1.061 
-0.328383 0.172833 1.139 
-0.283511 0.177992 1.173 
-0.224936 0.174957 1.153 
-0.174163 0.177992 1.173 
-0.11898 0.177233 1.168 
-0.0620266 0.175261 1.155 
-0.00826258 0.176778 1.165 
0.0461965 0.177385 1.169 
0.0945688 0.166612 1.098 
0.138845 0.158721 1.046 
0.181501 0.153562 1.012 
0.239065 0.160542 1.058 
0.269336 0.148251 0.977 
0.306173 0.144154 0.95 
0.340492 0.140057 0.923 
0.371464 0.135656 0.894 
0.398346 0.130801 0.862 
0.423771 0.1264 0.833 
0.446071 0.121545 0.801 
0.468314 0.117448 0.774 
0.490053 0.114109 0.752 
0.507647 0.110316 0.727 
0.52589 0.107129 0.706 
0.546133 0.104701 0.69 
0.560694 0.101515 0.669 
0.575067 0.0986316 0.65 
0.586737 0.0955968 0.63 
0.59752 0.0927137 0.611 
-0.620129 0.116197 0.758 
-0.597913 0.118803 0.775 
-0.574839 0.121563 0.793 
-0.555512 0.125548 0.819 
-0.531235 0.128921 0.841 
-0.506662 0.132753 0.866 
-0.473297 0.134746 0.879 
-0.444131 0.138425 0.903 
-0.415399 0.143024 0.933 
-0.406193 0.156207 1.019 
-0.368905 0.160653 1.048 
-0.334716 0.168011 1.096 
-0.301229 0.178435 1.164 
-0.24549 0.177362 1.157 
-0.193879 0.179508 1.171 
-0.139656 0.179968 1.174 
-0.0836329 0.177209 1.156 
-0.0295455 0.175982 1.148 
0.0244641 0.179661 1.172 
0.0756497 0.171843 1.121 
0.122309 0.164332 1.072 
0.163919 0.156361 1.02 
0.2154 0.159273 1.039 
0.253948 0.151455 0.988 
0.29089 0.146856 0.958 
0.326436 0.142871 0.932 
0.360352 0.139192 0.908 
0.387153 0.133826 0.873 
0.412161 0.128921 0.841 
0.436333 0.124629 0.813 
0.462141 0.12049 0.786 
0.479105 0.115737 0.755 
0.502034 0.112978 0.737 
0.519647 0.109452 0.714 
0.538213 0.10654 0.695 
0.551724 0.103014 0.672 
0.567428 0.100255 0.654 
0.581455 0.0974954 0.636 
0.596687 0.095196 0.621 
-0.627237 0.116291 0.751 
-0.604061 0.118614 0.766 
-0.583197 0.121711 0.786 
-0.560469 0.124808 0.806 
-0.539769 0.128834 0.832 
-0.516043 0.132705 0.857 
-0.486098 0.135492 0.875 
-0.452948 0.137815 0.89 
-0.426259 0.14277 0.922 
-0.412384 0.15361 0.992 
-0.385708 0.161817 1.045 
-0.349255 0.167701 1.083 
-0.320295 0.179779 1.161 
-0.267785 0.180863 1.168 
-0.211335 0.17916 1.157 
-0.159856 0.181947 1.175 
-0.103837 0.179779 1.161 
-0.0498505 0.180243 1.164 
0.00443791 0.181637 1.173 
0.0578519 0.177766 1.148 
0.105637 0.16863 1.089 
0.14821 0.159803 1.032 
0.193839 0.15779 1.019 
0.241964 0.157171 1.015 
0.276164 0.150048 0.969 
0.314697 0.146951 0.949 
0.346449 0.141841 0.916 
0.375549 0.136886 0.884 
0.40261 0.13224 0.854 
0.42791 0.127905 0.826 
0.450599 0.123569 0.798 
0.470067 0.119078 0.769 
0.493411 0.116136 0.75 
0.507234 0.111491 0.72 
0.528776 0.109013 0.704 
0.546433 0.106071 0.685 
0.56063 0.102819 0.664 
0.575543 0.100032 0.646 
0.585964 0.0967802 0.625 
0.599349 0.0943026 0.609 
-0.619036 0.119022 0.761 
-0.595835 0.121524 0.777 
-0.573303 0.124496 0.796 
-0.553042 0.128406 0.821 
-0.528569 0.131847 0.843 
-0.503786 0.135757 0.868 
-0.468133 0.137165 0.877 
-0.441384 0.1417 0.906 
-0.411931 0.146236 0.935 
-0.403807 0.160312 1.025 
-0.366104 0.164848 1.054 
-0.330811 0.172042 1.1 
-0.294787 0.181426 1.16 
-0.242172 0.182521 1.167 
-0.188743 0.18346 1.173 
-0.134069 0.18346 1.173 
-0.0783801 0.181114 1.158 
-0.0243843 0.180957 1.157 
0.0299013 0.183147 1.171 
0.080514 0.174545 1.116 
0.126593 0.166725 1.066 
0.168012 0.158904 1.016 
0.221303 0.163284 1.044 
0.256238 0.154056 0.985 
0.293253 0.14952 0.956 
0.329332 0.145767 0.932 
0.362374 0.1417 0.906 
0.388972 0.136226 0.871 
0.413788 0.131221 0.839 
0.437239 0.126686 0.81 
0.460333 0.122776 0.785 
0.477932 0.118084 0.755 
0.50021 0.115112 0.736 
0.518538 0.111671 0.714 
0.537133 0.108699 0.695 
0.55068 0.105102 0.672 
0.566412 0.102287 0.654 
0.580467 0.0994717 0.636 
0.594763 0.0969692 0.62 
-0.626017 0.11973 0.758 
-0.596093 0.12131 0.768 
-0.574887 0.124469 0.788 
-0.555914 0.128576 0.814 
-0.531973 0.132051 0.836 
-0.510109 0.136632 0.865 
-0.476308 0.138527 0.877 
-0.445361 0.141686 0.897 
-0.417948 0.146741 0.929 
-0.408522 0.160009 1.013 
-0.375573 0.166327 1.053 
-0.339515 0.172961 1.095 
-0.305074 0.182913 1.158 
-0.254135 0.185124 1.172 
-0.198146 0.18386 1.164 
-0.145375 0.185756 1.176 
-0.089406 0.183387 1.161 
-0.0352611 0.183229 1.16 
0.01905 0.185598 1.175 
0.0721664 0.177068 1.121 
0.118867 0.169171 1.071 
0.160907 0.161273 1.021 
0.210538 0.162852 1.031 
0.250624 0.155902 0.987 
0.289115 0.151953 0.962 
0.323887 0.147373 0.933 
0.357137 0.143266 0.907 
0.38444 0.137895 0.873 
0.410034 0.132999 0.842 
0.43434 0.128576 0.814 
0.456615 0.124311 0.787 
0.47512 0.11973 0.758 
0.498329 0.116887 0.74 
0.51521 0.11278 0.714 
0.53543 0.110095 0.697 
0.548591 0.106146 0.672 
0.565243 0.103461 0.655 
0.5794 0.100618 0.637 
0.592836 0.0979325 0.62 
-0.630737 0.119792 0.751 
-0.60565 0.122025 0.765 
-0.583404 0.124896 0.783 
-0.562974 0.128565 0.806 
-0.540399 0.132233 0.829 
-0.518706 0.1367 0.857 
-0.488817 0.139571 0.875 
-0.453665 0.141325 0.886 
-0.427262 0.14643 0.918 
-0.41421 0.157755 0.989 
-0.388956 0.166687 1.045 
-0.351644 0.17227 1.08 
-0.317765 0.181681 1.139 
-0.272344 0.186945 1.172 
-0.216974 0.186307 1.168 
-0.164759 0.188859 1.184 
-0.107907 0.185988 1.166 
-0.053835 0.186945 1.172 
0.000796369 0.187902 1.178 
0.054332 0.183276 1.149 
0.102347 0.173865 1.09 
0.145144 0.164773 1.033 
0.189737 0.161742 1.014 
0.242609 0.165571 1.038 
0.273717 0.154884 0.971 
0.312405 0.151693 0.951 
0.344728 0.146589 0.919 
0.372803 0.141006 0.884 
0.399956 0.136221 0.854 
0.424313 0.131436 0.824 
0.447558 0.127129 0.797 
0.469502 0.123141 0.772 
0.490426 0.119473 0.749 
0.506818 0.115006 0.721 
0.527682 0.112295 0.704 
0.543776 0.108945 0.683 
0.558941 0.105595 0.662 
0.574652 0.102884 0.645 
0.585027 0.0995338 0.624 
0.598365 0.0969817 0.608 
-0.61355 0.122891 0.763 
-0.589349 0.125307 0.778 
-0.570148 0.129173 0.802 
-0.547381 0.132716 0.824 
-0.524417 0.136743 0.849 
-0.49855 0.140608 0.873 
-0.459957 0.141252 0.877 
-0.436283 0.147051 0.913 
-0.408821 0.152688 0.948 
-0.398098 0.1667 1.035 
-0.358983 0.171049 1.062 
-0.322305 0.178136 1.106 
-0.284708 0.187316 1.163 
-0.232482 0.188927 1.173 
-0.178566 0.189732 1.178 
-0.122925 0.188605 1.171 
-0.0684022 0.188766 1.172 
-0.0138337 0.189571 1.177 
0.0405735 0.187477 1.164 
0.0899398 0.177814 1.104 
0.134738 0.169438 1.052 
0.17626 0.162513 1.009 
0.233027 0.169599 1.053 
0.265324 0.157681 0.979 
0.303015 0.153654 0.954 
0.337283 0.149144 0.926 
0.367708 0.144151 0.895 
0.393413 0.138514 0.86 
0.418376 0.133682 0.83 
0.441643 0.129173 0.802 
0.46469 0.125307 0.778 
0.484211 0.121119 0.752 
0.504071 0.117576 0.73 
0.520406 0.11371 0.706 
0.539989 0.110972 0.689 
0.554667 0.10759 0.668 
0.568263 0.104369 0.648 
0.582766 0.101631 0.631 
0.592774 0.0984095 0.611 
-0.628022 0.123426 0.759 
-0.598891 0.124727 0.767 
-0.576357 0.127654 0.785 
-0.556271 0.131557 0.809 
-0.533306 0.135297 0.832 
-0.512952 0.140338 0.863 
-0.481491 0.14294 0.879 
-0.447036 0.145054 0.892 
-0.420914 0.150583 0.926 
-0.409573 0.163267 1.004 
-0.380842 0.171398 1.054 
-0.343045 0.177252 1.09 
-0.306182 0.185708 1.142 
-0.260927 0.191562 1.178 
-0.204271 0.189936 1.168 
-0.152011 0.192701 1.185 
-0.0950625 0.189286 1.164 
-0.0411587 0.190912 1.174 
0.0136311 0.191888 1.18 
0.0651997 0.182293 1.121 
0.112316 0.174325 1.072 
0.154713 0.166194 1.022 
0.202547 0.166357 1.023 
0.245977 0.161478 0.993 
0.284314 0.157088 0.966 
0.319793 0.152534 0.938 
0.3515 0.147493 0.907 
0.379449 0.142127 0.874 
0.406244 0.137411 0.845 
0.430336 0.132695 0.816 
0.452298 0.128142 0.788 
0.472892 0.123914 0.762 
0.495065 0.120662 0.742 
0.509663 0.116108 0.714 
0.533057 0.113994 0.701 
0.544748 0.109766 0.675 
0.561698 0.107002 0.658 
0.575263 0.103912 0.639 
0.587056 0.100822 0.62 
0.604033 0.098871 0.608 
-0.619102 0.125426 0.764 
-0.591893 0.127232 0.775 
-0.567446 0.130187 0.793 
-0.549884 0.134948 0.822 
-0.522773 0.137903 0.84 
-0.501468 0.142992 0.871 
-0.464045 0.143977 0.877 
-0.438608 0.149231 0.909 
-0.408881 0.153992 0.938 
-0.401365 0.16926 1.031 
-0.363933 0.174349 1.062 
-0.325388 0.180423 1.099 
-0.287135 0.18896 1.151 
-0.239572 0.193885 1.181 
-0.183276 0.192572 1.173 
-0.128931 0.193064 1.176 
-0.073865 0.192408 1.172 
-0.0194018 0.194049 1.182 
0.035148 0.191094 1.164 
0.0849476 0.181572 1.106 
0.130451 0.173528 1.057 
0.171217 0.16532 1.007 
0.225952 0.17123 1.043 
0.261294 0.161051 0.981 
0.299508 0.157111 0.957 
0.332967 0.152022 0.926 
0.364349 0.147261 0.897 
0.389857 0.141351 0.861 
0.416005 0.136754 0.833 
0.438997 0.131993 0.804 
0.461064 0.127725 0.778 
0.480067 0.123292 0.751 
0.50204 0.120173 0.732 
0.517115 0.115904 0.706 
0.537557 0.113278 0.69 
0.552379 0.10983 0.669 
0.566115 0.106547 0.649 
0.580744 0.103756 0.632 
0.591857 0.100636 0.613 
-0.634757 0.12479 0.753 
-0.610808 0.12711 0.767 
-0.584055 0.129099 0.779 
-0.563918 0.132911 0.802 
-0.541637 0.136722 0.825 
-0.520261 0.141363 0.853 
-0.494585 0.145506 0.878 
-0.455211 0.146003 0.881 
-0.42872 0.15114 0.912 
-0.415008 0.16241 0.98 
-0.393073 0.17285 1.043 
-0.354366 0.177822 1.073 
-0.314281 0.183622 1.108 
-0.273303 0.19108 1.153 
-0.225274 0.196052 1.183 
-0.170134 0.196052 1.183 
-0.114508 0.195223 1.178 
-0.0598542 0.196052 1.183 
-0.0047262 0.196549 1.186 
0.0488486 0.18992 1.146 
0.0972668 0.180639 1.09 
0.140193 0.171027 1.032 
0.183733 0.166884 1.007 
0.240291 0.173845 1.049 
0.271257 0.16125 0.973 
0.310101 0.157935 0.953 
0.3415 0.152135 0.918 
0.370893 0.146832 0.886 
0.397302 0.141528 0.854 
0.421241 0.136391 0.823 
0.444523 0.131916 0.796 
0.468314 0.12827 0.774 
0.487447 0.123962 0.748 
0.504854 0.119819 0.723 
0.522911 0.116338 0.702 
0.541902 0.112361 0.678 
0.559124 0.109544 0.661 
0.573869 0.106561 0.643 
0.584118 0.10308 0.622 
0.59931 0.10076 0.608 
-0.625769 0.127466 0.762 
-0.594899 0.128469 0.768 
-0.570751 0.131146 0.784 
-0.553968 0.135997 0.813 
-0.52877 0.139342 0.833 
-0.508765 0.144695 0.865 
-0.477112 0.147372 0.881 
-0.443472 0.149881 0.896 
-0.416505 0.155401 0.929 
-0.406949 0.169452 1.013 
-0.375358 0.176813 1.057 
-0.334729 0.181496 1.085 
-0.296466 0.189358 1.132 
-0.255328 0.198391 1.186 
-0.198361 0.196719 1.176 
-0.145623 0.199562 1.193 
-0.0880549 0.195213 1.167 
-0.0340646 0.197555 1.181 
0.0208934 0.196719 1.176 
0.0715226 0.185846 1.111 
0.117535 0.177147 1.059 
0.159646 0.169452 1.013 
0.209721 0.171794 1.027 
0.252413 0.16527 0.988 
0.291818 0.16159 0.966 
0.323942 0.155401 0.929 
0.356965 0.151052 0.903 
0.383145 0.14503 0.867 
0.409877 0.140346 0.839 
0.432929 0.135328 0.809 
0.453184 0.130309 0.779 
0.475041 0.126462 0.756 
0.496104 0.122949 0.735 
0.513045 0.118934 0.711 
0.53543 0.116593 0.697 
0.5503 0.111909 0.669 
0.565837 0.108898 0.651 
0.57878 0.10572 0.632 
0.590915 0.102709 0.614 
-5.6831 0.999988 5.923 
-0.613191 0.129494 0.767 
-0.585723 0.131351 0.778 
-0.562172 0.13439 0.796 
-0.542881 0.138948 0.823 
-0.519846 0.143169 0.848 
-0.496747 0.148065 0.877 
-0.456909 0.148403 0.879 
-0.430135 0.153468 0.909 
-0.414641 0.164104 0.972 
-0.395174 0.175585 1.04 
-0.356033 0.180312 1.068 
-0.316577 0.18639 1.104 
-0.273284 0.19213 1.138 
-0.230305 0.200909 1.19 
-0.173076 0.198883 1.178 
-0.119573 0.201247 1.192 
-0.0639061 0.200909 1.19 
-0.00845408 0.201247 1.192 
0.0452876 0.193481 1.146 
0.0953102 0.18352 1.087 
0.138455 0.174065 1.031 
0.181445 0.169338 1.003 
0.237751 0.176429 1.045 
0.271536 0.164442 0.974 
0.310101 0.160896 0.953 
0.340756 0.15465 0.916 
0.370474 0.149416 0.885 
0.396837 0.144013 0.853 
0.420217 0.138611 0.821 
0.444523 0.13439 0.796 
0.467708 0.130507 0.773 
0.486649 0.125779 0.745 
0.504578 0.121727 0.721 
0.523255 0.118351 0.701 
0.540051 0.114299 0.677 
0.558097 0.111598 0.661 
0.57287 0.108559 0.643 
0.583152 0.105013 0.622 
0.597381 0.102481 0.607 
-0.62613 0.129663 0.761 
-0.596093 0.130856 0.768 
-0.571969 0.133582 0.784 
-0.553866 0.138182 0.811 
-0.530064 0.141931 0.833 
-0.50775 0.146702 0.861 
-0.478481 0.150109 0.881 
-0.443375 0.152154 0.893 
-0.417048 0.157947 0.927 
-0.4057 0.171407 1.006 
-0.376286 0.179756 1.055 
-0.333624 0.183334 1.076 
-0.296644 0.191854 1.126 
-0.257171 0.202077 1.186 
-0.20138 0.201566 1.183 
-0.147971 0.203951 1.197 
-0.0904841 0.200202 1.175 
-0.036021 0.201906 1.185 
0.0190987 0.200714 1.178 
0.0708788 0.187594 1.101 
0.117091 0.179756 1.055 
0.159173 0.172089 1.01 
0.209109 0.174474 1.024 
0.251132 0.168511 0.989 
0.291219 0.165103 0.969 
0.322499 0.158288 0.929 
0.355168 0.153687 0.902 
0.381798 0.147724 0.867 
0.408087 0.142783 0.838 
0.431672 0.137842 0.809 
0.452554 0.1329 0.78 
0.473867 0.128811 0.756 
0.494289 0.125063 0.734 
0.512323 0.120973 0.71 
0.533894 0.118418 0.695 
0.548 0.114158 0.67 
0.565396 0.111432 0.654 
0.576746 0.107854 0.633 
0.589011 0.104787 0.615 
-6.14911 1.09834 6.388 
-0.612 0.131877 0.767 
-0.584514 0.133768 0.778 
-0.560231 0.136691 0.795 
-0.54226 0.141678 0.824 
-0.517917 0.145632 0.847 
-0.495949 0.150962 0.878 
-0.45658 0.151478 0.881 
-0.427779 0.155948 0.907 
-0.415681 0.168156 0.978 
-0.392801 0.178472 1.038 
-0.354374 0.183631 1.068 
-0.315147 0.189992 1.105 
-0.270323 0.194807 1.133 
-0.229992 0.205983 1.198 
-0.171391 0.202716 1.179 
-0.118511 0.206327 1.2 
-0.0622659 0.205295 1.194 
-0.00662425 0.205639 1.196 
0.0468217 0.19601 1.14 
0.0946088 0.185522 1.079 
0.13965 0.176753 1.028 
0.182456 0.171939 1 
0.238229 0.178816 1.04 
0.270577 0.167812 0.976 
0.309268 0.164202 0.955 
0.338963 0.157324 0.915 
0.372483 0.151306 0.88 
0.398934 0.145976 0.849 
0.420945 0.14013 0.815 
0.445981 0.136176 0.792 
0.467653 0.131877 0.767 
0.48749 0.127407 0.741 
0.505825 0.123452 0.718 
0.52502 0.120185 0.699 
0.540304 0.116231 0.676 
0.558278 0.11348 0.66 
0.572976 0.110385 0.642 
0.583179 0.106774 0.621 
0.597338 0.104195 0.606 
-0.624948 0.132028 0.761 
-0.595674 0.133416 0.769 
-0.570751 0.136018 0.784 
-0.553968 0.141049 0.813 
-0.529405 0.144693 0.834 
-0.505236 0.14903 0.859 
-0.477112 0.152847 0.881 
-0.441492 0.154755 0.892 
-0.415608 0.160827 0.927 
-0.402931 0.174013 1.003 
-0.375713 0.183555 1.058 
-0.330718 0.185984 1.072 
-0.293847 0.194659 1.122 
-0.256404 0.206629 1.191 
-0.200386 0.206109 1.188 
-0.146721 0.208538 1.202 
-0.0894131 0.205589 1.185 
-0.0342665 0.206109 1.188 
0.0208756 0.203854 1.175 
0.0702351 0.18928 1.091 
0.116647 0.182341 1.051 
0.160106 0.174533 1.006 
0.210494 0.177483 1.023 
0.249848 0.171758 0.99 
0.290311 0.168461 0.971 
0.321401 0.161348 0.93 
0.353374 0.156317 0.901 
0.384059 0.149724 0.863 
0.409534 0.144519 0.833 
0.432213 0.139314 0.803 
0.45385 0.13463 0.776 
0.4754 0.130293 0.751 
0.496132 0.126649 0.73 
0.513463 0.122139 0.704 
0.533861 0.119363 0.688 
0.549691 0.115719 0.667 
0.565107 0.112597 0.649 
0.577928 0.1093 0.63 
0.589941 0.106177 0.612 
-0.631063 0.131285 0.75 
-0.606427 0.13461 0.769 
-0.579487 0.136711 0.781 
-0.559774 0.140912 0.805 
-0.537174 0.144938 0.828 
-0.51243 0.148964 0.851 
-0.485588 0.153866 0.879 
-0.448665 0.155266 0.887 
-0.420179 0.160167 0.915 
-0.408476 0.173296 0.99 
-0.381729 0.182573 1.043 
-0.340141 0.186424 1.065 
-0.304958 0.195702 1.118 
-0.26506 0.205154 1.172 
-0.214922 0.20953 1.197 
-0.158066 0.20813 1.189 
-0.103164 0.20918 1.195 
-0.0473854 0.20883 1.193 
0.00816553 0.20743 1.185 
0.0593861 0.194301 1.11 
0.105217 0.183973 1.051 
0.149509 0.178372 1.019 
0.195459 0.176972 1.011 
0.242342 0.176797 1.01 
0.279389 0.17067 0.975 
0.315172 0.165594 0.946 
0.344834 0.158942 0.908 
0.375375 0.15299 0.874 
0.401353 0.147564 0.843 
0.423919 0.141962 0.811 
0.448625 0.137936 0.788 
0.468724 0.13321 0.761 
0.488294 0.129009 0.737 
0.507044 0.125158 0.715 
0.526767 0.122007 0.697 
0.541602 0.118156 0.675 
0.558631 0.11518 0.658 
0.572284 0.111854 0.639 
0.582282 0.108179 0.618 
0.597244 0.105728 0.604 
-0.616728 0.134922 0.764 
-0.591006 0.137218 0.777 
-0.559788 0.138454 0.784 
-0.548607 0.145165 0.822 
-0.522088 0.14852 0.841 
-0.498966 0.153465 0.869 
-0.464793 0.155584 0.881 
-0.433829 0.159293 0.902 
-0.411767 0.167417 0.948 
-0.394686 0.180485 1.022 
-0.361312 0.187902 1.064 
-0.320215 0.193024 1.093 
-0.276661 0.198322 1.123 
-0.239898 0.212096 1.201 
-0.182234 0.210154 1.19 
-0.129218 0.214216 1.213 
-0.0721405 0.212626 1.204 
-0.0159818 0.212096 1.201 
0.0381655 0.202383 1.146 
0.0884734 0.191787 1.086 
0.132688 0.182957 1.036 
0.173814 0.175717 0.995 
0.228601 0.182428 1.033 
0.262818 0.173244 0.981 
0.301623 0.169359 0.959 
0.331516 0.162119 0.918 
0.361665 0.156644 0.887 
0.389378 0.151346 0.857 
0.413292 0.145695 0.825 
0.436413 0.14075 0.797 
0.459302 0.136512 0.773 
0.479311 0.132097 0.748 
0.497678 0.127858 0.724 
0.51601 0.12415 0.703 
0.533165 0.120618 0.683 
0.549282 0.117262 0.664 
0.56463 0.113907 0.645 
0.578098 0.110728 0.627 
0.591825 0.107902 0.611 
-0.627399 0.134328 0.754 
-0.601648 0.137 0.769 
-0.576105 0.139494 0.783 
-0.556149 0.14377 0.807 
-0.535241 0.148402 0.833 
-0.507737 0.151787 0.852 
-0.482857 0.156597 0.879 
-0.445908 0.158022 0.887 
-0.417792 0.163189 0.916 
-0.4054 0.176372 0.99 
-0.380303 0.186705 1.048 
-0.336515 0.189555 1.064 
-0.302023 0.199532 1.12 
-0.263203 0.210221 1.18 
-0.211555 0.213606 1.199 
-0.154761 0.212359 1.192 
-0.0999502 0.213962 1.201 
-0.0438248 0.21325 1.197 
0.0117478 0.20933 1.175 
0.0620428 0.195256 1.096 
0.10838 0.187061 1.05 
0.151627 0.180291 1.012 
0.198797 0.180291 1.012 
0.244022 0.178866 1.004 
0.282129 0.173521 0.974 
0.31643 0.167642 0.941 
0.346507 0.161229 0.905 
0.374945 0.155528 0.873 
0.398973 0.149293 0.838 
0.423396 0.144304 0.81 
0.447487 0.140029 0.786 
0.467492 0.135219 0.759 
0.486969 0.130943 0.735 
0.506335 0.127202 0.714 
0.526011 0.123995 0.696 
0.541602 0.120254 0.675 
0.556933 0.116869 0.656 
0.572732 0.112949 0.634 
0.584233 0.109564 0.615 
-0.636353 0.134421 0.748 
-0.613167 0.137296 0.764 
-0.588896 0.139992 0.779 
-0.558262 0.14143 0.787 
-0.546101 0.148079 0.824 
-0.519401 0.151493 0.843 
-0.494916 0.156166 0.869 
-0.462255 0.158861 0.884 
-0.430101 0.162276 0.903 
-0.417007 0.175035 0.974 
-0.38954 0.183481 1.021 
-0.355013 0.19049 1.06 
-0.31685 0.197498 1.099 
-0.272876 0.202889 1.129 
-0.234885 0.216367 1.204 
-0.177875 0.215289 1.198 
-0.123564 0.217985 1.213 
-0.0668601 0.217446 1.21 
-0.0103666 0.215469 1.199 
0.0431274 0.204147 1.136 
0.0911714 0.193724 1.078 
0.136853 0.185278 1.031 
0.178093 0.178449 0.993 
0.23319 0.185458 1.032 
0.268915 0.176293 0.981 
0.30598 0.171441 0.954 
0.336119 0.164432 0.915 
0.366349 0.159041 0.885 
0.392401 0.15311 0.852 
0.414362 0.146821 0.817 
0.439705 0.142687 0.794 
0.461704 0.138195 0.769 
0.483313 0.134241 0.747 
0.49871 0.129209 0.719 
0.518898 0.125975 0.701 
0.534262 0.122021 0.679 
0.550075 0.118607 0.66 
0.5681 0.115192 0.641 
0.57932 0.111598 0.621 
0.596511 0.109442 0.609 
-0.624126 0.137758 0.76 
-0.596449 0.139571 0.77 
-0.570023 0.141927 0.783 
-0.553287 0.147184 0.812 
-0.529405 0.151172 0.834 
-0.503471 0.155159 0.856 
-0.47657 0.15951 0.88 
-0.441987 0.161866 0.893 
-0.414711 0.167666 0.925 
-0.398972 0.180717 0.997 
-0.377251 0.193405 1.067 
-0.329973 0.194855 1.075 
-0.291843 0.203193 1.121 
-0.255623 0.216788 1.196 
-0.201214 0.218238 1.204 
-0.144613 0.217513 1.2 
-0.0893456 0.219144 1.209 
-0.03283 0.218057 1.203 
0.0223148 0.209356 1.155 
0.0715345 0.196668 1.085 
0.119229 0.189418 1.045 
0.160062 0.180536 0.996 
0.211047 0.184524 1.018 
0.251132 0.179267 0.989 
0.290317 0.175098 0.966 
0.322499 0.168391 0.929 
0.352018 0.162047 0.894 
0.381357 0.156972 0.866 
0.40273 0.149903 0.827 
0.427937 0.145371 0.802 
0.451394 0.141021 0.778 
0.472613 0.136671 0.754 
0.490922 0.132139 0.729 
0.50978 0.128333 0.708 
0.527447 0.124707 0.688 
0.54569 0.121626 0.671 
0.558196 0.117457 0.648 
0.572963 0.114376 0.631 
0.586145 0.111294 0.614 
-0.631063 0.137111 0.75 
-0.607632 0.140036 0.766 
-0.583874 0.142961 0.782 
-0.560026 0.146252 0.8 
-0.539726 0.151005 0.826 
-0.512756 0.154478 0.845 
-0.487375 0.159049 0.87 
-0.457609 0.162888 0.891 
-0.422617 0.165447 0.905 
-0.412534 0.180072 0.985 
-0.381139 0.187202 1.024 
-0.342527 0.192321 1.052 
-0.309395 0.202741 1.109 
-0.266767 0.209871 1.148 
-0.224404 0.22084 1.208 
-0.167264 0.219743 1.202 
-0.111979 0.221206 1.21 
-0.0558561 0.222302 1.216 
0.000797045 0.215538 1.179 
0.0527715 0.204021 1.116 
0.100509 0.192504 1.053 
0.143623 0.184825 1.011 
0.188482 0.182632 0.999 
0.240457 0.186836 1.022 
0.277209 0.178793 0.978 
0.312232 0.172943 0.946 
0.341636 0.165813 0.907 
0.37206 0.160694 0.879 
0.394705 0.153564 0.84 
0.418879 0.148263 0.811 
0.444953 0.144058 0.788 
0.465177 0.139122 0.761 
0.485516 0.134917 0.738 
0.503711 0.130712 0.715 
0.522767 0.127239 0.696 
0.538456 0.1234 0.675 
0.553031 0.119743 0.655 
0.569306 0.116818 0.639 
0.579402 0.112979 0.618 
0.597381 0.110968 0.607 
-0.620218 0.140304 0.761 
-0.594737 0.142701 0.774 
-0.564435 0.144176 0.782 
-0.552967 0.150998 0.819 
-0.524222 0.153763 0.834 
-0.501061 0.158741 0.861 
-0.471637 0.162428 0.881 
-0.43937 0.165747 0.899 
-0.412942 0.1722 0.934 
-0.39514 0.184921 1.003 
-0.371314 0.19709 1.069 
-0.325999 0.199855 1.084 
-0.286401 0.207783 1.127 
-0.248605 0.220873 1.198 
-0.195018 0.223454 1.212 
-0.137498 0.221795 1.203 
-0.0825089 0.224745 1.219 
-0.0255013 0.223085 1.21 
0.0292629 0.211286 1.146 
0.0784218 0.200408 1.087 
0.124881 0.191374 1.038 
0.165751 0.183078 0.993 
0.2178 0.188056 1.02 
0.256498 0.181787 0.986 
0.294174 0.176809 0.959 
0.326152 0.170172 0.923 
0.354774 0.163535 0.887 
0.385844 0.158741 0.861 
0.407175 0.151735 0.823 
0.429295 0.146204 0.793 
0.45391 0.142332 0.772 
0.475932 0.138276 0.75 
0.49386 0.133667 0.725 
0.513097 0.12998 0.705 
0.529694 0.126108 0.684 
0.546797 0.122789 0.666 
0.558752 0.118733 0.644 
0.574141 0.115783 0.628 
0.589 0.113018 0.613 
-0.628231 0.140371 0.755 
-0.603252 0.142788 0.768 
-0.579277 0.145763 0.784 
-0.557272 0.149667 0.805 
-0.534601 0.153943 0.828 
-0.508588 0.157848 0.849 
-0.482826 0.162496 0.874 
-0.450688 0.165656 0.891 
-0.419261 0.169747 0.913 
-0.406116 0.183691 0.988 
-0.378287 0.192987 1.038 
-0.335626 0.196333 1.056 
-0.301865 0.206931 1.113 
-0.262116 0.216971 1.167 
-0.217334 0.227011 1.221 
-0.158189 0.22385 1.204 
-0.102494 0.22478 1.209 
-0.0465242 0.226639 1.219 
0.00978708 0.215483 1.159 
0.0605602 0.204514 1.1 
0.108276 0.195032 1.049 
0.14893 0.184806 0.994 
0.197814 0.187223 1.007 
0.244994 0.187409 1.008 
0.281549 0.180716 0.972 
0.315421 0.174395 0.938 
0.345358 0.167702 0.902 
0.374147 0.16138 0.868 
0.396453 0.154315 0.83 
0.42413 0.150411 0.809 
0.446995 0.145577 0.783 
0.468672 0.141115 0.759 
0.486782 0.136281 0.733 
0.506023 0.132376 0.712 
0.523306 0.128472 0.691 
0.542651 0.125497 0.675 
0.552849 0.120849 0.65 
0.569689 0.11806 0.635 
0.581355 0.114528 0.616 
0.601153 0.112855 0.607 
-0.606041 0.143794 0.767 
-0.582931 0.146981 0.784 
-0.558934 0.150355 0.802 
-0.536509 0.154667 0.825 
-0.509526 0.158229 0.844 
-0.485786 0.163479 0.872 
-0.455862 0.167416 0.893 
-0.422589 0.17079 0.911 
-0.410169 0.184288 0.983 
-0.378436 0.191413 1.021 
-0.340245 0.196849 1.05 
-0.30684 0.207348 1.106 
-0.266137 0.216159 1.153 
-0.225106 0.229095 1.222 
-0.166773 0.22722 1.212 
-0.11019 0.227033 1.211 
-0.0544106 0.229845 1.226 
0.00259984 0.218596 1.166 
0.0542124 0.208098 1.11 
0.103781 0.197412 1.053 
0.144587 0.186726 0.996 
0.191586 0.187288 0.999 
0.241488 0.189913 1.013 
0.278444 0.183164 0.977 
0.312044 0.176414 0.941 
0.342289 0.169665 0.905 
0.370876 0.163666 0.873 
0.395423 0.15673 0.836 
0.423606 0.15148 0.808 
0.446995 0.146793 0.783 
0.468672 0.142294 0.759 
0.486782 0.13742 0.733 
0.505312 0.133295 0.711 
0.523306 0.129546 0.691 
0.541847 0.126359 0.674 
0.551999 0.121672 0.649 
0.568791 0.118859 0.634 
0.581355 0.115485 0.616 
0.601153 0.113798 0.607 
-0.61397 0.144607 0.765 
-0.588896 0.147254 0.779 
-0.56039 0.149333 0.79 
-0.546101 0.15576 0.824 
-0.515088 0.158028 0.836 
-0.493207 0.163699 0.866 
-0.46487 0.168047 0.889 
-0.433912 0.172206 0.911 
-0.415942 0.18298 0.968 
-0.386147 0.190541 1.008 
-0.355987 0.199993 1.058 
-0.318558 0.207743 1.099 
-0.27755 0.215682 1.141 
-0.236952 0.22778 1.205 
-0.182737 0.230238 1.218 
-0.125449 0.229292 1.213 
-0.0698763 0.232506 1.23 
-0.012158 0.225323 1.192 
0.0427857 0.213036 1.127 
0.0911714 0.203773 1.078 
0.134596 0.193944 1.026 
0.175306 0.186383 0.986 
0.229567 0.193377 1.023 
0.266679 0.186005 0.984 
0.300792 0.179011 0.947 
0.333276 0.172962 0.915 
0.361545 0.166346 0.88 
0.389296 0.160864 0.851 
0.415369 0.15387 0.814 
0.439388 0.149144 0.789 
0.460472 0.144229 0.763 
0.482384 0.14026 0.742 
0.500247 0.135723 0.718 
0.518847 0.131942 0.698 
0.533212 0.127595 0.675 
0.548779 0.124003 0.656 
0.564342 0.12079 0.639 
0.574601 0.11682 0.618 
0.593642 0.11493 0.608 
-0.621663 0.144271 0.757 
-0.598772 0.147321 0.773 
-0.569295 0.149036 0.782 
-0.551243 0.154182 0.809 
-0.526231 0.157993 0.829 
-0.502883 0.162948 0.855 
-0.47657 0.167713 0.88 
-0.444462 0.171143 0.898 
-0.415608 0.17667 0.927 
-0.399718 0.18963 0.995 
-0.375002 0.201256 1.056 
-0.330718 0.204305 1.072 
-0.293323 0.213453 1.12 
-0.25296 0.223935 1.175 
-0.207639 0.234608 1.231 
-0.148064 0.231177 1.213 
-0.0917522 0.231749 1.216 
-0.0351606 0.232321 1.219 
0.0204137 0.21898 1.149 
0.0705569 0.208879 1.096 
0.117155 0.198397 1.041 
0.157719 0.188868 0.991 
0.207407 0.192108 1.008 
0.251362 0.189821 0.996 
0.287621 0.183341 0.962 
0.321055 0.177051 0.929 
0.350237 0.170191 0.893 
0.377818 0.164092 0.861 
0.401445 0.157612 0.827 
0.426159 0.152657 0.801 
0.448449 0.147702 0.775 
0.473317 0.144271 0.757 
0.489117 0.138744 0.728 
0.50868 0.134933 0.708 
0.524083 0.130549 0.685 
0.543024 0.1275 0.669 
0.556182 0.123498 0.648 
0.569192 0.119877 0.629 
0.585189 0.117208 0.615 
-0.637419 0.144487 0.752 
-0.61198 0.146792 0.764 
-0.58844 0.149867 0.78 
-0.561286 0.152364 0.793 
-0.543498 0.157936 0.822 
-0.513174 0.160434 0.835 
-0.492998 0.166775 0.868 
-0.46401 0.171002 0.89 
-0.43487 0.175997 0.916 
-0.414866 0.18618 0.969 
-0.384962 0.193866 1.009 
-0.354008 0.203088 1.057 
-0.317427 0.211542 1.101 
-0.276502 0.219804 1.144 
-0.235665 0.232101 1.208 
-0.181439 0.234791 1.222 
-0.12387 0.233638 1.216 
-0.0681863 0.237097 1.234 
-0.0102282 0.227298 1.183 
0.0427098 0.216154 1.125 
0.0913405 0.207507 1.08 
0.134071 0.196364 1.022 
0.175128 0.189255 0.985 
0.228894 0.195979 1.02 
0.266679 0.189062 0.984 
0.300157 0.181569 0.945 
0.332548 0.175421 0.913 
0.360723 0.168696 0.878 
0.388838 0.163316 0.85 
0.411823 0.156976 0.817 
0.433383 0.151211 0.787 
0.456328 0.146792 0.764 
0.478416 0.142757 0.743 
0.497857 0.13853 0.721 
0.515246 0.134303 0.699 
0.530585 0.130076 0.677 
0.545533 0.126234 0.657 
0.559494 0.122583 0.638 
0.574454 0.119509 0.622 
