# .PCD v.7 - Point Cloud Data file format
VERSION .7
FIELDS x y z
SIZE 4 4 4
TYPE F F F
COUNT 1 1 1
WIDTH 1890
HEIGHT 1
VIEWPOINT 0 0 0 1 0 0 0
POINTS 1890
DATA ascii
-0.492602 0.128324 1.129 
-0.448781 0.128665 1.132 
-0.40472 0.129006 1.135 
-0.36042 0.129346 1.138 
-0.315327 0.12946 1.139 
-0.271577 0.130256 1.146 
-0.226873 0.130824 1.151 
-0.181457 0.131165 1.154 
-0.135802 0.131506 1.157 
-0.0896746 0.131506 1.157 
-0.0436227 0.131733 1.159 
0.00257311 0.131165 1.154 
0.0492543 0.132984 1.17 
0.0959817 0.133097 1.171 
0.142911 0.133325 1.173 
0.190323 0.133779 1.177 
0.237449 0.133893 1.178 
0.285379 0.134348 1.182 
0.332784 0.134461 1.183 
0.381554 0.13503 1.188 
0.43 0.135371 1.191 
0.476681 0.135143 1.189 
0.527169 0.135939 1.196 
0.572929 0.135484 1.192 
0.620451 0.135484 1.192 
0.637153 0.129233 1.137 
0.638664 0.120936 1.064 
0.640117 0.113661 1 
0.635105 0.10616 0.934 
0.639229 0.100931 0.888 
0.638165 0.0954754 0.84 
0.638871 0.0908153 0.799 
0.637147 0.0862689 0.759 
0.638389 0.082518 0.726 
0.637919 0.0788809 0.694 
0.635857 0.0753574 0.663 
-0.9745 0.128187 1.105 
-0.93213 0.128419 1.107 
-0.887996 0.128419 1.107 
-0.846911 0.128883 1.111 
-0.800451 0.128535 1.108 
-0.760372 0.129231 1.114 
-0.71596 0.129231 1.114 
-0.672752 0.129463 1.116 
-0.62826 0.129463 1.116 
-0.586906 0.130159 1.122 
-0.543624 0.130507 1.125 
-0.500546 0.130971 1.129 
-0.455938 0.131087 1.13 
-0.412705 0.131667 1.135 
-0.368103 0.131899 1.137 
-0.323341 0.132131 1.139 
-0.279151 0.132711 1.144 
-0.234563 0.133291 1.149 
-0.189248 0.133639 1.152 
-0.143693 0.133987 1.155 
-0.0978992 0.134335 1.158 
-0.0516875 0.134219 1.157 
-0.00554588 0.133871 1.154 
0.0409876 0.135611 1.169 
0.0876682 0.135727 1.17 
0.134658 0.136076 1.173 
0.181887 0.136424 1.176 
0.229161 0.136656 1.178 
0.277063 0.13712 1.182 
0.324461 0.137236 1.183 
0.37351 0.137932 1.189 
0.421621 0.138164 1.191 
0.467922 0.137816 1.188 
0.519188 0.13886 1.197 
0.564542 0.13828 1.192 
0.613092 0.138512 1.194 
0.634134 0.132943 1.146 
0.638297 0.124823 1.076 
0.638779 0.11705 1.009 
0.637956 0.109974 0.948 
0.638684 0.103942 0.896 
0.640535 0.0987214 0.851 
0.638005 0.0933852 0.805 
0.639299 0.0890929 0.768 
0.637643 0.0848007 0.731 
0.640334 0.0814365 0.702 
0.636904 0.0776083 0.669 
0.642746 0.0751721 0.648 
-0.939069 0.130897 1.106 
-0.895784 0.131015 1.107 
-0.853958 0.13137 1.11 
-0.808246 0.131134 1.108 
-0.76752 0.131725 1.113 
-0.724447 0.131962 1.115 
-0.679994 0.131962 1.115 
-0.636681 0.132199 1.117 
-0.593739 0.132554 1.12 
-0.550558 0.132909 1.123 
-0.507137 0.133264 1.126 
-0.463478 0.133619 1.129 
-0.42032 0.134211 1.134 
-0.375771 0.134447 1.136 
-0.331354 0.134802 1.139 
-0.286698 0.135157 1.142 
-0.242647 0.135986 1.149 
-0.197353 0.136341 1.152 
-0.151688 0.136578 1.154 
-0.106138 0.137169 1.159 
-0.0598276 0.136933 1.157 
-0.0137122 0.137051 1.158 
0.0327071 0.138116 1.167 
0.0794366 0.138471 1.17 
0.126405 0.138826 1.173 
0.173613 0.139181 1.176 
0.220873 0.139418 1.178 
0.26852 0.139773 1.181 
0.316138 0.14001 1.183 
0.365144 0.14072 1.189 
0.412547 0.14072 1.189 
0.45995 0.14072 1.189 
0.509487 0.141312 1.194 
0.556156 0.141075 1.192 
0.605704 0.141548 1.196 
0.634812 0.137525 1.162 
0.634244 0.128056 1.082 
0.638566 0.120719 1.02 
0.636613 0.113144 0.956 
0.640135 0.106635 0.901 
0.64004 0.100954 0.853 
0.638488 0.0956281 0.808 
0.639158 0.0911307 0.77 
0.637669 0.0867517 0.733 
0.639597 0.0832011 0.703 
0.638184 0.0795323 0.672 
0.642746 0.0766918 0.648 
-0.939069 0.133491 1.106 
-0.895784 0.133611 1.107 
-0.854728 0.134094 1.111 
-0.808246 0.133732 1.108 
-0.76752 0.134335 1.113 
-0.724447 0.134577 1.115 
-0.679994 0.134577 1.115 
-0.637821 0.13506 1.119 
-0.593209 0.13506 1.119 
-0.550558 0.135542 1.123 
-0.507137 0.135905 1.126 
-0.463478 0.136267 1.129 
-0.42032 0.13687 1.134 
-0.375771 0.137111 1.136 
-0.331645 0.137594 1.14 
-0.286698 0.137836 1.142 
-0.242647 0.138681 1.149 
-0.197353 0.139043 1.152 
-0.151688 0.139284 1.154 
-0.106138 0.139888 1.159 
-0.0598276 0.139646 1.157 
-0.0137122 0.139767 1.158 
0.0327071 0.140853 1.167 
0.0794366 0.141215 1.17 
0.126405 0.141577 1.173 
0.173466 0.141819 1.175 
0.221061 0.142301 1.179 
0.26852 0.142543 1.181 
0.316138 0.142784 1.183 
0.365144 0.143508 1.189 
0.412547 0.143508 1.189 
0.45995 0.143508 1.189 
0.509487 0.144112 1.194 
0.555689 0.14375 1.191 
0.606211 0.144474 1.197 
0.634265 0.140129 1.161 
0.634244 0.130594 1.082 
0.638566 0.123111 1.02 
0.636613 0.115386 0.956 
0.640849 0.109593 0.908 
0.638276 0.103316 0.856 
0.638956 0.0978851 0.811 
0.63818 0.0930572 0.771 
0.638552 0.0888328 0.736 
0.638856 0.0849705 0.704 
0.63945 0.0814703 0.675 
-0.977975 0.136084 1.106 
-0.934726 0.136207 1.107 
-0.890592 0.136207 1.107 
-0.849517 0.1367 1.111 
-0.803774 0.136453 1.109 
-0.762985 0.137069 1.114 
-0.719217 0.137192 1.115 
-0.67537 0.137315 1.116 
-0.632573 0.137684 1.119 
-0.588486 0.137807 1.12 
-0.545291 0.138176 1.123 
-0.502302 0.138668 1.127 
-0.458182 0.138914 1.129 
-0.415001 0.13953 1.134 
-0.371095 0.140022 1.138 
-0.326298 0.140268 1.14 
-0.281588 0.140637 1.143 
-0.237258 0.141375 1.149 
-0.191949 0.141744 1.152 
-0.146402 0.142113 1.155 
-0.100702 0.142606 1.159 
-0.0544009 0.142359 1.157 
-0.00828081 0.142483 1.158 
0.0382461 0.143836 1.169 
0.0849243 0.143959 1.17 
0.131907 0.144328 1.173 
0.179129 0.144697 1.176 
0.22659 0.145066 1.179 
0.274291 0.145436 1.182 
0.321687 0.145559 1.183 
0.370409 0.146174 1.188 
0.418828 0.146543 1.191 
0.465136 0.146174 1.188 
0.515087 0.146912 1.194 
0.561276 0.146543 1.191 
0.611825 0.147281 1.197 
0.631446 0.141006 1.146 
0.635774 0.132393 1.076 
0.638935 0.124641 1.013 
0.639085 0.117259 0.953 
0.642266 0.11123 0.904 
0.64004 0.104955 0.853 
0.638005 0.0990487 0.805 
0.640131 0.0946192 0.769 
0.637643 0.0899436 0.731 
0.639422 0.0862524 0.701 
0.636816 0.0816998 0.664 
-0.977975 0.138678 1.106 
-0.933881 0.138678 1.106 
-0.890592 0.138804 1.107 
-0.849517 0.139305 1.111 
-0.803774 0.139054 1.109 
-0.762985 0.139681 1.114 
-0.719217 0.139807 1.115 
-0.67537 0.139932 1.116 
-0.632573 0.140308 1.119 
-0.588486 0.140434 1.12 
-0.544805 0.140684 1.122 
-0.502302 0.141311 1.127 
-0.458182 0.141562 1.129 
-0.415001 0.142189 1.134 
-0.371095 0.142691 1.138 
-0.326298 0.142941 1.14 
-0.281588 0.143317 1.143 
-0.237671 0.144321 1.151 
-0.191949 0.144446 1.152 
-0.146402 0.144822 1.155 
-0.100702 0.145324 1.159 
-0.0544479 0.145198 1.158 
-0.00828796 0.145324 1.159 
0.0382461 0.146578 1.169 
0.0849243 0.146703 1.17 
0.131795 0.146954 1.172 
0.179129 0.147455 1.176 
0.22659 0.147831 1.179 
0.274291 0.148208 1.182 
0.321687 0.148333 1.183 
0.370409 0.14896 1.188 
0.418828 0.149336 1.191 
0.465527 0.149085 1.189 
0.515087 0.149712 1.194 
0.561276 0.149336 1.191 
0.611825 0.150088 1.197 
0.630895 0.143568 1.145 
0.635774 0.134917 1.076 
0.638935 0.127017 1.013 
0.639085 0.119494 0.953 
0.643687 0.113601 0.906 
0.640535 0.106704 0.851 
0.638303 0.100686 0.803 
0.640265 0.0961719 0.767 
0.638483 0.0915326 0.73 
0.639237 0.0876456 0.699 
0.635489 0.0828809 0.661 
-0.975382 0.141272 1.106 
-0.931288 0.141272 1.106 
-0.887996 0.1414 1.107 
-0.846911 0.141911 1.111 
-0.801896 0.141783 1.11 
-0.760372 0.142294 1.114 
-0.716602 0.142421 1.115 
-0.672752 0.142549 1.116 
-0.629949 0.142932 1.119 
-0.585859 0.14306 1.12 
-0.542174 0.143316 1.122 
-0.500546 0.14421 1.129 
-0.455535 0.14421 1.129 
-0.412342 0.144848 1.134 
-0.36875 0.145487 1.139 
-0.323625 0.145615 1.14 
-0.278907 0.145998 1.143 
-0.234971 0.14702 1.151 
-0.189576 0.147403 1.154 
-0.143693 0.147531 1.155 
-0.0979838 0.148042 1.159 
-0.0517322 0.147914 1.158 
-0.0055699 0.148042 1.159 
0.0409876 0.149319 1.169 
0.0876682 0.149447 1.17 
0.134543 0.149702 1.172 
0.181887 0.150213 1.176 
0.229355 0.150596 1.179 
0.277063 0.15098 1.182 
0.324461 0.151107 1.183 
0.372567 0.15149 1.186 
0.421621 0.152129 1.191 
0.468316 0.151874 1.189 
0.517887 0.152512 1.194 
0.564069 0.152129 1.191 
0.614632 0.152896 1.197 
0.63192 0.14587 1.142 
0.634145 0.136546 1.069 
0.63688 0.128499 1.006 
0.640647 0.121601 0.952 
0.643674 0.115342 0.903 
0.640535 0.1087 0.851 
0.638592 0.102314 0.801 
0.64039 0.0977152 0.765 
0.639318 0.0931168 0.729 
0.639042 0.0890294 0.697 
0.638129 0.0851974 0.667 
-0.981456 0.143996 1.107 
-0.935628 0.143736 1.105 
-0.893188 0.143996 1.107 
-0.851355 0.144386 1.11 
-0.807102 0.144386 1.11 
-0.765598 0.144906 1.114 
-0.722479 0.145166 1.116 
-0.677987 0.145166 1.116 
-0.635197 0.145557 1.119 
-0.590585 0.145557 1.119 
-0.547436 0.145947 1.122 
-0.504945 0.146597 1.127 
-0.46083 0.146857 1.129 
-0.417661 0.147508 1.134 
-0.374093 0.148158 1.139 
-0.328972 0.148288 1.14 
-0.284268 0.148678 1.143 
-0.239952 0.149459 1.149 
-0.194651 0.149849 1.152 
-0.14911 0.150239 1.155 
-0.10342 0.15076 1.159 
-0.0572129 0.15076 1.159 
-0.011006 0.15076 1.159 
0.0354743 0.15193 1.168 
0.0821805 0.152191 1.17 
0.129046 0.152451 1.172 
0.176221 0.152841 1.175 
0.223825 0.153361 1.179 
0.271519 0.153752 1.182 
0.318912 0.153882 1.183 
0.367004 0.154272 1.186 
0.415336 0.154662 1.189 
0.462739 0.154662 1.189 
0.511429 0.155052 1.192 
0.558483 0.154922 1.191 
0.609018 0.155703 1.197 
0.630404 0.149459 1.149 
0.634428 0.140223 1.078 
0.638445 0.132159 1.016 
0.637519 0.124094 0.954 
0.643687 0.11824 0.909 
0.637405 0.109135 0.839 
0.639671 0.104062 0.8 
0.639666 0.099119 0.762 
0.640148 0.0946964 0.728 
0.637919 0.0902737 0.694 
0.637775 0.0865015 0.665 
-0.980569 0.146459 1.106 
-0.935628 0.146327 1.105 
-0.893995 0.146724 1.108 
-0.850588 0.146857 1.109 
-0.807829 0.147122 1.111 
-0.765598 0.147519 1.114 
-0.722479 0.147784 1.116 
-0.677987 0.147784 1.116 
-0.635765 0.148313 1.12 
-0.590585 0.148181 1.119 
-0.546461 0.148313 1.12 
-0.504945 0.14924 1.127 
-0.46083 0.149505 1.129 
-0.417661 0.150167 1.134 
-0.374093 0.150829 1.139 
-0.328972 0.150962 1.14 
-0.284268 0.151359 1.143 
-0.239952 0.152154 1.149 
-0.194651 0.152551 1.152 
-0.14911 0.152948 1.155 
-0.10342 0.153478 1.159 
-0.0572129 0.153478 1.159 
-0.011006 0.153478 1.159 
0.0355046 0.154802 1.169 
0.0821805 0.154934 1.17 
0.129046 0.155199 1.172 
0.176221 0.155597 1.175 
0.223825 0.156126 1.179 
0.271519 0.156524 1.182 
0.319452 0.156921 1.185 
0.366695 0.156921 1.185 
0.415336 0.15745 1.189 
0.462739 0.15745 1.189 
0.511429 0.157848 1.192 
0.558483 0.157715 1.191 
0.609018 0.15851 1.197 
0.631502 0.152418 1.151 
0.634428 0.142752 1.078 
0.638445 0.134541 1.016 
0.637519 0.126331 0.954 
0.643687 0.120372 0.909 
0.638787 0.113089 0.854 
0.638798 0.106733 0.806 
0.640964 0.101965 0.77 
0.638515 0.0969333 0.732 
0.640334 0.0929607 0.702 
0.637856 0.0887231 0.67 
0.642746 0.0858098 0.648 
-0.942549 0.148784 1.104 
-0.900976 0.149188 1.107 
-0.857617 0.149323 1.108 
-0.815645 0.149727 1.111 
-0.773435 0.150131 1.114 
-0.730331 0.150401 1.116 
-0.685224 0.150266 1.115 
-0.643645 0.15094 1.12 
-0.598458 0.150805 1.119 
-0.55533 0.151209 1.122 
-0.512874 0.151883 1.127 
-0.468773 0.152153 1.129 
-0.424888 0.152557 1.132 
-0.381771 0.153366 1.138 
-0.336697 0.1535 1.139 
-0.292054 0.153905 1.142 
-0.24782 0.154713 1.148 
-0.20258 0.155118 1.151 
-0.157236 0.155657 1.155 
-0.111478 0.156061 1.158 
-0.0653671 0.156196 1.159 
-0.0191932 0.156465 1.161 
0.0272568 0.157409 1.168 
0.0738857 0.157544 1.169 
0.120697 0.157813 1.171 
0.167812 0.158217 1.174 
0.215531 0.158891 1.179 
0.26298 0.159161 1.181 
0.310589 0.15943 1.183 
0.35866 0.159835 1.186 
0.406628 0.160104 1.188 
0.454373 0.160239 1.189 
0.503043 0.160643 1.192 
0.550565 0.160643 1.192 
0.600596 0.161317 1.197 
0.634236 0.157813 1.171 
0.634984 0.147166 1.092 
0.639374 0.138676 1.029 
0.634113 0.129242 0.959 
0.645004 0.123986 0.92 
0.638707 0.11617 0.862 
0.638716 0.11024 0.818 
0.63768 0.104715 0.777 
0.639398 0.100132 0.743 
0.639306 0.0956851 0.71 
0.638813 0.091103 0.676 
0.639172 0.0874643 0.649 
-0.950316 0.151373 1.104 
-0.908765 0.151784 1.107 
-0.865412 0.151921 1.108 
-0.823462 0.152332 1.111 
-0.781273 0.152744 1.114 
-0.737521 0.152881 1.115 
-0.693068 0.152881 1.115 
-0.651524 0.153566 1.12 
-0.60633 0.153429 1.119 
-0.563726 0.153978 1.123 
-0.520803 0.154526 1.127 
-0.476716 0.154801 1.129 
-0.432852 0.155212 1.132 
-0.389435 0.155897 1.137 
-0.34471 0.156172 1.139 
-0.300089 0.156583 1.142 
-0.255674 0.157269 1.147 
-0.210678 0.157817 1.151 
-0.165362 0.158365 1.155 
-0.119522 0.15864 1.157 
-0.0734578 0.158777 1.158 
-0.0274557 0.159737 1.165 
0.019023 0.160011 1.167 
0.0656612 0.160285 1.169 
0.112555 0.160696 1.172 
0.159416 0.160833 1.173 
0.20706 0.161519 1.178 
0.254671 0.16193 1.181 
0.301755 0.16193 1.181 
0.350316 0.162616 1.186 
0.397264 0.162479 1.185 
0.446759 0.163302 1.191 
0.494656 0.163439 1.192 
0.543998 0.163987 1.196 
0.59168 0.163987 1.196 
0.631878 0.162068 1.182 
0.636492 0.151921 1.108 
0.642578 0.14342 1.046 
0.637179 0.133548 0.974 
0.644778 0.127378 0.929 
0.639247 0.119425 0.871 
0.638378 0.113118 0.825 
0.638723 0.107634 0.785 
0.640999 0.102972 0.751 
0.640564 0.09831 0.717 
0.638352 0.0937853 0.684 
0.638633 0.0891234 0.65 
-0.952905 0.153962 1.104 
-0.911361 0.15438 1.107 
-0.86801 0.15452 1.108 
-0.826067 0.154938 1.111 
-0.783181 0.155217 1.113 
-0.7408 0.155635 1.116 
-0.695683 0.155496 1.115 
-0.652399 0.155775 1.117 
-0.609499 0.156193 1.12 
-0.56636 0.156611 1.123 
-0.523446 0.157169 1.127 
-0.479364 0.157448 1.129 
-0.435507 0.157867 1.132 
-0.391756 0.158424 1.136 
-0.347686 0.158982 1.14 
-0.302767 0.159261 1.142 
-0.258139 0.159819 1.146 
-0.213377 0.160516 1.151 
-0.168071 0.161074 1.155 
-0.122235 0.161353 1.157 
-0.0761736 0.161493 1.158 
-0.0301879 0.162469 1.165 
0.0162862 0.162748 1.167 
0.0628659 0.162887 1.168 
0.109806 0.163445 1.172 
0.156665 0.163584 1.173 
0.204124 0.164142 1.177 
0.251902 0.1647 1.181 
0.299239 0.16484 1.182 
0.347242 0.165258 1.185 
0.394485 0.165258 1.185 
0.443965 0.166095 1.191 
0.491448 0.166095 1.191 
0.541193 0.166792 1.196 
0.588875 0.166792 1.196 
0.632299 0.165676 1.188 
0.636183 0.155077 1.112 
0.642573 0.146431 1.05 
0.635546 0.135972 0.975 
0.643291 0.129696 0.93 
0.638668 0.121747 0.873 
0.639529 0.115611 0.829 
0.638504 0.109754 0.787 
0.642642 0.105291 0.755 
0.639774 0.100131 0.718 
0.63861 0.0956683 0.686 
0.639495 0.0912056 0.654 
-0.958083 0.156551 1.104 
-0.916553 0.156976 1.107 
-0.873207 0.157118 1.108 
-0.83053 0.157402 1.11 
-0.788402 0.157827 1.113 
-0.745366 0.158111 1.115 
-0.700913 0.158111 1.115 
-0.657638 0.158394 1.117 
-0.614203 0.158678 1.119 
-0.571627 0.159245 1.123 
-0.527794 0.159529 1.125 
-0.484659 0.160096 1.129 
-0.440038 0.160238 1.13 
-0.396735 0.160947 1.135 
-0.353033 0.161656 1.14 
-0.308123 0.161939 1.142 
-0.263514 0.162507 1.146 
-0.218395 0.162932 1.149 
-0.173338 0.163641 1.154 
-0.127662 0.164066 1.157 
-0.0815345 0.164066 1.157 
-0.0356521 0.165201 1.165 
0.0108033 0.165343 1.166 
0.0573875 0.165626 1.168 
0.10422 0.166052 1.171 
0.151163 0.166335 1.173 
0.198435 0.166761 1.176 
0.246362 0.16747 1.181 
0.293695 0.167611 1.182 
0.341107 0.167753 1.183 
0.388927 0.168037 1.185 
0.438379 0.168888 1.191 
0.48627 0.16903 1.192 
0.535584 0.169597 1.196 
0.583266 0.169597 1.196 
0.628838 0.16903 1.192 
0.637208 0.159245 1.123 
0.640685 0.149602 1.055 
0.635503 0.139251 0.982 
0.640303 0.132161 0.932 
0.640388 0.124929 0.881 
0.639474 0.118264 0.834 
0.639653 0.11245 0.793 
0.641641 0.107487 0.758 
0.639952 0.102382 0.722 
0.639097 0.0978443 0.69 
0.638202 0.0934484 0.659 
-0.965851 0.15914 1.104 
-0.922671 0.159284 1.105 
-0.880208 0.159572 1.107 
-0.837584 0.159861 1.109 
-0.795517 0.160293 1.112 
-0.752535 0.160581 1.114 
-0.708758 0.160726 1.115 
-0.665497 0.161014 1.117 
-0.620964 0.161014 1.117 
-0.579012 0.161735 1.122 
-0.533328 0.161446 1.12 
-0.49173 0.162455 1.127 
-0.447988 0.162888 1.13 
-0.404364 0.163464 1.134 
-0.361687 0.164618 1.142 
-0.315881 0.164473 1.141 
-0.27134 0.16505 1.145 
-0.226282 0.165482 1.148 
-0.180986 0.165915 1.151 
-0.135567 0.166491 1.155 
-0.0896746 0.16678 1.157 
-0.0436979 0.167356 1.161 
0.00259095 0.167501 1.162 
0.0492122 0.16851 1.169 
0.0959817 0.168798 1.171 
0.142789 0.168942 1.172 
0.190161 0.169519 1.176 
0.238053 0.170239 1.181 
0.285379 0.170383 1.182 
0.332784 0.170528 1.183 
0.38059 0.170816 1.185 
0.43 0.171681 1.191 
0.477483 0.171681 1.191 
0.527169 0.172402 1.196 
0.574851 0.172402 1.196 
0.621492 0.172113 1.194 
0.638834 0.164329 1.14 
0.641066 0.153951 1.068 
0.638196 0.143716 0.997 
0.637825 0.135211 0.938 
0.640669 0.128292 0.89 
0.638925 0.121229 0.841 
0.64047 0.115463 0.801 
0.642184 0.110274 0.765 
0.640974 0.104796 0.727 
0.637704 0.0997507 0.692 
0.638373 0.0957146 0.664 
-0.970149 0.161582 1.103 
-0.927015 0.161729 1.104 
-0.8854 0.162168 1.107 
-0.842786 0.162461 1.109 
-0.800013 0.162754 1.111 
-0.75776 0.163194 1.114 
-0.713347 0.163194 1.114 
-0.670135 0.163487 1.116 
-0.626203 0.163633 1.117 
-0.584274 0.164366 1.122 
-0.5381 0.163926 1.119 
-0.497016 0.165098 1.127 
-0.452887 0.165391 1.129 
-0.409682 0.166124 1.134 
-0.367365 0.167442 1.143 
-0.321233 0.167149 1.141 
-0.276468 0.167589 1.144 
-0.231465 0.168028 1.147 
-0.186384 0.168614 1.151 
-0.140984 0.1692 1.155 
-0.0951013 0.169493 1.157 
-0.0490588 0.169786 1.159 
-0.00285677 0.170079 1.161 
0.0436917 0.171105 1.168 
0.090412 0.171398 1.17 
0.137292 0.171691 1.172 
0.184488 0.17213 1.175 
0.23212 0.172716 1.179 
0.279835 0.173155 1.182 
0.327235 0.173302 1.183 
0.375032 0.173595 1.185 
0.423701 0.174181 1.189 
0.472293 0.17462 1.192 
0.52156 0.175206 1.196 
0.56829 0.174913 1.194 
0.616924 0.175206 1.196 
0.638488 0.168321 1.149 
0.640821 0.157627 1.076 
0.636697 0.146787 1.002 
0.638153 0.138436 0.945 
0.640785 0.131258 0.896 
0.64102 0.124373 0.849 
0.639893 0.117927 0.805 
0.64277 0.1128 0.77 
0.640232 0.107233 0.732 
0.639237 0.102399 0.699 
0.638473 0.0980042 0.669 
0.644266 0.0949279 0.648 
-0.934782 0.164318 1.104 
-0.892381 0.164616 1.106 
-0.849821 0.164913 1.108 
-0.807829 0.16536 1.111 
-0.76491 0.165658 1.113 
-0.721185 0.165806 1.114 
-0.677987 0.166104 1.116 
-0.634062 0.166253 1.117 
-0.592168 0.166997 1.122 
-0.544997 0.166253 1.117 
-0.504945 0.167741 1.127 
-0.46083 0.168039 1.129 
-0.417661 0.168783 1.134 
-0.374749 0.169825 1.141 
-0.328972 0.169676 1.14 
-0.284268 0.170123 1.143 
-0.239743 0.170867 1.148 
-0.194482 0.171313 1.151 
-0.148981 0.17176 1.154 
-0.103241 0.172207 1.157 
-0.0572129 0.172504 1.159 
-0.011025 0.172802 1.161 
0.0354743 0.173844 1.168 
0.08204 0.173844 1.168 
0.129046 0.174439 1.172 
0.176221 0.174886 1.175 
0.223636 0.175332 1.178 
0.271749 0.176076 1.183 
0.318912 0.176076 1.183 
0.366695 0.176374 1.185 
0.414986 0.176821 1.188 
0.463906 0.177416 1.192 
0.513145 0.178011 1.196 
0.559889 0.177714 1.194 
0.608509 0.178011 1.196 
0.641377 0.173993 1.169 
0.637959 0.161341 1.084 
0.64033 0.151667 1.019 
0.635514 0.141546 0.951 
0.642979 0.135146 0.908 
0.641031 0.127555 0.857 
0.63959 0.120113 0.807 
0.641796 0.114755 0.771 
0.64026 0.109248 0.734 
0.640334 0.104485 0.702 
0.637856 0.099722 0.67 
0.642746 0.0964475 0.648 
-0.939108 0.166756 1.103 
-0.897569 0.167209 1.106 
-0.855018 0.167512 1.108 
-0.812308 0.167814 1.11 
-0.769439 0.168117 1.112 
-0.72641 0.168419 1.114 
-0.683221 0.168721 1.116 
-0.639301 0.168873 1.117 
-0.597431 0.169628 1.122 
-0.551221 0.169175 1.119 
-0.509778 0.170233 1.126 
-0.4653 0.170384 1.127 
-0.42298 0.171443 1.134 
-0.379435 0.172199 1.139 
-0.334319 0.17235 1.14 
-0.289376 0.172652 1.142 
-0.244914 0.173408 1.147 
-0.200054 0.174164 1.152 
-0.154394 0.174466 1.154 
-0.10848 0.174618 1.155 
-0.062649 0.175222 1.159 
-0.0164847 0.175676 1.162 
0.0299703 0.176432 1.167 
0.0764961 0.176432 1.167 
0.123549 0.177188 1.172 
0.17071 0.177641 1.175 
0.217925 0.177944 1.177 
0.265975 0.178699 1.182 
0.313364 0.178851 1.183 
0.361137 0.179153 1.185 
0.408725 0.179304 1.186 
0.458315 0.180211 1.192 
0.506687 0.180514 1.194 
0.554289 0.180514 1.194 
0.603404 0.180967 1.197 
0.639158 0.177641 1.175 
0.638129 0.165244 1.093 
0.639917 0.155115 1.026 
0.633044 0.14423 0.954 
0.64083 0.137729 0.911 
0.642215 0.130623 0.864 
0.641768 0.123517 0.817 
0.639673 0.117168 0.775 
0.642018 0.112179 0.742 
0.639015 0.106736 0.706 
0.639758 0.102352 0.677 
0.640157 0.0982696 0.65 
-0.949455 0.169343 1.103 
-0.907944 0.169803 1.106 
-0.865412 0.17011 1.108 
-0.82198 0.170264 1.109 
-0.77987 0.170724 1.112 
-0.73686 0.171031 1.114 
-0.69369 0.171339 1.116 
-0.649779 0.171492 1.117 
-0.607956 0.17226 1.122 
-0.56222 0.171953 1.12 
-0.520341 0.172874 1.126 
-0.475872 0.173027 1.127 
-0.433235 0.173949 1.133 
-0.389092 0.174409 1.136 
-0.345013 0.175023 1.14 
-0.299826 0.175177 1.141 
-0.255228 0.175791 1.145 
-0.210678 0.176712 1.151 
-0.165219 0.177173 1.154 
-0.119315 0.177326 1.155 
-0.0735213 0.17794 1.159 
-0.0274557 0.178861 1.165 
0.0190067 0.179015 1.166 
0.065605 0.179322 1.168 
0.112555 0.179936 1.172 
0.159416 0.18009 1.173 
0.206708 0.18055 1.176 
0.254887 0.181471 1.182 
0.302011 0.181471 1.182 
0.34943 0.181625 1.183 
0.3976 0.182086 1.186 
0.446759 0.182853 1.191 
0.494241 0.182853 1.191 
0.543998 0.183621 1.196 
0.59168 0.183621 1.196 
0.635086 0.182393 1.188 
0.641088 0.171339 1.116 
0.644421 0.161052 1.049 
0.636525 0.149384 0.973 
0.638531 0.141247 0.92 
0.640715 0.134031 0.873 
0.643021 0.127583 0.831 
0.639536 0.120674 0.786 
0.64356 0.115761 0.754 
0.640564 0.11008 0.717 
0.637419 0.10486 0.683 
0.639347 0.100869 0.657 
-0.961516 0.171773 1.102 
-0.92008 0.172241 1.105 
-0.877611 0.172553 1.107 
-0.834983 0.172865 1.109 
-0.792909 0.173332 1.112 
-0.749922 0.173644 1.114 
-0.705509 0.173644 1.114 
-0.662283 0.173956 1.116 
-0.618344 0.174112 1.117 
-0.576894 0.175047 1.123 
-0.531649 0.174891 1.122 
-0.489087 0.17567 1.127 
-0.445338 0.176138 1.13 
-0.402058 0.176917 1.135 
-0.35838 0.177697 1.14 
-0.312931 0.177697 1.14 
-0.26842 0.17832 1.144 
-0.223785 0.1791 1.149 
-0.178751 0.179879 1.154 
-0.132743 0.179879 1.154 
-0.0869612 0.180347 1.157 
-0.0409752 0.18097 1.161 
0.00531604 0.181126 1.162 
0.0519537 0.182217 1.169 
0.0987279 0.182529 1.171 
0.145662 0.182841 1.173 
0.192919 0.183308 1.176 
0.240823 0.184088 1.181 
0.288151 0.184243 1.182 
0.335558 0.184399 1.183 
0.383369 0.184711 1.185 
0.432793 0.185646 1.191 
0.480679 0.185802 1.192 
0.530417 0.186582 1.197 
0.577656 0.186426 1.196 
0.625338 0.186426 1.196 
0.647697 0.179411 1.151 
0.64357 0.166474 1.068 
0.639249 0.155095 0.995 
0.636614 0.145431 0.933 
0.641311 0.138416 0.888 
0.639373 0.130779 0.839 
0.641547 0.124699 0.8 
0.643136 0.119088 0.764 
0.641855 0.113477 0.728 
0.638625 0.108021 0.693 
0.637412 0.103345 0.663 
-0.971786 0.173883 1.099 
-0.933037 0.174833 1.105 
-0.889787 0.174991 1.106 
-0.847988 0.175465 1.109 
-0.805224 0.175782 1.111 
-0.762985 0.176257 1.114 
-0.717927 0.176098 1.113 
-0.67537 0.176573 1.116 
-0.630877 0.176573 1.116 
-0.590062 0.17768 1.123 
-0.543348 0.177048 1.119 
-0.50141 0.177997 1.125 
-0.458182 0.17863 1.129 
-0.415001 0.179421 1.134 
-0.371421 0.180212 1.139 
-0.326298 0.18037 1.14 
-0.281588 0.180845 1.143 
-0.237051 0.181636 1.148 
-0.191949 0.182269 1.152 
-0.145895 0.182111 1.151 
-0.100528 0.18306 1.157 
-0.0545889 0.183693 1.161 
-0.00830226 0.183693 1.161 
0.0382134 0.1848 1.168 
0.0847792 0.1848 1.168 
0.131907 0.185591 1.173 
0.179129 0.186066 1.176 
0.226398 0.186383 1.178 
0.274291 0.187015 1.182 
0.321687 0.187174 1.183 
0.369474 0.18749 1.185 
0.418124 0.188123 1.189 
0.466702 0.188598 1.192 
0.516381 0.189389 1.197 
0.562689 0.188914 1.194 
0.611825 0.189389 1.197 
0.645772 0.185433 1.172 
0.64067 0.170877 1.08 
0.638146 0.159485 1.008 
0.638629 0.15015 0.949 
0.642248 0.142556 0.901 
0.64204 0.134961 0.853 
0.641175 0.128 0.809 
0.641796 0.121987 0.771 
0.641132 0.116291 0.735 
0.641246 0.111228 0.703 
0.637856 0.106007 0.67 
0.642746 0.102526 0.648 
-0.945138 0.177263 1.104 
-0.902756 0.177585 1.106 
-0.860991 0.178066 1.109 
-0.816778 0.178066 1.109 
-0.774654 0.178548 1.112 
-0.731635 0.178869 1.114 
-0.687839 0.17903 1.115 
-0.64454 0.179351 1.117 
-0.601619 0.179832 1.12 
-0.556967 0.179832 1.12 
-0.514602 0.180635 1.125 
-0.470586 0.180956 1.127 
-0.427921 0.18192 1.133 
-0.384439 0.182723 1.138 
-0.339368 0.182883 1.139 
-0.294474 0.183204 1.141 
-0.250076 0.184007 1.146 
-0.205279 0.18481 1.151 
-0.159807 0.185292 1.154 
-0.113898 0.185452 1.155 
-0.0682026 0.186416 1.161 
-0.0219915 0.187058 1.165 
0.0244546 0.187058 1.165 
0.0711442 0.1877 1.169 
0.118052 0.188182 1.172 
0.165199 0.188663 1.175 
0.212224 0.188824 1.176 
0.260431 0.189787 1.182 
0.307555 0.189787 1.182 
0.355579 0.190269 1.185 
0.403842 0.190751 1.188 
0.452345 0.191233 1.191 
0.500247 0.191393 1.192 
0.549608 0.192035 1.196 
0.598788 0.192517 1.199 
0.637422 0.189787 1.182 
0.64138 0.177103 1.103 
0.639996 0.165382 1.03 
0.63808 0.154945 0.965 
0.639395 0.146435 0.912 
0.642411 0.13921 0.867 
0.641059 0.131824 0.821 
0.641783 0.125562 0.782 
0.64198 0.119781 0.746 
0.641107 0.114322 0.712 
0.637522 0.108863 0.678 
0.642009 0.10517 0.655 
-0.956348 0.179527 1.102 
-0.916553 0.180341 1.107 
-0.873207 0.180504 1.108 
-0.83053 0.18083 1.11 
-0.787694 0.181156 1.112 
-0.744029 0.181319 1.113 
-0.700284 0.181482 1.114 
-0.657049 0.181807 1.116 
-0.614203 0.182296 1.119 
-0.571627 0.182948 1.123 
-0.527794 0.183274 1.125 
-0.483801 0.183599 1.127 
-0.441206 0.184577 1.133 
-0.397084 0.185066 1.136 
-0.352723 0.185554 1.139 
-0.307584 0.185717 1.14 
-0.263054 0.186369 1.144 
-0.218395 0.187183 1.149 
-0.173789 0.188487 1.157 
-0.12711 0.187672 1.152 
-0.0816754 0.188813 1.159 
-0.0355603 0.189301 1.162 
0.010757 0.189138 1.161 
0.0574858 0.190605 1.17 
0.10422 0.190767 1.171 
0.151292 0.191256 1.174 
0.198435 0.191582 1.176 
0.246362 0.192397 1.181 
0.293695 0.192559 1.182 
0.341107 0.192722 1.183 
0.389255 0.193211 1.186 
0.438747 0.194189 1.192 
0.485862 0.194026 1.191 
0.536031 0.195003 1.197 
0.583753 0.195003 1.197 
0.629893 0.194514 1.194 
0.647422 0.18588 1.141 
0.642507 0.172359 1.058 
0.641975 0.161607 0.992 
0.638929 0.151506 0.93 
0.643296 0.144175 0.885 
0.641008 0.136193 0.836 
0.642879 0.129839 0.797 
0.641641 0.123486 0.758 
0.641724 0.117947 0.724 
0.640023 0.112571 0.691 
0.638589 0.107683 0.661 
-0.970901 0.18145 1.098 
-0.933881 0.182772 1.106 
-0.890592 0.182937 1.107 
-0.847988 0.183268 1.109 
-0.805224 0.183598 1.111 
-0.762985 0.184094 1.114 
-0.717927 0.183929 1.113 
-0.67537 0.184425 1.116 
-0.631442 0.18459 1.117 
-0.589537 0.185416 1.122 
-0.544805 0.185416 1.122 
-0.50141 0.185912 1.125 
-0.457371 0.186242 1.127 
-0.414635 0.187234 1.133 
-0.371095 0.18806 1.138 
-0.326012 0.188225 1.139 
-0.281588 0.188886 1.143 
-0.237051 0.189713 1.148 
-0.192283 0.190704 1.154 
-0.146021 0.190374 1.152 
-0.100528 0.1912 1.157 
-0.0546359 0.192026 1.162 
-0.00830226 0.191861 1.161 
0.0382134 0.193018 1.168 
0.0849243 0.193348 1.17 
0.131907 0.193844 1.173 
0.179129 0.19434 1.176 
0.226206 0.194505 1.177 
0.274291 0.195331 1.182 
0.321687 0.195497 1.183 
0.369474 0.195827 1.185 
0.418124 0.196488 1.189 
0.46631 0.196819 1.191 
0.51595 0.197645 1.196 
0.563632 0.197645 1.196 
0.612847 0.198141 1.199 
0.645221 0.193514 1.171 
0.64245 0.178971 1.083 
0.641944 0.167569 1.014 
0.639301 0.156992 0.95 
0.642248 0.148895 0.901 
0.64204 0.140963 0.853 
0.641968 0.133857 0.81 
0.641796 0.127412 0.771 
0.642877 0.121793 0.737 
0.64307 0.116505 0.705 
0.637856 0.110721 0.67 
0.642746 0.107085 0.648 
-0.948586 0.185198 1.105 
-0.906169 0.185533 1.107 
-0.862813 0.185701 1.108 
-0.820118 0.186036 1.11 
-0.777961 0.186539 1.113 
-0.734247 0.186707 1.114 
-0.690454 0.186874 1.115 
-0.64716 0.187209 1.117 
-0.603706 0.187545 1.119 
-0.560593 0.188047 1.122 
-0.516321 0.188215 1.123 
-0.472809 0.188718 1.126 
-0.430198 0.189723 1.132 
-0.386768 0.190561 1.137 
-0.341739 0.190729 1.138 
-0.29715 0.191232 1.141 
-0.252764 0.19207 1.146 
-0.207617 0.192573 1.149 
-0.162654 0.193578 1.155 
-0.116606 0.193578 1.155 
-0.0709254 0.194584 1.161 
-0.02466 0.194751 1.162 
0.0217412 0.195422 1.166 
0.0684612 0.196092 1.17 
0.115303 0.196427 1.172 
0.162305 0.196763 1.174 
0.209288 0.19693 1.175 
0.257441 0.197936 1.181 
0.304783 0.198103 1.182 
0.3528 0.198606 1.185 
0.401394 0.199277 1.189 
0.449552 0.199612 1.191 
0.497034 0.199612 1.191 
0.546803 0.20045 1.196 
0.596473 0.20112 1.2 
0.636261 0.198606 1.185 
0.641398 0.186371 1.112 
0.646265 0.175645 1.048 
0.640776 0.163578 0.976 
0.641385 0.15436 0.921 
0.64129 0.14598 0.871 
0.643417 0.138941 0.829 
0.641379 0.131734 0.786 
0.64276 0.125868 0.751 
0.642246 0.120169 0.717 
0.638085 0.114303 0.682 
0.640888 0.110113 0.657 
-0.959726 0.18643 1.097 
-0.924341 0.188129 1.107 
-0.881003 0.188299 1.108 
-0.83834 0.188639 1.11 
-0.795517 0.188979 1.112 
-0.751859 0.189149 1.113 
-0.708122 0.189319 1.114 
-0.664901 0.189659 1.116 
-0.622076 0.190169 1.119 
-0.579528 0.190849 1.123 
-0.535709 0.191189 1.125 
-0.49173 0.191528 1.127 
-0.447988 0.192038 1.13 
-0.40472 0.192888 1.135 
-0.360737 0.193568 1.139 
-0.315327 0.193568 1.139 
-0.27134 0.194587 1.145 
-0.226282 0.195097 1.148 
-0.181929 0.196627 1.157 
-0.13545 0.196117 1.154 
-0.0897521 0.196797 1.158 
-0.0436979 0.197307 1.161 
0.00258872 0.197307 1.161 
0.0492122 0.198666 1.169 
0.0959817 0.199006 1.171 
0.142911 0.199346 1.173 
0.190161 0.199856 1.176 
0.23765 0.200366 1.179 
0.285379 0.200875 1.182 
0.332784 0.201045 1.183 
0.380911 0.201555 1.186 
0.43 0.202405 1.191 
0.477483 0.202405 1.191 
0.527169 0.203255 1.196 
0.576293 0.203764 1.199 
0.622533 0.203255 1.196 
0.643877 0.195267 1.149 
0.645868 0.182861 1.076 
0.641397 0.170285 1.002 
0.640545 0.160089 0.942 
0.642108 0.151591 0.892 
0.642723 0.143774 0.846 
0.64127 0.136296 0.802 
0.643863 0.130348 0.767 
0.641907 0.12406 0.73 
0.644354 0.119132 0.701 
0.640652 0.113523 0.668 
-0.975162 0.189003 1.097 
-0.939918 0.190726 1.107 
-0.895784 0.190726 1.107 
-0.853189 0.19107 1.109 
-0.810434 0.191415 1.111 
-0.76752 0.191759 1.113 
-0.723797 0.191932 1.114 
-0.680604 0.192276 1.116 
-0.637821 0.192793 1.119 
-0.593209 0.192793 1.119 
-0.550068 0.19331 1.122 
-0.506687 0.193827 1.125 
-0.462657 0.194171 1.127 
-0.418837 0.194688 1.13 
-0.376433 0.196067 1.138 
-0.331063 0.196067 1.138 
-0.286949 0.196928 1.143 
-0.242225 0.197617 1.147 
-0.197181 0.198306 1.151 
-0.151688 0.198823 1.154 
-0.105955 0.19934 1.157 
-0.0600861 0.200202 1.162 
-0.0137478 0.200029 1.161 
0.0327351 0.201235 1.168 
0.0795045 0.201752 1.171 
0.126298 0.201925 1.172 
0.173466 0.202441 1.175 
0.220498 0.202614 1.176 
0.26852 0.203475 1.181 
0.316138 0.20382 1.183 
0.363916 0.204164 1.185 
0.412547 0.204853 1.189 
0.460724 0.205198 1.191 
0.509487 0.205715 1.194 
0.558022 0.206059 1.196 
0.607224 0.206576 1.199 
0.640821 0.202097 1.173 
0.645968 0.189864 1.102 
0.644201 0.177287 1.029 
0.639943 0.165571 0.961 
0.642967 0.156957 0.911 
0.643495 0.148687 0.863 
0.643339 0.141106 0.819 
0.64215 0.134042 0.778 
0.642883 0.128012 0.743 
0.644446 0.122671 0.712 
0.638813 0.116468 0.676 
0.642127 0.112333 0.652 
-0.952905 0.192798 1.104 
-0.911361 0.193322 1.107 
-0.86801 0.193496 1.108 
-0.825324 0.193846 1.11 
-0.782478 0.194195 1.112 
-0.739472 0.194544 1.114 
-0.695059 0.194544 1.114 
-0.651815 0.194893 1.116 
-0.608955 0.195417 1.119 
-0.565855 0.195941 1.122 
-0.522517 0.196465 1.125 
-0.479364 0.197164 1.129 
-0.434738 0.197338 1.13 
-0.392101 0.198561 1.137 
-0.347076 0.198735 1.138 
-0.302502 0.199259 1.141 
-0.258139 0.200133 1.146 
-0.213006 0.200656 1.149 
-0.168362 0.202054 1.157 
-0.121918 0.20153 1.154 
-0.0762393 0.202403 1.159 
-0.0301101 0.202927 1.162 
0.0162583 0.203451 1.165 
0.0629735 0.204324 1.17 
0.109806 0.204673 1.172 
0.156665 0.204848 1.173 
0.20395 0.205372 1.176 
0.251902 0.206245 1.181 
0.299239 0.206419 1.182 
0.347242 0.206943 1.185 
0.395484 0.207467 1.188 
0.443965 0.207991 1.191 
0.491861 0.208166 1.192 
0.541193 0.208864 1.196 
0.590845 0.209563 1.2 
0.633896 0.207991 1.191 
0.640187 0.195417 1.119 
0.644409 0.183891 1.053 
0.64402 0.17254 0.988 
0.643291 0.162411 0.93 
0.641594 0.153156 0.877 
0.643386 0.145646 0.834 
0.642561 0.138311 0.792 
0.641791 0.131675 0.754 
0.643338 0.126087 0.722 
0.642333 0.120499 0.69 
0.640719 0.11526 0.66 
-0.961354 0.19344 1.093 
-0.929533 0.195918 1.107 
-0.8862 0.196095 1.108 
-0.843546 0.196449 1.11 
-0.800733 0.196803 1.112 
-0.75708 0.19698 1.113 
-0.712707 0.19698 1.113 
-0.670135 0.197511 1.116 
-0.627324 0.198042 1.119 
-0.583233 0.198219 1.12 
-0.540023 0.19875 1.123 
-0.497016 0.199457 1.127 
-0.452887 0.199811 1.129 
-0.409321 0.200519 1.133 
-0.366401 0.201758 1.14 
-0.32067 0.201581 1.139 
-0.27671 0.202643 1.145 
-0.231667 0.203174 1.148 
-0.187032 0.204413 1.155 
-0.140984 0.204413 1.155 
-0.0951013 0.204767 1.157 
-0.0491434 0.205475 1.161 
-0.00285677 0.205475 1.161 
0.0437291 0.206891 1.169 
0.0904893 0.207245 1.171 
0.137292 0.207422 1.172 
0.184488 0.207953 1.175 
0.23212 0.20866 1.179 
0.279598 0.209014 1.181 
0.327235 0.209368 1.183 
0.375349 0.209899 1.186 
0.423701 0.21043 1.189 
0.472293 0.210961 1.192 
0.520687 0.211315 1.194 
0.569718 0.211846 1.197 
0.616924 0.211669 1.196 
0.638488 0.203351 1.149 
0.644394 0.191493 1.082 
0.645593 0.179813 1.016 
0.64288 0.168486 0.952 
0.645791 0.159814 0.903 
0.643286 0.150788 0.852 
0.641781 0.14247 0.805 
0.643738 0.136098 0.769 
0.642826 0.129727 0.733 
0.644543 0.124418 0.703 
0.640999 0.118577 0.67 
-0.98186 0.196003 1.093 
-0.949444 0.198335 1.106 
-0.906987 0.198693 1.108 
-0.862813 0.198693 1.108 
-0.820856 0.199231 1.111 
-0.777961 0.19959 1.113 
-0.734247 0.199769 1.114 
-0.690454 0.199949 1.115 
-0.64716 0.200307 1.117 
-0.603706 0.200666 1.119 
-0.559593 0.200845 1.12 
-0.51724 0.201742 1.125 
-0.474069 0.202459 1.129 
-0.429438 0.202638 1.13 
-0.387108 0.204073 1.138 
-0.341739 0.204073 1.138 
-0.297671 0.20497 1.143 
-0.252764 0.205508 1.146 
-0.207617 0.206046 1.149 
-0.162654 0.207122 1.155 
-0.116606 0.207122 1.155 
-0.0709254 0.208198 1.161 
-0.0247236 0.208915 1.165 
0.0217598 0.209274 1.167 
0.0684027 0.209632 1.169 
0.115303 0.21017 1.172 
0.162167 0.210349 1.173 
0.209466 0.210887 1.176 
0.257441 0.211784 1.181 
0.304783 0.211963 1.182 
0.3528 0.212501 1.185 
0.401394 0.213219 1.189 
0.449552 0.213577 1.191 
0.497452 0.213757 1.192 
0.546803 0.214474 1.196 
0.59697 0.215371 1.201 
0.636798 0.212681 1.186 
0.641398 0.199411 1.112 
0.646265 0.187934 1.048 
0.642089 0.175381 0.978 
0.645563 0.166235 0.927 
0.642026 0.156372 0.872 
0.643417 0.148661 0.829 
0.643425 0.140592 0.784 
0.64198 0.133777 0.746 
0.644708 0.128397 0.716 
0.641284 0.1223 0.682 
0.643969 0.117817 0.657 
-0.958852 0.199112 1.096 
-0.924341 0.20111 1.107 
-0.880208 0.20111 1.107 
-0.837584 0.201473 1.109 
-0.795517 0.202018 1.112 
-0.751859 0.2022 1.113 
-0.708122 0.202382 1.114 
-0.664901 0.202745 1.116 
-0.622076 0.20329 1.119 
-0.57798 0.203472 1.12 
-0.53428 0.203835 1.122 
-0.492602 0.205107 1.129 
-0.447592 0.205107 1.129 
-0.404364 0.206015 1.134 
-0.361054 0.207105 1.14 
-0.315604 0.207105 1.14 
-0.271577 0.208195 1.146 
-0.226282 0.208559 1.148 
-0.181929 0.210194 1.157 
-0.135567 0.20983 1.155 
-0.0896746 0.210194 1.157 
-0.0436979 0.21092 1.161 
0.00258872 0.21092 1.161 
0.0491701 0.212192 1.168 
0.0959817 0.212737 1.171 
0.142789 0.212919 1.172 
0.189999 0.213464 1.175 
0.238053 0.214554 1.181 
0.285137 0.214554 1.181 
0.333347 0.21528 1.185 
0.381554 0.215825 1.188 
0.429278 0.216007 1.189 
0.478685 0.216915 1.194 
0.527169 0.217279 1.196 
0.575332 0.21746 1.197 
0.621492 0.216915 1.194 
0.638834 0.207105 1.14 
0.644667 0.195115 1.074 
0.643317 0.18258 1.005 
0.645305 0.172406 0.949 
0.6442 0.162051 0.892 
0.643945 0.153512 0.845 
0.643151 0.1457 0.802 
0.643136 0.138797 0.764 
0.643619 0.13262 0.73 
0.643233 0.126806 0.698 
0.642219 0.121356 0.668 
-0.971371 0.200026 1.087 
-0.94511 0.203706 1.107 
-0.90179 0.20389 1.108 
-0.857617 0.20389 1.108 
-0.815645 0.204442 1.111 
-0.772741 0.20481 1.113 
-0.729022 0.204994 1.114 
-0.685224 0.205178 1.115 
-0.64307 0.205914 1.119 
-0.598458 0.205914 1.119 
-0.55434 0.206098 1.12 
-0.511964 0.207018 1.125 
-0.468773 0.207755 1.129 
-0.424138 0.207939 1.13 
-0.382106 0.209595 1.139 
-0.336401 0.209411 1.138 
-0.29231 0.210331 1.143 
-0.247604 0.211067 1.147 
-0.20258 0.211803 1.151 
-0.157236 0.212539 1.155 
-0.111189 0.212539 1.155 
-0.0654799 0.213643 1.161 
-0.0192594 0.214379 1.165 
0.0272568 0.214931 1.168 
0.0738857 0.215115 1.169 
0.120801 0.215667 1.172 
0.167812 0.216035 1.174 
0.215165 0.216587 1.177 
0.26298 0.217323 1.181 
0.310327 0.217507 1.182 
0.358358 0.218059 1.185 
0.406628 0.218611 1.188 
0.455138 0.219164 1.191 
0.503043 0.219348 1.192 
0.552413 0.220084 1.196 
0.602102 0.22082 1.2 
0.637486 0.216587 1.177 
0.644288 0.20389 1.108 
0.642481 0.190273 1.034 
0.644031 0.179232 0.974 
0.645004 0.169295 0.92 
0.644634 0.160094 0.87 
0.643401 0.15163 0.824 
0.644245 0.144453 0.785 
0.64198 0.137276 0.746 
0.644708 0.131756 0.716 
0.642224 0.125683 0.683 
0.643969 0.120899 0.657 
-0.958852 0.204252 1.096 
-0.924341 0.206302 1.107 
-0.880208 0.206302 1.107 
-0.837584 0.206675 1.109 
-0.795517 0.207234 1.112 
-0.752535 0.207607 1.114 
-0.708122 0.207607 1.114 
-0.664901 0.20798 1.116 
-0.622076 0.208539 1.119 
-0.577464 0.208539 1.119 
-0.533328 0.208725 1.12 
-0.492602 0.210402 1.129 
-0.447592 0.210402 1.129 
-0.404364 0.211334 1.134 
-0.361054 0.212452 1.14 
-0.315604 0.212452 1.14 
-0.271577 0.21357 1.146 
-0.226479 0.214129 1.149 
-0.181614 0.215248 1.155 
-0.135802 0.21562 1.157 
-0.0896746 0.21562 1.157 
-0.0436979 0.216366 1.161 
0.00258203 0.215807 1.158 
0.0491701 0.21767 1.168 
0.0959817 0.218229 1.171 
0.142789 0.218416 1.172 
0.189999 0.218975 1.175 
0.23765 0.21972 1.179 
0.285137 0.220093 1.181 
0.333347 0.220838 1.185 
0.381554 0.221398 1.188 
0.429278 0.221584 1.189 
0.477884 0.222143 1.192 
0.527169 0.222888 1.196 
0.574851 0.222888 1.196 
0.622533 0.222888 1.196 
0.638274 0.212266 1.139 
0.643466 0.19978 1.072 
0.643957 0.18748 1.006 
0.646665 0.17723 0.951 
0.647147 0.167539 0.899 
0.645762 0.158407 0.85 
0.643669 0.150021 0.805 
0.644702 0.143126 0.768 
0.641907 0.136044 0.73 
0.643434 0.130453 0.7 
0.641611 0.124676 0.669 
-0.963606 0.204558 1.084 
-0.939918 0.208898 1.107 
-0.896593 0.209087 1.108 
-0.85242 0.209087 1.108 
-0.811164 0.209842 1.112 
-0.766831 0.209842 1.112 
-0.723797 0.210219 1.114 
-0.680604 0.210597 1.116 
-0.637821 0.211163 1.119 
-0.593739 0.211352 1.12 
-0.548597 0.211163 1.119 
-0.506687 0.212295 1.125 
-0.463478 0.21305 1.129 
-0.418837 0.213239 1.13 
-0.376764 0.214937 1.139 
-0.331354 0.214937 1.139 
-0.2872 0.21588 1.144 
-0.242225 0.216447 1.147 
-0.197181 0.217201 1.151 
-0.151819 0.217956 1.155 
-0.105955 0.218334 1.157 
-0.0600344 0.219089 1.161 
-0.0137478 0.219089 1.161 
0.0327351 0.220409 1.168 
0.0793687 0.220598 1.169 
0.126298 0.221164 1.172 
0.173318 0.221542 1.174 
0.220686 0.222108 1.177 
0.268747 0.223051 1.182 
0.316138 0.22324 1.183 
0.364223 0.223806 1.186 
0.4122 0.224184 1.188 
0.461111 0.224938 1.192 
0.508633 0.224938 1.192 
0.558022 0.225693 1.196 
0.607224 0.226259 1.199 
0.639729 0.220976 1.171 
0.645382 0.207766 1.101 
0.642323 0.193613 1.026 
0.643938 0.182479 0.967 
0.644378 0.172289 0.913 
0.644241 0.163043 0.864 
0.643339 0.154551 0.819 
0.644626 0.14738 0.781 
0.642883 0.140209 0.743 
0.644446 0.134359 0.712 
0.642592 0.128321 0.68 
0.646066 0.123792 0.656 
-0.953768 0.211112 1.105 
-0.912184 0.211686 1.108 
-0.867227 0.211494 1.107 
-0.826067 0.212259 1.111 
-0.783181 0.212641 1.113 
-0.739472 0.212832 1.114 
-0.695683 0.213023 1.115 
-0.652399 0.213405 1.117 
-0.608955 0.213787 1.119 
-0.564847 0.213978 1.12 
-0.521588 0.214551 1.123 
-0.478515 0.215316 1.127 
-0.435507 0.216271 1.132 
-0.391756 0.217035 1.136 
-0.347381 0.217608 1.139 
-0.303032 0.218372 1.143 
-0.258364 0.219137 1.147 
-0.213377 0.219901 1.151 
-0.168071 0.220665 1.155 
-0.122235 0.221047 1.157 
-0.0762393 0.221429 1.159 
-0.0302138 0.222767 1.166 
0.0162164 0.222002 1.162 
0.0628659 0.223149 1.168 
0.109713 0.223722 1.171 
0.156665 0.224104 1.173 
0.20395 0.224677 1.176 
0.251902 0.225632 1.181 
0.299239 0.225823 1.182 
0.347535 0.226588 1.186 
0.395817 0.227161 1.189 
0.443965 0.227543 1.191 
0.492686 0.228116 1.194 
0.541193 0.228498 1.196 
0.590352 0.229071 1.199 
0.635493 0.228116 1.194 
0.640759 0.213978 1.12 
0.641964 0.199649 1.045 
0.642412 0.187613 0.982 
0.644778 0.177487 0.929 
0.645119 0.167935 0.879 
0.644568 0.159146 0.833 
0.642791 0.150931 0.79 
0.645267 0.144435 0.756 
0.642351 0.137366 0.719 
0.643018 0.131635 0.689 
0.642266 0.126094 0.66 
-0.957154 0.212157 1.097 
-0.921745 0.214091 1.107 
-0.877611 0.214091 1.107 
-0.835736 0.214671 1.11 
-0.794335 0.215444 1.114 
-0.749922 0.215444 1.114 
-0.705509 0.215444 1.114 
-0.662283 0.215831 1.116 
-0.619452 0.216411 1.119 
-0.574839 0.216411 1.119 
-0.530701 0.216605 1.12 
-0.489087 0.217959 1.127 
-0.445338 0.218539 1.13 
-0.402058 0.219506 1.135 
-0.358066 0.220279 1.139 
-0.31348 0.220859 1.142 
-0.268889 0.221633 1.146 
-0.223785 0.222213 1.149 
-0.179216 0.22376 1.157 
-0.132858 0.223374 1.155 
-0.0869612 0.22376 1.157 
-0.0410105 0.224727 1.162 
0.00529316 0.22376 1.157 
0.0519092 0.225888 1.168 
0.0987279 0.226468 1.171 
0.145537 0.226661 1.172 
0.192919 0.227435 1.176 
0.240211 0.227822 1.178 
0.287907 0.228402 1.181 
0.336126 0.229176 1.185 
0.384663 0.229949 1.189 
0.432793 0.230336 1.191 
0.481485 0.230916 1.194 
0.529974 0.231303 1.196 
0.577656 0.231303 1.196 
0.625861 0.231496 1.197 
0.639819 0.219892 1.137 
0.63942 0.204421 1.057 
0.644807 0.193397 1 
0.644964 0.18218 0.942 
0.645853 0.170189 0.88 
0.644568 0.1611 0.833 
0.643604 0.152977 0.791 
0.645267 0.146208 0.756 
0.642246 0.138666 0.717 
0.642763 0.132864 0.687 
0.642839 0.127449 0.659 
-0.956227 0.213946 1.093 
-0.924341 0.216687 1.107 
-0.880208 0.216687 1.107 
-0.83834 0.217274 1.11 
-0.796948 0.218057 1.114 
-0.751859 0.217861 1.113 
-0.708122 0.218057 1.114 
-0.664901 0.218448 1.116 
-0.622076 0.219036 1.119 
-0.577464 0.219036 1.119 
-0.532851 0.219036 1.119 
-0.491293 0.220406 1.126 
-0.447988 0.221189 1.13 
-0.404364 0.221972 1.134 
-0.360737 0.22295 1.139 
-0.315881 0.223342 1.141 
-0.271814 0.224516 1.147 
-0.226479 0.224908 1.149 
-0.181929 0.226474 1.157 
-0.135567 0.226082 1.155 
-0.0896746 0.226474 1.157 
-0.0436979 0.227257 1.161 
0.0025798 0.226474 1.157 
0.0491701 0.228627 1.168 
0.0959817 0.229214 1.171 
0.142789 0.22941 1.172 
0.190161 0.230193 1.176 
0.237247 0.230389 1.177 
0.285137 0.231172 1.181 
0.333347 0.231955 1.185 
0.381554 0.232542 1.188 
0.43 0.233129 1.191 
0.478685 0.233716 1.194 
0.527169 0.234108 1.196 
0.574851 0.234108 1.196 
0.624095 0.234695 1.199 
0.638274 0.22295 1.139 
0.641666 0.209248 1.069 
0.642677 0.196525 1.004 
0.645305 0.185759 0.949 
0.647559 0.173819 0.888 
0.644507 0.164032 0.838 
0.646366 0.156398 0.799 
0.645116 0.148764 0.76 
0.644311 0.141913 0.725 
0.642572 0.135454 0.692 
0.642076 0.129777 0.663 
-0.958404 0.214133 1.081 
-0.937322 0.219283 1.107 
-0.893188 0.219283 1.107 
-0.850588 0.219679 1.109 
-0.81001 0.220669 1.114 
-0.764223 0.220273 1.112 
-0.721185 0.220669 1.114 
-0.677379 0.220867 1.115 
-0.634062 0.221264 1.117 
-0.591113 0.221858 1.12 
-0.544997 0.221264 1.117 
-0.504049 0.222848 1.125 
-0.46083 0.223641 1.129 
-0.416924 0.224235 1.132 
-0.373764 0.225423 1.138 
-0.328683 0.225622 1.139 
-0.284517 0.226612 1.144 
-0.239535 0.227206 1.147 
-0.194989 0.228593 1.154 
-0.148981 0.228593 1.154 
-0.103063 0.228791 1.155 
-0.0573117 0.229979 1.161 
-0.011025 0.229979 1.161 
0.0354439 0.231168 1.167 
0.0821805 0.231762 1.17 
0.129046 0.232158 1.172 
0.176221 0.232753 1.175 
0.223446 0.233149 1.177 
0.271519 0.234139 1.182 
0.318912 0.234337 1.183 
0.367004 0.234932 1.186 
0.415336 0.235526 1.189 
0.464685 0.236516 1.194 
0.512287 0.236516 1.194 
0.559889 0.236516 1.194 
0.610544 0.237705 1.2 
0.640829 0.231366 1.168 
0.645021 0.217104 1.096 
0.643472 0.202842 1.024 
0.643533 0.190758 0.963 
0.645103 0.180458 0.911 
0.644771 0.170751 0.862 
0.646047 0.162432 0.82 
0.644802 0.15431 0.779 
0.644625 0.147179 0.743 
0.643394 0.140444 0.709 
0.64324 0.134501 0.679 
0.64563 0.129549 0.654 
-0.956322 0.220275 1.099 
-0.919979 0.222079 1.108 
-0.875015 0.221879 1.107 
-0.833884 0.222681 1.111 
-0.791723 0.223282 1.114 
-0.746639 0.223081 1.113 
-0.702897 0.223282 1.114 
-0.659666 0.223683 1.116 
-0.617379 0.224484 1.12 
-0.572215 0.224284 1.119 
-0.529017 0.224885 1.122 
-0.486012 0.225687 1.126 
-0.442688 0.226489 1.13 
-0.399397 0.227491 1.135 
-0.355395 0.228293 1.139 
-0.310802 0.228894 1.142 
-0.266201 0.229696 1.146 
-0.22109 0.230297 1.149 
-0.176045 0.231299 1.154 
-0.13015 0.2315 1.155 
-0.0842479 0.231901 1.157 
-0.0382854 0.232903 1.162 
0.00802037 0.232301 1.159 
0.0546484 0.234105 1.168 
0.101474 0.234707 1.171 
0.148286 0.234907 1.172 
0.195677 0.235709 1.176 
0.242974 0.23611 1.178 
0.290677 0.236711 1.181 
0.338905 0.237513 1.185 
0.387126 0.238114 1.188 
0.435586 0.238715 1.191 
0.485097 0.239717 1.196 
0.532779 0.239717 1.196 
0.580946 0.239918 1.197 
0.629719 0.240319 1.199 
0.641921 0.227691 1.136 
0.640025 0.212058 1.058 
0.644162 0.200232 0.999 
0.643594 0.188407 0.94 
0.646292 0.178786 0.892 
0.645927 0.169366 0.845 
0.645836 0.160947 0.803 
0.645772 0.153331 0.765 
0.645331 0.146316 0.73 
0.641174 0.1391 0.694 
0.643785 0.133889 0.668 
-0.963475 0.219203 1.081 
-0.942514 0.224475 1.107 
-0.89838 0.224475 1.107 
-0.85579 0.224881 1.109 
-0.814504 0.225692 1.113 
-0.770131 0.225692 1.113 
-0.72641 0.225894 1.114 
-0.681997 0.225894 1.114 
-0.639301 0.226503 1.117 
-0.597431 0.227517 1.122 
-0.551221 0.226908 1.119 
-0.509325 0.228125 1.125 
-0.466125 0.228936 1.129 
-0.422234 0.229544 1.132 
-0.378769 0.230558 1.137 
-0.334025 0.230964 1.139 
-0.289629 0.231775 1.143 
-0.244701 0.232383 1.146 
-0.199881 0.233397 1.151 
-0.154394 0.234006 1.154 
-0.108668 0.234614 1.157 
-0.062649 0.235019 1.159 
-0.0165272 0.236236 1.165 
0.0299446 0.236439 1.166 
0.0765617 0.236844 1.168 
0.123444 0.237453 1.171 
0.17071 0.238264 1.175 
0.21811 0.238872 1.178 
0.26575 0.239481 1.181 
0.313099 0.239683 1.182 
0.361442 0.240494 1.186 
0.409759 0.241103 1.189 
0.459084 0.242117 1.194 
0.506687 0.242117 1.194 
0.554289 0.242117 1.194 
0.604412 0.243131 1.199 
0.639702 0.238467 1.176 
0.646302 0.224475 1.107 
0.642411 0.208861 1.03 
0.645652 0.197303 0.973 
0.642941 0.185339 0.914 
0.645931 0.176214 0.869 
0.6469 0.167494 0.826 
0.64444 0.158775 0.783 
0.645455 0.151678 0.748 
0.644582 0.144783 0.714 
0.64194 0.138092 0.681 
0.64551 0.133225 0.657 
-0.955451 0.225225 1.098 
-0.919979 0.227276 1.108 
-0.875806 0.227276 1.108 
-0.834634 0.228097 1.112 
-0.791723 0.228507 1.114 
-0.746639 0.228302 1.113 
-0.702897 0.228507 1.114 
-0.659666 0.228917 1.116 
-0.617379 0.229738 1.12 
-0.572215 0.229533 1.119 
-0.529017 0.230148 1.122 
-0.486012 0.230968 1.126 
-0.442688 0.231789 1.13 
-0.399397 0.232815 1.135 
-0.355395 0.233635 1.139 
-0.310802 0.23425 1.142 
-0.266434 0.235276 1.147 
-0.22109 0.235686 1.149 
-0.175739 0.236302 1.152 
-0.13015 0.236917 1.155 
-0.0842479 0.237327 1.157 
-0.0382525 0.238148 1.161 
0.00804113 0.238353 1.162 
0.0546484 0.239584 1.168 
0.101474 0.240199 1.171 
0.148286 0.240404 1.172 
0.195843 0.24143 1.177 
0.242974 0.241635 1.178 
0.290923 0.242455 1.182 
0.338905 0.243071 1.185 
0.387126 0.243686 1.188 
0.435586 0.244301 1.191 
0.485097 0.245327 1.196 
0.532779 0.245327 1.196 
0.580946 0.245532 1.197 
0.629719 0.245942 1.199 
0.643051 0.23343 1.138 
0.64184 0.217635 1.061 
0.644807 0.205123 1 
0.643594 0.192816 0.94 
0.646292 0.18297 0.892 
0.646691 0.173534 0.846 
0.645031 0.164509 0.802 
0.646616 0.157124 0.766 
0.645331 0.14974 0.73 
0.643022 0.142766 0.696 
0.643785 0.137022 0.668 
-0.963475 0.224273 1.081 
-0.942514 0.229667 1.107 
-0.89838 0.229667 1.107 
-0.856561 0.23029 1.11 
-0.815235 0.231119 1.114 
-0.769439 0.230705 1.112 
-0.72641 0.231119 1.114 
-0.682609 0.231327 1.115 
-0.639301 0.231742 1.117 
-0.596366 0.232364 1.12 
-0.551221 0.232157 1.119 
