# .PCD v.7 - Point Cloud Data file format
VERSION .7
FIELDS x y z
SIZE 4 4 4
TYPE F F F
COUNT 1 1 1
WIDTH 1841
HEIGHT 1
VIEWPOINT 0 0 0 1 0 0 0
POINTS 1841
DATA ascii
0.503871 0.0231899 1.168 
0.550908 0.0232097 1.169 
0.598536 0.0232494 1.171 
0.645772 0.0232693 1.172 
0.691906 0.0232494 1.171 
0.739853 0.0232891 1.173 
0.760465 0.0225148 1.134 
0.764468 0.0213633 1.076 
0.765346 0.0202514 1.02 
0.759389 0.01908 0.961 
0.759519 0.0181667 0.915 
0.758591 0.017313 0.872 
0.768791 0.0167769 0.845 
0.773989 0.0161813 0.815 
0.780753 0.0156651 0.789 
-0.530797 0.0162056 0.73 
-0.50994 0.016472 0.742 
-0.486832 0.016694 0.752 
-0.470824 0.0172046 0.775 
-0.446738 0.017471 0.787 
-0.458741 0.0198242 0.893 
-0.504081 0.0244639 1.102 
-0.468498 0.0249079 1.122 
-0.424899 0.0249745 1.125 
-0.381737 0.0250854 1.13 
-0.33758 0.025152 1.133 
-0.2937 0.025263 1.138 
-0.248549 0.0252852 1.139 
-0.203852 0.025374 1.143 
-0.158422 0.0253962 1.144 
-0.112912 0.0254184 1.145 
-0.0673802 0.0254628 1.147 
-0.0217461 0.0255738 1.152 
0.0242237 0.0256182 1.154 
0.0704748 0.025707 1.158 
0.11634 0.0256404 1.155 
0.163231 0.0257736 1.161 
0.209517 0.0257736 1.161 
0.255363 0.0257292 1.159 
0.303131 0.0258624 1.165 
0.349878 0.0258846 1.166 
0.395004 0.0257958 1.162 
0.443229 0.0259068 1.167 
0.490175 0.025929 1.168 
0.53766 0.0259734 1.17 
0.584305 0.0259734 1.17 
0.63149 0.0259956 1.171 
0.678175 0.0259956 1.171 
0.72548 0.0260178 1.172 
0.756392 0.025485 1.148 
0.759537 0.0241309 1.087 
0.76742 0.0230653 1.039 
0.760577 0.0216889 0.977 
0.760247 0.0206233 0.929 
0.754373 0.0195134 0.879 
0.765169 0.018914 0.852 
0.766308 0.018137 0.817 
0.772479 0.0175376 0.79 
-0.534221 0.0179176 0.73 
-0.512728 0.0181876 0.741 
-0.487099 0.0183349 0.747 
-0.473847 0.0189976 0.774 
-0.449857 0.0192921 0.786 
-0.465545 0.021943 0.894 
-0.511834 0.0270482 1.102 
-0.475543 0.02749 1.12 
-0.432814 0.0276128 1.125 
-0.389342 0.027711 1.129 
-0.345551 0.0278091 1.133 
-0.301441 0.0279073 1.137 
-0.256337 0.0279319 1.138 
-0.211894 0.0280546 1.143 
-0.166325 0.0280546 1.143 
-0.121284 0.0281773 1.148 
-0.07545 0.0281528 1.147 
-0.0297733 0.0282018 1.149 
0.0161048 0.0283246 1.154 
0.0622738 0.0283982 1.157 
0.108214 0.0283491 1.155 
0.154795 0.0284473 1.159 
0.201349 0.0284964 1.161 
0.247849 0.0285209 1.162 
0.294935 0.0285946 1.165 
0.341674 0.0286191 1.166 
0.387827 0.0285946 1.165 
0.435019 0.0286437 1.167 
0.481958 0.0286682 1.168 
0.529428 0.0287173 1.17 
0.576074 0.0287173 1.17 
0.623251 0.0287418 1.171 
0.669937 0.0287418 1.171 
0.717234 0.0287664 1.172 
0.757441 0.0285209 1.162 
0.76434 0.0271219 1.105 
0.768157 0.0257719 1.05 
0.76296 0.0242747 0.989 
0.757767 0.0229247 0.934 
0.754998 0.0217711 0.887 
0.760066 0.0209366 0.853 
0.761491 0.0200776 0.818 
0.769833 0.0194639 0.793 
-0.636702 0.0206783 0.769 
-0.518919 0.019764 0.735 
-0.494945 0.0199792 0.743 
-0.479101 0.0205707 0.765 
-0.458571 0.0210279 0.782 
-0.476582 0.024174 0.899 
-0.519588 0.0296326 1.102 
-0.482991 0.0300898 1.119 
-0.440729 0.0302511 1.125 
-0.397285 0.0303586 1.129 
-0.353834 0.0304931 1.134 
-0.309441 0.0305738 1.137 
-0.264343 0.0306007 1.138 
-0.219936 0.0307351 1.143 
-0.174367 0.0307351 1.143 
-0.129361 0.0308696 1.148 
-0.0835197 0.0308427 1.147 
-0.0378571 0.0308964 1.149 
0.00798577 0.0310309 1.154 
0.0540401 0.0310578 1.155 
0.100261 0.0311116 1.157 
0.146515 0.0311385 1.158 
0.193181 0.0312191 1.161 
0.240293 0.0313267 1.165 
0.286 0.031246 1.162 
0.333185 0.0313267 1.165 
0.379631 0.0313267 1.165 
0.426809 0.0313805 1.167 
0.474146 0.0314342 1.169 
0.520751 0.0314342 1.169 
0.567842 0.0314611 1.17 
0.615538 0.0315149 1.172 
0.661698 0.031488 1.171 
0.708988 0.0315149 1.172 
0.755069 0.031488 1.171 
0.763412 0.0299822 1.115 
0.766566 0.0284495 1.058 
0.765175 0.0269167 1.001 
0.761652 0.0254647 0.947 
0.752979 0.0239858 0.892 
0.756716 0.0230177 0.856 
0.75666 0.0220228 0.819 
0.765218 0.0213505 0.794 
-0.637217 0.0222479 0.761 
-0.525384 0.0214 0.732 
-0.503658 0.0217216 0.743 
-0.481692 0.0220724 0.755 
-0.464152 0.0226864 0.776 
-0.488792 0.0264869 0.906 
-0.529255 0.0323339 1.106 
-0.489986 0.0326555 1.117 
-0.449043 0.0329186 1.126 
-0.405228 0.0330064 1.129 
-0.361494 0.0331233 1.133 
-0.316882 0.0331818 1.135 
-0.272589 0.0332987 1.139 
-0.227977 0.0334156 1.143 
-0.182408 0.0334156 1.143 
-0.137438 0.0335618 1.148 
-0.0915894 0.0335326 1.147 
-0.0460209 0.0336495 1.151 
-0.000133334 0.0337665 1.155 
0.0459141 0.0337665 1.155 
0.0922004 0.0338542 1.158 
0.138368 0.0338542 1.158 
0.185172 0.0339711 1.162 
0.231498 0.0339711 1.162 
0.277108 0.0338834 1.159 
0.324988 0.0340588 1.165 
0.371753 0.034088 1.166 
0.418598 0.0341173 1.167 
0.465921 0.0341757 1.169 
0.512527 0.0341757 1.169 
0.559611 0.034205 1.17 
0.607292 0.0342635 1.172 
0.654018 0.0342635 1.172 
0.700743 0.0342635 1.172 
0.748106 0.0342927 1.173 
0.767765 0.0331233 1.133 
0.767015 0.0312522 1.069 
0.769493 0.0297028 1.016 
0.76057 0.0278902 0.954 
0.755074 0.02637 0.902 
0.756833 0.0252298 0.863 
0.753648 0.0240312 0.822 
0.761545 0.0232711 0.796 
-0.641816 0.0239378 0.758 
-0.531984 0.0231799 0.734 
-0.5082 0.0234325 0.742 
-0.485068 0.0237483 0.752 
-0.467191 0.0243799 0.772 
-0.496805 0.0287064 0.909 
-0.541581 0.035054 1.11 
-0.500016 0.0352435 1.116 
-0.459197 0.0355277 1.125 
-0.415819 0.035654 1.129 
-0.372122 0.0357804 1.133 
-0.327529 0.0358435 1.135 
-0.283273 0.0359699 1.139 
-0.23849 0.0360646 1.142 
-0.19313 0.0360962 1.143 
-0.148078 0.0362225 1.147 
-0.102171 0.0361593 1.145 
-0.056818 0.0363488 1.151 
-0.010968 0.0364751 1.155 
0.0350794 0.0364751 1.155 
0.0812674 0.0365383 1.157 
0.127615 0.0366015 1.159 
0.174722 0.0367909 1.165 
0.220408 0.0366646 1.161 
0.266236 0.0366015 1.159 
0.31406 0.0367909 1.165 
0.360815 0.0368225 1.166 
0.407302 0.0368225 1.166 
0.455344 0.0369488 1.17 
0.501132 0.0368857 1.168 
0.548635 0.0369488 1.17 
0.595789 0.0369804 1.171 
0.643023 0.037012 1.172 
0.690337 0.0370436 1.173 
0.737102 0.0370436 1.173 
0.76382 0.0360962 1.143 
0.76336 0.0340435 1.078 
0.769686 0.032496 1.029 
0.765802 0.030696 0.972 
0.755718 0.0288327 0.913 
0.75481 0.0274748 0.87 
0.754104 0.0262431 0.831 
0.757867 0.0252642 0.8 
0.76903 0.024601 0.779 
-0.542064 0.0249691 0.736 
-0.514811 0.0250709 0.739 
-0.489289 0.0252744 0.745 
-0.474393 0.0260886 0.769 
-0.503201 0.0308382 0.909 
-0.552491 0.0376911 1.111 
-0.50957 0.0377929 1.114 
-0.468915 0.0380982 1.123 
-0.425277 0.0382 1.126 
-0.38275 0.0384374 1.133 
-0.337878 0.0384714 1.134 
-0.293958 0.038641 1.139 
-0.248767 0.0386749 1.14 
-0.204031 0.0388106 1.144 
-0.15856 0.0388446 1.145 
-0.112912 0.0388446 1.145 
-0.0674977 0.0389803 1.149 
-0.0217272 0.0390481 1.151 
0.0242447 0.0391838 1.155 
0.0704139 0.0392517 1.157 
0.116944 0.0393874 1.161 
0.163371 0.0394213 1.162 
0.209698 0.0394213 1.162 
0.256024 0.0394213 1.162 
0.303392 0.039557 1.166 
0.350178 0.0395909 1.167 
0.396024 0.0395231 1.165 
0.443989 0.0396588 1.169 
0.490175 0.0396248 1.168 
0.538119 0.0397266 1.171 
0.584805 0.0397266 1.171 
0.632029 0.0397605 1.172 
0.678755 0.0397605 1.172 
0.726099 0.0397945 1.173 
0.765616 0.0394213 1.162 
0.765127 0.0371483 1.095 
0.770374 0.0353842 1.043 
0.763691 0.0332808 0.981 
0.761065 0.0315506 0.93 
0.755231 0.0298543 0.88 
0.751697 0.0283955 0.837 
0.753177 0.0272421 0.803 
0.763678 0.0264957 0.781 
-0.621441 0.0274568 0.757 
-0.520643 0.0266588 0.735 
-0.497356 0.0269853 0.744 
-0.476495 0.0274931 0.758 
-0.453929 0.0279646 0.771 
-0.470789 0.0324984 0.896 
-0.523831 0.0402966 1.111 
-0.484286 0.0406956 1.122 
-0.441121 0.0408406 1.126 
-0.398341 0.0410583 1.132 
-0.353834 0.0411308 1.134 
-0.309441 0.0412396 1.137 
-0.264808 0.0413484 1.14 
-0.220128 0.0414935 1.144 
-0.174519 0.0414935 1.144 
-0.129361 0.0416386 1.148 
-0.0838838 0.0417837 1.152 
-0.0378571 0.0416749 1.149 
0.00799269 0.0418925 1.155 
0.0540401 0.0418925 1.155 
0.100434 0.0420376 1.159 
0.146515 0.0420013 1.158 
0.193347 0.0421464 1.162 
0.239674 0.0421464 1.162 
0.285754 0.0421101 1.161 
0.334043 0.042364 1.168 
0.379957 0.0422915 1.166 
0.42754 0.0424003 1.169 
0.474551 0.0424365 1.17 
0.521197 0.0424365 1.17 
0.568327 0.0424728 1.171 
0.616063 0.0425454 1.173 
0.662263 0.0425091 1.172 
0.710198 0.0425816 1.174 
0.756359 0.0425454 1.173 
0.772998 0.0409494 1.129 
0.765117 0.0383017 1.056 
0.767468 0.0364156 1.004 
0.765673 0.0345296 0.952 
0.757199 0.0325347 0.897 
0.755832 0.0310113 0.855 
0.753888 0.0295968 0.816 
0.757508 0.0285086 0.786 
-0.630423 0.0291549 0.755 
-0.543537 0.0284984 0.738 
-0.515507 0.0285756 0.74 
-0.489946 0.0288073 0.746 
-0.472542 0.0295796 0.766 
-0.503201 0.0351017 0.909 
-0.558204 0.0429407 1.112 
-0.515257 0.0430565 1.115 
-0.474183 0.0433655 1.123 
-0.430941 0.0435199 1.127 
-0.388064 0.0437516 1.133 
-0.343197 0.0437902 1.134 
-0.299038 0.0439447 1.138 
-0.254114 0.0440219 1.14 
-0.209396 0.0441764 1.144 
-0.163788 0.0441764 1.144 
-0.118385 0.0442536 1.146 
-0.0730138 0.0444467 1.151 
-0.0271258 0.0444467 1.151 
0.0188274 0.0446012 1.155 
0.0649872 0.0446784 1.157 
0.111499 0.0448328 1.161 
0.157921 0.0448715 1.162 
0.204248 0.0448715 1.162 
0.250358 0.0448328 1.161 
0.297667 0.0449873 1.165 
0.345295 0.0451418 1.169 
0.390895 0.0450259 1.166 
0.438506 0.0451418 1.169 
0.485112 0.0451418 1.169 
0.532627 0.045219 1.171 
0.579312 0.045219 1.171 
0.627067 0.0452962 1.173 
0.673257 0.0452576 1.172 
0.721826 0.0453735 1.175 
0.766054 0.045219 1.171 
0.769013 0.0427862 1.108 
0.769886 0.0405079 1.049 
0.766827 0.0382682 0.991 
0.76484 0.0362988 0.94 
0.758786 0.0343294 0.889 
0.758492 0.0327847 0.849 
0.75221 0.0311243 0.806 
0.760015 0.0301589 0.781 
-0.625111 0.0309255 0.755 
-0.543274 0.0303111 0.74 
-0.514466 0.030352 0.741 
-0.490159 0.0306797 0.749 
-0.470746 0.031376 0.766 
-0.498388 0.0371925 0.908 
-0.552989 0.0455485 1.112 
-0.510943 0.0457533 1.117 
-0.469751 0.046081 1.125 
-0.425655 0.0461629 1.127 
-0.38275 0.0464087 1.133 
-0.338176 0.0464906 1.135 
-0.293958 0.0466545 1.139 
-0.248767 0.0466954 1.14 
-0.204209 0.0469002 1.145 
-0.158699 0.0469412 1.146 
-0.113109 0.0469821 1.147 
-0.0676152 0.047146 1.151 
-0.0217272 0.047146 1.151 
0.0242447 0.0473098 1.155 
0.0702922 0.0473098 1.155 
0.117045 0.0475966 1.162 
0.163371 0.0475966 1.162 
0.210239 0.0477194 1.165 
0.255363 0.0474737 1.159 
0.303392 0.0477604 1.166 
0.350778 0.0478833 1.169 
0.396364 0.0477604 1.166 
0.443989 0.0478833 1.169 
0.490595 0.0478833 1.169 
0.538119 0.0479652 1.171 
0.585304 0.0480062 1.172 
0.632569 0.0480471 1.173 
0.679334 0.0480471 1.173 
0.727337 0.048129 1.175 
0.771546 0.0479652 1.171 
0.766524 0.0449341 1.097 
0.769636 0.0426813 1.042 
0.764469 0.0402236 0.982 
0.762702 0.0381755 0.932 
0.762097 0.0363733 0.888 
0.75978 0.0346529 0.846 
0.752239 0.0328506 0.802 
0.758789 0.0317857 0.776 
-0.627819 0.0326528 0.754 
-0.550959 0.0320898 0.741 
-0.519306 0.0319599 0.738 
-0.495858 0.0323496 0.747 
-0.473564 0.0328693 0.759 
-0.447977 0.0332158 0.767 
-0.573335 0.048113 1.111 
-0.530471 0.048243 1.114 
-0.489985 0.0486327 1.123 
-0.446799 0.0488059 1.127 
-0.402937 0.0489358 1.13 
-0.358837 0.0490658 1.133 
-0.314497 0.0491957 1.136 
-0.270155 0.0493689 1.14 
-0.225297 0.0494988 1.143 
-0.180042 0.0495854 1.145 
-0.134745 0.0497154 1.148 
-0.0894421 0.0499752 1.154 
-0.0433592 0.0498886 1.152 
0.0025798 0.0501051 1.157 
0.048707 0.0501051 1.157 
0.0949161 0.0501484 1.158 
0.141449 0.0502783 1.161 
0.188544 0.0504949 1.166 
0.234224 0.0503216 1.162 
0.28055 0.0503216 1.162 
0.328846 0.0506248 1.169 
0.37513 0.0505815 1.168 
0.421696 0.0505815 1.168 
0.469464 0.0507114 1.171 
0.51615 0.0507114 1.171 
0.562835 0.0507114 1.171 
0.610561 0.050798 1.173 
0.657327 0.050798 1.173 
0.705292 0.0508846 1.175 
0.752137 0.0508846 1.175 
0.775862 0.0494122 1.141 
0.765203 0.0460343 1.063 
0.770356 0.0439123 1.014 
0.770003 0.0417037 0.963 
0.762226 0.0393219 0.908 
0.765012 0.0376763 0.87 
0.754657 0.0355543 0.821 
0.75478 0.0340819 0.787 
-11.6997 0.547404 11.991 
-0.613528 0.0345123 0.756 
-0.536332 0.0337819 0.74 
-0.508885 0.0339189 0.743 
-0.487004 0.0344667 0.755 
-0.466586 0.0351971 0.771 
-0.498388 0.0414513 0.908 
-0.558706 0.0508098 1.113 
-0.517106 0.0510837 1.119 
-0.475027 0.0513576 1.125 
-0.430941 0.0514489 1.127 
-0.388064 0.0517229 1.133 
-0.343197 0.0517685 1.134 
-0.299038 0.0519511 1.138 
-0.254337 0.0520881 1.141 
-0.209763 0.0523163 1.146 
-0.164074 0.0523163 1.146 
-0.118489 0.052362 1.147 
-0.0730772 0.0525902 1.152 
-0.0271494 0.0525902 1.152 
0.01886 0.0528185 1.157 
0.0649872 0.0528185 1.157 
0.111595 0.0530467 1.162 
0.157785 0.0530011 1.161 
0.204775 0.0531837 1.165 
0.249927 0.0529098 1.159 
0.297923 0.0532293 1.166 
0.34559 0.0534119 1.17 
0.39123 0.053275 1.167 
0.438506 0.0533663 1.169 
0.485527 0.0534119 1.17 
0.532627 0.0534576 1.171 
0.579807 0.0535032 1.172 
0.627601 0.0535946 1.174 
0.673832 0.0535489 1.173 
0.72244 0.0536859 1.176 
0.768016 0.0535946 1.174 
0.769708 0.0506272 1.109 
0.769886 0.0478881 1.049 
0.76528 0.0451491 0.989 
0.766467 0.0430035 0.942 
0.761346 0.0407209 0.892 
0.763853 0.0390318 0.855 
0.756876 0.0370232 0.811 
0.758069 0.0355623 0.779 
-0.63303 0.0362853 0.756 
-0.558663 0.0356133 0.742 
-0.527655 0.0355173 0.74 
-0.502192 0.0358053 0.746 
-0.481317 0.0364773 0.76 
-0.457545 0.0370052 0.771 
-0.484542 0.0434847 0.906 
-0.546636 0.053516 1.115 
-0.505336 0.053852 1.122 
-0.462657 0.054092 1.127 
-0.418467 0.0541879 1.129 
-0.37511 0.0544279 1.134 
-0.330191 0.0544759 1.135 
-0.285945 0.0546679 1.139 
-0.241169 0.0548119 1.142 
-0.196496 0.0550519 1.147 
-0.150899 0.0550999 1.148 
-0.105222 0.0551479 1.149 
-0.0595173 0.0552439 1.151 
-0.0136767 0.0554359 1.155 
0.0324268 0.0555318 1.157 
0.0784182 0.0554359 1.155 
0.12522 0.0557718 1.162 
0.172137 0.0559638 1.166 
0.218623 0.0559638 1.166 
0.2642 0.0557718 1.162 
0.312397 0.0561078 1.169 
0.359002 0.0561078 1.169 
0.405261 0.0560598 1.168 
0.452987 0.0562038 1.171 
0.499673 0.0562038 1.171 
0.546358 0.0562038 1.171 
0.59355 0.0562518 1.172 
0.641368 0.0563478 1.174 
0.688759 0.0563958 1.175 
0.736229 0.0564438 1.176 
0.778453 0.0561078 1.169 
0.764068 0.0517881 1.079 
0.770434 0.0494363 1.03 
0.768166 0.0467965 0.975 
0.758201 0.0439647 0.916 
0.768692 0.0425248 0.886 
0.764087 0.040413 0.842 
0.758815 0.0384451 0.801 
0.76212 0.0370532 0.772 
-0.622393 0.0380582 0.756 
-0.546483 0.0373535 0.742 
-0.516901 0.0373535 0.742 
-0.496513 0.0380582 0.756 
-0.475627 0.0388134 0.771 
-0.505789 0.0456095 0.906 
-0.568636 0.0559798 1.112 
-0.52666 0.0562315 1.117 
-0.48558 0.0566343 1.125 
-0.441121 0.0566846 1.126 
-0.398341 0.0569867 1.132 
-0.353834 0.0570874 1.134 
-0.309441 0.0572384 1.137 
-0.26504 0.0574397 1.141 
-0.22032 0.0576411 1.145 
-0.174824 0.0576914 1.146 
-0.129361 0.0577921 1.148 
-0.0840294 0.0580942 1.154 
-0.0380218 0.0580942 1.154 
0.00801345 0.0582956 1.158 
0.0542273 0.0583459 1.159 
0.100348 0.0582956 1.158 
0.146894 0.0584466 1.161 
0.194013 0.0586983 1.166 
0.239468 0.0584466 1.161 
0.286739 0.0586479 1.165 
0.334901 0.05895 1.171 
0.38126 0.0588996 1.17 
0.42754 0.0588493 1.169 
0.474957 0.05895 1.171 
0.521642 0.05895 1.171 
0.568813 0.0590003 1.172 
0.616588 0.059101 1.174 
0.662828 0.0590507 1.173 
0.711408 0.0592017 1.176 
0.758293 0.0592017 1.176 
0.777106 0.0571377 1.135 
0.767291 0.0533117 1.059 
0.768233 0.0505933 1.005 
0.768086 0.0480762 0.955 
0.763953 0.0455591 0.905 
0.769977 0.0438475 0.871 
0.763127 0.0415821 0.826 
0.758471 0.0396188 0.787 
-11.6435 0.631767 11.991 
-0.562144 0.0390936 0.742 
-0.532562 0.0390936 0.742 
-0.505691 0.0393043 0.746 
-0.489348 0.0404107 0.767 
-0.464152 0.0408849 0.776 
-0.594714 0.0585877 1.112 
-0.552361 0.0587984 1.116 
-0.509688 0.0590092 1.12 
-0.467527 0.0593253 1.126 
-0.424138 0.059536 1.13 
-0.380429 0.0597468 1.134 
-0.335514 0.0597995 1.135 
-0.291031 0.0599575 1.138 
-0.246309 0.0601156 1.141 
-0.202052 0.0604844 1.148 
-0.156283 0.0604844 1.148 
-0.110611 0.0605371 1.149 
-0.0649723 0.0606951 1.152 
-0.0190775 0.0608005 1.154 
0.0270234 0.0610113 1.158 
0.0731273 0.0609586 1.157 
0.120079 0.0613801 1.165 
0.166096 0.061222 1.162 
0.213154 0.0614328 1.166 
0.259417 0.0613801 1.165 
0.306389 0.0614854 1.167 
0.353822 0.0616435 1.17 
0.400125 0.0615908 1.169 
0.447113 0.0616435 1.17 
0.49418 0.0616962 1.171 
0.540865 0.0616962 1.171 
0.588053 0.0617489 1.172 
0.636403 0.0619069 1.175 
0.683248 0.0619069 1.175 
0.731956 0.062065 1.178 
0.776276 0.0618542 1.174 
0.767695 0.057692 1.095 
0.774302 0.0550577 1.045 
0.76521 0.051633 0.98 
0.762425 0.048946 0.929 
0.766761 0.0469439 0.891 
0.768968 0.0449945 0.854 
0.764463 0.0428343 0.813 
0.76355 0.041043 0.779 
-0.629372 0.0417142 0.758 
-0.548962 0.0408887 0.743 
-0.51934 0.0408887 0.743 
-0.500264 0.0417692 0.759 
-0.48115 0.0427598 0.777 
-0.505231 0.0498039 0.905 
-0.569658 0.0613056 1.114 
-0.527603 0.0615807 1.119 
-0.486012 0.0619659 1.126 
-0.441513 0.062021 1.127 
-0.398341 0.0622961 1.132 
-0.354146 0.0624612 1.135 
-0.309441 0.0625713 1.137 
-0.264808 0.0627364 1.14 
-0.22032 0.0630116 1.145 
-0.174977 0.0631216 1.147 
-0.129474 0.0632317 1.149 
-0.0840294 0.0635068 1.154 
-0.0380548 0.0635619 1.155 
0.00801345 0.063727 1.158 
0.0543209 0.0638921 1.161 
0.100434 0.063782 1.159 
0.1474 0.0641122 1.165 
0.194179 0.0642223 1.167 
0.240293 0.0641122 1.165 
0.286985 0.0641672 1.166 
0.334615 0.0643874 1.17 
0.381586 0.0644424 1.171 
0.42754 0.0643323 1.169 
0.474957 0.0644424 1.171 
0.521642 0.0644424 1.171 
0.568813 0.0644974 1.172 
0.617114 0.0646625 1.175 
0.663958 0.0646625 1.175 
0.712618 0.0648276 1.178 
0.759583 0.0648276 1.178 
0.777106 0.0624612 1.135 
0.76874 0.0583889 1.061 
0.77129 0.0555272 1.009 
0.767282 0.0525005 0.954 
0.763953 0.0498039 0.905 
0.769977 0.0479328 0.871 
0.769594 0.0458416 0.833 
0.762326 0.0435303 0.791 
-0.63448 0.0437213 0.762 
-0.545477 0.0426312 0.743 
-0.515855 0.0426312 0.743 
-0.501285 0.0439509 0.766 
-0.480579 0.0448689 0.782 
-0.49729 0.0519836 0.906 
-0.560714 0.0640902 1.117 
-0.517106 0.064205 1.119 
-0.475449 0.0646066 1.126 
-0.431705 0.0647787 1.129 
-0.387722 0.0649509 1.132 
-0.343499 0.065123 1.135 
-0.299038 0.0652951 1.138 
-0.254337 0.0654673 1.141 
-0.209946 0.0658115 1.147 
-0.164503 0.0659263 1.149 
-0.118695 0.0659263 1.149 
-0.0730772 0.0660984 1.152 
-0.0271965 0.0662132 1.154 
0.0188763 0.0664427 1.158 
0.0650995 0.0665001 1.159 
0.111883 0.0668443 1.165 
0.157785 0.0666148 1.161 
0.204951 0.0669017 1.166 
0.251221 0.0668443 1.165 
0.298434 0.0670165 1.168 
0.34559 0.0671312 1.17 
0.392236 0.0671312 1.17 
0.438881 0.0671312 1.17 
0.485942 0.0671886 1.171 
0.532627 0.0671886 1.171 
0.579807 0.067246 1.172 
0.628136 0.0674181 1.175 
0.674981 0.0674181 1.175 
0.725512 0.0677624 1.181 
0.770633 0.0675902 1.178 
0.771096 0.063746 1.111 
0.773555 0.0604755 1.054 
0.769922 0.0570902 0.995 
0.76484 0.0539345 0.94 
0.763053 0.0512951 0.894 
0.771 0.0495164 0.863 
0.769009 0.0472787 0.824 
0.764881 0.0450984 0.786 
-0.622262 0.0452695 0.758 
-0.541992 0.0443736 0.743 
-0.513749 0.0444931 0.745 
-0.50094 0.0460459 0.771 
-0.47813 0.0468223 0.784 
-0.603621 0.0665306 1.114 
-0.561718 0.0668292 1.119 
-0.517568 0.0668889 1.12 
-0.475449 0.0672473 1.126 
-0.432088 0.0674862 1.13 
-0.388064 0.0676653 1.133 
-0.343499 0.0677848 1.135 
-0.299038 0.0679639 1.138 
-0.254114 0.0680834 1.14 
-0.209946 0.0685014 1.147 
-0.164503 0.0686209 1.149 
-0.118695 0.0686209 1.149 
-0.0730772 0.0688001 1.152 
-0.0271965 0.0689195 1.154 
0.0188926 0.0692181 1.159 
0.0650995 0.0692181 1.159 
0.111883 0.0695764 1.165 
0.157785 0.0693375 1.161 
0.204951 0.0696362 1.166 
0.251221 0.0695764 1.165 
0.298434 0.0697556 1.168 
0.34559 0.0698751 1.17 
0.392571 0.0699348 1.171 
0.438881 0.0698751 1.17 
0.485942 0.0699348 1.171 
0.532627 0.0699348 1.171 
0.579807 0.0699945 1.172 
0.628671 0.0702334 1.176 
0.675555 0.0702334 1.176 
0.725512 0.070532 1.181 
0.771287 0.0704125 1.179 
0.77179 0.0664112 1.112 
0.774289 0.063007 1.055 
0.770696 0.0594834 0.996 
0.76484 0.0561389 0.94 
0.763053 0.0533917 0.894 
0.770107 0.0514806 0.862 
0.769942 0.0492709 0.825 
0.765854 0.0470014 0.787 
-0.548962 0.0461161 0.743 
-0.520039 0.0461782 0.744 
-0.507514 0.0477919 0.77 
-0.484866 0.0485988 0.783 
-0.50154 0.0562331 0.906 
-0.569591 0.0694535 1.119 
-0.525448 0.0695155 1.12 
-0.483371 0.0698879 1.126 
-0.439648 0.0700741 1.129 
-0.395686 0.0702603 1.132 
-0.351485 0.0704466 1.135 
-0.307044 0.0706327 1.138 
-0.262134 0.0707569 1.14 
-0.217635 0.0710672 1.145 
-0.172437 0.0712534 1.148 
-0.127 0.0714396 1.151 
-0.0811821 0.0715017 1.152 
-0.0353155 0.0716258 1.154 
0.0107292 0.0718741 1.158 
0.0570927 0.0721224 1.162 
0.10333 0.0720603 1.161 
0.150132 0.0723086 1.165 
0.196916 0.0724327 1.167 
0.243442 0.0724327 1.167 
0.289968 0.0724327 1.167 
0.337359 0.0726189 1.17 
0.384332 0.072681 1.171 
0.43065 0.0726189 1.17 
0.478111 0.072743 1.172 
0.524388 0.072681 1.171 
0.571561 0.072743 1.172 
0.619869 0.0729292 1.175 
0.667281 0.0729913 1.176 
0.715988 0.0731775 1.179 
0.764287 0.0733017 1.181 
0.776333 0.0701362 1.13 
0.776316 0.066288 1.068 
0.77059 0.0623778 1.005 
0.767906 0.0590882 0.952 
0.763535 0.0559848 0.902 
0.770247 0.0539366 0.869 
0.771548 0.0517022 0.833 
0.76708 0.0492815 0.794 
-0.536868 0.0481806 0.748 
-0.513826 0.0488248 0.758 
-0.497004 0.0501774 0.779 
-0.470134 0.0506283 0.786 
-0.579051 0.0719489 1.117 
-0.536911 0.072271 1.122 
-0.494373 0.072593 1.127 
-0.450239 0.0727218 1.129 
-0.406305 0.0729151 1.132 
-0.362132 0.0731083 1.135 
-0.31744 0.0732371 1.137 
-0.272828 0.0734304 1.14 
-0.227977 0.0736236 1.143 
-0.183366 0.0740101 1.149 
-0.137917 0.0742033 1.152 
-0.0919088 0.0741389 1.151 
-0.0461808 0.0743966 1.155 
-0.00013368 0.0745898 1.158 
0.0461924 0.0748475 1.162 
0.0924393 0.074783 1.161 
0.139443 0.0751695 1.167 
0.185969 0.0751695 1.167 
0.232893 0.0752983 1.169 
0.278781 0.0751051 1.166 
0.326383 0.0753628 1.17 
0.373348 0.0754272 1.171 
0.419674 0.0753628 1.17 
0.467117 0.0754916 1.172 
0.513404 0.0754272 1.171 
0.560567 0.0754916 1.172 
0.608847 0.0756848 1.175 
0.656808 0.0758136 1.177 
0.70433 0.0758781 1.178 
0.753846 0.0761357 1.182 
0.779963 0.0741389 1.151 
0.77419 0.0695012 1.079 
0.775552 0.0659585 1.024 
0.770934 0.062287 0.967 
0.762608 0.0586799 0.911 
0.768234 0.0564254 0.876 
0.769235 0.0540422 0.839 
0.768242 0.0517233 0.803 
-0.545434 0.0504021 0.755 
-0.515656 0.0511365 0.766 
-0.494617 0.0521378 0.781 
-0.616684 0.0743682 1.114 
-0.574839 0.074702 1.119 
-0.532123 0.074969 1.123 
-0.489087 0.075236 1.127 
-0.444944 0.0753695 1.129 
-0.400996 0.0755698 1.132 
-0.357123 0.0758368 1.136 
-0.312382 0.0759704 1.138 
-0.267716 0.0761706 1.141 
-0.222811 0.0763709 1.144 
-0.177976 0.0767047 1.149 
-0.132513 0.076905 1.152 
-0.0865854 0.076905 1.152 
-0.0407634 0.0771052 1.155 
0.00530231 0.0773723 1.159 
0.0517759 0.0777728 1.165 
0.0978848 0.0775058 1.161 
0.144792 0.0778396 1.166 
0.191442 0.0779063 1.167 
0.238376 0.0780398 1.169 
0.28425 0.0778396 1.166 
0.331871 0.0781066 1.17 
0.379163 0.0782401 1.172 
0.425525 0.0781734 1.171 
0.472614 0.0782401 1.172 
0.518896 0.0781734 1.171 
0.566064 0.0782401 1.172 
0.614881 0.0785072 1.176 
0.662328 0.0785739 1.177 
0.710458 0.0787074 1.179 
0.760032 0.0789745 1.183 
0.77922 0.0762374 1.142 
0.777807 0.0718981 1.077 
0.774259 0.0678259 1.016 
0.769054 0.0640207 0.959 
0.764356 0.0606161 0.908 
0.767934 0.058146 0.871 
0.769484 0.0557428 0.835 
0.769124 0.0534062 0.8 
-0.598552 0.0521727 0.755 
-0.518803 0.0530711 0.768 
-0.496448 0.0539694 0.781 
-0.616684 0.0769807 1.114 
-0.574839 0.0773262 1.119 
-0.532123 0.0776026 1.123 
-0.489087 0.077879 1.127 
-0.444944 0.0780172 1.129 
-0.400996 0.0782245 1.132 
-0.357123 0.078501 1.136 
-0.312382 0.0786392 1.138 
-0.267716 0.0788465 1.141 
-0.222811 0.0790538 1.144 
-0.178286 0.0795375 1.151 
-0.132743 0.0797448 1.154 
-0.0865854 0.0796066 1.152 
-0.0407634 0.0798139 1.155 
0.00530231 0.0800903 1.159 
0.0517759 0.0805049 1.165 
0.0979691 0.0802976 1.162 
0.144792 0.080574 1.166 
0.191606 0.0807123 1.168 
0.23858 0.0808505 1.17 
0.283275 0.0802976 1.162 
0.331871 0.0808505 1.17 
0.379163 0.0809887 1.172 
0.425525 0.0809196 1.171 
0.472614 0.0809887 1.172 
0.518896 0.0809196 1.171 
0.566547 0.0810578 1.173 
0.614881 0.0812651 1.176 
0.662891 0.0814033 1.178 
0.710458 0.0814724 1.179 
0.760032 0.0817488 1.183 
0.779903 0.0789847 1.143 
0.778529 0.074493 1.078 
0.774259 0.0702086 1.016 
0.769856 0.0663388 0.96 
0.764356 0.0627455 0.908 
0.767934 0.0601887 0.871 
0.769484 0.057701 0.835 
0.770086 0.0553515 0.801 
-0.618858 0.0548007 0.767 
-0.560169 0.0531574 0.744 
-0.522841 0.0547293 0.766 
-0.500658 0.0556581 0.779 
-0.627134 0.0795932 1.114 
-0.58429 0.0798076 1.117 
-0.542657 0.0802362 1.123 
-0.499659 0.080522 1.127 
-0.455535 0.0806649 1.129 
-0.411615 0.0808793 1.132 
-0.367779 0.0811651 1.136 
-0.322489 0.0811651 1.136 
-0.278419 0.0815223 1.141 
-0.233338 0.0816652 1.143 
-0.189083 0.0822368 1.151 
-0.14332 0.0823082 1.152 
-0.0973074 0.0822368 1.151 
-0.0515981 0.0825226 1.155 
-0.00556029 0.0826655 1.157 
0.0407422 0.0830227 1.162 
0.0870687 0.0830227 1.162 
0.133854 0.0833085 1.166 
0.18034 0.0833085 1.166 
0.227605 0.0835943 1.17 
0.273078 0.0832371 1.165 
0.320621 0.0835229 1.169 
0.368169 0.0837372 1.172 
0.41454 0.0836658 1.171 
0.46162 0.0837372 1.172 
0.507911 0.0836658 1.171 
0.555544 0.0838087 1.173 
0.603336 0.0839516 1.175 
0.651841 0.0841659 1.178 
0.699398 0.0842373 1.179 
0.748302 0.0844517 1.182 
0.786677 0.0835229 1.169 
0.77697 0.0778785 1.09 
0.776018 0.073663 1.031 
0.771946 0.0695905 0.974 
0.768324 0.0659466 0.923 
0.764997 0.06266 0.877 
0.768948 0.0602308 0.843 
0.770188 0.0578015 0.809 
0.779627 0.0561582 0.786 
-0.573152 0.054976 0.745 
-0.542923 0.0567471 0.769 
-0.516928 0.0572636 0.776 
-0.490374 0.0577802 0.783 
-0.611459 0.0822057 1.114 
-0.5701 0.0826485 1.12 
-0.527794 0.0830175 1.125 
-0.484659 0.0833126 1.129 
-0.440038 0.0833864 1.13 
-0.394987 0.0833864 1.13 
-0.351794 0.0838292 1.136 
-0.307044 0.0839768 1.138 
-0.262364 0.0841982 1.141 
-0.217825 0.0845671 1.146 
-0.172888 0.0849361 1.151 
-0.127331 0.0851575 1.154 
-0.0813231 0.0851575 1.154 
-0.0353461 0.0852313 1.155 
0.010757 0.085674 1.161 
0.0572401 0.0859692 1.165 
0.103686 0.0859692 1.165 
0.150261 0.086043 1.166 
0.197253 0.0862644 1.169 
0.243859 0.0862644 1.169 
0.288477 0.085674 1.161 
0.337359 0.0863382 1.17 
0.384661 0.0864858 1.172 
0.431018 0.086412 1.171 
0.478519 0.0865595 1.173 
0.524836 0.0864858 1.172 
0.572537 0.0866333 1.174 
0.620397 0.0867809 1.176 
0.668416 0.0869285 1.178 
0.717203 0.0871499 1.181 
0.764934 0.0872237 1.182 
0.78389 0.0841982 1.141 
0.782858 0.0794754 1.077 
0.77289 0.0743836 1.008 
0.770326 0.0704726 0.955 
0.763535 0.0665616 0.902 
0.76936 0.0640526 0.868 
0.769695 0.0613222 0.831 
0.769978 0.0588133 0.797 
-0.611862 0.0582459 0.765 
-0.566164 0.0567232 0.745 
-0.53571 0.0585505 0.769 
-0.511619 0.0593119 0.779 
-0.483646 0.0596926 0.784 
-0.609393 0.0848944 1.115 
-0.567473 0.0852751 1.12 
-0.525155 0.0856558 1.125 
-0.482012 0.0859603 1.129 
-0.437388 0.0860365 1.13 
-0.392337 0.0860365 1.13 
-0.34913 0.0864933 1.136 
-0.304375 0.0866456 1.138 
-0.259688 0.086874 1.141 
-0.215138 0.0872547 1.146 
-0.170188 0.0876354 1.151 
-0.124408 0.0877115 1.152 
-0.0786849 0.0879399 1.155 
-0.0326374 0.0879399 1.155 
0.0134913 0.0884729 1.162 
0.0599723 0.0887013 1.165 
0.106418 0.0887013 1.165 
0.153127 0.0888536 1.167 
0.199995 0.0890059 1.169 
0.24639 0.0889297 1.168 
0.2912 0.0883968 1.161 
0.340393 0.0891581 1.171 
0.387409 0.0892343 1.172 
0.433764 0.0891581 1.171 
0.48127 0.0893104 1.173 
0.527585 0.0892343 1.172 
0.57578 0.0894627 1.175 
0.623685 0.089615 1.177 
0.671179 0.0896911 1.178 
0.719972 0.0899195 1.181 
0.767056 0.0899195 1.181 
0.785876 0.0867979 1.14 
0.785384 0.0820011 1.077 
0.772946 0.0765192 1.005 
0.771756 0.0726361 0.954 
0.763104 0.0684485 0.899 
0.769618 0.0659359 0.866 
0.768858 0.0630427 0.828 
0.76991 0.0605301 0.795 
-0.607478 0.0599615 0.764 
-0.580832 0.0631009 0.804 
-0.526254 0.0605109 0.771 
-0.500658 0.0611388 0.779 
-0.638729 0.0875878 1.116 
-0.594236 0.0875878 1.116 
-0.553192 0.0881371 1.123 
-0.509778 0.0883726 1.126 
-0.466125 0.088608 1.129 
-0.422234 0.0888435 1.132 
-0.377769 0.0890005 1.134 
-0.333146 0.0891574 1.136 
-0.289123 0.0895498 1.141 
-0.243847 0.0896283 1.142 
-0.199533 0.0901777 1.149 
-0.153993 0.0903347 1.151 
-0.107823 0.0900992 1.148 
-0.0625409 0.0908056 1.157 
-0.0163854 0.0906486 1.155 
0.0298418 0.091198 1.162 
0.0761684 0.091198 1.162 
0.122917 0.0915119 1.166 
0.169693 0.0916689 1.168 
0.216444 0.0917474 1.169 
0.26215 0.0914335 1.165 
0.308861 0.0915119 1.166 
0.357175 0.0919828 1.172 
0.4039 0.0919828 1.172 
0.450626 0.0919828 1.172 
0.497775 0.0920613 1.173 
0.545004 0.0921398 1.174 
0.592817 0.0922968 1.176 
0.641334 0.0925322 1.179 
0.687755 0.0924537 1.178 
0.737214 0.0927677 1.182 
0.780356 0.0922968 1.176 
0.782221 0.0872738 1.112 
0.783442 0.0827218 1.054 
0.776907 0.0778558 0.992 
0.776127 0.0740101 0.943 
0.764536 0.0695365 0.886 
0.768262 0.0667896 0.851 
0.771083 0.0641996 0.818 
0.773237 0.0617666 0.787 
-0.607057 0.0620765 0.768 
-0.555632 0.0636123 0.787 
-0.519593 0.0630465 0.78 
-0.489748 0.0632081 0.782 
-0.627697 0.0901241 1.115 
-0.585336 0.0904474 1.119 
-0.543624 0.0909324 1.125 
-0.500546 0.0912557 1.129 
-0.455535 0.0912557 1.129 
-0.411615 0.0914982 1.132 
-0.368103 0.0919024 1.137 
-0.322773 0.0919024 1.137 
-0.278907 0.0923873 1.143 
-0.233542 0.0924682 1.144 
-0.189083 0.093034 1.151 
-0.14332 0.0931148 1.152 
-0.0973074 0.093034 1.151 
-0.0516875 0.0935189 1.157 
-0.0055651 0.0935998 1.158 
0.0407422 0.0939231 1.162 
0.0870687 0.0939231 1.162 
0.133969 0.0943272 1.167 
0.18065 0.0944081 1.168 
0.227605 0.0945697 1.17 
0.272375 0.0939231 1.162 
0.320621 0.0944889 1.169 
0.368169 0.0947314 1.172 
0.41454 0.0946505 1.171 
0.462014 0.0948122 1.173 
0.508345 0.0947314 1.172 
0.556491 0.0949739 1.175 
0.603849 0.0950547 1.176 
0.653501 0.0954588 1.181 
0.699398 0.0952972 1.179 
0.748302 0.0955397 1.182 
0.789369 0.0948122 1.173 
0.78196 0.0886692 1.097 
0.78204 0.0839811 1.039 
0.775117 0.0790506 0.978 
0.774151 0.0751708 0.93 
0.76443 0.0706444 0.874 
0.766352 0.0677346 0.838 
0.770176 0.0652289 0.807 
0.782465 0.0636123 0.787 
-0.583613 0.0627132 0.754 
-0.533058 0.0642935 0.773 
-0.507438 0.0649589 0.781 
-0.659075 0.092739 1.115 
-0.615174 0.0928222 1.116 
-0.572215 0.0930717 1.119 
-0.530432 0.0935707 1.125 
-0.487307 0.0939034 1.129 
-0.442296 0.0939034 1.129 
-0.398693 0.0942361 1.133 
-0.354771 0.0945688 1.137 
-0.309713 0.094652 1.138 
-0.265505 0.0950679 1.143 
-0.220513 0.0953174 1.146 
-0.175587 0.0957333 1.151 
-0.130037 0.0959828 1.154 
-0.0841022 0.096066 1.155 
-0.0381207 0.0962323 1.157 
0.00804113 0.0966482 1.162 
0.054508 0.0968977 1.165 
0.101041 0.0969809 1.166 
0.147653 0.097064 1.167 
0.194678 0.0973136 1.17 
0.24153 0.0973967 1.171 
0.285016 0.0963155 1.158 
0.334901 0.0973967 1.171 
0.381912 0.0974799 1.172 
0.428637 0.0974799 1.172 
0.475768 0.0975631 1.173 
0.522088 0.0974799 1.172 
0.570754 0.0978126 1.176 
0.618164 0.0978958 1.177 
0.666219 0.0980621 1.179 
0.715038 0.0983116 1.182 
0.762807 0.0983948 1.183 
0.797646 0.0968977 1.165 
0.783231 0.0899111 1.081 
0.781992 0.085087 1.023 
0.776933 0.0803461 0.966 
0.768614 0.075522 0.908 
0.770247 0.0722782 0.869 
0.767843 0.0689512 0.829 
0.772876 0.0665392 0.8 
-0.736024 0.0751713 0.879 
-0.568893 0.0636263 0.744 
-0.544321 0.067047 0.784 
-0.511101 0.0667905 0.781 
-0.676772 0.0952683 1.114 
-0.634062 0.0955249 1.117 
-0.590585 0.0956959 1.119 
-0.547924 0.096038 1.123 
-0.504945 0.0963801 1.127 
-0.461238 0.0966366 1.13 
-0.417292 0.0968932 1.133 
-0.373107 0.0971498 1.136 
-0.328106 0.0972353 1.137 
-0.28402 0.0976629 1.142 
-0.238908 0.0978339 1.144 
-0.194144 0.0982615 1.149 
-0.148723 0.0985181 1.152 
-0.102528 0.0982615 1.149 
-0.0571142 0.0989457 1.157 
-0.010987 0.0989457 1.157 
0.035292 0.0993733 1.162 
0.0818293 0.0996298 1.165 
0.128496 0.0998009 1.167 
0.175171 0.0998864 1.168 
0.222117 0.100057 1.17 
0.266925 0.0993733 1.162 
0.314599 0.0998009 1.167 
0.362672 0.100228 1.172 
0.409397 0.100228 1.172 
0.456512 0.100314 1.173 
0.503706 0.100399 1.174 
0.55098 0.100485 1.175 
0.598842 0.100656 1.177 
0.647961 0.100998 1.181 
0.695045 0.100998 1.181 
0.743386 0.101169 1.183 
0.785872 0.100571 1.176 
0.784604 0.0947552 1.108 
0.785394 0.0897951 1.05 
0.780772 0.0847495 0.991 
0.78055 0.0806446 0.943 
0.767824 0.0756845 0.885 
0.770439 0.0726058 0.849 
0.773025 0.0697836 0.816 
0.776928 0.0673036 0.787 
-0.618042 0.0680949 0.775 
-0.592852 0.0725759 0.826 
-0.524407 0.0684463 0.779 
-0.494617 0.068622 0.781 
-0.654432 0.0980566 1.116 
-0.610486 0.0981445 1.117 
-0.567473 0.0984081 1.12 
-0.525155 0.0988474 1.125 
-0.482439 0.0992867 1.13 
-0.437388 0.0992867 1.13 
-0.393031 0.0994624 1.132 
-0.349438 0.0999018 1.137 
-0.304375 0.0999896 1.138 
-0.260144 0.100429 1.143 
-0.215513 0.100868 1.148 
-0.170188 0.101132 1.151 
-0.124408 0.10122 1.152 
-0.0786849 0.101483 1.155 
-0.0327222 0.101747 1.158 
0.0134913 0.102098 1.162 
0.0599723 0.102362 1.165 
0.10651 0.10245 1.166 
0.153389 0.102713 1.169 
0.200166 0.102801 1.17 
0.246812 0.102801 1.17 
0.290196 0.101659 1.157 
0.340684 0.102977 1.172 
0.387409 0.102977 1.172 
0.434134 0.102977 1.172 
0.48209 0.103241 1.175 
0.528485 0.103153 1.174 
0.57725 0.103504 1.178 
0.624214 0.103504 1.178 
0.671749 0.103592 1.179 
0.720582 0.103856 1.182 
0.769654 0.104119 1.185 
0.800353 0.10201 1.161 
0.786842 0.0948056 1.079 
0.785252 0.0897095 1.021 
0.779846 0.0847012 0.964 
0.771593 0.0798687 0.909 
0.773173 0.076442 0.87 
0.767001 0.0725759 0.826 
0.772816 0.0701157 0.798 
-0.736897 0.0798354 0.885 
-0.60569 0.0751445 0.833 
-0.528061 0.0702732 0.779 
-0.497642 0.0703634 0.78 
-0.662877 0.100764 1.117 
-0.619452 0.100944 1.119 
-0.575353 0.101035 1.12 
-0.53307 0.101486 1.125 
-0.490389 0.101937 1.13 
-0.445338 0.101937 1.13 
-0.401704 0.102298 1.134 
-0.357437 0.102568 1.137 
-0.312382 0.102658 1.138 
-0.268185 0.103109 1.143 
-0.2232 0.10338 1.146 
-0.178286 0.103831 1.151 
-0.132858 0.104192 1.155 
-0.0868109 0.104192 1.155 
-0.0408693 0.104463 1.158 
0.00531146 0.104733 1.161 
0.0517759 0.105094 1.165 
0.0983906 0.105274 1.167 
0.145165 0.105455 1.169 
0.191935 0.105545 1.17 
0.238784 0.105635 1.171 
0.281569 0.104192 1.155 
0.332155 0.105635 1.171 
0.379163 0.105726 1.172 
0.426252 0.105816 1.173 
0.473824 0.105996 1.175 
0.520225 0.105906 1.174 
0.568962 0.106267 1.178 
0.616449 0.106357 1.179 
0.664579 0.106537 1.181 
0.712266 0.106628 1.182 
0.761317 0.106898 1.185 
0.800373 0.105816 1.173 
0.784307 0.0979675 1.086 
0.784927 0.0929158 1.03 
0.781083 0.0878641 0.974 
0.777824 0.0833536 0.924 
0.770579 0.0788431 0.874 
0.767641 0.0751445 0.833 
0.772008 0.0724382 0.803 
-0.743123 0.0819109 0.885 
-0.605938 0.0766353 0.828 
-0.532609 0.0724703 0.783 
-0.701004 0.102828 1.111 
-0.660257 0.103384 1.117 
-0.616827 0.103569 1.119 
-0.572726 0.103661 1.12 
-0.530432 0.104124 1.125 
-0.487739 0.104587 1.13 
-0.443471 0.104772 1.132 
-0.399045 0.104957 1.134 
-0.355083 0.105327 1.138 
-0.309713 0.105327 1.138 
-0.265505 0.10579 1.143 
-0.220705 0.10616 1.147 
-0.175587 0.10653 1.151 
-0.130037 0.106808 1.154 
-0.0841022 0.106901 1.155 
-0.0381866 0.107271 1.159 
0.00803421 0.107456 1.161 
0.054508 0.107826 1.165 
0.101127 0.108011 1.167 
0.147906 0.108196 1.169 
0.194678 0.108289 1.17 
0.24153 0.108382 1.171 
0.284031 0.106808 1.154 
0.334901 0.108382 1.171 
0.381912 0.108474 1.172 
0.429003 0.108567 1.173 
0.476579 0.108752 1.175 
0.523424 0.108752 1.175 
0.571725 0.109029 1.178 
0.619214 0.109122 1.179 
0.667349 0.109307 1.181 
0.715038 0.1094 1.182 
0.764741 0.10977 1.186 
0.803124 0.108567 1.173 
0.786129 0.100422 1.085 
0.786579 0.0952388 1.029 
0.783367 0.0901483 0.974 
0.776615 0.0851503 0.92 
0.771745 0.0808002 0.873 
0.76867 0.0770055 0.832 
0.771964 0.0741363 0.801 
-0.745116 0.0835119 0.88 
-0.718101 0.0844609 0.89 
-0.5756 0.0776281 0.818 
-0.701004 0.105434 1.111 
-0.660257 0.106003 1.117 
-0.616827 0.106193 1.119 
-0.572726 0.106288 1.12 
-0.530432 0.106762 1.125 
-0.487739 0.107237 1.13 
-0.443471 0.107427 1.132 
-0.399397 0.107711 1.135 
-0.355083 0.107996 1.138 
-0.309713 0.107996 1.138 
-0.265505 0.108471 1.143 
-0.220705 0.10885 1.147 
-0.175587 0.10923 1.151 
-0.130037 0.109514 1.154 
-0.0841022 0.109609 1.155 
-0.0381866 0.109989 1.159 
0.00803421 0.110179 1.161 
0.054508 0.110558 1.165 
0.101214 0.110843 1.168 
0.147906 0.110938 1.169 
0.194678 0.111033 1.17 
0.24153 0.111128 1.171 
0.284277 0.109609 1.155 
0.335187 0.111223 1.172 
0.382238 0.111318 1.173 
0.429003 0.111318 1.173 
0.476579 0.111507 1.175 
0.523424 0.111507 1.175 
0.571725 0.111792 1.178 
0.619214 0.111887 1.179 
0.667914 0.112172 1.182 
0.715038 0.112172 1.182 
0.764741 0.112551 1.186 
0.803808 0.111412 1.174 
0.786853 0.103061 1.086 
0.788107 0.0978417 1.031 
0.783367 0.0924325 0.974 
0.778303 0.0874977 0.922 
0.772629 0.0829425 0.874 
0.76867 0.0789567 0.832 
0.771964 0.0760148 0.801 
-0.747656 0.0858674 0.883 
-0.719714 0.0867426 0.892 
-0.569845 0.0795464 0.818 
-0.693812 0.108136 1.112 
-0.653567 0.108817 1.119 
-0.609499 0.108914 1.12 
-0.565855 0.109109 1.122 
-0.522517 0.109401 1.125 
-0.479364 0.10979 1.129 
-0.435892 0.110179 1.133 
-0.391066 0.110276 1.134 
-0.347076 0.110665 1.138 
-0.301972 0.110762 1.139 
-0.257688 0.111248 1.144 
-0.213006 0.111735 1.149 
-0.167489 0.111929 1.151 
-0.121707 0.112026 1.152 
-0.0759762 0.112318 1.155 
-0.0300842 0.112901 1.161 
0.0162164 0.112999 1.162 
0.0627582 0.113388 1.166 
0.109338 0.113485 1.167 
0.156131 0.113679 1.169 
0.20291 0.113777 1.17 
0.249769 0.113874 1.171 
0.293163 0.11261 1.158 
0.343432 0.113971 1.172 
0.390823 0.114166 1.174 
0.437628 0.114166 1.174 
0.485259 0.11436 1.176 
0.531691 0.114263 1.175 
0.580013 0.114555 1.178 
0.628574 0.114846 1.181 
0.675658 0.114846 1.181 
0.723966 0.115041 1.183 
0.774389 0.115527 1.188 
0.806534 0.113388 1.166 
0.789373 0.104927 1.079 
0.789961 0.0995789 1.024 
0.786975 0.0943277 0.97 
0.775427 0.0885902 0.911 
0.775213 0.0846032 0.87 
0.768938 0.0803244 0.826 
0.770804 0.0772125 0.794 
-0.746482 0.0885357 0.889 
-0.573998 0.0756885 0.76 
-0.576303 0.0815644 0.819 
-0.719242 0.110645 1.111 
-0.677987 0.111143 1.116 
-0.635765 0.111541 1.12 
-0.590585 0.111441 1.119 
-0.5489 0.112039 1.125 
-0.504945 0.112238 1.127 
-0.46083 0.112437 1.129 
-0.417661 0.112935 1.134 
-0.373436 0.113234 1.137 
-0.328394 0.113334 1.138 
-0.28402 0.113732 1.142 
-0.239326 0.11413 1.146 
-0.194144 0.114429 1.149 
-0.148981 0.114927 1.154 
-0.102795 0.114728 1.152 
-0.0571636 0.115325 1.158 
-0.011006 0.115425 1.159 
0.035292 0.115724 1.162 
0.0821102 0.116421 1.169 
0.128716 0.116421 1.169 
0.175321 0.116421 1.169 
0.222117 0.116521 1.17 
0.266925 0.115724 1.162 
0.314869 0.116321 1.168 
0.362982 0.116819 1.173 
0.410445 0.117018 1.175 
0.457679 0.117118 1.176 
0.504564 0.117118 1.176 
0.551918 0.117218 1.177 
0.59986 0.117417 1.179 
0.647961 0.117616 1.181 
0.695634 0.117716 1.182 
0.744643 0.118014 1.185 
0.789882 0.117716 1.182 
0.792394 0.111441 1.119 
0.789134 0.105068 1.055 
0.78865 0.0996898 1.001 
0.787172 0.0947103 0.951 
0.774765 0.088934 0.893 
0.774976 0.08505 0.854 
0.773972 0.0813652 0.817 
0.774954 0.0781783 0.785 
-0.733534 0.0908244 0.891 
-0.570716 0.0784902 0.77 
-0.572462 0.0834851 0.819 
-0.716637 0.11325 1.111 
-0.675975 0.113862 1.117 
-0.633138 0.114168 1.12 
-0.587961 0.114066 1.119 
-0.546262 0.114677 1.125 
-0.503193 0.115085 1.129 
-0.458182 0.115085 1.129 
-0.415001 0.115595 1.134 
-0.370769 0.115901 1.137 
-0.325726 0.116002 1.138 
-0.281341 0.11641 1.142 
-0.236845 0.11692 1.147 
-0.191783 0.117328 1.151 
-0.146275 0.117633 1.154 
-0.100267 0.117633 1.154 
-0.0544949 0.118143 1.159 
-0.00830226 0.118347 1.161 
0.0380171 0.118449 1.162 
0.0848517 0.119162 1.169 
0.131345 0.119061 1.168 
0.178063 0.119162 1.169 
0.224861 0.119264 1.17 
0.269418 0.118347 1.161 
0.318152 0.119264 1.17 
0.365733 0.11957 1.173 
0.413201 0.119774 1.175 
0.460829 0.119978 1.177 
0.507322 0.119876 1.176 
0.555149 0.12008 1.178 
0.602625 0.120182 1.179 
0.650731 0.120386 1.181 
0.698997 0.12059 1.183 
0.747422 0.120793 1.185 
0.791983 0.120386 1.181 
0.793597 0.113862 1.117 
0.790858 0.10744 1.054 
0.789417 0.101833 0.999 
0.786912 0.0966347 0.948 
0.77599 0.0909263 0.892 
0.775159 0.0868489 0.852 
0.774938 0.0831793 0.816 
0.775805 0.0799173 0.784 
-0.727266 0.092914 0.891 
-0.577045 0.0819645 0.786 
-0.567926 0.0853015 0.818 
-0.716637 0.115856 1.111 
-0.677185 0.11669 1.119 
-0.633138 0.116794 1.12 
-0.587961 0.11669 1.119 
-0.546262 0.117316 1.125 
-0.503193 0.117733 1.129 
-0.458182 0.117733 1.129 
-0.415001 0.118254 1.134 
-0.370769 0.118567 1.137 
-0.325726 0.118671 1.138 
-0.281341 0.119088 1.142 
-0.236845 0.11961 1.147 
-0.191783 0.120027 1.151 
-0.146275 0.12034 1.154 
-0.100267 0.12034 1.154 
-0.0544949 0.120861 1.159 
-0.00830226 0.12107 1.161 
0.0381153 0.121487 1.165 
0.0848517 0.121904 1.169 
0.131457 0.121904 1.169 
0.178215 0.122008 1.17 
0.224861 0.122008 1.17 
0.269418 0.12107 1.161 
0.318424 0.122113 1.171 
0.365733 0.122321 1.173 
0.413553 0.122634 1.176 
0.46122 0.122842 1.178 
0.507322 0.122634 1.176 
0.555149 0.122842 1.178 
0.602625 0.122947 1.179 
0.650731 0.123155 1.181 
0.698997 0.123364 1.183 
0.748053 0.123677 1.186 
0.792654 0.12326 1.182 
0.795728 0.116794 1.12 
0.791608 0.110016 1.055 
0.790998 0.104385 1.001 
0.787742 0.0989622 0.949 
0.777729 0.0932268 0.894 
0.776069 0.0889513 0.853 
0.774938 0.0850929 0.816 
0.775805 0.0817559 0.784 
-0.728898 0.0952168 0.893 
-0.570291 0.0817819 0.767 
-0.573489 0.0869 0.815 
-0.725758 0.118674 1.113 
-0.685058 0.119314 1.119 
-0.642163 0.119634 1.122 
-0.594769 0.119101 1.117 
-0.554177 0.119954 1.125 
-0.510231 0.120167 1.127 
-0.4653 0.120167 1.127 
-0.422606 0.120807 1.133 
-0.378436 0.121127 1.136 
-0.333732 0.12134 1.138 
-0.289376 0.121767 1.142 
-0.244914 0.1223 1.147 
-0.199533 0.122513 1.149 
-0.154394 0.123046 1.154 
-0.108386 0.123046 1.154 
-0.062595 0.123473 1.158 
-0.0164847 0.123899 1.162 
0.0299189 0.124219 1.165 
0.0765617 0.124539 1.168 
0.123127 0.124539 1.168 
0.169984 0.124752 1.17 
0.216814 0.124859 1.171 
0.2626 0.124432 1.167 
0.309655 0.124645 1.169 
0.35748 0.125072 1.173 
0.405279 0.125392 1.176 
0.452548 0.125498 1.177 
0.499048 0.125392 1.176 
0.546861 0.125605 1.178 
0.59433 0.125712 1.179 
0.642422 0.125925 1.181 
0.690674 0.126138 1.183 
0.739085 0.126351 1.185 
0.786328 0.126351 1.185 
0.801917 0.121553 1.14 
0.795335 0.11409 1.07 
0.794136 0.108118 1.014 
0.786826 0.101934 0.956 
0.780932 0.0964963 0.905 
0.778193 0.0919114 0.862 
0.772025 0.0873265 0.819 
0.771272 0.0837012 0.785 
-0.732266 0.097202 0.892 
-0.572969 0.0829268 0.761 
-0.57329 0.0876126 0.804 
-0.739472 0.121394 1.114 
-0.695683 0.121503 1.115 
-0.655319 0.122265 1.122 
-0.609499 0.122047 1.12 
-0.567368 0.122592 1.125 
-0.522981 0.122701 1.126 
-0.479788 0.123137 1.13 
-0.435892 0.123464 1.133 
-0.391411 0.123682 1.135 
-0.347076 0.124009 1.138 
-0.302237 0.124227 1.14 
-0.257688 0.124663 1.144 
-0.212821 0.125099 1.148 
-0.167489 0.125425 1.151 
-0.121918 0.125752 1.154 
-0.0761078 0.126079 1.157 
-0.0300842 0.126515 1.161 
0.0162164 0.126624 1.162 
0.0627582 0.12706 1.166 
0.109432 0.127278 1.168 
0.156264 0.127496 1.17 
0.203083 0.127605 1.171 
0.249769 0.127605 1.171 
0.295441 0.127169 1.167 
0.343725 0.127823 1.173 
0.391489 0.12815 1.176 
0.438747 0.128259 1.177 
0.485259 0.12815 1.176 
0.532596 0.128259 1.177 
0.58149 0.128695 1.181 
0.628574 0.128695 1.181 
0.67623 0.128804 1.182 
0.72519 0.12913 1.185 
0.773085 0.129239 1.186 
0.808609 0.127387 1.169 
0.796689 0.118669 1.089 
0.793047 0.112022 1.028 
0.789409 0.106029 0.973 
0.780534 0.0999263 0.917 
0.776105 0.0949136 0.871 
0.775455 0.0907727 0.833 
0.770804 0.0865229 0.794 
-0.739395 0.0988487 0.888 
-0.722226 0.101409 0.911 
-0.570788 0.0873831 0.785 
-0.756503 0.124229 1.116 
-0.709459 0.123783 1.112 
-0.671107 0.124897 1.122 
-0.626375 0.124897 1.122 
-0.581643 0.124897 1.122 
-0.539304 0.125453 1.127 
-0.495689 0.125787 1.13 
-0.450638 0.125787 1.13 
-0.407023 0.126232 1.134 
-0.36277 0.126566 1.137 
-0.317998 0.126789 1.139 
-0.273546 0.127234 1.143 
-0.229174 0.127902 1.149 
-0.183366 0.127902 1.149 
-0.138156 0.128459 1.154 
-0.0922282 0.12857 1.155 
-0.0463407 0.129015 1.159 
-0.000134142 0.129349 1.162 
0.0463514 0.129795 1.166 
0.0930763 0.130128 1.169 
0.139682 0.130128 1.169 
0.186447 0.13024 1.17 
0.233292 0.130351 1.171 
0.277825 0.129349 1.162 
0.326941 0.130462 1.172 
0.374623 0.130796 1.175 
0.422185 0.131019 1.177 
0.469508 0.13113 1.178 
0.516034 0.131019 1.177 
0.564872 0.131464 1.181 
0.611956 0.131464 1.181 
0.65904 0.131464 1.181 
0.709114 0.132021 1.186 
0.755759 0.13191 1.185 
0.798259 0.13113 1.178 
0.799303 0.124006 1.114 
0.796001 0.116993 1.051 
0.794054 0.110871 0.996 
0.78521 0.104414 0.938 
0.780511 0.0990713 0.89 
0.77932 0.0946186 0.85 
0.774939 0.090166 0.81 
-0.746689 0.0996809 0.877 
-0.73039 0.102295 0.9 
-0.570148 0.0866099 0.762 
-0.573061 0.0919519 0.809 
-0.734247 0.126619 1.114 
-0.691692 0.12696 1.117 
-0.648898 0.127301 1.12 
-0.603706 0.127187 1.119 
-0.562092 0.127869 1.125 
-0.51816 0.128096 1.127 
-0.474488 0.128437 1.13 
-0.430578 0.128778 1.133 
-0.386088 0.129006 1.135 
-0.342039 0.12946 1.139 
-0.297411 0.129801 1.142 
-0.252764 0.130256 1.146 
-0.207617 0.130597 1.149 
-0.162513 0.131165 1.154 
-0.116505 0.131165 1.154 
-0.070681 0.131506 1.157 
-0.02466 0.132074 1.162 
0.0217225 0.132415 1.165 
0.0682857 0.132643 1.167 
0.11491 0.132756 1.168 
0.16189 0.133097 1.171 
0.208576 0.133097 1.171 
0.255261 0.133097 1.171 
0.301946 0.133097 1.171 
0.349227 0.133325 1.173 
0.397005 0.133666 1.176 
0.445022 0.134007 1.179 
0.491192 0.133779 1.177 
0.539031 0.134007 1.179 
0.587029 0.134234 1.181 
0.634113 0.134234 1.181 
0.682351 0.134461 1.183 
0.730748 0.134689 1.185 
0.778648 0.134802 1.186 
0.807128 0.131733 1.159 
0.799588 0.123436 1.086 
0.796316 0.116616 1.026 
0.789076 0.10991 0.967 
0.782267 0.103886 0.914 
0.778398 0.0987716 0.869 
0.776555 0.0943388 0.83 
0.771602 0.089906 0.791 
-0.736897 0.102666 0.885 
-0.72064 0.10545 0.909 
-0.570788 0.091065 0.785 
-0.75844 0.129347 1.115 
-0.712707 0.129115 1.113 
-0.672537 0.129927 1.12 
-0.627885 0.129927 1.12 
-0.583233 0.129927 1.12 
-0.541947 0.130739 1.127 
-0.497898 0.130971 1.129 
-0.45409 0.131319 1.132 
-0.409682 0.131551 1.134 
-0.365436 0.131899 1.137 
-0.32067 0.132131 1.139 
-0.27671 0.132827 1.145 
-0.231868 0.133291 1.149 
-0.18606 0.133291 1.149 
-0.140984 0.133987 1.155 
-0.0948547 0.133871 1.154 
-0.0490164 0.134335 1.158 
-0.00286661 0.135147 1.165 
0.0436543 0.135379 1.167 
0.0902575 0.135495 1.168 
0.137058 0.135727 1.17 
0.18386 0.135843 1.171 
0.230545 0.135843 1.171 
0.27652 0.135495 1.168 
0.324193 0.135959 1.172 
0.371867 0.136308 1.175 
0.419781 0.136656 1.178 
0.467142 0.136772 1.179 
0.51371 0.136656 1.178 
0.562102 0.137004 1.181 
0.609702 0.13712 1.182 
0.65627 0.137004 1.181 
0.706332 0.137584 1.186 
0.75298 0.137468 1.185 
0.797522 0.137004 1.181 
0.803127 0.130275 1.123 
0.796557 0.122387 1.055 
0.795693 0.116122 1.001 
0.788854 0.109626 0.945 
0.784546 0.104058 0.897 
0.779155 0.0988375 0.852 
0.777811 0.0945452 0.815 
0.780476 0.091065 0.785 
-0.729246 0.106043 0.896 
-0.715971 0.109475 0.925 
-0.575186 0.0961015 0.812 
-0.734247 0.131844 1.114 
-0.691692 0.132199 1.117 
-0.648898 0.132554 1.12 
-0.603706 0.132435 1.119 
-0.562591 0.133264 1.126 
-0.51816 0.133382 1.127 
-0.475748 0.134092 1.133 
-0.430958 0.134211 1.134 
-0.386088 0.134329 1.135 
-0.342039 0.134802 1.139 
-0.297411 0.135157 1.142 
-0.252764 0.135631 1.146 
-0.207617 0.135986 1.149 
-0.162654 0.136696 1.155 
-0.116606 0.136696 1.155 
-0.0707421 0.137051 1.158 
-0.02466 0.137525 1.162 
0.0217225 0.13788 1.165 
0.0682857 0.138116 1.167 
0.114812 0.138116 1.167 
