# .PCD v.7 - Point Cloud Data file format
VERSION .7
FIELDS x y z
SIZE 4 4 4
TYPE F F F
COUNT 1 1 1
WIDTH 1844
HEIGHT 1
VIEWPOINT 0 0 0 1 0 0 0
POINTS 1844
DATA ascii
1.06046 -0.741277 1.342 
1.1289 -0.75122 1.36 
1.19704 -0.760058 1.376 
1.27283 -0.772762 1.399 
1.3438 -0.7816 1.415 
1.41604 -0.790438 1.431 
-0.725138 -0.476319 0.866 
-0.693802 -0.47852 0.87 
-0.662905 -0.48127 0.875 
-0.633763 -0.48567 0.883 
-0.602627 -0.48897 0.889 
-0.574202 -0.49502 0.9 
-0.543106 -0.49942 0.908 
-0.509697 -0.502171 0.913 
-0.480037 -0.509321 0.926 
-0.446469 -0.513171 0.933 
-0.414536 -0.519771 0.945 
-0.379653 -0.523621 0.952 
-0.346723 -0.531322 0.966 
-0.310444 -0.535172 0.973 
0.502345 -0.658377 1.197 
0.556501 -0.666077 1.211 
0.611773 -0.673777 1.225 
0.669778 -0.683128 1.242 
0.726823 -0.690278 1.255 
0.786762 -0.699079 1.271 
0.846658 -0.706779 1.285 
0.90837 -0.715029 1.3 
0.97497 -0.72603 1.32 
1.03849 -0.73373 1.334 
1.10968 -0.74583 1.356 
1.17833 -0.755181 1.373 
1.25013 -0.765631 1.392 
1.32439 -0.776632 1.412 
1.39926 -0.787082 1.431 
-0.731568 -0.473193 0.864 
-0.701157 -0.475932 0.869 
-0.670346 -0.47867 0.874 
-0.641319 -0.483051 0.882 
-0.610966 -0.486885 0.889 
-0.58135 -0.491814 0.898 
-0.550409 -0.496196 0.906 
-0.517127 -0.498934 0.911 
-0.488196 -0.506602 0.925 
-0.454733 -0.510435 0.932 
-0.422505 -0.51646 0.943 
-0.388583 -0.521389 0.952 
-0.35468 -0.527413 0.963 
-0.319572 -0.53289 0.973 
0.496316 -0.655022 1.196 
0.550366 -0.66269 1.21 
0.606027 -0.670905 1.225 
0.662884 -0.67912 1.24 
0.720362 -0.686787 1.254 
0.7808 -0.696098 1.271 
0.839323 -0.70267 1.283 
0.904354 -0.713624 1.303 
0.968045 -0.722386 1.319 
1.02992 -0.728958 1.331 
1.10332 -0.74265 1.356 
1.17189 -0.751961 1.373 
1.24093 -0.760724 1.389 
1.31777 -0.77332 1.412 
1.39255 -0.783726 1.431 
-0.735621 -0.471167 0.864 
-0.705233 -0.473894 0.869 
-0.673674 -0.476075 0.873 
-0.645456 -0.480983 0.882 
-0.615136 -0.4848 0.889 
-0.585562 -0.489708 0.898 
-0.554658 -0.494071 0.906 
-0.521399 -0.496798 0.911 
-0.492002 -0.503887 0.924 
-0.459105 -0.50825 0.932 
-0.427833 -0.515339 0.945 
-0.393048 -0.519156 0.952 
-0.359197 -0.525155 0.963 
-0.324135 -0.530608 0.973 
-0.0413157 -0.191957 0.352 
0.529187 -0.658216 1.207 
0.582569 -0.664215 1.218 
0.641491 -0.675121 1.238 
0.696428 -0.680575 1.248 
0.757544 -0.690936 1.267 
0.816347 -0.698025 1.28 
0.87822 -0.70675 1.296 
0.941369 -0.715476 1.312 
1.00504 -0.723656 1.327 
1.07628 -0.736198 1.35 
1.146 -0.74656 1.369 
1.21198 -0.753649 1.382 
1.29092 -0.767828 1.408 
1.36045 -0.775462 1.422 
-0.748069 -0.468055 0.862 
-0.71867 -0.471313 0.868 
-0.686429 -0.472942 0.871 
-0.65769 -0.477286 0.879 
-0.629021 -0.482172 0.888 
-0.596293 -0.484344 0.892 
-0.568902 -0.491403 0.905 
-0.535177 -0.493575 0.909 
-0.504975 -0.499548 0.92 
-0.473387 -0.504978 0.93 
-0.441001 -0.510408 0.94 
-0.407389 -0.515295 0.949 
-0.37228 -0.519096 0.956 
-0.33871 -0.526154 0.969 
-0.301627 -0.528869 0.974 
0.507263 -0.65267 1.202 
0.560727 -0.659186 1.214 
0.618158 -0.66896 1.232 
0.673774 -0.675476 1.244 
0.733837 -0.68525 1.262 
0.792849 -0.692851 1.276 
0.852317 -0.69991 1.289 
0.917027 -0.710227 1.308 
0.98103 -0.718915 1.324 
1.04553 -0.72706 1.339 
1.11779 -0.739548 1.362 
1.18413 -0.74715 1.376 
1.2597 -0.759639 1.399 
1.3324 -0.769413 1.417 
1.41046 -0.781358 1.439 
-0.731231 -0.468196 0.866 
-0.699923 -0.470358 0.87 
-0.669826 -0.473602 0.876 
-0.641425 -0.478468 0.885 
-0.610251 -0.481712 0.891 
-0.581824 -0.487659 0.902 
-0.549494 -0.490903 0.908 
-0.516686 -0.494147 0.914 
-0.486552 -0.500634 0.926 
-0.453519 -0.504959 0.934 
-0.422076 -0.511988 0.947 
-0.386756 -0.515232 0.953 
-0.35352 -0.52226 0.966 
-0.317616 -0.526585 0.974 
-0.0381217 -0.190847 0.353 
0.539015 -0.654177 1.21 
0.595992 -0.663908 1.228 
0.652302 -0.671477 1.242 
0.707469 -0.676884 1.252 
0.769482 -0.687696 1.272 
0.827287 -0.693643 1.283 
0.892816 -0.704997 1.304 
0.955672 -0.713107 1.319 
1.01743 -0.719594 1.331 
1.0906 -0.73311 1.356 
1.15817 -0.741761 1.372 
1.2279 -0.750951 1.389 
1.30452 -0.763386 1.412 
1.3772 -0.772577 1.429 
-0.743726 -0.465088 0.864 
-0.714205 -0.468318 0.87 
-0.681863 -0.469933 0.873 
-0.652247 -0.473701 0.88 
-0.623475 -0.478546 0.889 
-0.593324 -0.482852 0.897 
-0.563779 -0.488235 0.907 
-0.529945 -0.490388 0.911 
-0.500128 -0.496848 0.923 
-0.467847 -0.501692 0.932 
-0.436698 -0.50869 0.945 
-0.401979 -0.512458 0.952 
-0.367848 -0.517841 0.962 
-0.33292 -0.523224 0.972 
-0.0447444 -0.190019 0.353 
0.515034 -0.649724 1.207 
0.56782 -0.655107 1.217 
0.626468 -0.665873 1.237 
0.680156 -0.670179 1.245 
0.742101 -0.681484 1.266 
0.801338 -0.68902 1.28 
0.861692 -0.696556 1.294 
0.926691 -0.706783 1.313 
0.989477 -0.71432 1.327 
1.05731 -0.724547 1.346 
1.1283 -0.735851 1.367 
1.19578 -0.743926 1.382 
1.2717 -0.756307 1.405 
1.34188 -0.764381 1.42 
1.42213 -0.7773 1.444 
-0.728848 -0.465206 0.868 
-0.696642 -0.466814 0.871 
-0.667997 -0.471101 0.879 
-0.637994 -0.474853 0.886 
-0.606752 -0.478069 0.892 
-0.579514 -0.485036 0.905 
-0.545836 -0.48718 0.909 
-0.515202 -0.492539 0.919 
-0.483771 -0.497899 0.929 
-0.451061 -0.502722 0.938 
-0.418516 -0.508618 0.949 
-0.382687 -0.511298 0.954 
-0.349711 -0.518801 0.968 
-0.313369 -0.522553 0.975 
0.489941 -0.643678 1.201 
0.542301 -0.649037 1.211 
0.599847 -0.65922 1.23 
0.655742 -0.666188 1.243 
0.712675 -0.673155 1.256 
0.774895 -0.683874 1.276 
0.83159 -0.688698 1.285 
0.899309 -0.70156 1.309 
0.961673 -0.709064 1.323 
1.02362 -0.715495 1.335 
1.09701 -0.728894 1.36 
1.16393 -0.736933 1.375 
1.23824 -0.748724 1.397 
1.31061 -0.758371 1.415 
1.38828 -0.770162 1.437 
-0.741699 -0.461036 0.864 
-0.712165 -0.464237 0.87 
-0.681373 -0.466905 0.875 
-0.650922 -0.470107 0.881 
-0.622788 -0.475443 0.891 
-0.593857 -0.480779 0.901 
-0.562271 -0.484514 0.908 
-0.528967 -0.487183 0.913 
-0.499582 -0.494119 0.926 
-0.466161 -0.497855 0.933 
-0.435401 -0.505325 0.947 
-0.399746 -0.507993 0.952 
-0.366732 -0.51493 0.965 
-0.330981 -0.519199 0.973 
-0.0448712 -0.188897 0.354 
0.512628 -0.644596 1.208 
0.566823 -0.651533 1.221 
0.624071 -0.660605 1.238 
0.677236 -0.66434 1.245 
0.740299 -0.676613 1.268 
0.79896 -0.68355 1.281 
0.859321 -0.69102 1.295 
0.927832 -0.703827 1.319 
0.987108 -0.708629 1.328 
1.05415 -0.718234 1.346 
1.12674 -0.730507 1.369 
1.19426 -0.738511 1.384 
1.27111 -0.751318 1.408 
1.33855 -0.757721 1.42 
1.42169 -0.772128 1.447 
-0.729688 -0.461666 0.869 
-0.697442 -0.46326 0.872 
-0.667997 -0.466979 0.879 
-0.639434 -0.47176 0.888 
-0.608113 -0.474947 0.894 
-0.580155 -0.481323 0.906 
-0.547037 -0.483979 0.911 
-0.516323 -0.489291 0.921 
-0.484292 -0.494073 0.93 
-0.452023 -0.499385 0.94 
-0.419398 -0.505229 0.951 
-0.383089 -0.507354 0.955 
-0.350434 -0.515323 0.97 
-0.314012 -0.519042 0.977 
-0.0383376 -0.188598 0.355 
0.534662 -0.64442 1.213 
0.591193 -0.653451 1.23 
0.647518 -0.660889 1.244 
0.702717 -0.666201 1.254 
0.766517 -0.67842 1.277 
0.82255 -0.682671 1.285 
0.8901 -0.695421 1.309 
0.952365 -0.702858 1.323 
1.01423 -0.709234 1.335 
1.08744 -0.722515 1.36 
1.15425 -0.730484 1.375 
1.22842 -0.742172 1.397 
1.30066 -0.751734 1.415 
1.37433 -0.761297 1.433 
-0.744889 -0.456454 0.863 
-0.717069 -0.460686 0.871 
-0.686261 -0.46333 0.876 
-0.655054 -0.465975 0.881 
-0.626967 -0.471264 0.891 
-0.598083 -0.476553 0.901 
-0.56653 -0.480256 0.908 
-0.534418 -0.483958 0.915 
-0.503925 -0.489776 0.926 
-0.470537 -0.493479 0.933 
-0.439843 -0.500883 0.947 
-0.404211 -0.503528 0.952 
-0.371258 -0.510404 0.965 
-0.335545 -0.514635 0.973 
-0.298888 -0.518338 0.98 
0.510217 -0.639459 1.209 
0.564422 -0.646335 1.222 
0.621168 -0.654798 1.238 
0.674858 -0.659029 1.246 
0.739652 -0.672781 1.272 
0.796577 -0.67807 1.282 
0.858929 -0.687062 1.299 
0.926141 -0.698698 1.321 
0.985475 -0.703458 1.33 
1.05255 -0.712979 1.348 
1.12435 -0.724615 1.37 
1.19188 -0.732549 1.385 
1.26871 -0.745242 1.409 
1.33804 -0.752647 1.423 
1.42124 -0.766928 1.45 
-0.731726 -0.45759 0.869 
-0.700289 -0.459696 0.873 
-0.670821 -0.463382 0.88 
-0.641517 -0.467595 0.888 
-0.610892 -0.471281 0.895 
-0.582922 -0.4776 0.907 
-0.549173 -0.479706 0.911 
-0.519046 -0.485498 0.922 
-0.486473 -0.489711 0.93 
-0.454228 -0.494977 0.94 
-0.421629 -0.500769 0.951 
-0.385732 -0.503402 0.956 
-0.353072 -0.5113 0.971 
-0.316303 -0.51446 0.977 
-0.0392805 -0.187459 0.356 
0.538836 -0.64031 1.216 
0.595527 -0.649262 1.233 
0.650435 -0.655054 1.244 
0.709035 -0.663479 1.26 
0.77132 -0.674011 1.28 
0.828133 -0.67875 1.289 
0.897946 -0.692967 1.316 
0.956912 -0.697706 1.325 
1.02269 -0.706658 1.342 
1.09464 -0.718769 1.365 
1.16 -0.725614 1.378 
1.23434 -0.737199 1.4 
1.30674 -0.746677 1.418 
1.38635 -0.759315 1.442 
-0.741699 -0.452931 0.864 
-0.713802 -0.457125 0.872 
-0.684488 -0.460794 0.879 
-0.6524 -0.462891 0.883 
-0.623487 -0.467609 0.892 
-0.595834 -0.4739 0.904 
-0.56289 -0.476521 0.909 
-0.531864 -0.481239 0.918 
-0.5012 -0.487006 0.929 
-0.46766 -0.490675 0.936 
-0.435861 -0.496966 0.948 
-0.400166 -0.499587 0.953 
-0.367872 -0.50745 0.968 
-0.331321 -0.510596 0.974 
-0.295493 -0.515838 0.984 
0.516741 -0.634837 1.211 
0.573419 -0.644273 1.229 
0.629001 -0.651088 1.242 
0.682887 -0.655282 1.25 
0.748549 -0.669436 1.277 
0.804468 -0.67363 1.285 
0.870349 -0.685163 1.307 
0.934455 -0.694075 1.324 
0.994696 -0.699317 1.334 
1.0628 -0.709277 1.353 
1.1349 -0.72081 1.375 
1.20616 -0.73077 1.394 
1.27984 -0.741255 1.414 
1.34944 -0.748594 1.428 
1.43297 -0.762748 1.455 
-0.726447 -0.454036 0.87 
-0.697328 -0.457689 0.877 
-0.666895 -0.46082 0.883 
-0.637415 -0.464995 0.891 
-0.606621 -0.468649 0.898 
-0.577177 -0.473867 0.908 
-0.544551 -0.476999 0.914 
-0.514783 -0.483261 0.926 
-0.481478 -0.486914 0.933 
-0.449995 -0.493177 0.945 
-0.415374 -0.49683 0.952 
-0.381384 -0.502049 0.962 
-0.346954 -0.50779 0.973 
-0.310696 -0.511965 0.981 
0.499288 -0.631475 1.21 
0.552958 -0.637738 1.222 
0.609555 -0.646088 1.238 
0.664234 -0.651307 1.248 
0.72772 -0.663832 1.272 
0.785163 -0.669573 1.283 
0.847395 -0.678445 1.3 
0.915133 -0.690448 1.323 
0.972999 -0.694101 1.33 
1.04145 -0.704539 1.35 
1.1115 -0.714976 1.37 
1.17889 -0.722804 1.385 
1.25549 -0.73533 1.409 
1.3247 -0.742636 1.423 
1.41249 -0.759336 1.455 
-0.736991 -0.450957 0.868 
-0.70805 -0.454593 0.875 
-0.678551 -0.45823 0.882 
-0.647764 -0.461347 0.888 
-0.617188 -0.464984 0.895 
-0.589953 -0.471738 0.908 
-0.555583 -0.473297 0.911 
-0.526103 -0.479531 0.923 
-0.494076 -0.484207 0.932 
-0.461822 -0.489402 0.942 
-0.428319 -0.494078 0.951 
-0.392458 -0.496676 0.956 
-0.359904 -0.504469 0.971 
-0.323507 -0.508106 0.978 
-0.0396115 -0.186513 0.359 
0.536425 -0.632274 1.217 
0.594558 -0.642665 1.237 
0.648038 -0.646821 1.245 
0.709442 -0.657732 1.266 
0.769519 -0.666044 1.282 
0.828311 -0.672279 1.294 
0.8969 -0.685267 1.319 
0.957404 -0.690982 1.33 
1.02258 -0.699294 1.346 
1.09304 -0.710205 1.367 
1.16013 -0.717998 1.382 
1.23809 -0.731506 1.408 
1.30525 -0.73774 1.42 
1.38968 -0.752807 1.449 
-0.743726 -0.446852 0.864 
-0.716668 -0.451507 0.873 
-0.688112 -0.455644 0.881 
-0.656694 -0.45823 0.886 
-0.626982 -0.462368 0.894 
-0.599277 -0.468574 0.906 
-0.565022 -0.470126 0.909 
-0.535181 -0.475815 0.92 
-0.503921 -0.480987 0.93 
-0.471863 -0.486159 0.94 
-0.438547 -0.490813 0.949 
-0.402823 -0.493399 0.954 
-0.370525 -0.501157 0.969 
-0.334633 -0.505295 0.977 
-0.298406 -0.509949 0.986 
0.527863 -0.62942 1.217 
0.585855 -0.639764 1.237 
0.639279 -0.643902 1.245 
0.698322 -0.652694 1.262 
0.760499 -0.663038 1.282 
0.817308 -0.667692 1.291 
0.886274 -0.681139 1.317 
0.946621 -0.686828 1.328 
1.01086 -0.694586 1.343 
1.08263 -0.706482 1.366 
1.14957 -0.714239 1.381 
1.22818 -0.728204 1.408 
1.29344 -0.733376 1.418 
1.37472 -0.746822 1.444 
1.44816 -0.755097 1.46 
-0.721982 -0.448945 0.872 
-0.69431 -0.453578 0.881 
-0.662179 -0.455638 0.885 
-0.633272 -0.460271 0.894 
-0.604315 -0.46542 0.904 
-0.571417 -0.467994 0.909 
-0.540476 -0.472628 0.918 
-0.509915 -0.478291 0.929 
-0.477459 -0.482925 0.938 
-0.445223 -0.488588 0.949 
-0.409535 -0.491162 0.954 
-0.376953 -0.49837 0.968 
-0.341507 -0.503003 0.977 
-0.306272 -0.509182 0.989 
0.518874 -0.626051 1.216 
0.575285 -0.634804 1.233 
0.630014 -0.640467 1.244 
0.686165 -0.646645 1.256 
0.750893 -0.659516 1.281 
0.808225 -0.664665 1.291 
0.877008 -0.678051 1.317 
0.937278 -0.683714 1.328 
1.00141 -0.691437 1.343 
1.07223 -0.702763 1.365 
1.13738 -0.709456 1.378 
1.21395 -0.722327 1.403 
1.28346 -0.73005 1.418 
1.36267 -0.742406 1.442 
1.44085 -0.753218 1.463 
-0.727282 -0.446387 0.871 
-0.700508 -0.451512 0.881 
-0.668406 -0.453562 0.885 
-0.63813 -0.45715 0.892 
-0.609324 -0.462275 0.902 
-0.577812 -0.465862 0.909 
-0.545743 -0.46945 0.916 
-0.516451 -0.476112 0.929 
-0.484058 -0.480725 0.938 
-0.451424 -0.48585 0.948 
-0.416247 -0.488925 0.954 
-0.38297 -0.495075 0.966 
-0.347667 -0.499687 0.975 
-0.312913 -0.50635 0.988 
0.506633 -0.622175 1.214 
0.56189 -0.629862 1.229 
0.617847 -0.637037 1.243 
0.673309 -0.642675 1.254 
0.737146 -0.654975 1.278 
0.794881 -0.660612 1.289 
0.863997 -0.67445 1.316 
0.924124 -0.680087 1.327 
0.985864 -0.686237 1.339 
1.05787 -0.698537 1.363 
1.12282 -0.7052 1.376 
1.19565 -0.715962 1.397 
1.26926 -0.726212 1.417 
1.34073 -0.734412 1.433 
1.42615 -0.749275 1.462 
-0.734608 -0.443834 0.87 
-0.707164 -0.448426 0.879 
-0.676708 -0.451487 0.885 
-0.645048 -0.454038 0.89 
-0.6171 -0.459649 0.901 
-0.586339 -0.463731 0.909 
-0.55373 -0.466791 0.915 
-0.5246 -0.473423 0.928 
-0.491806 -0.477505 0.936 
-0.459831 -0.483116 0.947 
-0.425196 -0.486687 0.954 
-0.39122 -0.491789 0.964 
-0.356447 -0.496891 0.974 
-0.321529 -0.503012 0.986 
0.50705 -0.619838 1.215 
0.562348 -0.62749 1.23 
0.618344 -0.634632 1.244 
0.673846 -0.640244 1.255 
0.7383 -0.652998 1.28 
0.795498 -0.658099 1.29 
0.864654 -0.671874 1.317 
0.924124 -0.676975 1.327 
0.988809 -0.685138 1.343 
1.05943 -0.696361 1.365 
1.12282 -0.701973 1.376 
1.19737 -0.713706 1.399 
1.26926 -0.722889 1.417 
1.34447 -0.733092 1.437 
1.42907 -0.747376 1.465 
-0.735453 -0.442302 0.871 
-0.707968 -0.446872 0.88 
-0.677472 -0.449919 0.886 
-0.645773 -0.452458 0.891 
-0.617785 -0.458044 0.902 
-0.586339 -0.461599 0.909 
-0.55373 -0.464646 0.915 
-0.5246 -0.471247 0.928 
-0.491806 -0.47531 0.936 
-0.459831 -0.480895 0.947 
-0.425196 -0.48445 0.954 
-0.391626 -0.490036 0.965 
-0.356813 -0.495114 0.975 
-0.321529 -0.5007 0.986 
0.510739 -0.618004 1.217 
0.566611 -0.626129 1.233 
0.621261 -0.631715 1.244 
0.679485 -0.63984 1.26 
0.741881 -0.650504 1.281 
0.799761 -0.65609 1.292 
0.86906 -0.669801 1.319 
0.929332 -0.675386 1.33 
0.995651 -0.684527 1.348 
1.06418 -0.694175 1.367 
1.1285 -0.700269 1.379 
1.20408 -0.712457 1.403 
1.27349 -0.720074 1.418 
1.35253 -0.732261 1.442 
1.43446 -0.744956 1.467 
-0.73341 -0.440259 0.871 
-0.706707 -0.445314 0.881 
-0.675395 -0.447841 0.886 
-0.643684 -0.450369 0.891 
-0.617717 -0.457445 0.905 
-0.584208 -0.459467 0.909 
-0.552187 -0.463005 0.916 
-0.522987 -0.469576 0.929 
-0.491704 -0.475136 0.94 
-0.458577 -0.479686 0.949 
-0.423845 -0.483224 0.956 
-0.389767 -0.488278 0.966 
-0.355254 -0.493839 0.977 
-0.320188 -0.499904 0.989 
0.507885 -0.61515 1.217 
0.563262 -0.622732 1.232 
0.618841 -0.629303 1.245 
0.676531 -0.636885 1.26 
0.738877 -0.6475 1.281 
0.796731 -0.65306 1.292 
0.865967 -0.666707 1.319 
0.926213 -0.672267 1.33 
0.99249 -0.681366 1.348 
1.06098 -0.69097 1.367 
1.12527 -0.697035 1.379 
1.20079 -0.709166 1.403 
1.27195 -0.717759 1.42 
1.34915 -0.728879 1.442 
1.432 -0.742021 1.468 
-0.739538 -0.438217 0.871 
-0.711287 -0.442242 0.879 
-0.681628 -0.445763 0.886 
-0.649952 -0.448279 0.891 
-0.622705 -0.454316 0.903 
-0.590603 -0.457335 0.909 
-0.558022 -0.460354 0.915 
-0.528383 -0.466391 0.927 
-0.497257 -0.471926 0.938 
-0.464273 -0.476454 0.947 
-0.430121 -0.480479 0.955 
-0.396152 -0.48551 0.965 
-0.361386 -0.490541 0.975 
-0.326154 -0.496075 0.986 
0.492803 -0.61129 1.215 
0.547034 -0.61783 1.228 
0.603757 -0.62588 1.244 
0.65913 -0.631414 1.255 
0.722161 -0.642986 1.278 
0.780371 -0.649024 1.29 
0.849211 -0.662608 1.317 
0.908563 -0.667639 1.327 
0.975235 -0.677198 1.346 
1.04418 -0.687261 1.366 
1.10669 -0.692292 1.376 
1.17927 -0.702857 1.397 
1.25353 -0.713423 1.418 
1.32208 -0.719963 1.431 
1.41189 -0.737069 1.465 
-0.74889 -0.435673 0.87 
-0.71831 -0.438177 0.875 
-0.692017 -0.443686 0.886 
-0.658918 -0.445188 0.889 
-0.631891 -0.451197 0.901 
-0.601262 -0.455203 0.909 
-0.566886 -0.456706 0.912 
-0.537508 -0.462715 0.924 
-0.506088 -0.467723 0.934 
-0.474373 -0.473231 0.945 
-0.440857 -0.477738 0.954 
-0.406201 -0.481744 0.962 
-0.372054 -0.487253 0.973 
-0.33703 -0.492761 0.984 
-0.301432 -0.498771 0.996 
0.531333 -0.613448 1.225 
0.588696 -0.622462 1.243 
0.641333 -0.625467 1.249 
0.705515 -0.638487 1.275 
0.763465 -0.644496 1.287 
0.828703 -0.655513 1.309 
0.891657 -0.663525 1.325 
0.9566 -0.672038 1.342 
1.02591 -0.682555 1.363 
1.08817 -0.687563 1.373 
1.16039 -0.698079 1.394 
1.23603 -0.709597 1.417 
1.30074 -0.714104 1.426 
1.39281 -0.732632 1.463 
1.46007 -0.737139 1.472 
-0.727737 -0.435627 0.874 
-0.701613 -0.441109 0.885 
-0.669342 -0.443103 0.889 
-0.639604 -0.447091 0.897 
-0.611247 -0.452573 0.908 
-0.576947 -0.454069 0.911 
-0.545968 -0.458554 0.92 
-0.515933 -0.464536 0.932 
-0.484427 -0.470018 0.943 
-0.451096 -0.474504 0.952 
-0.417047 -0.47899 0.961 
-0.383069 -0.484473 0.972 
-0.347506 -0.488959 0.981 
-0.312797 -0.495937 0.995 
0.516547 -0.610077 1.224 
0.572274 -0.617553 1.239 
0.626186 -0.622039 1.248 
0.688398 -0.633503 1.271 
0.747211 -0.640481 1.285 
0.809626 -0.649453 1.303 
0.875459 -0.65992 1.324 
0.935956 -0.665402 1.335 
1.00548 -0.676368 1.357 
1.07129 -0.683844 1.372 
1.13995 -0.692317 1.389 
1.21511 -0.703781 1.412 
1.28311 -0.710261 1.425 
1.37096 -0.726709 1.458 
1.44281 -0.733687 1.472 
-0.737141 -0.433081 0.873 
-0.708773 -0.43705 0.881 
-0.679002 -0.440522 0.888 
-0.647948 -0.443499 0.894 
-0.620525 -0.449452 0.906 
-0.587629 -0.451932 0.911 
-0.555546 -0.455405 0.918 
-0.525731 -0.461358 0.93 
-0.493908 -0.466319 0.94 
-0.461288 -0.471279 0.95 
-0.426979 -0.475248 0.958 
-0.393655 -0.481201 0.97 
-0.357545 -0.484674 0.977 
-0.32316 -0.491619 0.991 
0.499733 -0.60423 1.218 
0.555044 -0.611671 1.233 
0.610572 -0.61812 1.246 
0.670845 -0.628042 1.266 
0.730434 -0.635979 1.282 
0.79008 -0.642924 1.296 
0.857336 -0.65483 1.32 
0.917545 -0.660287 1.331 
0.98884 -0.672689 1.356 
1.05367 -0.679634 1.37 
1.11961 -0.68658 1.384 
1.19516 -0.698486 1.408 
1.26463 -0.705927 1.423 
1.34086 -0.716345 1.444 
1.42361 -0.729243 1.47 
-0.746522 -0.43054 0.872 
-0.715838 -0.433009 0.877 
-0.689414 -0.43844 0.888 
-0.656958 -0.440415 0.892 
-0.629755 -0.446339 0.904 
-0.597655 -0.449302 0.91 
-0.565076 -0.452264 0.916 
-0.534905 -0.457695 0.927 
-0.502782 -0.462139 0.936 
-0.471433 -0.468064 0.948 
-0.436383 -0.471026 0.954 
-0.402942 -0.476458 0.965 
-0.368246 -0.481395 0.975 
-0.334104 -0.488307 0.989 
-0.297058 -0.492257 0.997 
0.539271 -0.607298 1.23 
0.595483 -0.614704 1.245 
0.652373 -0.621617 1.259 
0.714843 -0.632479 1.281 
0.772491 -0.63791 1.292 
0.839945 -0.650253 1.317 
0.90126 -0.656672 1.33 
0.968635 -0.666547 1.35 
1.03533 -0.67494 1.367 
1.10099 -0.681853 1.381 
1.17447 -0.692715 1.403 
1.24531 -0.701108 1.42 
1.31751 -0.709502 1.437 
1.40446 -0.724808 1.468 
-0.756747 -0.428495 0.872 
-0.725294 -0.43046 0.876 
-0.698251 -0.435374 0.886 
-0.666669 -0.437831 0.891 
-0.63823 -0.442745 0.901 
-0.607657 -0.446676 0.909 
-0.573931 -0.448642 0.913 
-0.544008 -0.454047 0.924 
-0.512659 -0.458961 0.934 
-0.48204 -0.465349 0.947 
-0.4471 -0.468298 0.953 
-0.413828 -0.473703 0.964 
-0.379289 -0.478617 0.974 
-0.344652 -0.484514 0.986 
-0.308439 -0.489428 0.996 
0.521539 -0.603922 1.229 
0.577036 -0.610802 1.243 
0.630625 -0.614733 1.251 
0.694643 -0.627509 1.277 
0.75256 -0.633406 1.289 
0.816424 -0.643234 1.309 
0.880555 -0.652079 1.327 
0.944715 -0.659941 1.343 
1.01312 -0.669769 1.363 
1.07686 -0.675666 1.375 
1.15226 -0.68795 1.4 
1.22274 -0.696304 1.417 
1.29368 -0.704166 1.433 
1.38097 -0.719891 1.465 
1.45117 -0.725788 1.477 
-0.73883 -0.427917 0.875 
-0.709577 -0.43134 0.882 
-0.679766 -0.434764 0.889 
-0.650122 -0.438676 0.897 
-0.621894 -0.444056 0.908 
-0.588274 -0.446012 0.912 
-0.557967 -0.450902 0.922 
-0.526296 -0.455304 0.931 
-0.494959 -0.460683 0.942 
-0.462259 -0.465574 0.952 
-0.427425 -0.468997 0.959 
-0.394061 -0.474866 0.971 
-0.358277 -0.478778 0.979 
-0.323812 -0.485625 0.993 
0.495237 -0.597128 1.221 
0.550598 -0.604463 1.236 
0.605698 -0.610332 1.248 
0.665958 -0.620113 1.268 
0.724986 -0.627449 1.283 
0.785816 -0.635273 1.299 
0.85179 -0.646032 1.321 
0.914041 -0.652879 1.335 
0.98248 -0.663149 1.356 
1.04724 -0.669996 1.37 
1.11714 -0.679288 1.389 
1.19193 -0.690536 1.412 
1.25972 -0.696893 1.425 
1.33871 -0.708631 1.449 
1.41864 -0.719879 1.472 
-0.754383 -0.425378 0.874 
-0.723655 -0.427812 0.879 
-0.695662 -0.432192 0.888 
-0.663233 -0.434139 0.892 
-0.636115 -0.439979 0.904 
-0.604721 -0.443386 0.911 
-0.572769 -0.446793 0.918 
-0.541427 -0.451174 0.927 
-0.509367 -0.455554 0.936 
-0.478102 -0.461394 0.948 
-0.443094 -0.464314 0.954 
-0.410155 -0.470155 0.966 
-0.375106 -0.474535 0.975 
-0.341752 -0.482323 0.991 
-0.304378 -0.485729 0.998 
0.522812 -0.599618 1.232 
0.5775 -0.605458 1.244 
0.632137 -0.610325 1.254 
0.696275 -0.62298 1.28 
0.753144 -0.627847 1.29 
0.818295 -0.638554 1.312 
0.881219 -0.646341 1.328 
0.946825 -0.655102 1.346 
1.01461 -0.664349 1.365 
1.07921 -0.670676 1.378 
1.15637 -0.683818 1.405 
1.2236 -0.690145 1.418 
1.29729 -0.699392 1.437 
1.38286 -0.713993 1.467 
1.45215 -0.719347 1.478 
-0.741729 -0.424297 0.876 
-0.712453 -0.427688 0.883 
-0.681851 -0.430594 0.889 
-0.652225 -0.434469 0.897 
-0.624024 -0.439797 0.908 
-0.591061 -0.442219 0.913 
-0.561951 -0.448031 0.925 
-0.528479 -0.450937 0.931 
-0.497696 -0.456749 0.943 
-0.464491 -0.461108 0.952 
-0.429226 -0.464015 0.958 
-0.396338 -0.470311 0.971 
-0.360941 -0.47467 0.98 
-0.326469 -0.481451 0.994 
0.488307 -0.589948 1.218 
0.545241 -0.59915 1.237 
0.600325 -0.604963 1.249 
0.66001 -0.614165 1.268 
0.720089 -0.6224 1.285 
0.780323 -0.629665 1.3 
0.844954 -0.639352 1.32 
0.908459 -0.647102 1.336 
0.97612 -0.656789 1.356 
1.04082 -0.66357 1.37 
1.11303 -0.674226 1.392 
1.18699 -0.684882 1.414 
1.25304 -0.69021 1.425 
1.33191 -0.701834 1.449 
1.41174 -0.712974 1.472 
-0.760532 -0.421279 0.874 
-0.729839 -0.423689 0.879 
-0.701909 -0.428027 0.888 
-0.669509 -0.429955 0.892 
-0.642475 -0.435739 0.904 
-0.61113 -0.439113 0.911 
-0.579858 -0.442969 0.919 
-0.54854 -0.447308 0.928 
-0.515401 -0.450682 0.935 
-0.484772 -0.456948 0.948 
-0.449806 -0.45984 0.954 
-0.41652 -0.465142 0.965 
-0.381573 -0.46948 0.974 
-0.34802 -0.47671 0.989 
-0.311087 -0.480566 0.997 
0.506716 -0.591911 1.228 
0.562461 -0.599141 1.243 
0.617433 -0.604444 1.254 
0.679669 -0.61553 1.277 
0.737445 -0.621314 1.289 
0.800463 -0.630472 1.308 
0.863039 -0.638185 1.324 
0.928967 -0.647343 1.343 
0.997141 -0.656983 1.363 
1.06074 -0.662767 1.375 
1.13827 -0.676264 1.403 
1.20698 -0.683494 1.418 
1.27777 -0.691206 1.434 
1.361 -0.704702 1.462 
1.43385 -0.711932 1.477 
-0.74909 -0.419709 0.875 
-0.720736 -0.423546 0.883 
-0.690191 -0.426424 0.889 
-0.659904 -0.429782 0.896 
-0.631845 -0.435058 0.907 
-0.600282 -0.438416 0.914 
-0.571245 -0.444172 0.926 
-0.536636 -0.446091 0.93 
-0.506005 -0.451847 0.942 
-0.473422 -0.456643 0.952 
-0.438212 -0.459521 0.958 
-0.405029 -0.465277 0.97 
-0.369379 -0.469115 0.978 
-0.335793 -0.476789 0.994 
-0.297356 -0.478708 0.998 
0.530307 -0.592869 1.236 
0.58568 -0.599105 1.249 
0.642089 -0.60534 1.262 
0.703924 -0.615413 1.283 
0.762725 -0.621649 1.296 
0.828847 -0.632681 1.319 
0.89012 -0.638917 1.332 
0.957387 -0.64851 1.352 
1.024 -0.656665 1.369 
1.09119 -0.664339 1.385 
1.16876 -0.67729 1.412 
1.23459 -0.682567 1.423 
1.31492 -0.695038 1.449 
1.39258 -0.705111 1.47 
1.46797 -0.713265 1.487 
-0.736861 -0.420043 0.88 
-0.708157 -0.423862 0.888 
-0.675027 -0.425294 0.891 
-0.6474 -0.430545 0.902 
-0.616184 -0.433886 0.909 
-0.586962 -0.439136 0.92 
-0.555667 -0.443432 0.929 
-0.521421 -0.445819 0.934 
-0.491442 -0.452501 0.948 
-0.456518 -0.455365 0.954 
-0.423309 -0.460616 0.965 
-0.388426 -0.464912 0.974 
-0.354979 -0.472072 0.989 
-0.318102 -0.47589 0.997 
0.500956 -0.586152 1.228 
0.557079 -0.593789 1.244 
0.612039 -0.599039 1.255 
0.673679 -0.60954 1.277 
0.731399 -0.615268 1.289 
0.794328 -0.624337 1.308 
0.856829 -0.631975 1.324 
0.922668 -0.641044 1.343 
0.990748 -0.65059 1.363 
1.05429 -0.656318 1.375 
1.13169 -0.669683 1.403 
1.20033 -0.676843 1.418 
1.2737 -0.685912 1.437 
1.35507 -0.698322 1.463 
1.42692 -0.705005 1.477 
-0.752001 -0.41608 0.876 
-0.722807 -0.419405 0.883 
-0.692275 -0.422255 0.889 
-0.663483 -0.426529 0.898 
-0.634671 -0.431279 0.908 
-0.603085 -0.434604 0.915 
-0.574655 -0.440779 0.928 
-0.538817 -0.441729 0.93 
-0.508753 -0.447903 0.943 
-0.475655 -0.452178 0.952 
-0.441378 -0.455978 0.96 
-0.407724 -0.461203 0.971 
-0.372053 -0.465002 0.979 
-0.338124 -0.472127 0.994 
-0.299997 -0.474502 0.999 
0.52451 -0.587072 1.236 
0.579822 -0.593246 1.249 
0.63617 -0.599421 1.262 
0.697906 -0.609396 1.283 
0.758398 -0.616995 1.299 
0.822661 -0.626495 1.319 
0.883209 -0.632194 1.331 
0.951749 -0.642644 1.353 
1.01833 -0.650719 1.37 
1.08469 -0.657843 1.385 
1.16213 -0.670667 1.412 
1.22964 -0.676842 1.425 
1.30902 -0.688717 1.45 
1.38569 -0.698216 1.47 
1.46394 -0.707716 1.49 
-0.739764 -0.416389 0.881 
-0.710239 -0.419697 0.888 
-0.677117 -0.421115 0.891 
-0.649515 -0.426314 0.902 
-0.618996 -0.430095 0.91 
-0.58976 -0.435294 0.921 
-0.558446 -0.439548 0.93 
-0.524732 -0.442383 0.936 
-0.494186 -0.448528 0.949 
-0.459717 -0.451836 0.956 
-0.426013 -0.456562 0.966 
-0.391111 -0.460816 0.975 
-0.357298 -0.467433 0.989 
-0.320761 -0.471687 0.998 
0.495599 -0.580864 1.229 
0.551244 -0.587954 1.244 
0.608084 -0.595043 1.259 
0.66769 -0.603551 1.277 
0.725916 -0.609695 1.29 
0.788795 -0.618675 1.309 
0.851262 -0.626237 1.325 
0.918416 -0.636162 1.346 
0.984355 -0.644197 1.363 
1.0486 -0.650341 1.376 
1.12271 -0.661685 1.4 
1.19367 -0.670192 1.418 
1.26696 -0.679172 1.437 
1.35005 -0.692406 1.465 
1.42096 -0.69855 1.478 
-0.754916 -0.412441 0.877 
-0.726519 -0.416204 0.885 
-0.69436 -0.418085 0.889 
-0.667071 -0.423258 0.9 
-0.6368 -0.42702 0.908 
-0.60523 -0.430312 0.915 
-0.577453 -0.436896 0.929 
-0.542161 -0.438307 0.932 
-0.512048 -0.444421 0.945 
-0.477887 -0.447713 0.952 
-0.444554 -0.452416 0.962 
-0.410424 -0.457119 0.972 
-0.374731 -0.460881 0.98 
-0.340798 -0.467935 0.995 
-0.302945 -0.470757 1.001 
0.524934 -0.581745 1.237 
0.582143 -0.589739 1.254 
0.638186 -0.595383 1.266 
0.698994 -0.604318 1.285 
0.760734 -0.612783 1.303 
0.823908 -0.621249 1.321 
0.8852 -0.627362 1.334 
0.953859 -0.637709 1.356 
1.01981 -0.645233 1.372 
1.09018 -0.654639 1.392 
1.16378 -0.664985 1.414 
1.23051 -0.670629 1.426 
1.31625 -0.685678 1.458 
1.38757 -0.692262 1.472 
1.46886 -0.703079 1.495 
-0.738536 -0.412724 0.882 
-0.708954 -0.416 0.889 
-0.676542 -0.417872 0.893 
-0.649553 -0.423487 0.905 
-0.61754 -0.426295 0.911 
-0.589514 -0.432378 0.924 
-0.556265 -0.435186 0.93 
-0.523654 -0.438929 0.938 
-0.492997 -0.445012 0.951 
-0.458432 -0.448288 0.958 
-0.425064 -0.453435 0.969 
-0.389622 -0.457179 0.977 
-0.356055 -0.464198 0.992 
-0.31874 -0.467474 0.999 
0.502996 -0.576972 1.233 
0.55887 -0.583991 1.248 
0.615453 -0.590542 1.262 
0.676317 -0.599901 1.282 
0.735371 -0.606452 1.296 
0.799186 -0.615811 1.316 
0.859418 -0.621426 1.328 
0.928851 -0.632657 1.352 
0.993656 -0.639676 1.367 
1.05966 -0.646695 1.382 
1.13573 -0.658862 1.408 
1.20456 -0.665881 1.423 
1.2799 -0.675707 1.444 
1.36155 -0.687874 1.47 
1.43465 -0.694893 1.485 
-0.754576 -0.409259 0.879 
-0.725262 -0.412518 0.886 
-0.692275 -0.413915 0.889 
-0.665699 -0.419502 0.901 
-0.63537 -0.423227 0.909 
-0.605062 -0.427417 0.918 
-0.575894 -0.433005 0.93 
-0.539976 -0.433936 0.932 
-0.510911 -0.44092 0.947 
-0.476654 -0.444179 0.954 
-0.443217 -0.448835 0.964 
-0.408984 -0.453491 0.974 
-0.373573 -0.457681 0.983 
-0.338805 -0.463734 0.996 
-0.300898 -0.466527 1.002 
0.525783 -0.576874 1.239 
0.584464 -0.586186 1.259 
0.639194 -0.590376 1.268 
0.700082 -0.599222 1.287 
0.763069 -0.608534 1.307 
0.825779 -0.616449 1.324 
0.887854 -0.622968 1.338 
0.956673 -0.633211 1.36 
1.02204 -0.640195 1.375 
1.09409 -0.650438 1.397 
1.16625 -0.65975 1.417 
1.2331 -0.665337 1.429 
1.31986 -0.680702 1.462 
1.3904 -0.686754 1.475 
1.47082 -0.696998 1.497 
-0.743514 -0.409051 0.883 
-0.713124 -0.41183 0.889 
-0.679968 -0.41322 0.892 
-0.65452 -0.419705 0.906 
-0.621813 -0.422022 0.911 
-0.593848 -0.428044 0.924 
-0.561833 -0.43175 0.932 
-0.528053 -0.43453 0.938 
-0.497457 -0.440552 0.951 
-0.463409 -0.444258 0.959 
-0.429609 -0.44889 0.969 
-0.394205 -0.452596 0.977 
-0.360708 -0.459545 0.992 
-0.323425 -0.462788 0.999 
-0.285017 -0.465104 1.004 
0.539141 -0.575821 1.243 
0.597695 -0.584623 1.262 
0.65571 -0.591572 1.277 
0.716029 -0.599447 1.294 
0.778296 -0.607785 1.312 
0.840099 -0.614734 1.327 
0.905789 -0.623536 1.346 
0.972995 -0.632338 1.365 
1.03795 -0.638823 1.379 
1.11195 -0.649941 1.403 
1.18204 -0.657817 1.42 
1.25348 -0.665692 1.437 
1.33905 -0.680053 1.468 
1.409 -0.685612 1.48 
1.48982 -0.695803 1.502 
-0.736897 -0.407902 0.885 
-0.704785 -0.409745 0.889 
-0.67386 -0.412511 0.895 
-0.647447 -0.418503 0.908 
-0.61596 -0.421729 0.915 
-0.587713 -0.427721 0.928 
-0.55309 -0.429564 0.932 
-0.522022 -0.434634 0.943 
-0.48905 -0.438782 0.952 
-0.455834 -0.443392 0.962 
-0.421821 -0.448001 0.972 
-0.386616 -0.452149 0.981 
-0.352465 -0.458601 0.995 
-0.314997 -0.461828 1.002 
0.495524 -0.56968 1.236 
0.55009 -0.575211 1.248 
0.608496 -0.583507 1.266 
0.667297 -0.590881 1.282 
0.727934 -0.598717 1.299 
0.790527 -0.607013 1.317 
0.851355 -0.613005 1.33 
0.919339 -0.623145 1.352 
0.985478 -0.63098 1.369 
1.05221 -0.638355 1.385 
1.12582 -0.648956 1.408 
1.19455 -0.655869 1.423 
1.26974 -0.665548 1.444 
1.35305 -0.678454 1.472 
1.429 -0.68675 1.49 
-0.763357 -0.404451 0.882 
-0.732321 -0.406743 0.887 
-0.699316 -0.408119 0.89 
-0.671292 -0.412705 0.9 
-0.641765 -0.416832 0.909 
-0.611521 -0.420959 0.918 
-0.582437 -0.426462 0.93 
-0.547705 -0.428296 0.934 
-0.517574 -0.434257 0.947 
-0.483366 -0.437467 0.954 
-0.45 -0.442053 0.964 
-0.415836 -0.446638 0.974 
-0.38165 -0.452141 0.986 
-0.346159 -0.457185 0.997 
-0.30887 -0.460854 1.005 
0.493422 -0.567698 1.238 
0.547163 -0.572284 1.248 
0.606006 -0.580997 1.267 
0.664291 -0.587875 1.282 
0.724888 -0.59567 1.299 
0.787439 -0.603925 1.317 
0.848874 -0.610344 1.331 
0.916168 -0.619974 1.352 
0.982267 -0.62777 1.369 
1.04896 -0.635107 1.385 
1.12252 -0.645654 1.408 
1.19121 -0.652532 1.423 
1.26636 -0.662162 1.444 
1.3496 -0.675001 1.472 
1.42551 -0.683256 1.49 
-0.764222 -0.402838 0.883 
-0.733147 -0.405119 0.888 
-0.699316 -0.406032 0.89 
-0.672038 -0.41105 0.901 
-0.641765 -0.4147 0.909 
-0.612187 -0.419262 0.919 
-0.582437 -0.42428 0.93 
-0.547705 -0.426105 0.934 
-0.517574 -0.432036 0.947 
-0.483366 -0.43523 0.954 
-0.450467 -0.440248 0.965 
-0.415836 -0.444354 0.974 
-0.38165 -0.449829 0.986 
-0.346507 -0.455303 0.998 
-0.309177 -0.458953 1.006 
0.496726 -0.565251 1.239 
0.551412 -0.570726 1.251 
0.609458 -0.578481 1.268 
0.668859 -0.586237 1.285 
0.730176 -0.594449 1.303 
0.792328 -0.602205 1.32 
0.853916 -0.608592 1.334 
0.922059 -0.618628 1.356 
0.986198 -0.625015 1.37 
1.05525 -0.633683 1.389 
1.12822 -0.64372 1.411 
1.19623 -0.650107 1.425 
1.27238 -0.660144 1.447 
1.35305 -0.671549 1.472 
1.43379 -0.682042 1.495 
-0.762152 -0.400768 0.883 
-0.731888 -0.403491 0.889 
-0.698012 -0.404399 0.891 
-0.670669 -0.409391 0.902 
-0.639633 -0.412568 0.909 
-0.611359 -0.418015 0.921 
-0.580256 -0.4221 0.93 
-0.546683 -0.424823 0.936 
-0.516441 -0.430723 0.949 
-0.482137 -0.4339 0.956 
-0.449132 -0.438893 0.967 
-0.413552 -0.44207 0.974 
-0.380492 -0.448878 0.989 
-0.344166 -0.452963 0.998 
-0.307733 -0.457955 1.009 
0.496726 -0.562345 1.239 
0.552734 -0.569153 1.254 
0.609458 -0.575508 1.268 
0.668859 -0.583223 1.285 
0.730736 -0.591847 1.304 
0.792328 -0.599109 1.32 
0.854556 -0.605917 1.335 
0.922059 -0.615448 1.356 
0.986198 -0.621803 1.37 
1.05753 -0.631788 1.392 
1.12822 -0.640411 1.411 
1.19706 -0.647219 1.426 
1.27414 -0.657658 1.449 
1.35397 -0.668551 1.473 
1.43571 -0.679444 1.497 
-0.762152 -0.398697 0.883 
-0.731888 -0.401406 0.889 
-0.698012 -0.402309 0.891 
-0.670669 -0.407276 0.902 
-0.641041 -0.41134 0.911 
-0.612023 -0.416306 0.922 
-0.580256 -0.419919 0.93 
-0.547851 -0.423531 0.938 
-0.516441 -0.428497 0.949 
-0.482641 -0.43211 0.957 
-0.449597 -0.437076 0.968 
-0.413977 -0.440237 0.975 
-0.380492 -0.446558 0.989 
-0.344166 -0.450622 0.998 
-0.308343 -0.456492 1.011 
0.494219 -0.559891 1.24 
0.549793 -0.566213 1.254 
0.607919 -0.573889 1.271 
0.665845 -0.58021 1.285 
0.727678 -0.588789 1.304 
0.789831 -0.596465 1.321 
0.852063 -0.603238 1.336 
0.919557 -0.61272 1.357 
0.98442 -0.619493 1.372 
1.05427 -0.628523 1.392 
1.12491 -0.637102 1.411 
1.19372 -0.643875 1.426 
1.27074 -0.65426 1.449 
1.35052 -0.665097 1.473 
1.4322 -0.675933 1.497 
-0.765953 -0.397524 0.885 
-0.733973 -0.399321 0.889 
-0.700102 -0.400219 0.891 
-0.672784 -0.40516 0.902 
-0.643177 -0.409203 0.911 
-0.614851 -0.414593 0.923 
-0.582437 -0.417737 0.93 
-0.550051 -0.421331 0.938 
-0.518667 -0.426272 0.949 
-0.484886 -0.429865 0.957 
-0.451867 -0.434806 0.968 
-0.416263 -0.437951 0.975 
-0.383585 -0.445137 0.991 
-0.346507 -0.448282 0.998 
-0.311328 -0.455019 1.013 
0.489585 -0.558331 1.243 
0.542611 -0.561924 1.251 
0.601957 -0.570908 1.271 
0.659818 -0.577196 1.285 
0.721562 -0.585731 1.304 
0.783041 -0.592918 1.32 
0.845163 -0.599655 1.335 
0.912519 -0.609088 1.356 
0.976559 -0.615377 1.37 
1.04774 -0.625259 1.392 
1.11829 -0.633793 1.411 
1.1862 -0.640082 1.425 
1.2622 -0.649964 1.447 
1.34269 -0.661193 1.472 
1.42328 -0.671524 1.495 
1.50073 -0.679609 1.513 
-0.738142 -0.397236 0.889 
-0.704281 -0.39813 0.891 
-0.676264 -0.402598 0.901 
-0.646739 -0.40662 0.91 
-0.61851 -0.411982 0.922 
-0.586799 -0.415556 0.93 
-0.554451 -0.419131 0.938 
-0.523118 -0.424046 0.949 
-0.489374 -0.427621 0.957 
-0.456407 -0.432536 0.968 
-0.420836 -0.435664 0.975 
-0.38745 -0.44192 0.989 
-0.351187 -0.445941 0.998 
-0.315456 -0.45175 1.011 
-0.275693 -0.452644 1.013 
0.51665 -0.556309 1.245 
0.576747 -0.566587 1.268 
0.632247 -0.571055 1.278 
0.691751 -0.578204 1.294 
0.754255 -0.586694 1.313 
0.817045 -0.59429 1.33 
0.881845 -0.602333 1.348 
0.950162 -0.611717 1.369 
1.01355 -0.617079 1.381 
1.08563 -0.626909 1.403 
1.15377 -0.633612 1.418 
1.22823 -0.642995 1.439 
1.30704 -0.653719 1.463 
1.3859 -0.66355 1.485 
1.47235 -0.676061 1.513 
-0.754352 -0.393818 0.886 
-0.723087 -0.39604 0.891 
-0.689108 -0.396929 0.893 
-0.664483 -0.403597 0.908 
-0.633126 -0.406708 0.915 
-0.604472 -0.412042 0.927 
-0.570575 -0.414264 0.932 
-0.539714 -0.419154 0.943 
-0.507443 -0.423599 0.953 
-0.474375 -0.428044 0.963 
-0.440963 -0.432933 0.974 
-0.405434 -0.436489 0.982 
-0.371133 -0.442267 0.995 
-0.333796 -0.445379 1.002 
-0.298541 -0.452491 1.018 
1.06827 -29.1296 65.535 
0.537172 -0.556501 1.252 
0.595996 -0.564946 1.271 
0.653791 -0.571169 1.285 
0.715446 -0.579615 1.304 
0.77685 -0.586726 1.32 
0.83953 -0.593838 1.336 
0.906827 -0.603173 1.357 
0.97155 -0.60984 1.372 
1.0427 -0.619619 1.394 
1.11167 -0.627175 1.411 
1.17952 -0.633398 1.425 
1.25715 -0.644066 1.449 
1.33579 -0.654289 1.472 
1.41816 -0.665401 1.497 
1.4966 -0.673846 1.516 
-0.744397 -0.393067 0.889 
-0.711347 -0.394393 0.892 
-0.682603 -0.398372 0.901 
-0.653142 -0.402352 0.91 
-0.624318 -0.407215 0.921 
-0.592704 -0.410752 0.929 
-0.56105 -0.414732 0.938 
-0.529237 -0.419153 0.948 
-0.495589 -0.42269 0.956 
-0.462739 -0.427554 0.967 
-0.428135 -0.431533 0.976 
-0.394408 -0.437281 0.989 
-0.358209 -0.44126 0.998 
-0.322249 -0.446566 1.01 
-0.284216 -0.450103 1.018 
0.520822 -0.551796 1.248 
0.58155 -0.562408 1.272 
0.637232 -0.566829 1.282 
0.697471 -0.574346 1.299 
0.759642 -0.582304 1.317 
0.820781 -0.588494 1.331 
0.887632 -0.597779 1.352 
0.954069 -0.605738 1.37 
1.02194 -0.613697 1.388 
1.0928 -0.62254 1.408 
1.16036 -0.62873 1.422 
1.23588 -0.638457 1.444 
1.31405 -0.648626 1.467 
1.39593 -0.65968 1.492 
1.47882 -0.670291 1.516 
-0.753123 -0.390102 0.887 
-0.721806 -0.392301 0.892 
-0.689321 -0.39406 0.896 
-0.663083 -0.399778 0.909 
-0.633049 -0.403736 0.918 
-0.603597 -0.408574 0.929 
-0.569 -0.410333 0.933 
-0.539783 -0.41649 0.947 
-0.505739 -0.419569 0.954 
-0.473097 -0.424406 0.965 
-0.438678 -0.428365 0.974 
-0.404773 -0.433642 0.986 
-0.36917 -0.43804 0.996 
-0.332439 -0.441998 1.005 
-0.296735 -0.448595 1.02 
0.490766 -0.54799 1.246 
0.547382 -0.555027 1.262 
0.604325 -0.561184 1.276 
0.661872 -0.566901 1.289 
0.724329 -0.575697 1.309 
0.785414 -0.582294 1.324 
0.849595 -0.590211 1.342 
0.917229 -0.599447 1.363 
0.980123 -0.604724 1.375 
1.05376 -0.615719 1.4 
1.12067 -0.621876 1.414 
1.19286 -0.630233 1.433 
1.2718 -0.641227 1.458 
1.34726 -0.649584 1.477 
1.43184 -0.661458 1.504 
1.50966 -0.669375 1.522 
-0.740227 -0.388897 0.889 
-0.708749 -0.391084 0.894 
-0.682142 -0.396334 0.906 
-0.6503 -0.398958 0.912 
-0.623365 -0.405083 0.926 
-0.589613 -0.40727 0.931 
-0.559024 -0.412082 0.942 
-0.525897 -0.415581 0.95 
-0.49316 -0.419956 0.96 
-0.460099 -0.424768 0.971 
-0.424425 -0.42783 0.978 
-0.390557 -0.433517 0.991 
-0.354236 -0.437454 1 
-0.31877 -0.443579 1.014 
-0.271744 -0.444453 1.016 
0.509523 -0.54638 1.249 
0.569617 -0.556442 1.272 
0.624719 -0.560379 1.281 
0.683703 -0.566941 1.296 
0.747287 -0.576127 1.317 
0.807688 -0.581814 1.33 
0.873655 -0.590563 1.35 
0.94053 -0.598875 1.369 
1.00674 -0.605874 1.385 
1.07959 -0.615936 1.408 
1.14541 -0.621185 1.42 
1.22233 -0.631684 1.444 
1.29852 -0.64087 1.465 
1.38008 -0.651807 1.49 
1.46363 -0.662743 1.515 
-0.760585 -0.385507 0.886 
-0.730174 -0.388117 0.892 
-0.696948 -0.389423 0.895 
-0.67161 -0.395514 0.909 
-0.640962 -0.398995 0.917 
-0.612312 -0.404216 0.929 
-0.577752 -0.405957 0.933 
-0.548666 -0.412048 0.947 
-0.513609 -0.414224 0.952 
-0.48215 -0.41988 0.965 
-0.447815 -0.423796 0.974 
-0.413183 -0.428147 0.984 
-0.378133 -0.432934 0.995 
-0.341186 -0.436414 1.003 
-0.306303 -0.443811 1.02 
0.607198 -28.5149 65.535 
0.525427 -0.544757 1.252 
0.586371 -0.555199 1.276 
0.641737 -0.559115 1.285 
0.703213 -0.567382 1.304 
0.765047 -0.574779 1.321 
0.828235 -0.582176 1.338 
0.894097 -0.590443 1.357 
0.959378 -0.597405 1.373 
1.02963 -0.606542 1.394 
1.09922 -0.614374 1.412 
1.16615 -0.62003 1.425 
1.24699 -0.632213 1.453 
1.32019 -0.63961 1.47 
1.40881 -0.653534 1.502 
1.48824 -0.662236 1.522 
-0.75189 -0.384294 0.888 
-0.722135 -0.387324 0.895 
-0.691822 -0.390353 0.902 
-0.662405 -0.394248 0.911 
-0.633645 -0.399008 0.922 
-0.602066 -0.40247 0.93 
-0.569849 -0.405932 0.938 
-0.538697 -0.410693 0.949 
-0.504557 -0.413722 0.956 
-0.472298 -0.418915 0.968 
-0.437738 -0.42281 0.977 
-0.403685 -0.428003 0.989 
-0.367571 -0.431898 0.998 
-0.331395 -0.436659 1.009 
-0.29492 -0.442285 1.022 
0.91458 -28.3612 65.535 
0.53427 -0.54485 1.259 
0.593284 -0.553072 1.278 
0.64978 -0.557833 1.289 
0.712049 -0.566488 1.309 
0.772994 -0.572979 1.324 
0.837006 -0.580769 1.342 
0.902453 -0.588559 1.36 
0.967928 -0.595483 1.376 
1.04063 -0.605869 1.4 
1.10819 -0.612361 1.415 
1.17612 -0.61842 1.429 
1.25985 -0.631835 1.46 
1.33159 -0.638327 1.475 
1.42151 -0.652608 1.508 
1.49735 -0.659532 1.524 
-0.747321 -0.383073 0.89 
-0.717438 -0.386086 0.897 
-0.688516 -0.389959 0.906 
-0.657436 -0.392972 0.913 
-0.629199 -0.398137 0.925 
-0.596804 -0.40115 0.932 
-0.566252 -0.405885 0.943 
-0.532581 -0.408898 0.95 
-0.499393 -0.412772 0.959 
-0.467411 -0.418367 0.972 
-0.431747 -0.42138 0.979 
-0.397931 -0.426975 0.992 
-0.361272 -0.430419 1 
-0.325582 -0.436014 1.013 
-0.288011 -0.440318 1.023 
0.146125 -28.2075 65.535 
0.523743 -0.540175 1.255 
0.583836 -0.549645 1.277 
0.639718 -0.553949 1.287 
0.701766 -0.562557 1.307 
0.763102 -0.569444 1.323 
0.825714 -0.576331 1.339 
0.890915 -0.584078 1.357 
0.957551 -0.591826 1.375 
1.03004 -0.602156 1.399 
1.09746 -0.608612 1.414 
1.16525 -0.614638 1.428 
1.24786 -0.62755 1.458 
1.31853 -0.633576 1.472 
1.40715 -0.64735 1.504 
1.48663 -0.655958 1.524 
-0.752736 -0.380557 0.889 
-0.723749 -0.383982 0.897 
-0.693356 -0.386978 0.904 
-0.662405 -0.389975 0.911 
-0.63502 -0.39554 0.924 
-0.603361 -0.398965 0.932 
-0.571064 -0.402389 0.94 
-0.539265 -0.40667 0.95 
-0.505085 -0.409666 0.957 
-0.473762 -0.415659 0.971 
-0.437738 -0.418228 0.977 
-0.40491 -0.424649 0.992 
-0.367939 -0.427645 0.999 
-0.332052 -0.432782 1.011 
-0.295497 -0.438347 1.024 
-0.00813067 -0.147685 0.345 
0.511562 -0.536804 1.254 
0.571409 -0.546222 1.276 
0.626669 -0.550074 1.285 
0.687923 -0.558208 1.304 
0.749557 -0.565485 1.321 
0.810724 -0.571478 1.335 
0.877538 -0.580468 1.356 
0.941217 -0.586461 1.37 
1.01328 -0.596734 1.394 
1.08419 -0.605296 1.414 
1.14944 -0.610005 1.425 
1.22995 -0.621991 1.453 
1.30295 -0.629268 1.47 
1.38656 -0.640826 1.497 
1.4704 -0.651528 1.522 
-0.758991 -0.378473 0.889 
-0.729246 -0.381453 0.896 
-0.698168 -0.384007 0.902 
-0.66808 -0.387413 0.91 
-0.640826 -0.392947 0.923 
-0.609918 -0.396779 0.932 
-0.577677 -0.400185 0.94 
-0.545374 -0.404016 0.949 
-0.510748 -0.406571 0.955 
-0.480098 -0.412956 0.97 
-0.444612 -0.415937 0.977 
-0.411474 -0.421897 0.991 
-0.374592 -0.424877 0.998 
-0.33883 -0.429986 1.01 
-0.302406 -0.43552 1.023 
-0.00974884 -0.146876 0.345 
0.495273 -0.53216 1.25 
0.55601 -0.542804 1.275 
0.61065 -0.546209 1.283 
0.668506 -0.551744 1.296 
0.732956 -0.561536 1.319 
0.792688 -0.566644 1.331 
0.859096 -0.575585 1.352 
0.922452 -0.581545 1.366 
0.99336 -0.591337 1.389 
1.0661 -0.601128 1.412 
1.13114 -0.605811 1.423 
1.20958 -0.61688 1.449 
1.28396 -0.624969 1.468 
1.36261 -0.634335 1.49 
1.44873 -0.646256 1.518 
1.5182 -0.650087 1.527 
-0.738101 -0.378505 0.894 
-0.707959 -0.381468 0.901 
-0.678005 -0.384855 0.909 
-0.649531 -0.389513 0.92 
-0.619514 -0.393746 0.93 
-0.587447 -0.397133 0.938 
-0.556502 -0.401791 0.949 
-0.520307 -0.403061 0.952 
-0.490459 -0.409835 0.968 
-0.454668 -0.412375 0.974 
-0.42096 -0.417456 0.986 
-0.386295 -0.422536 0.998 
-0.349284 -0.425923 1.006 
-0.31348 -0.431851 1.02 
-0.0137943 -0.146067 0.345 
0.480616 -0.529229 1.25 
0.537241 -0.536003 1.266 
0.595141 -0.542777 1.282 
0.651293 -0.547011 1.292 
0.714225 -0.555902 1.313 
0.774746 -0.56183 1.327 
0.839501 -0.569874 1.346 
0.904444 -0.577071 1.363 
0.972149 -0.585116 1.382 
1.0488 -0.597394 1.411 
1.1121 -0.601204 1.42 
1.18682 -0.610519 1.442 
1.26589 -0.621103 1.467 
1.33791 -0.627454 1.482 
1.42811 -0.641426 1.515 
1.5003 -0.646506 1.527 
-0.746909 -0.375566 0.892 
-0.718524 -0.379355 0.901 
-0.687906 -0.382303 0.908 
-0.658166 -0.386092 0.917 
-0.629064 -0.390723 0.928 
-0.59717 -0.394092 0.936 
-0.567031 -0.399144 0.948 
-0.53147 -0.400828 0.952 
-0.500255 -0.406302 0.965 
-0.466089 -0.410091 0.974 
-0.431205 -0.41388 0.983 
-0.3972 -0.419354 0.996 
-0.360362 -0.422722 1.004 
-0.324164 -0.427775 1.016 
-0.28645 -0.431985 1.026 
-0.00489433 -0.145258 0.345 
0.516555 -0.530087 1.259 
0.575301 -0.538087 1.278 
0.631643 -0.542718 1.289 
0.690451 -0.548613 1.303 
0.754364 -0.557454 1.324 
0.818123 -0.565033 1.342 
0.883316 -0.572612 1.36 
0.947877 -0.578927 1.375 
1.02457 -0.591558 1.405 
1.09059 -0.597032 1.418 
1.16249 -0.605032 1.437 
1.241 -0.615558 1.462 
1.31084 -0.621031 1.475 
1.40029 -0.634925 1.508 
1.47687 -0.642083 1.525 
-0.756906 -0.372218 0.889 
-0.73039 -0.376824 0.9 
-0.699139 -0.379336 0.906 
-0.66741 -0.381848 0.912 
-0.640738 -0.38771 0.926 
-0.609036 -0.391059 0.934 
-0.578534 -0.395665 0.945 
-0.544865 -0.398596 0.952 
-0.510638 -0.401526 0.959 
-0.479301 -0.407388 0.973 
-0.442774 -0.409482 0.978 
-0.410801 -0.416599 0.995 
-0.373371 -0.419112 1.001 
-0.337461 -0.424136 1.013 
-0.300594 -0.42916 1.025 
-0.00813067 -0.144449 0.345 
0.500596 -0.525878 1.256 
0.559877 -0.534671 1.277 
0.615572 -0.538858 1.287 
0.671027 -0.542207 1.295 
0.737165 -0.553093 1.321 
0.798799 -0.559374 1.336 
0.862905 -0.566491 1.353 
0.928366 -0.573609 1.37 
1.00236 -0.584914 1.397 
1.07396 -0.593706 1.418 
1.14085 -0.599149 1.431 
1.22051 -0.610454 1.458 
1.29091 -0.616316 1.472 
1.37619 -0.628458 1.501 
1.45803 -0.638088 1.524 
-0.7715 -0.370133 0.889 
-0.741853 -0.373048 0.896 
-0.712436 -0.376378 0.904 
-0.680137 -0.37846 0.909 
-0.653814 -0.384289 0.923 
-0.621695 -0.387203 0.93 
-0.590904 -0.391367 0.94 
-0.559905 -0.395947 0.951 
-0.523637 -0.397196 0.954 
-0.493747 -0.403857 0.97 
-0.457421 -0.405939 0.975 
-0.424131 -0.411352 0.988 
-0.388635 -0.415515 0.998 
-0.352692 -0.420095 1.009 
-0.316181 -0.425091 1.021 
-0.277365 -0.428005 1.028 
0.475133 -0.520851 1.251 
0.532142 -0.527929 1.268 
0.589128 -0.533758 1.282 
0.644234 -0.537089 1.29 
0.700517 -0.540836 1.299 
0.770259 -0.553742 1.33 
0.834425 -0.561237 1.348 
0.899368 -0.568315 1.365 
0.967064 -0.576225 1.384 
1.0444 -0.588716 1.414 
1.10778 -0.592463 1.423 
1.18661 -0.603704 1.45 
1.25986 -0.611198 1.468 
1.33545 -0.619109 1.487 
1.42194 -0.631183 1.516 
1.49704 -0.637428 1.531 
-0.753185 -0.36929 0.892 
-0.725668 -0.37343 0.902 
-0.69353 -0.3755 0.907 
-0.663893 -0.379226 0.916 
-0.635592 -0.384194 0.928 
-0.605045 -0.388334 0.938 
-0.573096 -0.39206 0.947 
-0.538167 -0.39413 0.952 
-0.507044 -0.399512 0.965 
-0.472941 -0.403238 0.974 
-0.437676 -0.40655 0.982 
-0.404613 -0.41276 0.997 
-0.367426 -0.415659 1.004 
-0.33229 -0.421869 1.019 
-0.293955 -0.425181 1.027 
0.46964 -0.518331 1.252 
0.525365 -0.524127 1.266 
0.583115 -0.530751 1.282 
0.638183 -0.534063 1.29 
0.689613 -0.534063 1.29 
0.762872 -0.549795 1.328 
0.826874 -0.557247 1.346 
0.891004 -0.563871 1.362 
0.959185 -0.572151 1.382 
1.03777 -0.5854 1.414 
1.10265 -0.589954 1.425 
1.17981 -0.600304 1.45 
1.25298 -0.607756 1.468 
1.32669 -0.614794 1.485 
1.41389 -0.627214 1.515 
1.48986 -0.633838 1.531 
-0.75068 -0.368022 0.894 
-0.723037 -0.372138 0.904 
-0.690036 -0.373785 0.908 
-0.663197 -0.379136 0.921 
-0.63192 -0.38243 0.929 
-0.601927 -0.386958 0.94 
-0.569255 -0.390251 0.948 
-0.534823 -0.392721 0.954 
-0.50408 -0.398484 0.968 
-0.468854 -0.401366 0.975 
-0.434834 -0.405894 0.986 
-0.400338 -0.410834 0.998 
-0.36344 -0.414127 1.006 
-0.327832 -0.41989 1.02 
-0.289419 -0.423184 1.028 
0.479213 -0.516218 1.254 
0.536804 -0.523628 1.272 
0.592596 -0.528156 1.283 
0.645754 -0.529803 1.287 
0.699772 -0.531861 1.292 
0.77396 -0.547916 1.331 
0.837587 -0.554914 1.348 
0.902569 -0.561912 1.365 
0.973815 -0.571792 1.389 
1.04994 -0.583318 1.417 
1.1158 -0.588258 1.429 
1.19657 -0.600196 1.458 
1.26675 -0.60596 1.472 
1.34794 -0.616251 1.497 
1.42925 -0.625719 1.52 
1.5026 -0.631071 1.533 
-0.750258 -0.366744 0.896 
-0.721714 -0.370427 0.905 
-0.687906 -0.371655 0.908 
-0.661755 -0.377386 0.922 
-0.630419 -0.38066 0.93 
-0.599722 -0.384753 0.94 
-0.567629 -0.388437 0.949 
-0.532586 -0.390484 0.954 
-0.502328 -0.396623 0.969 
-0.467046 -0.399489 0.976 
-0.433399 -0.4044 0.988 
-0.397997 -0.408494 0.998 
-0.362157 -0.412996 1.009 
-0.326078 -0.418317 1.022 
-0.287287 -0.421182 1.029 
0.485868 -0.514096 1.256 
0.544903 -0.522692 1.277 
0.600014 -0.526375 1.286 
0.650778 -0.525966 1.285 
0.707471 -0.530059 1.295 
0.780788 -0.545204 1.332 
0.845161 -0.552571 1.35 
0.910304 -0.55953 1.367 
0.983859 -0.570581 1.394 
1.05733 -0.580405 1.418 
1.12643 -0.586954 1.434 
1.20671 -0.598414 1.462 
1.27625 -0.603735 1.475 
1.35949 -0.614787 1.502 
1.44016 -0.623792 1.524 
1.51471 -0.629522 1.538 
-0.748554 -0.365863 0.899 
-0.718262 -0.368712 0.906 
-0.6844 -0.369933 0.909 
-0.659569 -0.376444 0.925 
-0.62673 -0.378886 0.931 
-0.59658 -0.383363 0.942 
-0.563772 -0.386619 0.95 
-0.529219 -0.38906 0.956 
-0.498297 -0.394758 0.97 
-0.462942 -0.397607 0.977 
-0.429199 -0.40249 0.989 
-0.39371 -0.40656 0.999 
-0.358842 -0.412258 1.013 
-0.321913 -0.416734 1.024 
-0.28301 -0.419583 1.031 
