# .PCD v.7 - Point Cloud Data file format
VERSION .7
FIELDS x y z
SIZE 4 4 4
TYPE F F F
COUNT 1 1 1
WIDTH 1888
HEIGHT 1
VIEWPOINT 0 0 0 1 0 0 0
POINTS 1888
DATA ascii
0.45879 0.157053 1.186 
0.508207 0.157715 1.191 
0.522563 0.148313 1.12 
0.521355 0.135071 1.02 
0.516792 0.123153 0.93 
0.513967 0.114281 0.863 
0.511518 0.1066 0.805 
0.509172 0.0998466 0.754 
0.50848 0.0941525 0.711 
0.505115 0.0885907 0.669 
0.504946 0.0828966 0.626 
0.501123 0.0783942 0.592 
0.499823 0.0738918 0.558 
0.497744 0.0704488 0.532 
0.496517 0.0674031 0.509 
-1.04315 0.159835 1.186 
-0.995029 0.1597 1.185 
-0.946186 0.15943 1.183 
-0.900542 0.1597 1.185 
-0.848978 0.158891 1.179 
-0.803334 0.159161 1.181 
-0.75497 0.158891 1.179 
-0.706764 0.158622 1.177 
-0.659279 0.158487 1.176 
-0.612915 0.158622 1.177 
-0.566952 0.158891 1.179 
-0.519066 0.158622 1.177 
-0.472543 0.158756 1.178 
-0.42594 0.158891 1.179 
-0.380221 0.15943 1.183 
-0.33362 0.1597 1.185 
-0.286618 0.159835 1.186 
-0.239335 0.159835 1.186 
-0.192052 0.159835 1.186 
-0.145135 0.160239 1.189 
-0.097074 0.159161 1.181 
-0.0504133 0.160508 1.191 
-0.00293059 0.160508 1.191 
0.0444399 0.160104 1.188 
0.0920348 0.160508 1.191 
0.139518 0.160508 1.191 
0.187 0.160508 1.191 
0.23468 0.160643 1.192 
0.281492 0.160239 1.189 
0.328895 0.160239 1.189 
0.376298 0.160239 1.189 
0.42477 0.160643 1.192 
0.469915 0.159835 1.186 
0.518507 0.160239 1.189 
0.529478 0.149188 1.107 
0.518052 0.132342 0.982 
0.514647 0.122234 0.907 
0.513762 0.114014 0.846 
0.509309 0.106062 0.787 
0.507021 0.0994586 0.738 
0.510275 0.094607 0.702 
0.503761 0.0882729 0.655 
0.504797 0.0840951 0.624 
0.501663 0.0796478 0.591 
0.501229 0.076009 0.564 
0.498644 0.0723703 0.537 
0.495324 0.0685968 0.509 
-1.04783 0.162479 1.185 
-1.00059 0.162479 1.185 
-0.951735 0.162205 1.183 
-0.9061 0.162479 1.185 
-0.854508 0.161656 1.179 
-0.808874 0.16193 1.181 
-0.760499 0.161656 1.179 
-0.712285 0.161382 1.177 
-0.66536 0.161382 1.177 
-0.618436 0.161382 1.177 
-0.572482 0.161656 1.179 
-0.524587 0.161382 1.177 
-0.478068 0.161519 1.178 
-0.43147 0.161656 1.179 
-0.38577 0.162205 1.183 
-0.339178 0.162479 1.185 
-0.292181 0.162616 1.186 
-0.245311 0.16289 1.188 
-0.197948 0.16289 1.188 
-0.150585 0.16289 1.188 
-0.102613 0.16193 1.181 
-0.0559995 0.163302 1.191 
-0.00850249 0.163027 1.189 
0.0389005 0.163027 1.189 
0.0864486 0.163302 1.191 
0.133931 0.163302 1.191 
0.181414 0.163302 1.191 
0.228897 0.163302 1.191 
0.275915 0.163027 1.189 
0.323318 0.163027 1.189 
0.371345 0.163302 1.191 
0.419179 0.163439 1.192 
0.464353 0.162616 1.186 
0.513793 0.163302 1.191 
0.526654 0.15247 1.112 
0.51737 0.137524 1.003 
0.516741 0.126967 0.926 
0.514197 0.117917 0.86 
0.51213 0.110102 0.803 
0.508229 0.102835 0.75 
0.507278 0.0969389 0.707 
0.505927 0.0915915 0.668 
0.503858 0.0866554 0.632 
0.502267 0.0822678 0.6 
0.500755 0.0782915 0.571 
0.497848 0.0744523 0.543 
0.497711 0.0697905 0.509 
-1.04505 0.165258 1.185 
-0.997808 0.165258 1.185 
-0.950565 0.165258 1.185 
-0.903321 0.165258 1.185 
-0.851743 0.164421 1.179 
-0.806104 0.1647 1.181 
-0.757092 0.164282 1.178 
-0.709525 0.164142 1.177 
-0.6626 0.164142 1.177 
-0.615676 0.164142 1.177 
-0.569717 0.164421 1.179 
-0.521826 0.164142 1.177 
-0.474902 0.164142 1.177 
-0.428705 0.164421 1.179 
-0.382995 0.164979 1.183 
-0.336399 0.165258 1.185 
-0.2894 0.165397 1.186 
-0.242525 0.165676 1.188 
-0.194833 0.165397 1.186 
-0.147799 0.165676 1.188 
-0.0998437 0.1647 1.181 
-0.0532064 0.166095 1.191 
-0.00572369 0.166095 1.191 
0.0416889 0.165816 1.189 
0.0892417 0.166095 1.191 
0.136724 0.166095 1.191 
0.184207 0.166095 1.191 
0.23169 0.166095 1.191 
0.278704 0.165816 1.189 
0.326107 0.165816 1.189 
0.374138 0.166095 1.191 
0.421975 0.166234 1.192 
0.467922 0.165676 1.188 
0.515719 0.165816 1.189 
0.528309 0.154799 1.11 
0.519472 0.139179 0.998 
0.51555 0.128301 0.92 
0.513813 0.119376 0.856 
0.512733 0.111706 0.801 
0.507268 0.104036 0.746 
0.507496 0.098318 0.705 
0.506733 0.0930186 0.667 
0.503741 0.0878586 0.63 
0.503674 0.0836749 0.6 
0.500788 0.0792122 0.568 
0.49763 0.0753074 0.54 
0.499116 0.0708447 0.508 
-1.03949 0.168037 1.185 
-0.99225 0.168037 1.185 
-0.943412 0.167753 1.183 
-0.897763 0.168037 1.185 
-0.845496 0.167044 1.178 
-0.799209 0.167186 1.179 
-0.751567 0.167044 1.178 
-0.704004 0.166902 1.177 
-0.65708 0.166902 1.177 
-0.610673 0.167044 1.178 
-0.564188 0.167186 1.179 
-0.516745 0.167044 1.178 
-0.469381 0.166902 1.177 
-0.423893 0.16747 1.181 
-0.377447 0.167753 1.183 
-0.330841 0.168037 1.185 
-0.283598 0.168037 1.185 
-0.236554 0.168179 1.186 
-0.18927 0.168179 1.186 
-0.142346 0.168604 1.189 
-0.0943044 0.16747 1.181 
-0.0476202 0.168888 1.191 
-0.000137605 0.16903 1.192 
0.0472657 0.168604 1.189 
0.0948279 0.168888 1.191 
0.142311 0.168888 1.191 
0.189793 0.168888 1.191 
0.237475 0.16903 1.192 
0.284281 0.168604 1.189 
0.331683 0.168604 1.189 
0.379724 0.168888 1.191 
0.427207 0.168888 1.191 
0.473892 0.168604 1.189 
0.51998 0.168179 1.186 
0.530632 0.156551 1.104 
0.519721 0.140952 0.994 
0.514894 0.12975 0.915 
0.514615 0.1211 0.854 
0.512684 0.113159 0.798 
0.507653 0.105502 0.744 
0.508427 0.0998295 0.704 
0.505249 0.0940156 0.663 
0.504416 0.0891943 0.629 
0.503397 0.0847984 0.598 
0.50167 0.0806861 0.569 
0.497418 0.0750139 0.529 
-1.06826 0.170528 1.183 
-1.02282 0.170816 1.185 
-0.973929 0.170528 1.183 
-0.926766 0.170528 1.183 
-0.878858 0.170383 1.182 
-0.82892 0.169807 1.178 
-0.783947 0.170239 1.181 
-0.734991 0.169807 1.178 
-0.687443 0.169663 1.177 
-0.639974 0.169519 1.176 
-0.594098 0.169807 1.178 
-0.548527 0.170239 1.181 
-0.500593 0.169951 1.179 
-0.452435 0.169519 1.176 
-0.407619 0.170383 1.182 
-0.360191 0.170239 1.181 
-0.314432 0.17096 1.186 
-0.267149 0.17096 1.186 
-0.220422 0.171393 1.189 
-0.172437 0.170816 1.185 
-0.125299 0.17096 1.186 
-0.0777523 0.170383 1.182 
-0.0308098 0.171393 1.189 
0.016663 0.172113 1.194 
0.0639962 0.171393 1.189 
0.111399 0.171393 1.189 
0.159203 0.171825 1.192 
0.206552 0.171681 1.191 
0.254248 0.171825 1.192 
0.301011 0.171393 1.189 
0.349 0.171681 1.191 
0.395817 0.171393 1.189 
0.44322 0.171393 1.189 
0.491448 0.171681 1.191 
0.528976 0.16851 1.169 
0.531268 0.155536 1.079 
0.520685 0.140401 0.974 
0.514134 0.129013 0.895 
0.5148 0.120796 0.838 
0.510266 0.112436 0.78 
0.507355 0.105373 0.731 
0.508609 0.0998949 0.693 
0.503738 0.0938406 0.651 
0.504469 0.089372 0.62 
0.503581 0.0850476 0.59 
0.500532 0.0797141 0.553 
0.499405 0.0752455 0.522 
-1.06735 0.173155 1.182 
-1.02282 0.173595 1.185 
-0.973929 0.173302 1.183 
-0.926766 0.173302 1.183 
-0.878858 0.173155 1.182 
-0.828216 0.172423 1.177 
-0.783947 0.173009 1.181 
-0.734991 0.17257 1.178 
-0.687443 0.172423 1.177 
-0.639974 0.172277 1.176 
-0.594098 0.17257 1.178 
-0.547598 0.172716 1.179 
-0.500169 0.17257 1.178 
-0.452435 0.172277 1.176 
-0.407619 0.173155 1.182 
-0.360496 0.173155 1.182 
-0.314432 0.173741 1.186 
-0.267149 0.173741 1.186 
-0.220236 0.174034 1.188 
-0.172437 0.173595 1.185 
-0.125299 0.173741 1.186 
-0.0777523 0.173155 1.182 
-0.0308616 0.174474 1.191 
0.016663 0.174913 1.194 
0.0639962 0.174181 1.189 
0.111399 0.174181 1.189 
0.159203 0.17462 1.192 
0.206552 0.174474 1.191 
0.254248 0.17462 1.192 
0.301011 0.174181 1.189 
0.349 0.174474 1.191 
0.395817 0.174181 1.189 
0.44322 0.174181 1.189 
0.491448 0.174474 1.191 
0.529428 0.171398 1.17 
0.530283 0.157774 1.077 
0.520685 0.142685 0.974 
0.514134 0.131112 0.895 
0.514186 0.122615 0.837 
0.510266 0.114265 0.78 
0.508049 0.107233 0.732 
0.508609 0.10152 0.693 
0.504512 0.0955139 0.652 
0.503655 0.0906796 0.619 
0.503581 0.0864312 0.59 
0.500532 0.081011 0.553 
0.498711 0.0761767 0.52 
-1.06368 0.175779 1.181 
-1.02004 0.176374 1.185 
-0.971155 0.176076 1.183 
-0.925553 0.176374 1.185 
-0.876086 0.175927 1.182 
-0.826157 0.175332 1.178 
-0.781177 0.175779 1.181 
-0.732228 0.175332 1.178 
-0.684682 0.175183 1.177 
-0.637216 0.175034 1.176 
-0.591335 0.175332 1.178 
-0.544833 0.175481 1.179 
-0.497829 0.175481 1.179 
-0.45006 0.175183 1.177 
-0.404847 0.175927 1.182 
-0.357724 0.175927 1.182 
-0.311388 0.176374 1.185 
-0.264367 0.176523 1.186 
-0.21745 0.176821 1.188 
-0.169658 0.176374 1.185 
-0.122414 0.176374 1.185 
-0.0750437 0.176076 1.183 
-0.0280685 0.177267 1.191 
0.0194631 0.177714 1.194 
0.0667846 0.176969 1.189 
0.114188 0.176969 1.189 
0.161998 0.177416 1.192 
0.209345 0.177267 1.191 
0.257043 0.177416 1.192 
0.303799 0.176969 1.189 
0.351793 0.177267 1.191 
0.398605 0.176969 1.189 
0.446008 0.176969 1.189 
0.494241 0.177267 1.191 
0.530353 0.173546 1.166 
0.527862 0.158811 1.067 
0.520685 0.144969 0.974 
0.514134 0.133211 0.895 
0.514186 0.124578 0.837 
0.509612 0.115945 0.779 
0.508049 0.10895 0.732 
0.508762 0.102848 0.691 
0.504489 0.0967452 0.65 
0.504291 0.0919824 0.618 
0.504109 0.0876661 0.589 
0.50154 0.0829032 0.557 
0.498954 0.0785869 0.528 
0.500307 0.0756101 0.508 
-1.03671 0.179153 1.185 
-0.986966 0.178699 1.182 
-0.940637 0.178851 1.183 
-0.892718 0.178699 1.182 
-0.842733 0.178095 1.178 
-0.796444 0.178246 1.179 
-0.747533 0.177792 1.176 
-0.701244 0.177944 1.177 
-0.654319 0.177944 1.177 
-0.608427 0.178246 1.179 
-0.560946 0.178095 1.178 
-0.513546 0.177944 1.177 
-0.466621 0.177944 1.177 
-0.421123 0.178548 1.181 
-0.374356 0.178699 1.182 
-0.328062 0.179153 1.185 
-0.280345 0.178851 1.183 
-0.233772 0.179304 1.186 
-0.186332 0.179153 1.185 
-0.13944 0.179607 1.188 
-0.0915347 0.178548 1.181 
-0.0448271 0.18006 1.191 
0.00265561 0.18006 1.191 
0.0500541 0.179758 1.189 
0.097621 0.18006 1.191 
0.145104 0.18006 1.191 
0.192586 0.18006 1.191 
0.240271 0.180211 1.192 
0.287069 0.179758 1.189 
0.334472 0.179758 1.189 
0.381875 0.179758 1.189 
0.43 0.18006 1.191 
0.477483 0.18006 1.191 
0.521439 0.178851 1.183 
0.527748 0.166 1.098 
0.520513 0.151184 1 
0.516671 0.139392 0.922 
0.517414 0.130321 0.862 
0.513969 0.120947 0.8 
0.507653 0.112481 0.744 
0.508427 0.106434 0.704 
0.506774 0.100537 0.665 
0.503614 0.0949435 0.628 
0.503397 0.090408 0.598 
0.503433 0.0863261 0.571 
0.499473 0.0819417 0.542 
0.498008 0.0783133 0.518 
-1.05814 0.181318 1.181 
-1.01448 0.181932 1.185 
-0.965606 0.181625 1.183 
-0.918443 0.181625 1.183 
-0.869806 0.181318 1.181 
-0.820632 0.180857 1.178 
-0.774324 0.181011 1.179 
-0.726703 0.180857 1.178 
-0.679162 0.180704 1.177 
-0.6317 0.18055 1.176 
-0.58581 0.180857 1.178 
-0.539303 0.181011 1.179 
-0.491881 0.180857 1.178 
-0.444917 0.180857 1.178 
-0.399303 0.181471 1.182 
-0.35218 0.181471 1.182 
-0.30583 0.181932 1.185 
-0.258805 0.182086 1.186 
-0.211878 0.182393 1.188 
-0.164238 0.182086 1.186 
-0.116659 0.181625 1.183 
-0.0696713 0.182086 1.186 
-0.0224823 0.182853 1.191 
0.0250004 0.182853 1.191 
0.0724831 0.182853 1.191 
0.119764 0.182546 1.189 
0.167589 0.183007 1.192 
0.214931 0.182853 1.191 
0.262634 0.183007 1.192 
0.309376 0.182546 1.189 
0.357379 0.182853 1.191 
0.404862 0.182853 1.191 
0.451205 0.182393 1.188 
0.499827 0.182853 1.191 
0.530307 0.177173 1.154 
0.524377 0.161206 1.05 
0.522017 0.148616 0.968 
0.516595 0.136948 0.892 
0.515725 0.127429 0.83 
0.509142 0.118217 0.77 
0.510394 0.111769 0.728 
0.509039 0.105475 0.687 
0.505976 0.0994869 0.648 
0.505347 0.0942669 0.614 
0.503697 0.0888934 0.579 
0.501306 0.0845946 0.551 
0.498582 0.0806028 0.525 
0.501898 0.0776858 0.506 
-1.02838 0.184711 1.185 
-0.977822 0.184088 1.181 
-0.933891 0.184711 1.185 
-0.883654 0.184088 1.181 
-0.834445 0.18362 1.178 
-0.789486 0.184088 1.181 
-0.739259 0.183308 1.176 
-0.693552 0.18362 1.178 
-0.644941 0.183152 1.175 
-0.600132 0.183776 1.179 
-0.552659 0.18362 1.178 
-0.505265 0.183464 1.177 
-0.45873 0.18362 1.178 
-0.413513 0.184399 1.183 
-0.36573 0.184088 1.181 
-0.319725 0.184711 1.185 
-0.272482 0.184711 1.185 
-0.225808 0.185179 1.188 
-0.177995 0.184711 1.185 
-0.130862 0.184867 1.186 
-0.0832963 0.184243 1.182 
-0.0364478 0.185646 1.191 
0.0110442 0.185802 1.192 
0.0584193 0.185335 1.189 
0.106 0.185646 1.191 
0.153612 0.185802 1.192 
0.200966 0.185646 1.191 
0.248657 0.185802 1.192 
0.295434 0.185335 1.189 
0.342837 0.185335 1.189 
0.39024 0.185335 1.189 
0.437643 0.185335 1.189 
0.485862 0.185646 1.191 
0.526627 0.183308 1.176 
0.526207 0.168188 1.079 
0.521745 0.15416 0.989 
0.515781 0.14169 0.909 
0.513571 0.130311 0.836 
0.510921 0.121738 0.781 
0.509437 0.114412 0.734 
0.507875 0.107865 0.692 
0.506833 0.102098 0.655 
0.504291 0.0963303 0.618 
0.504075 0.090563 0.581 
0.500921 0.0860426 0.552 
0.499245 0.0821458 0.527 
0.50209 0.0787165 0.505 
-1.02387 0.187174 1.183 
-0.975053 0.186857 1.181 
-0.931112 0.18749 1.185 
-0.880885 0.186857 1.181 
-0.831682 0.186383 1.178 
-0.785384 0.186541 1.179 
-0.736501 0.186066 1.176 
-0.690203 0.186224 1.177 
-0.642185 0.185908 1.175 
-0.597367 0.186541 1.179 
-0.549896 0.186383 1.178 
-0.502932 0.186383 1.178 
-0.456354 0.186541 1.179 
-0.410739 0.187174 1.183 
-0.36296 0.186857 1.181 
-0.316946 0.18749 1.185 
-0.269703 0.18749 1.185 
-0.223022 0.187965 1.188 
-0.175216 0.18749 1.185 
-0.12808 0.187648 1.186 
-0.0807286 0.18749 1.185 
-0.0336547 0.188439 1.191 
0.013828 0.188439 1.191 
0.0613107 0.188439 1.191 
0.108793 0.188439 1.191 
0.156407 0.188598 1.192 
0.203759 0.188439 1.191 
0.251452 0.188598 1.192 
0.298223 0.188123 1.189 
0.345626 0.188123 1.189 
0.393028 0.188123 1.189 
0.440431 0.188123 1.189 
0.488655 0.188439 1.191 
0.528935 0.185908 1.175 
0.527267 0.170244 1.076 
0.520885 0.15553 0.983 
0.516204 0.143347 0.906 
0.512698 0.133063 0.841 
0.511575 0.123728 0.782 
0.509437 0.116133 0.734 
0.507141 0.10933 0.691 
0.507607 0.103792 0.656 
0.503655 0.0979379 0.619 
0.504632 0.0930331 0.588 
0.501132 0.0882865 0.558 
0.499929 0.084331 0.533 
0.500098 0.0805337 0.509 
-1.03963 0.189787 1.182 
-0.99167 0.189627 1.181 
-0.947786 0.190269 1.185 
-0.897502 0.189627 1.181 
-0.848258 0.189145 1.178 
-0.801974 0.189306 1.179 
-0.753049 0.188824 1.176 
-0.707365 0.189145 1.178 
-0.659279 0.188824 1.176 
-0.613436 0.189145 1.178 
-0.56551 0.188824 1.176 
-0.519066 0.188985 1.177 
-0.473746 0.189627 1.181 
-0.427023 0.189787 1.182 
-0.379578 0.189627 1.181 
-0.333057 0.189948 1.183 
-0.286377 0.190269 1.185 
-0.239335 0.19043 1.186 
-0.19189 0.190269 1.185 
-0.145012 0.190751 1.188 
-0.0972384 0.189948 1.183 
-0.0504556 0.191393 1.192 
-0.00292567 0.190911 1.189 
0.0444773 0.190911 1.189 
0.0920348 0.191233 1.191 
0.139283 0.190911 1.189 
0.187157 0.191393 1.192 
0.234483 0.191233 1.191 
0.281966 0.191233 1.191 
0.328895 0.190911 1.189 
0.376298 0.190911 1.189 
0.423701 0.190911 1.189 
0.471104 0.190911 1.189 
0.516763 0.190269 1.185 
0.529956 0.177906 1.108 
0.522831 0.16201 1.009 
0.518415 0.149165 0.929 
0.515393 0.138407 0.862 
0.514044 0.129415 0.806 
0.508229 0.120424 0.75 
0.508216 0.113359 0.706 
0.507493 0.107257 0.668 
0.503741 0.101156 0.63 
0.503674 0.0963388 0.6 
0.503853 0.0920036 0.573 
0.50004 0.0873472 0.544 
0.49967 0.0836542 0.521 
-1.06464 0.192071 1.179 
-1.02023 0.192559 1.182 
-0.973106 0.192559 1.182 
-0.926766 0.192722 1.183 
-0.878115 0.192397 1.181 
-0.829623 0.192071 1.179 
-0.781955 0.191908 1.178 
-0.733743 0.191582 1.176 
-0.687443 0.191745 1.177 
-0.63943 0.191419 1.175 
-0.594098 0.191908 1.178 
-0.547133 0.191908 1.178 
-0.500169 0.191908 1.178 
-0.454359 0.192397 1.181 
-0.407964 0.192722 1.183 
-0.360191 0.192397 1.181 
-0.314167 0.193048 1.185 
-0.266924 0.193048 1.185 
-0.220236 0.193537 1.188 
-0.172582 0.193211 1.186 
-0.125193 0.193048 1.185 
-0.078147 0.193537 1.188 
-0.0308616 0.194026 1.191 
0.0166211 0.194026 1.191 
0.0641038 0.194026 1.191 
0.111587 0.194026 1.191 
0.159203 0.194189 1.192 
0.206552 0.194026 1.191 
0.254248 0.194189 1.192 
0.301011 0.1937 1.189 
0.348414 0.1937 1.189 
0.396483 0.194026 1.191 
0.44322 0.1937 1.189 
0.491448 0.194026 1.191 
0.531691 0.191419 1.175 
0.527382 0.172847 1.061 
0.522969 0.158674 0.974 
0.517753 0.145641 0.894 
0.513861 0.134726 0.827 
0.509803 0.125603 0.771 
0.511095 0.118761 0.729 
0.506075 0.111267 0.683 
0.507537 0.105891 0.65 
0.504915 0.099375 0.61 
0.504075 0.0946506 0.581 
0.500014 0.0897633 0.551 
0.500192 0.0860164 0.528 
0.501499 0.0827582 0.508 
-1.03045 0.195166 1.181 
-0.983361 0.195166 1.181 
-0.939449 0.195827 1.185 
-0.889193 0.195166 1.181 
-0.840683 0.194836 1.179 
-0.793679 0.194836 1.179 
-0.744775 0.19434 1.176 
-0.698484 0.194505 1.177 
-0.650452 0.194175 1.175 
-0.605148 0.19467 1.178 
-0.55771 0.194505 1.177 
-0.510785 0.194505 1.177 
-0.465831 0.195331 1.182 
-0.419062 0.195497 1.183 
-0.371269 0.195166 1.181 
-0.324734 0.195497 1.183 
-0.27804 0.195827 1.185 
-0.231381 0.196323 1.188 
-0.183553 0.195827 1.185 
-0.136424 0.195992 1.186 
-0.0891409 0.195992 1.186 
-0.042034 0.196819 1.191 
0.00544871 0.196819 1.191 
0.0528425 0.196488 1.189 
0.100245 0.196488 1.189 
0.147897 0.196819 1.191 
0.195544 0.196984 1.192 
0.242862 0.196819 1.191 
0.290345 0.196819 1.191 
0.33726 0.196488 1.189 
0.38531 0.196819 1.191 
0.432066 0.196488 1.189 
0.479469 0.196488 1.189 
0.52377 0.195331 1.182 
0.530471 0.180624 1.093 
0.524153 0.164925 0.998 
0.51704 0.151208 0.915 
0.511479 0.138649 0.839 
0.512453 0.130386 0.789 
0.510462 0.121132 0.733 
0.507289 0.113861 0.689 
0.507593 0.108077 0.654 
0.506369 0.101962 0.617 
0.50429 0.0968394 0.586 
0.50154 0.0920471 0.557 
0.500239 0.0879157 0.532 
0.499885 0.0842801 0.51 
-1.04429 0.197936 1.181 
-0.99721 0.197936 1.181 
-0.951735 0.198271 1.183 
-0.903806 0.198103 1.182 
-0.855958 0.197936 1.181 
-0.807504 0.197601 1.179 
-0.759209 0.197265 1.177 
-0.713495 0.197601 1.179 
-0.664795 0.197098 1.176 
-0.618961 0.197433 1.178 
-0.571511 0.197265 1.177 
-0.524587 0.197265 1.177 
-0.479286 0.197936 1.181 
-0.432567 0.198103 1.182 
-0.384465 0.197601 1.179 
-0.338606 0.198271 1.183 
-0.291442 0.198271 1.183 
-0.244898 0.198774 1.186 
-0.197448 0.198606 1.185 
-0.150585 0.199109 1.188 
-0.103048 0.198774 1.186 
-0.0561405 0.200115 1.194 
-0.00851679 0.199612 1.191 
0.0389005 0.199277 1.189 
0.0863034 0.199277 1.189 
0.133706 0.199277 1.189 
0.181566 0.199779 1.192 
0.228512 0.199277 1.189 
0.275915 0.199277 1.189 
0.323318 0.199277 1.189 
0.370721 0.199277 1.189 
0.418124 0.199277 1.189 
0.465136 0.199109 1.188 
0.512499 0.199109 1.188 
0.536299 0.190729 1.138 
0.527171 0.171287 1.022 
0.519015 0.156539 0.934 
0.513593 0.142293 0.849 
0.515201 0.133913 0.799 
0.511866 0.124024 0.74 
0.506252 0.115979 0.692 
0.507612 0.110281 0.658 
0.50574 0.103577 0.618 
0.504632 0.0985489 0.588 
0.50203 0.0936885 0.559 
0.500867 0.0894985 0.534 
0.500645 0.0858113 0.512 
-1.04429 0.200705 1.181 
-0.99721 0.200705 1.181 
-0.951735 0.201045 1.183 
-0.903806 0.200875 1.182 
-0.855958 0.200705 1.181 
-0.807504 0.200366 1.179 
-0.759209 0.200026 1.177 
-0.713495 0.200366 1.179 
-0.664795 0.199856 1.176 
-0.618961 0.200196 1.178 
-0.571511 0.200026 1.177 
-0.524587 0.200026 1.177 
-0.479286 0.200705 1.181 
-0.432567 0.200875 1.182 
-0.384465 0.200366 1.179 
-0.338606 0.201045 1.183 
-0.291442 0.201045 1.183 
-0.244898 0.201555 1.186 
-0.197448 0.201385 1.185 
-0.150331 0.201555 1.186 
-0.103222 0.201895 1.188 
-0.0560465 0.202575 1.192 
-0.00851679 0.202405 1.191 
0.0389005 0.202065 1.189 
0.0864486 0.202405 1.191 
0.133706 0.202065 1.189 
0.181566 0.202575 1.192 
0.228512 0.202065 1.189 
0.275915 0.202065 1.189 
0.323862 0.202405 1.191 
0.370721 0.202065 1.189 
0.418828 0.202405 1.191 
0.465136 0.201895 1.188 
0.512499 0.201895 1.188 
0.53677 0.193568 1.139 
0.528511 0.175723 1.034 
0.522348 0.161108 0.948 
0.512403 0.145643 0.857 
0.513406 0.136806 0.805 
0.509585 0.127799 0.752 
0.50943 0.120661 0.71 
0.506684 0.113693 0.669 
0.505452 0.107745 0.634 
0.503104 0.102137 0.601 
0.503386 0.0975486 0.574 
0.499682 0.0926202 0.545 
0.499405 0.0887115 0.522 
-1.06922 0.203475 1.181 
-1.02214 0.203475 1.181 
-0.976704 0.20382 1.183 
-0.92954 0.20382 1.183 
-0.88163 0.203647 1.182 
-0.8338 0.203475 1.181 
-0.785384 0.203131 1.179 
-0.737754 0.202958 1.178 
-0.690203 0.202786 1.177 
-0.642732 0.202614 1.176 
-0.596354 0.202786 1.177 
-0.549429 0.202786 1.177 
-0.502932 0.202958 1.178 
-0.457515 0.203647 1.182 
-0.410739 0.20382 1.183 
-0.36296 0.203475 1.181 
-0.316411 0.20382 1.183 
-0.26993 0.204337 1.186 
-0.222459 0.204164 1.185 
-0.175659 0.204681 1.188 
-0.127756 0.20382 1.183 
-0.0810011 0.204853 1.189 
-0.0335699 0.204681 1.188 
0.013828 0.205198 1.191 
0.0612077 0.204853 1.189 
0.108611 0.204853 1.189 
0.156276 0.205198 1.191 
0.203759 0.205198 1.191 
0.251242 0.205198 1.191 
0.298724 0.205198 1.191 
0.345626 0.204853 1.189 
0.39369 0.205198 1.191 
0.441172 0.205198 1.191 
0.487834 0.204853 1.189 
0.529385 0.202614 1.176 
0.532658 0.18728 1.087 
0.523535 0.170223 0.988 
0.519622 0.157129 0.912 
0.513308 0.145069 0.842 
0.512453 0.135937 0.789 
0.511509 0.12784 0.742 
0.506817 0.119742 0.695 
0.506838 0.113539 0.659 
0.504797 0.107509 0.624 
0.5039 0.101996 0.592 
0.502552 0.0971719 0.564 
0.500834 0.0926923 0.538 
0.500925 0.0889019 0.516 
-1.04706 0.206245 1.181 
-0.999979 0.206245 1.181 
-0.954509 0.206594 1.183 
-0.906578 0.206419 1.182 
-0.858727 0.206245 1.181 
-0.811643 0.206245 1.181 
-0.762617 0.205721 1.178 
-0.71626 0.205895 1.179 
-0.668121 0.205546 1.177 
-0.621196 0.205546 1.177 
-0.574272 0.205546 1.177 
-0.527795 0.205721 1.178 
-0.481239 0.205895 1.179 
-0.435339 0.206419 1.182 
-0.38723 0.205895 1.179 
-0.34138 0.206594 1.183 
-0.294216 0.206594 1.183 
-0.24747 0.206943 1.185 
-0.200227 0.206943 1.185 
-0.153113 0.207118 1.186 
-0.105829 0.207118 1.186 
-0.058842 0.208166 1.192 
-0.0112909 0.207642 1.189 
0.0361728 0.207991 1.191 
0.0836555 0.207991 1.191 
0.130918 0.207642 1.189 
0.178771 0.208166 1.192 
0.226104 0.207991 1.191 
0.273127 0.207642 1.189 
0.321069 0.207991 1.191 
0.368552 0.207991 1.191 
0.416034 0.207991 1.191 
0.462739 0.207642 1.189 
0.510142 0.207642 1.189 
0.536443 0.199783 1.144 
0.5327 0.182844 1.047 
0.522319 0.166253 0.952 
0.517312 0.153505 0.879 
0.514024 0.142852 0.818 
0.51055 0.133422 0.764 
0.509851 0.125738 0.72 
0.50714 0.118403 0.678 
0.507383 0.112465 0.644 
0.504915 0.106528 0.61 
0.504075 0.101463 0.581 
0.500921 0.0963989 0.552 
0.50114 0.0923823 0.529 
-1.06922 0.209014 1.181 
-1.02214 0.209014 1.181 
-0.976704 0.209368 1.183 
-0.928754 0.209191 1.182 
-0.88163 0.209191 1.182 
-0.834506 0.209191 1.182 
-0.785384 0.20866 1.179 
-0.737754 0.208483 1.178 
-0.690203 0.208306 1.177 
-0.642732 0.208129 1.176 
-0.596354 0.208306 1.177 
-0.549429 0.208306 1.177 
-0.502932 0.208483 1.178 
-0.457128 0.209014 1.181 
-0.410391 0.209191 1.182 
-0.36296 0.209014 1.181 
-0.316411 0.209368 1.183 
-0.26993 0.209899 1.186 
-0.222459 0.209722 1.185 
-0.175363 0.209899 1.186 
-0.127756 0.209368 1.183 
-0.0810011 0.21043 1.189 
-0.0335134 0.209899 1.186 
0.013828 0.210784 1.191 
0.0612077 0.21043 1.189 
0.108611 0.21043 1.189 
0.156276 0.210784 1.191 
0.20393 0.210961 1.192 
0.251242 0.210784 1.191 
0.298975 0.210961 1.192 
0.346207 0.210784 1.191 
0.39369 0.210784 1.191 
0.441172 0.210784 1.191 
0.487834 0.21043 1.189 
0.529385 0.208129 1.176 
0.535108 0.193263 1.092 
0.524065 0.175034 0.989 
0.521332 0.161938 0.915 
0.515137 0.149549 0.845 
0.513103 0.139815 0.79 
0.511509 0.13132 0.742 
0.508275 0.123356 0.697 
0.507607 0.116099 0.656 
0.504469 0.109728 0.62 
0.504965 0.104419 0.59 
0.50251 0.0992863 0.561 
0.501805 0.0946848 0.535 
0.501622 0.0907912 0.513 
-1.02594 0.211425 1.179 
-0.982252 0.212143 1.183 
-0.934298 0.211963 1.182 
-0.887174 0.211963 1.182 
-0.84005 0.211963 1.182 
-0.792256 0.211784 1.181 
-0.743279 0.211246 1.178 
-0.695723 0.211067 1.177 
-0.648247 0.210887 1.176 
-0.601874 0.211067 1.177 
-0.55495 0.211067 1.177 
-0.508888 0.211425 1.179 
-0.461884 0.211425 1.179 
-0.415935 0.211963 1.182 
-0.3685 0.211784 1.181 
-0.32196 0.212143 1.183 
-0.275493 0.212681 1.186 
-0.228017 0.212501 1.185 
-0.180774 0.212501 1.185 
-0.133305 0.212143 1.183 
-0.0865051 0.213039 1.188 
-0.039142 0.213039 1.188 
0.00824181 0.213577 1.191 
0.0556309 0.213219 1.189 
0.103034 0.213219 1.189 
0.15069 0.213577 1.191 
0.198672 0.214115 1.194 
0.245655 0.213577 1.191 
0.293138 0.213577 1.191 
0.340621 0.213577 1.191 
0.388103 0.213577 1.191 
0.435586 0.213577 1.191 
0.482258 0.213219 1.189 
0.526097 0.211784 1.181 
0.537266 0.198514 1.107 
0.524065 0.177353 0.989 
0.521332 0.164083 0.915 
0.515746 0.15171 0.846 
0.513103 0.141668 0.79 
0.511509 0.13306 0.742 
0.509005 0.12517 0.698 
0.506068 0.117997 0.658 
0.505606 0.112079 0.625 
0.50549 0.105623 0.589 
0.50203 0.100243 0.559 
0.502119 0.0957601 0.534 
0.502064 0.0916356 0.511 
-1.02214 0.214554 1.181 
-0.975878 0.214735 1.182 
-0.928754 0.214735 1.182 
-0.88163 0.214735 1.182 
-0.834506 0.214735 1.182 
-0.786717 0.214554 1.181 
-0.73838 0.21419 1.179 
-0.690203 0.213827 1.177 
-0.643278 0.213827 1.177 
-0.596354 0.213827 1.177 
-0.549429 0.213827 1.177 
-0.503358 0.21419 1.179 
-0.456354 0.21419 1.179 
-0.410391 0.214735 1.182 
-0.36296 0.214554 1.181 
-0.316946 0.21528 1.185 
-0.26993 0.215462 1.186 
-0.222459 0.21528 1.185 
-0.175363 0.215462 1.186 
-0.127756 0.214917 1.183 
-0.0807968 0.215462 1.186 
-0.0335134 0.215462 1.186 
0.013828 0.21637 1.191 
0.0613107 0.21637 1.191 
0.108611 0.216007 1.189 
0.156276 0.21637 1.191 
0.20393 0.216552 1.192 
0.251242 0.21637 1.191 
0.298975 0.216552 1.192 
0.346207 0.21637 1.191 
0.39369 0.21637 1.191 
0.441172 0.21637 1.191 
0.487834 0.216007 1.189 
0.529385 0.213645 1.176 
0.535598 0.198567 1.093 
0.522658 0.178401 0.982 
0.521189 0.165502 0.911 
0.515894 0.153149 0.843 
0.513 0.142975 0.787 
0.511866 0.134437 0.74 
0.509178 0.126443 0.696 
0.50684 0.119358 0.657 
0.505449 0.113181 0.623 
0.504965 0.107186 0.59 
0.504302 0.102281 0.563 
0.502743 0.0973758 0.536 
0.501622 0.0931973 0.513 
-1.03598 0.217323 1.181 
-0.990575 0.217691 1.183 
-0.942614 0.217507 1.182 
-0.89549 0.217507 1.182 
-0.847649 0.217323 1.181 
-0.800565 0.217323 1.181 
-0.752205 0.216955 1.179 
-0.704004 0.216587 1.177 
-0.65708 0.216587 1.177 
-0.610155 0.216587 1.177 
-0.56323 0.216587 1.177 
-0.517183 0.216955 1.179 
-0.470179 0.216955 1.179 
-0.423893 0.217323 1.181 
-0.377128 0.217507 1.182 
-0.330004 0.217507 1.182 
-0.283598 0.218059 1.185 
-0.236354 0.218059 1.185 
-0.189111 0.218059 1.185 
-0.141867 0.218059 1.185 
-0.0947036 0.218243 1.186 
-0.0476202 0.219164 1.191 
-0.000137259 0.218795 1.189 
0.0473452 0.219164 1.191 
0.0948279 0.219164 1.191 
0.142311 0.219164 1.191 
0.189953 0.219348 1.192 
0.237475 0.219348 1.192 
0.284759 0.219164 1.191 
0.332241 0.219164 1.191 
0.379724 0.219164 1.191 
0.427565 0.219348 1.192 
0.473892 0.218795 1.189 
0.51998 0.218243 1.186 
0.535696 0.206098 1.12 
0.523115 0.184936 1.005 
0.522275 0.171503 0.932 
0.518015 0.158806 0.863 
0.514014 0.147765 0.803 
0.511348 0.13838 0.752 
0.508936 0.1301 0.707 
0.508253 0.123107 0.669 
0.506939 0.116666 0.634 
0.5048 0.110042 0.598 
0.503004 0.104705 0.569 
0.501668 0.0999209 0.543 
0.503078 0.0960566 0.522 
-1.05822 0.219534 1.178 
-1.01383 0.220093 1.181 
-0.968381 0.220466 1.183 
-0.920438 0.220279 1.182 
-0.873314 0.220279 1.182 
-0.82689 0.220466 1.183 
-0.778408 0.220093 1.181 
-0.730085 0.21972 1.179 
-0.681343 0.219161 1.176 
-0.635537 0.219534 1.178 
-0.588573 0.219534 1.178 
-0.541608 0.219534 1.178 
-0.495064 0.21972 1.179 
-0.447299 0.219348 1.177 
-0.401055 0.21972 1.179 
-0.354651 0.220093 1.181 
-0.308609 0.220838 1.185 
-0.261586 0.221025 1.186 
-0.214303 0.221025 1.186 
-0.167019 0.221025 1.186 
-0.119433 0.220466 1.183 
-0.0725748 0.221398 1.188 
-0.0252117 0.221398 1.188 
0.022226 0.222143 1.192 
0.06969 0.221957 1.191 
0.116976 0.221584 1.189 
0.164655 0.221957 1.191 
0.212316 0.222143 1.192 
0.259185 0.221584 1.189 
0.307104 0.221957 1.191 
0.354586 0.221957 1.191 
0.402406 0.222143 1.192 
0.449552 0.221957 1.191 
0.497034 0.221957 1.191 
0.534459 0.217857 1.169 
0.536329 0.201084 1.079 
0.524174 0.181143 0.972 
0.518105 0.166048 0.891 
0.516967 0.155053 0.832 
0.51377 0.144803 0.777 
0.510394 0.135671 0.728 
0.509039 0.12803 0.687 
0.505976 0.120762 0.648 
0.506369 0.114985 0.617 
0.503938 0.108835 0.584 
0.502846 0.103803 0.557 
0.502429 0.0993307 0.533 
0.501081 0.0950444 0.51 
-1.03875 0.222863 1.181 
-0.99335 0.22324 1.183 
-0.945386 0.223051 1.182 
-0.899022 0.22324 1.183 
-0.851138 0.223051 1.182 
-0.804015 0.223051 1.182 
-0.75497 0.222485 1.179 
-0.706764 0.222108 1.177 
-0.659279 0.221919 1.176 
-0.613436 0.222297 1.178 
-0.565991 0.222108 1.177 
-0.52083 0.222863 1.181 
-0.472944 0.222485 1.179 
-0.42594 0.222485 1.179 
-0.3799 0.223051 1.182 
-0.332776 0.223051 1.182 
-0.286377 0.223617 1.185 
-0.239133 0.223617 1.185 
-0.19189 0.223617 1.185 
-0.144768 0.223806 1.186 
-0.0974028 0.223617 1.185 
-0.0504556 0.224938 1.192 
-0.00292567 0.224372 1.189 
0.0445895 0.224938 1.192 
0.0921121 0.224938 1.192 
0.139518 0.22475 1.191 
0.187 0.22475 1.191 
0.23468 0.224938 1.192 
0.281966 0.22475 1.191 
0.329448 0.22475 1.191 
0.376931 0.22475 1.191 
0.42477 0.224938 1.192 
0.471896 0.22475 1.191 
0.518071 0.224184 1.188 
0.535449 0.212295 1.125 
0.525623 0.192292 1.019 
0.525127 0.178328 0.945 
0.518731 0.164364 0.871 
0.516602 0.153419 0.813 
0.511873 0.14304 0.758 
0.509911 0.134548 0.713 
0.50889 0.127188 0.674 
0.50635 0.120206 0.637 
0.503104 0.113413 0.601 
0.503386 0.108318 0.574 
0.501879 0.103034 0.546 
0.502547 0.0988823 0.524 
-1.06194 0.224677 1.176 
-1.01937 0.225632 1.181 
-0.973929 0.226014 1.183 
-0.925982 0.225823 1.182 
-0.878858 0.225823 1.182 
-0.831734 0.225823 1.182 
-0.783947 0.225632 1.181 
-0.735615 0.22525 1.179 
-0.686858 0.224677 1.176 
-0.640518 0.224868 1.177 
-0.594098 0.225059 1.178 
-0.547133 0.225059 1.178 
-0.501443 0.225632 1.181 
-0.453589 0.22525 1.179 
-0.406585 0.22525 1.179 
-0.360191 0.225632 1.181 
-0.314167 0.226397 1.185 
-0.266924 0.226397 1.185 
-0.219865 0.226588 1.186 
-0.172437 0.226397 1.185 
-0.125299 0.226588 1.186 
-0.0778181 0.226014 1.183 
-0.0307839 0.22697 1.188 
0.0166211 0.227543 1.191 
0.0641038 0.227543 1.191 
0.111587 0.227543 1.191 
0.159069 0.227543 1.191 
0.206552 0.227543 1.191 
0.254035 0.227543 1.191 
0.30177 0.227734 1.192 
0.349 0.227543 1.191 
0.396483 0.227543 1.191 
0.443965 0.227543 1.191 
0.491861 0.227734 1.192 
0.531691 0.224486 1.175 
0.533237 0.206909 1.083 
0.523723 0.187995 0.984 
0.520045 0.173666 0.909 
0.51773 0.16163 0.846 
0.515607 0.151122 0.791 
0.511866 0.141378 0.74 
0.50991 0.133163 0.697 
0.50684 0.125521 0.657 
0.50626 0.119216 0.624 
0.504435 0.112912 0.591 
0.504768 0.107944 0.565 
0.501486 0.102404 0.536 
0.50237 0.0983917 0.515 
-1.04529 0.228015 1.179 
-1.00167 0.228789 1.183 
-0.953702 0.228595 1.182 
-0.907345 0.228789 1.183 
-0.859454 0.228595 1.182 
-0.812331 0.228595 1.182 
-0.764559 0.228402 1.181 
-0.715653 0.227822 1.178 
-0.667553 0.227435 1.176 
-0.622252 0.228015 1.179 
-0.574759 0.227822 1.178 
-0.529139 0.228402 1.181 
-0.481239 0.228015 1.179 
-0.434234 0.228015 1.179 
-0.38723 0.228015 1.179 
-0.340803 0.228402 1.181 
-0.294714 0.229176 1.185 
-0.247053 0.228789 1.183 
-0.200227 0.229176 1.185 
-0.153371 0.229756 1.188 
-0.105472 0.228595 1.182 
-0.0587926 0.230336 1.191 
-0.0112814 0.229756 1.188 
0.0362032 0.230529 1.192 
0.0837257 0.230529 1.192 
0.131138 0.230336 1.191 
0.178621 0.230336 1.191 
0.226293 0.230529 1.192 
0.273127 0.229949 1.189 
0.321069 0.230336 1.191 
0.368552 0.230336 1.191 
0.416384 0.230529 1.192 
0.463906 0.230529 1.192 
0.510142 0.229949 1.189 
0.534568 0.220473 1.14 
0.52863 0.20094 1.039 
0.523965 0.184694 0.955 
0.519077 0.170576 0.882 
0.515909 0.158779 0.821 
0.514559 0.148916 0.77 
0.509851 0.139246 0.72 
0.509384 0.131703 0.681 
0.506595 0.124354 0.643 
0.505743 0.118166 0.611 
0.504942 0.112557 0.582 
0.500921 0.106755 0.552 
0.50114 0.102307 0.529 
0.502486 0.0984391 0.509 
-1.03322 0.231172 1.181 
-0.987801 0.231563 1.183 
-0.939842 0.231367 1.182 
-0.894984 0.231955 1.185 
-0.845594 0.231367 1.182 
-0.797795 0.231172 1.181 
-0.74944 0.23078 1.179 
-0.701244 0.230389 1.177 
-0.653763 0.230193 1.176 
-0.607911 0.230584 1.178 
-0.56047 0.230389 1.177 
-0.515727 0.231367 1.182 
-0.468207 0.231172 1.181 
-0.42041 0.23078 1.179 
-0.374356 0.231367 1.182 
-0.327509 0.231563 1.183 
-0.281056 0.23215 1.186 
-0.233772 0.23215 1.186 
-0.186332 0.231955 1.185 
-0.139558 0.232738 1.189 
-0.0916897 0.231563 1.183 
-0.0448271 0.233129 1.191 
0.00265115 0.232738 1.189 
0.0501804 0.233325 1.192 
0.097703 0.233325 1.192 
0.145104 0.233129 1.191 
0.192586 0.233129 1.191 
0.240271 0.233325 1.192 
0.287552 0.233129 1.191 
0.335035 0.233129 1.191 
0.382517 0.233129 1.191 
0.430361 0.233325 1.192 
0.478685 0.233716 1.194 
0.522761 0.23215 1.186 
0.533035 0.217078 1.109 
0.523636 0.196917 1.006 
0.52446 0.182432 0.932 
0.519436 0.16873 0.862 
0.516539 0.157377 0.804 
0.510767 0.146024 0.746 
0.510803 0.137998 0.705 
0.509097 0.130364 0.666 
0.506696 0.123318 0.63 
0.505644 0.11725 0.599 
0.503888 0.111573 0.57 
0.502592 0.106484 0.544 
0.503078 0.102177 0.522 
-1.05732 0.233149 1.177 
-1.01469 0.234139 1.182 
-0.967562 0.234139 1.182 
-0.921217 0.234337 1.183 
-0.874053 0.234337 1.183 
-0.82689 0.234337 1.183 
-0.778408 0.233941 1.181 
-0.730085 0.233545 1.179 
-0.681922 0.233149 1.177 
-0.634997 0.233149 1.177 
-0.588573 0.233347 1.178 
-0.541608 0.233347 1.178 
-0.495903 0.233941 1.181 
-0.448059 0.233545 1.179 
-0.401055 0.233545 1.179 
-0.354651 0.233941 1.181 
-0.308609 0.234734 1.185 
-0.261366 0.234734 1.185 
-0.214303 0.234932 1.186 
-0.167301 0.235328 1.188 
-0.119635 0.234734 1.185 
-0.0722694 0.234337 1.183 
-0.0252117 0.235328 1.188 
0.022226 0.23612 1.192 
0.0697485 0.23612 1.192 
0.117173 0.235922 1.191 
0.164655 0.235922 1.191 
0.212138 0.235922 1.191 
0.259621 0.235922 1.191 
0.307361 0.23612 1.192 
0.354586 0.235922 1.191 
0.402069 0.235922 1.191 
0.449552 0.235922 1.191 
0.497452 0.23612 1.192 
0.534459 0.231564 1.169 
0.532367 0.211161 1.066 
0.525253 0.192937 0.974 
0.517753 0.17709 0.894 
0.51821 0.165205 0.834 
0.513602 0.15332 0.774 
0.512102 0.144208 0.728 
0.51065 0.136086 0.687 
0.506712 0.128163 0.647 
0.506993 0.122022 0.616 
0.503938 0.115683 0.584 
0.503749 0.110533 0.558 
0.502429 0.105581 0.533 
0.500098 0.100826 0.509 
-1.03409 0.236911 1.182 
-0.987801 0.237112 1.183 
-0.939842 0.236911 1.182 
-0.894984 0.237513 1.185 
-0.845594 0.236911 1.182 
-0.797795 0.236711 1.181 
-0.74944 0.23631 1.179 
-0.701244 0.235909 1.177 
-0.653763 0.235709 1.176 
-0.607911 0.23611 1.178 
-0.560946 0.23611 1.178 
-0.515727 0.236911 1.182 
-0.468603 0.236911 1.182 
-0.421123 0.236711 1.181 
-0.374039 0.236711 1.181 
-0.327509 0.237112 1.183 
-0.281056 0.237713 1.186 
-0.233772 0.237713 1.186 
-0.186332 0.237513 1.185 
-0.139558 0.238314 1.189 
-0.0916897 0.237112 1.183 
-0.0447518 0.238314 1.189 
0.00265115 0.238314 1.189 
0.0501804 0.238916 1.192 
0.097621 0.238715 1.191 
0.145104 0.238715 1.191 
0.192586 0.238715 1.191 
0.240271 0.238916 1.192 
0.287552 0.238715 1.191 
0.334472 0.238314 1.189 
0.382517 0.238715 1.191 
0.430361 0.238916 1.192 
0.478685 0.239317 1.194 
0.522761 0.237713 1.186 
0.532555 0.222079 1.108 
0.526238 0.202637 1.011 
0.524516 0.187605 0.936 
0.519815 0.173575 0.866 
0.518494 0.16235 0.81 
0.513388 0.151327 0.755 
0.512535 0.142708 0.712 
0.508253 0.134089 0.669 
0.508538 0.127475 0.636 
0.504513 0.12046 0.601 
0.504732 0.115048 0.574 
0.502798 0.109637 0.547 
0.501588 0.104826 0.523 
-1.05911 0.239075 1.179 
-1.01469 0.239683 1.182 
-0.967562 0.239683 1.182 
-0.921217 0.239886 1.183 
-0.874053 0.239886 1.183 
-0.82689 0.239886 1.183 
-0.777089 0.239075 1.179 
-0.730085 0.239075 1.179 
-0.681922 0.238669 1.177 
-0.634997 0.238669 1.177 
-0.588573 0.238872 1.178 
-0.541608 0.238872 1.178 
-0.495903 0.239481 1.181 
-0.448059 0.239075 1.179 
-0.401735 0.239481 1.181 
-0.354651 0.239481 1.181 
-0.308609 0.240292 1.185 
-0.260924 0.239886 1.183 
-0.214122 0.240292 1.185 
-0.167301 0.2409 1.188 
-0.119635 0.240292 1.185 
-0.0722694 0.239886 1.183 
-0.0251693 0.240494 1.186 
0.022226 0.241711 1.192 
0.06969 0.241508 1.191 
0.117173 0.241508 1.191 
0.164794 0.241711 1.192 
0.211782 0.241103 1.189 
0.259621 0.241508 1.191 
0.307361 0.241711 1.192 
0.354586 0.241508 1.191 
0.402069 0.241508 1.191 
0.449552 0.241508 1.191 
0.497452 0.241711 1.192 
0.534459 0.237047 1.169 
0.532367 0.216161 1.066 
0.525792 0.197708 0.975 
0.518332 0.181486 0.895 
0.518111 0.169725 0.837 
0.51656 0.158978 0.784 
0.511482 0.148433 0.732 
0.511121 0.140322 0.692 
0.506013 0.131806 0.65 
0.50574 0.125317 0.618 
0.50549 0.119436 0.589 
0.503826 0.113758 0.561 
0.502743 0.108689 0.536 
0.501081 0.103417 0.51 
-1.02855 0.242455 1.182 
-0.981422 0.242455 1.182 
-0.934298 0.242455 1.182 
-0.889426 0.243071 1.185 
-0.84005 0.242455 1.182 
-0.790914 0.24184 1.179 
-0.74391 0.24184 1.179 
-0.695132 0.241225 1.176 
-0.648247 0.241225 1.176 
-0.602386 0.241635 1.178 
-0.555421 0.241635 1.178 
-0.509752 0.24225 1.181 
-0.463059 0.242455 1.182 
-0.415584 0.24225 1.181 
-0.3685 0.24225 1.181 
-0.32196 0.24266 1.183 
-0.275958 0.243686 1.188 
-0.228017 0.243071 1.185 
-0.181231 0.243686 1.188 
-0.133981 0.243891 1.189 
-0.0861411 0.24266 1.183 
-0.039142 0.243686 1.188 
0.00824181 0.244301 1.191 
0.0557245 0.244301 1.191 
0.103207 0.244301 1.191 
0.15069 0.244301 1.191 
0.198173 0.244301 1.191 
0.245862 0.244507 1.192 
0.293138 0.244301 1.191 
0.340621 0.244301 1.191 
0.387452 0.243891 1.189 
0.435586 0.244301 1.191 
0.484286 0.244917 1.194 
0.528324 0.243276 1.186 
0.530471 0.224199 1.093 
0.526254 0.205533 1.002 
0.524951 0.190559 0.929 
0.517828 0.175585 0.856 
0.51907 0.165124 0.805 
0.512821 0.153637 0.749 
0.510803 0.144612 0.705 
0.506838 0.135176 0.659 
0.507224 0.128612 0.627 
0.505907 0.122253 0.596 
0.503896 0.116305 0.567 
0.503286 0.111177 0.542 
0.501652 0.106254 0.518 
-1.04051 0.245435 1.183 
-0.99251 0.245227 1.182 
-0.944586 0.24502 1.181 
-0.900542 0.24585 1.185 
-0.851138 0.245227 1.182 
-0.803334 0.24502 1.181 
-0.75497 0.244605 1.179 
-0.706764 0.24419 1.177 
-0.659279 0.243982 1.176 
-0.613436 0.244397 1.178 
-0.566472 0.244397 1.178 
-0.52083 0.24502 1.181 
-0.474548 0.245435 1.183 
-0.426662 0.24502 1.181 
-0.3799 0.245227 1.182 
-0.332776 0.245227 1.182 
-0.286618 0.246057 1.186 
-0.239133 0.24585 1.185 
-0.192052 0.246057 1.186 
-0.145012 0.246472 1.188 
-0.0972384 0.245435 1.183 
-0.0502863 0.246472 1.188 
-0.00292567 0.24668 1.189 
0.0445521 0.247095 1.191 
0.0918803 0.24668 1.189 
0.139518 0.247095 1.191 
0.187157 0.247302 1.192 
0.234483 0.247095 1.191 
0.281966 0.247095 1.191 
0.329448 0.247095 1.191 
0.376931 0.247095 1.191 
0.42477 0.247302 1.192 
0.472293 0.247302 1.192 
0.517199 0.246057 1.186 
0.529261 0.230705 1.112 
0.529234 0.212862 1.026 
0.52735 0.196887 0.949 
0.519578 0.18029 0.869 
0.521059 0.169501 0.817 
0.513651 0.157261 0.758 
0.513018 0.14834 0.715 
0.508199 0.139211 0.671 
0.508641 0.132365 0.638 
0.506452 0.125518 0.605 
0.504263 0.119294 0.575 
0.503349 0.1139 0.549 
0.502275 0.108921 0.525 
-1.06091 0.247789 1.181 
-1.01469 0.247999 1.182 
-0.966744 0.247789 1.181 
-0.921217 0.248209 1.183 
-0.873314 0.247999 1.182 
-0.82689 0.248209 1.183 
-0.778408 0.247789 1.181 
-0.730085 0.24737 1.179 
-0.681922 0.24695 1.177 
-0.634997 0.24695 1.177 
-0.588573 0.24716 1.178 
-0.542068 0.24737 1.179 
-0.495064 0.24737 1.179 
-0.448819 0.247789 1.181 
-0.401735 0.247789 1.181 
-0.354952 0.247999 1.182 
-0.308609 0.248629 1.185 
-0.260924 0.248209 1.183 
-0.214122 0.248629 1.185 
-0.167442 0.249468 1.189 
-0.119635 0.248629 1.185 
-0.0722694 0.248209 1.183 
-0.0251693 0.248839 1.186 
0.0222073 0.249888 1.191 
0.06969 0.249888 1.191 
0.116976 0.249468 1.189 
0.164794 0.250097 1.192 
0.212138 0.249888 1.191 
0.259621 0.249888 1.191 
0.307361 0.250097 1.192 
0.354586 0.249888 1.191 
0.402069 0.249888 1.191 
0.449552 0.249888 1.191 
0.497034 0.249888 1.191 
0.534459 0.245272 1.169 
0.535363 0.22492 1.072 
0.525792 0.204568 0.975 
0.51949 0.188203 0.897 
0.516873 0.175194 0.835 
0.515901 0.164284 0.783 
0.512879 0.154003 0.734 
0.511121 0.145191 0.692 
0.50757 0.136798 0.652 
0.506558 0.129874 0.619 
0.506348 0.12379 0.59 
0.503826 0.117705 0.561 
0.502743 0.11246 0.536 
0.501622 0.107634 0.513 
-1.03774 0.250983 1.183 
-0.990575 0.250983 1.183 
-0.941817 0.250559 1.181 
-0.897763 0.251408 1.185 
-0.847649 0.250559 1.181 
-0.800565 0.250559 1.181 
-0.752205 0.250135 1.179 
-0.704004 0.249711 1.177 
-0.65708 0.249711 1.177 
-0.610673 0.249923 1.178 
-0.564188 0.250135 1.179 
-0.517183 0.250135 1.179 
-0.471774 0.250983 1.183 
-0.423893 0.250559 1.181 
-0.377128 0.250771 1.182 
-0.330004 0.250771 1.182 
-0.283837 0.25162 1.186 
-0.236354 0.251408 1.185 
-0.18927 0.25162 1.186 
-0.141987 0.25162 1.186 
-0.0947036 0.25162 1.186 
-0.0475002 0.252044 1.188 
-0.000137259 0.252256 1.189 
0.0473452 0.252681 1.191 
0.0946687 0.252256 1.189 
0.142311 0.252681 1.191 
0.189793 0.252681 1.191 
0.237475 0.252893 1.192 
0.284759 0.252681 1.191 
0.332241 0.252681 1.191 
0.379724 0.252681 1.191 
0.427565 0.252893 1.192 
0.47469 0.252681 1.191 
0.51998 0.25162 1.186 
0.532074 0.234859 1.107 
0.528841 0.215553 1.016 
0.525637 0.199005 0.938 
0.519815 0.183729 0.866 
0.521055 0.172697 0.814 
0.514748 0.160604 0.757 
0.513975 0.151481 0.714 
0.508253 0.141934 0.669 
0.509338 0.135145 0.637 
0.506192 0.127932 0.603 
0.504732 0.121779 0.574 
0.503717 0.116263 0.548 
0.501588 0.110959 0.523 
-1.06458 0.253543 1.182 
-1.01832 0.253758 1.183 
-0.969513 0.253329 1.181 
-0.923991 0.253758 1.183 
-0.876828 0.253758 1.183 
-0.828962 0.253543 1.182 
-0.781177 0.253329 1.181 
-0.73285 0.2529 1.179 
-0.684682 0.252471 1.177 
-0.6383 0.252685 1.178 
-0.590833 0.252471 1.177 
-0.544371 0.252685 1.178 
-0.498673 0.253329 1.181 
-0.451589 0.253329 1.181 
-0.404505 0.253329 1.181 
-0.358026 0.253758 1.183 
-0.311388 0.254187 1.185 
-0.264145 0.254187 1.185 
-0.216901 0.254187 1.185 
-0.17023 0.255045 1.189 
-0.122517 0.254401 1.186 
-0.0751706 0.254187 1.185 
-0.0279507 0.254401 1.186 
0.0194142 0.255474 1.191 
0.0668969 0.255474 1.191 
0.114188 0.255045 1.189 
0.161998 0.255688 1.192 
0.209345 0.255474 1.191 
0.256828 0.255474 1.191 
0.30431 0.255474 1.191 
0.351793 0.255474 1.191 
0.399276 0.255474 1.191 
0.446759 0.255474 1.191 
0.494241 0.255474 1.191 
0.533537 0.251613 1.173 
0.535832 0.231235 1.078 
0.525792 0.209141 0.975 
0.520649 0.192839 0.899 
0.517589 0.178682 0.833 
0.514559 0.165168 0.77 
0.514808 0.155944 0.727 
0.51088 0.146506 0.683 
0.509747 0.138784 0.647 
0.507399 0.131491 0.613 
0.504942 0.124841 0.582 
0.504551 0.119264 0.556 
0.502087 0.113687 0.53 
0.503473 0.109397 0.51 
-1.03219 0.256532 1.183 
-0.986692 0.256966 1.185 
-0.93707 0.256315 1.182 
-0.890699 0.256532 1.183 
-0.842109 0.256098 1.181 
-0.795699 0.256315 1.182 
-0.746675 0.255665 1.179 
-0.69789 0.255014 1.176 
-0.651559 0.255231 1.177 
-0.604634 0.255231 1.177 
-0.559605 0.256098 1.181 
-0.511653 0.255665 1.179 
-0.465831 0.256315 1.182 
-0.418353 0.256098 1.181 
-0.371898 0.256532 1.183 
-0.32446 0.256315 1.182 
-0.278744 0.257616 1.188 
-0.230796 0.256966 1.185 
-0.184017 0.257616 1.188 
-0.136424 0.257183 1.186 
-0.0891409 0.257183 1.186 
-0.0419281 0.257616 1.188 
0.00544871 0.258267 1.191 
0.0528425 0.257833 1.189 
0.100245 0.257833 1.189 
0.147897 0.258267 1.191 
0.19538 0.258267 1.191 
0.243474 0.258917 1.194 
0.290345 0.258267 1.191 
0.337828 0.258267 1.191 
0.38531 0.258267 1.191 
0.433156 0.258484 1.192 
0.479066 0.257616 1.188 
0.525543 0.257183 1.186 
0.534839 0.238967 1.102 
0.524153 0.216415 0.998 
0.526646 0.202103 0.932 
0.519038 0.186056 0.858 
0.520247 0.173696 0.801 
0.514976 0.159818 0.737 
0.511859 0.150276 0.693 
0.508318 0.141169 0.651 
0.508437 0.133579 0.616 
0.505308 0.12664 0.584 
0.504152 0.120785 0.557 
0.501789 0.115147 0.531 
-1.07013 0.259087 1.182 
-1.0256 0.259745 1.185 
-0.975878 0.259087 1.182 
-0.92954 0.259306 1.183 
-0.88163 0.259087 1.182 
-0.8338 0.258868 1.181 
-0.786717 0.258868 1.181 
-0.73838 0.25843 1.179 
-0.690203 0.257991 1.177 
-0.643825 0.258211 1.178 
-0.596354 0.257991 1.177 
-0.550363 0.25843 1.179 
-0.503358 0.25843 1.179 
-0.457128 0.258868 1.181 
-0.410044 0.258868 1.181 
-0.36419 0.259745 1.185 
-0.316946 0.259745 1.185 
-0.270385 0.260402 1.188 
-0.222647 0.259964 1.186 
-0.175659 0.260402 1.188 
-0.128296 0.260402 1.188 
-0.0807968 0.259964 1.186 
-0.0335134 0.259964 1.186 
0.013828 0.26106 1.191 
0.0612077 0.260622 1.189 
0.108611 0.260622 1.189 
0.156407 0.261279 1.192 
0.203759 0.26106 1.191 
0.251452 0.261279 1.192 
0.298724 0.26106 1.191 
0.346207 0.26106 1.191 
0.39369 0.26106 1.191 
0.441172 0.26106 1.191 
0.487424 0.260402 1.188 
0.532086 0.259087 1.182 
0.537669 0.23936 1.092 
0.52458 0.214153 0.977 
0.523732 0.199028 0.908 
0.516148 0.183465 0.837 
0.514085 0.169218 0.772 
0.51522 0.160012 0.73 
0.512261 0.150586 0.687 
0.508894 0.141161 0.644 
0.507176 0.133928 0.611 
0.505927 0.127133 0.58 
0.50351 0.120995 0.552 
0.501588 0.114638 0.523 
-1.05072 0.261859 1.182 
-1.00699 0.262745 1.186 
-0.955665 0.261638 1.181 
-0.911658 0.262524 1.185 
-0.860038 0.261195 1.179 
-0.814413 0.261638 1.181 
-0.766029 0.261195 1.179 
-0.719025 0.261195 1.179 
-0.670881 0.260752 1.177 
-0.624487 0.260973 1.178 
-0.577522 0.260973 1.178 
-0.530558 0.260973 1.178 
-0.485235 0.261859 1.182 
-0.436999 0.261195 1.179 
-0.390657 0.261638 1.181 
-0.343864 0.261859 1.182 
-0.297744 0.262745 1.186 
-0.250249 0.262524 1.185 
-0.20352 0.263189 1.188 
-0.155894 0.262745 1.186 
-0.108519 0.262524 1.185 
-0.0614823 0.26341 1.189 
-0.014103 0.263853 1.191 
0.0333797 0.263853 1.191 
0.0807266 0.26341 1.189 
0.12813 0.26341 1.189 
0.175828 0.263853 1.191 
0.223311 0.263853 1.191 
0.270793 0.263853 1.191 
0.318276 0.263853 1.191 
0.365759 0.263853 1.191 
0.413588 0.264075 1.192 
0.459563 0.263189 1.188 
0.507353 0.26341 1.189 
0.532361 0.252776 1.141 
0.536261 0.233502 1.054 
0.525125 0.210241 0.949 
0.518468 0.193625 0.874 
0.51786 0.181219 0.818 
0.516825 0.170142 0.768 
0.514654 0.159951 0.722 
0.511073 0.150425 0.679 
0.508026 0.142007 0.641 
0.506944 0.134917 0.609 
0.50514 0.127607 0.576 
0.504266 0.121847 0.55 
0.503078 0.115643 0.522 
-1.04518 0.264631 1.182 
-1.00312 0.265975 1.188 
-0.95093 0.264631 1.182 
-0.904571 0.264855 1.183 
-0.854508 0.26396 1.179 
-0.808874 0.264407 1.181 
-0.760499 0.26396 1.179 
-0.71289 0.263736 1.178 
-0.664795 0.263288 1.176 
-0.619487 0.26396 1.179 
-0.572482 0.26396 1.179 
-0.525032 0.263736 1.178 
-0.479691 0.264631 1.182 
-0.43147 0.26396 1.179 
-0.385444 0.264631 1.182 
-0.33832 0.264631 1.182 
-0.292181 0.265527 1.186 
-0.244691 0.265303 1.185 
-0.197948 0.265975 1.188 
-0.150331 0.265527 1.186 
-0.103048 0.265527 1.186 
-0.0559055 0.266198 1.189 
-0.00851679 0.266646 1.191 
0.0389659 0.266646 1.191 
0.0863034 0.266198 1.189 
0.133706 0.266198 1.189 
0.181414 0.266646 1.191 
0.229089 0.26687 1.192 
0.276379 0.266646 1.191 
0.323862 0.266646 1.191 
0.370721 0.266198 1.189 
0.419179 0.26687 1.192 
0.464353 0.265527 1.186 
0.51293 0.266198 1.189 
0.536299 0.25478 1.138 
0.535666 0.234631 1.048 
0.525637 0.210003 0.938 
0.519436 0.192988 0.862 
0.517824 0.180451 0.806 
0.515841 0.169257 0.756 
0.515649 0.159853 0.714 
0.509822 0.149779 0.669 
0.508426 0.141943 0.634 
0.506764 0.134778 0.602 
0.506078 0.12851 0.574 
0.504081 0.122465 0.547 
0.503336 0.116644 0.521 
-1.04241 0.267403 1.182 
-1.00033 0.268761 1.188 
-0.948158 0.267403 1.182 
-0.901797 0.267629 1.183 
-0.851743 0.266725 1.179 
-0.806104 0.267177 1.181 
-0.757735 0.266725 1.179 
-0.710127 0.266498 1.178 
-0.662037 0.266046 1.176 
-0.616199 0.266498 1.178 
-0.570684 0.267177 1.181 
-0.522713 0.266725 1.179 
-0.476919 0.267403 1.182 
-0.429432 0.267177 1.181 
-0.382348 0.267177 1.181 
-0.335548 0.267403 1.182 
-0.289888 0.268761 1.188 
-0.241912 0.268082 1.185 
-0.195162 0.268761 1.188 
-0.147425 0.268082 1.185 
-0.100182 0.268082 1.185 
-0.053117 0.268987 1.189 
-0.00572369 0.269439 1.191 
0.041759 0.269439 1.191 
0.0890918 0.268987 1.189 
0.136724 0.269439 1.191 
0.184207 0.269439 1.191 
0.231884 0.269666 1.192 
0.279173 0.269439 1.191 
0.326655 0.269439 1.191 
