# .PCD v.7 - Point Cloud Data file format
VERSION .7
FIELDS x y z
SIZE 4 4 4
TYPE F F F
COUNT 1 1 1
WIDTH 1783
HEIGHT 1
VIEWPOINT 0 0 0 1 0 0 0
POINTS 1783
DATA ascii
-0.162863 -0.00868304 0.762 
-0.125675 -0.00856909 0.752 
-0.0920702 -0.00870583 0.764 
-0.0564599 -0.00870583 0.764 
0.00542132 -0.00731563 0.642 
0.0354002 -0.00732703 0.643 
0.0651673 -0.00730424 0.641 
0.0951927 -0.00731563 0.642 
0.125506 -0.00733842 0.644 
0.153833 -0.00725866 0.637 
0.183236 -0.00724726 0.636 
0.213884 -0.00728145 0.639 
0.24138 -0.00721308 0.633 
0.273452 -0.00728145 0.639 
0.300863 -0.00722447 0.634 
0.329893 -0.00721308 0.633 
0.359397 -0.00721308 0.633 
0.387673 -0.00719029 0.631 
0.415762 -0.0071675 0.629 
0.44508 -0.0071675 0.629 
0.472889 -0.00714471 0.627 
0.501313 -0.00713331 0.626 
0.532186 -0.0071561 0.628 
0.559669 -0.00713331 0.626 
0.586025 -0.00709913 0.623 
0.617038 -0.00712192 0.625 
-0.411022 -0.00552102 0.561 
-0.498723 -0.0073712 0.749 
-0.454865 -0.00730231 0.742 
-0.436074 -0.00759755 0.772 
-0.401127 -0.00761724 0.774 
-0.363164 -0.00757787 0.77 
-0.328124 -0.00759755 0.772 
-0.292519 -0.00760739 0.773 
-0.254499 -0.00754835 0.767 
-0.219319 -0.00756803 0.769 
-0.178943 -0.00738104 0.75 
-0.145329 -0.00744993 0.757 
-0.111498 -0.00754835 0.767 
-0.0752546 -0.00749914 0.762 
-0.0384338 -0.0072531 0.737 
0.0162912 -0.00627881 0.638 
0.0461729 -0.00629849 0.64 
0.0761222 -0.00630833 0.641 
0.105999 -0.00630833 0.641 
0.136089 -0.00631817 0.642 
0.164202 -0.00624928 0.635 
0.194715 -0.00627881 0.638 
0.224805 -0.00628865 0.639 
0.2518 -0.00621976 0.632 
0.282592 -0.00624928 0.635 
0.311207 -0.0062296 0.633 
0.340173 -0.00621976 0.632 
0.369046 -0.00620992 0.631 
0.399088 -0.00621976 0.632 
0.426512 -0.00619023 0.629 
0.456554 -0.00620008 0.63 
0.482834 -0.00616071 0.626 
0.512829 -0.00617055 0.627 
0.540325 -0.00615087 0.625 
0.568545 -0.00614103 0.624 
0.59763 -0.00614103 0.624 
-0.417928 -0.0045168 0.545 
-0.514537 -0.00621579 0.75 
-0.491728 -0.00637325 0.769 
-0.441657 -0.00617435 0.745 
-0.418847 -0.00637325 0.769 
-0.384498 -0.00639811 0.772 
-0.347612 -0.00638154 0.77 
-0.312532 -0.00639811 0.772 
-0.274757 -0.00635668 0.767 
-0.241188 -0.00641469 0.774 
-0.202197 -0.00632353 0.763 
-0.165978 -0.00629866 0.76 
-0.128149 -0.00618263 0.746 
-0.0952557 -0.00630695 0.761 
-0.060021 -0.00633181 0.764 
-0.0215175 -0.00618263 0.746 
0.0303105 -0.00531242 0.641 
0.0600938 -0.00530414 0.64 
0.0897839 -0.00529585 0.639 
0.119755 -0.00530414 0.64 
0.148884 -0.00527927 0.637 
0.178015 -0.0052627 0.635 
0.208266 -0.00527927 0.637 
0.236462 -0.00524612 0.633 
0.266387 -0.00525441 0.634 
0.295938 -0.00525441 0.634 
0.324462 -0.00523783 0.632 
0.35448 -0.00524612 0.633 
0.382164 -0.00522126 0.63 
0.409569 -0.0051964 0.627 
0.439494 -0.00520468 0.628 
0.468018 -0.0051964 0.627 
0.495657 -0.00517982 0.625 
0.525628 -0.00518811 0.626 
0.552147 -0.00516325 0.623 
0.581185 -0.00516325 0.623 
0.613162 -0.00518811 0.626 
-0.413405 -0.00374412 0.556 
-0.498723 -0.00504379 0.749 
-0.461954 -0.00502359 0.746 
-0.439729 -0.00518521 0.77 
-0.405413 -0.00520541 0.773 
-0.368427 -0.00519194 0.771 
-0.332491 -0.00519194 0.771 
-0.296554 -0.00519194 0.771 
-0.258251 -0.0051448 0.764 
-0.22439 -0.00518521 0.77 
-0.183359 -0.00504379 0.749 
-0.150826 -0.0051246 0.761 
-0.115659 -0.00513807 0.763 
-0.0797802 -0.00511787 0.76 
-0.0419258 -0.00496972 0.738 
0.0123263 -0.00429632 0.638 
0.0421296 -0.00430305 0.639 
0.0721386 -0.00431652 0.641 
0.102016 -0.00431652 0.641 
0.131481 -0.00430305 0.639 
0.160004 -0.00426938 0.634 
0.189854 -0.00427611 0.635 
0.220142 -0.00428958 0.637 
0.247088 -0.00424244 0.63 
0.278207 -0.00426938 0.634 
0.306787 -0.00425591 0.632 
0.335713 -0.00424918 0.631 
0.365124 -0.00424918 0.631 
0.39391 -0.00424244 0.63 
0.421259 -0.00422224 0.627 
0.450484 -0.00422224 0.627 
0.478178 -0.00420877 0.625 
0.507309 -0.00420877 0.625 
0.536441 -0.00420877 0.625 
0.563763 -0.00419531 0.623 
0.591849 -0.00418857 0.622 
-0.419838 -0.00280776 0.542 
-0.414304 -0.00297353 0.574 
-0.493333 -0.00391117 0.755 
-0.446075 -0.00381793 0.737 
-0.427291 -0.00397334 0.767 
-0.393583 -0.00399406 0.771 
-0.355791 -0.00397334 0.767 
-0.32171 -0.00399406 0.771 
-0.285032 -0.0039837 0.769 
-0.24854 -0.00397334 0.767 
-0.212236 -0.00396298 0.765 
-0.172655 -0.00387491 0.748 
-0.135349 -0.00383865 0.741 
-0.103668 -0.00394743 0.762 
-0.0678828 -0.00393189 0.759 
-0.0304184 -0.00381793 0.737 
0.022169 -0.00329471 0.636 
0.0518946 -0.00329989 0.637 
0.0815854 -0.00329989 0.637 
0.111451 -0.00330507 0.638 
0.140746 -0.00329471 0.636 
0.169854 -0.00328435 0.634 
0.199719 -0.00328953 0.635 
0.228956 -0.00328435 0.634 
0.256876 -0.00326363 0.63 
0.287603 -0.00327917 0.633 
0.316106 -0.00326881 0.631 
0.344422 -0.00325845 0.629 
0.37374 -0.00325845 0.629 
0.403057 -0.00325845 0.629 
0.431 -0.00324809 0.627 
0.460225 -0.00324809 0.627 
0.487108 -0.00323254 0.624 
0.516193 -0.00323254 0.624 
0.54353 -0.00322218 0.622 
0.573442 -0.00322736 0.623 
0.603447 -0.00323254 0.624 
-0.41512 -0.00198742 0.548 
-0.515909 -0.00272727 0.752 
-0.48981 -0.00277804 0.766 
-0.446419 -0.00275265 0.759 
-0.416457 -0.00278892 0.769 
-0.382099 -0.0027998 0.772 
-0.344771 -0.00278892 0.769 
-0.308526 -0.00278529 0.768 
-0.271664 -0.00277441 0.765 
-0.237241 -0.00278892 0.769 
-0.199564 -0.00276353 0.762 
-0.163832 -0.00275991 0.761 
-0.125508 -0.00272364 0.751 
-0.0917087 -0.00275991 0.761 
-0.0560904 -0.00275265 0.759 
-0.0202766 -0.00269463 0.743 
0.0311599 -0.00231382 0.638 
0.0608973 -0.00231382 0.638 
0.0904926 -0.0023102 0.637 
0.120183 -0.0023102 0.637 
0.149168 -0.00229932 0.634 
0.178437 -0.00229569 0.633 
0.209584 -0.00231382 0.638 
0.236696 -0.00228844 0.631 
0.265685 -0.00228481 0.63 
0.295986 -0.00229206 0.632 
0.324414 -0.00228481 0.63 
0.352655 -0.00227756 0.628 
0.381927 -0.00227756 0.628 
0.409234 -0.00226668 0.625 
0.440469 -0.00227756 0.628 
0.468245 -0.0022703 0.626 
0.495039 -0.00225942 0.623 
0.524077 -0.00225942 0.623 
0.55134 -0.00225217 0.621 
0.581219 -0.0022558 0.622 
0.611192 -0.00225942 0.623 
-0.414926 -0.00114015 0.55 
-0.518452 -0.00156305 0.754 
-0.488436 -0.00157963 0.762 
-0.442815 -0.00154439 0.745 
-0.418949 -0.00159 0.767 
-0.385697 -0.00160036 0.772 
-0.347449 -0.00159 0.767 
-0.311699 -0.00159 0.767 
-0.275229 -0.00158585 0.765 
-0.240512 -0.00159207 0.768 
-0.203649 -0.00158378 0.764 
-0.163832 -0.00157756 0.761 
-0.122982 -0.00156927 0.757 
-0.0882775 -0.00157963 0.762 
-0.0521373 -0.00156097 0.753 
0.00439629 -0.00132258 0.638 
0.0340802 -0.00132051 0.637 
0.0637709 -0.00132051 0.637 
0.0934617 -0.00132051 0.637 
0.122959 -0.00131843 0.636 
0.151883 -0.00131221 0.633 
0.181101 -0.00131014 0.632 
0.212558 -0.00132258 0.638 
0.239257 -0.00130599 0.63 
0.268622 -0.00130599 0.63 
0.298459 -0.00130807 0.631 
0.327351 -0.00130599 0.63 
0.355016 -0.00129978 0.627 
0.384241 -0.00129978 0.627 
0.411487 -0.00129356 0.624 
0.44269 -0.00129978 0.627 
0.47041 -0.00129563 0.625 
0.497143 -0.00128941 0.622 
0.526981 -0.00129148 0.623 
0.553342 -0.00128526 0.62 
0.583179 -0.00128734 0.621 
0.61311 -0.00128941 0.622 
-0.41512 -0.000284593 0.548 
-0.523351 -0.000392614 0.756 
-0.488114 -0.000392614 0.756 
-0.442142 -0.000384304 0.74 
-0.421973 -0.000397807 0.766 
-0.388791 -0.000400404 0.771 
-0.350566 -0.000397807 0.766 
-0.315685 -0.000398846 0.768 
-0.279159 -0.000397807 0.766 
-0.243774 -0.000398326 0.767 
-0.20721 -0.000396768 0.764 
-0.168905 -0.000390536 0.752 
-0.124672 -0.000391056 0.753 
-0.0906453 -0.00039573 0.762 
-0.053378 -0.000391575 0.754 
0.00340505 -0.000331333 0.638 
0.0330905 -0.000330813 0.637 
0.0626827 -0.000330294 0.636 
0.0923268 -0.000330294 0.636 
0.121971 -0.000330294 0.636 
0.150662 -0.000328217 0.632 
0.180119 -0.000328217 0.632 
0.210903 -0.000330294 0.636 
0.238278 -0.000327178 0.63 
0.267218 -0.000326659 0.629 
0.297007 -0.000327178 0.63 
0.325854 -0.000326659 0.629 
0.354042 -0.00032562 0.627 
0.383267 -0.00032562 0.627 
0.410518 -0.000324062 0.624 
0.441716 -0.00032562 0.627 
0.468688 -0.000324062 0.624 
0.496177 -0.000323024 0.622 
0.525169 -0.000323024 0.622 
0.551487 -0.000321466 0.619 
0.582214 -0.000322504 0.621 
0.611159 -0.000322504 0.621 
-0.41615 0.000564753 0.546 
-0.40735 0.00059268 0.573 
-0.490205 0.000777828 0.752 
-0.443841 0.000764382 0.739 
-0.4238 0.000791275 0.765 
-0.39068 0.000796447 0.77 
-0.352025 0.00079024 0.764 
-0.318071 0.000794378 0.768 
-0.28154 0.000792309 0.766 
-0.245836 0.000792309 0.766 
-0.209584 0.00079024 0.764 
-0.170103 0.000772657 0.747 
-0.127634 0.000768519 0.743 
-0.0950054 0.000785069 0.759 
-0.053378 0.000779897 0.754 
-0.0167455 0.000765416 0.74 
0.0330385 0.000657844 0.636 
0.0625841 0.00065681 0.635 
0.0921817 0.00065681 0.635 
0.121779 0.00065681 0.635 
0.150662 0.000653707 0.632 
0.180119 0.000653707 0.632 
0.21024 0.000655775 0.634 
0.2379 0.000650604 0.629 
0.266793 0.000649569 0.628 
0.296536 0.000650604 0.629 
0.325336 0.000649569 0.628 
0.353478 0.000647501 0.626 
0.382656 0.000647501 0.626 
0.40986 0.000644398 0.623 
0.441012 0.000647501 0.626 
0.467936 0.000644398 0.623 
0.495379 0.000642329 0.621 
0.524324 0.000642329 0.621 
0.550596 0.000639226 0.618 
0.581277 0.000641295 0.62 
0.610175 0.000641295 0.62 
-0.414269 0.00141824 0.548 
-0.522868 0.00195913 0.757 
-0.485007 0.00194878 0.753 
-0.44523 0.00194878 0.753 
-0.417758 0.00198501 0.767 
-0.384498 0.00199795 0.772 
-0.345806 0.00198243 0.766 
-0.309698 0.00197984 0.765 
-0.273683 0.00197725 0.764 
-0.238384 0.00197984 0.765 
-0.202197 0.00197466 0.763 
-0.165105 0.00195655 0.756 
-0.125341 0.00194102 0.75 
-0.0918292 0.00197207 0.762 
-0.0559426 0.00195913 0.757 
-0.0201674 0.00191255 0.739 
0.0301214 0.00164857 0.637 
0.0595305 0.00164081 0.634 
0.0889409 0.00163822 0.633 
0.118632 0.00164081 0.634 
0.147482 0.00163304 0.631 
0.177174 0.00163563 0.632 
0.206304 0.00163304 0.631 
0.234595 0.00162528 0.628 
0.263866 0.00162528 0.628 
0.293604 0.00162787 0.629 
0.321895 0.00162269 0.627 
0.35 0.00161751 0.625 
0.379131 0.00161751 0.625 
0.406956 0.00161234 0.623 
0.438794 0.00162269 0.627 
0.465033 0.00161234 0.623 
0.493278 0.00160975 0.622 
0.52059 0.00160457 0.62 
0.54683 0.00159681 0.617 
0.578387 0.00160457 0.62 
0.606306 0.00160199 0.619 
-0.414172 0.00227379 0.549 
-0.406277 0.00237734 0.574 
-0.490066 0.00310627 0.75 
-0.446741 0.00306486 0.74 
-0.42562 0.00316426 0.764 
-0.393072 0.00318911 0.77 
-0.354399 0.00316426 0.764 
-0.320458 0.00318082 0.768 
-0.283179 0.00316426 0.764 
-0.248216 0.00317254 0.766 
-0.211681 0.00316012 0.763 
-0.17127 0.00307314 0.742 
-0.133112 0.00304415 0.735 
-0.10235 0.00315183 0.761 
-0.0665278 0.00313527 0.757 
-0.0303358 0.00304415 0.735 
0.022169 0.00263412 0.636 
0.0515687 0.0026217 0.633 
0.0810731 0.0026217 0.633 
0.111101 0.00263412 0.636 
0.140082 0.0026217 0.633 
0.169318 0.00261755 0.632 
0.198776 0.00261755 0.632 
0.234221 0.00259685 0.627 
0.263446 0.00259685 0.627 
0.293604 0.00260513 0.629 
0.321895 0.00259685 0.627 
0.34944 0.00258442 0.624 
0.379131 0.00258856 0.625 
0.406956 0.00258028 0.623 
0.438094 0.0025927 0.626 
0.464286 0.00257614 0.622 
0.492485 0.002572 0.621 
0.51975 0.00256371 0.619 
0.54683 0.00255543 0.617 
0.577454 0.00256371 0.619 
0.605326 0.00255957 0.618 
-0.414362 0.00311537 0.547 
-0.408772 0.00327484 0.575 
-0.490577 0.00426584 0.749 
-0.447891 0.00421458 0.74 
-0.426807 0.00435127 0.764 
-0.393757 0.00437974 0.769 
-0.355586 0.00435127 0.764 
-0.320814 0.00436266 0.766 
-0.284738 0.00435696 0.765 
-0.249081 0.00435696 0.765 
-0.212587 0.00433988 0.762 
-0.170346 0.00423166 0.743 
-0.133888 0.00417471 0.733 
-0.103668 0.00433988 0.762 
-0.067704 0.0043114 0.757 
-0.0258381 0.00419749 0.737 
0.0251334 0.00362226 0.636 
0.0545192 0.00360517 0.633 
0.0838908 0.00359948 0.632 
0.113707 0.00361087 0.634 
0.14258 0.00359378 0.631 
0.172264 0.00359948 0.632 
0.201083 0.00358809 0.63 
0.228985 0.00356531 0.626 
0.258575 0.003571 0.627 
0.289177 0.00358809 0.63 
0.316519 0.00356531 0.626 
0.344592 0.00355391 0.624 
0.373677 0.00355391 0.624 
0.402116 0.00354822 0.623 
0.433231 0.00356531 0.626 
0.459454 0.00354252 0.622 
0.487661 0.00353683 0.621 
0.51411 0.00351974 0.618 
0.542037 0.00351405 0.617 
0.572645 0.00352544 0.619 
0.599554 0.00351405 0.617 
-0.417238 0.00393624 0.543 
-0.415026 0.00416821 0.575 
-0.501888 0.00545129 0.752 
-0.455236 0.00534255 0.737 
-0.435732 0.00553103 0.763 
-0.402266 0.00556002 0.767 
-0.36556 0.00554553 0.765 
-0.329472 0.00553828 0.764 
-0.295016 0.00556002 0.767 
-0.257064 0.00553828 0.764 
-0.221454 0.00553828 0.764 
-0.177226 0.0053498 0.738 
-0.143021 0.00535705 0.739 
-0.112396 0.00554553 0.765 
-0.0762378 0.00550928 0.76 
-0.0337157 0.0053208 0.734 
0.0162146 0.00460315 0.635 
0.0456679 0.00458865 0.633 
0.0750534 0.0045814 0.632 
0.105338 0.00461765 0.637 
0.133969 0.0045814 0.632 
0.163168 0.00457415 0.631 
0.192579 0.00457415 0.631 
0.220231 0.00453791 0.626 
0.249011 0.00453066 0.625 
0.280812 0.00457415 0.631 
0.307765 0.00453791 0.626 
0.335329 0.00451616 0.623 
0.364952 0.00452341 0.624 
0.394668 0.00453066 0.625 
0.423121 0.00452341 0.624 
0.450757 0.00450891 0.622 
0.478977 0.00450166 0.621 
0.50465 0.00447267 0.617 
0.533409 0.00447267 0.617 
0.562168 0.00447267 0.617 
0.590926 0.00447267 0.617 
-0.418089 0.00462143 0.525 
-0.415845 0.00501756 0.57 
-0.512457 0.00668127 0.759 
-0.468279 0.00655803 0.745 
-0.44403 0.00671648 0.763 
-0.409537 0.00673409 0.765 
-0.375346 0.0067605 0.768 
-0.338223 0.00673409 0.765 
-0.302171 0.00672529 0.764 
-0.265373 0.00672529 0.764 
-0.228861 0.00669888 0.761 
-0.186652 0.00650522 0.739 
-0.154472 0.00660205 0.75 
-0.120471 0.00665486 0.756 
-0.0857969 0.00669888 0.761 
-0.0498636 0.00663726 0.754 
0.00437562 0.00558973 0.635 
0.0339732 0.00558973 0.635 
0.0632704 0.00556332 0.632 
0.0925813 0.00555452 0.631 
0.122186 0.00556332 0.632 
0.150684 0.00552811 0.628 
0.180815 0.00555452 0.631 
0.208227 0.00550171 0.625 
0.236978 0.0054929 0.624 
0.266916 0.00551051 0.626 
0.296094 0.00551051 0.626 
0.324752 0.00550171 0.625 
0.353318 0.0054929 0.624 
0.38179 0.0054841 0.623 
0.410828 0.0054841 0.623 
0.439866 0.0054841 0.623 
0.465894 0.00544889 0.619 
0.494746 0.00544889 0.619 
0.522751 0.00544009 0.618 
0.549772 0.00542248 0.616 
0.579423 0.00543128 0.617 
0.607195 0.00542248 0.616 
-0.415024 0.00568567 0.549 
-0.53036 0.00788122 0.761 
-0.484484 0.00771552 0.745 
-0.449156 0.00770517 0.744 
-0.424433 0.00791229 0.764 
-0.390349 0.00794336 0.767 
-0.353212 0.00791229 0.764 
-0.317602 0.00791229 0.764 
-0.280884 0.00788122 0.761 
-0.246381 0.00791229 0.764 
-0.209116 0.00785016 0.758 
-0.16849 0.00771552 0.745 
-0.13161 0.00759125 0.733 
-0.101167 0.00788122 0.761 
-0.065179 0.00781909 0.755 
-0.0291939 0.00761196 0.735 
0.021081 0.0065556 0.633 
0.0505054 0.00654525 0.632 
0.0798365 0.00653489 0.631 
0.109767 0.00656596 0.634 
0.138439 0.00652454 0.63 
0.167803 0.00652454 0.63 
0.196855 0.00651418 0.629 
0.225094 0.00648311 0.626 
0.253866 0.00647275 0.625 
0.284809 0.00651418 0.629 
0.312628 0.00648311 0.626 
0.340714 0.0064624 0.624 
0.369206 0.00645204 0.623 
0.398245 0.00645204 0.623 
0.427283 0.00645204 0.623 
0.454856 0.00643133 0.621 
0.483022 0.00642097 0.62 
0.509444 0.0063899 0.617 
0.53733 0.00637955 0.616 
0.566961 0.0063899 0.617 
0.594754 0.00637955 0.616 
-0.419063 0.00644335 0.541 
-0.411425 0.00690785 0.58 
-0.495231 0.00892065 0.749 
-0.45356 0.00878964 0.738 
-0.431609 0.00907548 0.762 
-0.398171 0.00912312 0.766 
-0.359391 0.00907548 0.762 
-0.323449 0.00906357 0.761 
-0.289871 0.00912312 0.766 
-0.253503 0.0090993 0.764 
-0.216467 0.00903975 0.759 
-0.172844 0.008742 0.734 
-0.138255 0.00871818 0.732 
-0.108404 0.00907548 0.762 
-0.0724085 0.00901593 0.757 
-0.0359965 0.008742 0.734 
0.0151801 0.00753908 0.633 
0.0446138 0.00752717 0.632 
0.0740715 0.00752717 0.632 
0.103857 0.00755099 0.634 
0.132566 0.00750335 0.63 
0.161417 0.00747953 0.628 
0.190991 0.00749144 0.629 
0.218908 0.0074438 0.625 
0.247643 0.00743189 0.624 
0.278502 0.00747953 0.628 
0.306793 0.00745571 0.626 
0.334361 0.00741998 0.623 
0.363399 0.00741998 0.623 
0.392437 0.00741998 0.623 
0.420799 0.00740807 0.622 
0.449067 0.00739616 0.621 
0.477242 0.00738425 0.62 
0.502875 0.00733661 0.616 
0.530724 0.0073247 0.615 
0.560299 0.00733661 0.616 
0.588055 0.0073247 0.615 
-0.418863 0.0070954 0.527 
-0.414129 0.00780898 0.58 
-0.497058 0.0100978 0.75 
-0.454707 0.00993625 0.738 
-0.433977 0.0102594 0.762 
-0.399505 0.0102863 0.764 
-0.356555 0.0102459 0.761 
-0.321084 0.0102459 0.761 
-0.28674 0.0102863 0.764 
-0.251129 0.0102863 0.764 
-0.213544 0.0101921 0.757 
-0.172609 0.00986893 0.733 
-0.138066 0.00984201 0.731 
-0.108404 0.0102594 0.762 
-0.0723128 0.0101786 0.756 
-0.0359475 0.00986893 0.733 
0.016138 0.0085091 0.632 
0.0455957 0.0085091 0.632 
0.0750534 0.0085091 0.632 
0.104677 0.00852256 0.633 
0.133333 0.0084687 0.629 
0.162392 0.00845524 0.628 
0.191663 0.00845524 0.628 
0.219879 0.00841485 0.625 
0.248612 0.00840139 0.624 
0.279477 0.00845524 0.628 
0.307765 0.00842831 0.626 
0.335867 0.00840139 0.624 
0.363782 0.00837446 0.622 
0.393405 0.00838792 0.623 
0.421087 0.00836099 0.621 
0.450032 0.00836099 0.621 
0.478206 0.00834753 0.62 
0.503833 0.00829368 0.616 
0.53168 0.00828021 0.615 
0.561256 0.00829368 0.616 
0.589011 0.00828021 0.615 
-0.418837 0.0079292 0.528 
-0.415931 0.00871011 0.58 
-0.50072 0.0112931 0.752 
-0.457619 0.0110979 0.739 
-0.435772 0.0114283 0.761 
-0.401353 0.0114583 0.763 
-0.364831 0.0114283 0.761 
-0.329361 0.0114283 0.761 
-0.295049 0.0114733 0.764 
-0.259438 0.0114733 0.764 
-0.221191 0.0113382 0.755 
-0.180581 0.0110078 0.733 
-0.148613 0.011173 0.744 
-0.116079 0.0113832 0.758 
-0.0804284 0.0113382 0.755 
-0.0443988 0.0111279 0.741 
0.0112284 0.00949102 0.632 
0.0406217 0.009476 0.631 
0.0701438 0.00949102 0.632 
0.0996015 0.00949102 0.632 
0.128242 0.00943095 0.628 
0.157012 0.00940091 0.626 
0.186785 0.00943095 0.628 
0.21468 0.00937088 0.624 
0.243765 0.00937088 0.624 
0.273287 0.0093859 0.625 
0.302418 0.0093859 0.625 
0.331019 0.00937088 0.624 
0.35895 0.00934084 0.622 
0.387318 0.00932583 0.621 
0.416263 0.00932583 0.621 
0.444491 0.00931081 0.62 
0.471862 0.00928077 0.618 
0.499047 0.00925074 0.616 
0.526902 0.00923572 0.615 
0.555568 0.00923572 0.615 
0.582333 0.00920569 0.613 
-0.422167 0.00869983 0.525 
-0.414972 0.00934611 0.564 
-0.522578 0.012594 0.76 
-0.475616 0.0122958 0.742 
-0.448164 0.0124946 0.754 
-0.416854 0.0126106 0.761 
-0.380382 0.0125775 0.759 
-0.346823 0.0126438 0.763 
-0.310851 0.0126272 0.762 
-0.27425 0.0125775 0.759 
-0.238558 0.0125609 0.758 
-0.200814 0.0124118 0.749 
-0.16546 0.0123786 0.747 
-0.128369 0.0121632 0.734 
-0.0972356 0.0125609 0.758 
-0.0614966 0.012478 0.753 
-0.0246261 0.0121798 0.735 
0.0287658 0.0104232 0.629 
0.0582684 0.0104564 0.631 
0.0874016 0.0104232 0.629 
0.116534 0.0104067 0.628 
0.144876 0.0103404 0.624 
0.175076 0.0104067 0.628 
0.203046 0.0103404 0.624 
0.232503 0.0103569 0.625 
0.261216 0.0103404 0.624 
0.291696 0.0103901 0.627 
0.319897 0.0103569 0.625 
0.34847 0.0103404 0.624 
0.375135 0.0102741 0.62 
0.404685 0.0102907 0.621 
0.432932 0.0102741 0.62 
0.459595 0.0102244 0.617 
0.488354 0.0102244 0.617 
0.515436 0.0101912 0.615 
0.544102 0.0101912 0.615 
0.571836 0.0101747 0.614 
0.600454 0.0101747 0.614 
-0.416435 0.0100049 0.552 
-0.536271 0.013793 0.761 
-0.492904 0.0135755 0.749 
-0.453713 0.0134486 0.742 
-0.42986 0.013793 0.761 
-0.393871 0.0137748 0.76 
-0.358448 0.0137748 0.76 
-0.322599 0.0137567 0.759 
-0.289492 0.0138655 0.765 
-0.25284 0.0138111 0.762 
-0.214756 0.013648 0.753 
-0.174171 0.0132311 0.73 
-0.138821 0.013213 0.729 
-0.109012 0.0137386 0.758 
-0.0719302 0.0136298 0.752 
-0.0344762 0.0131586 0.726 
0.0209144 0.0113824 0.628 
0.0503455 0.0114186 0.63 
0.0795835 0.0114005 0.629 
0.108555 0.0113642 0.627 
0.13778 0.0113642 0.627 
0.167271 0.0113824 0.628 
0.195916 0.0113461 0.626 
0.224735 0.011328 0.625 
0.253054 0.0112917 0.623 
0.283903 0.0113642 0.627 
0.313128 0.0113642 0.627 
0.340714 0.0113099 0.624 
0.368021 0.0112555 0.621 
0.396327 0.0112374 0.62 
0.423854 0.0112011 0.618 
0.452659 0.0112011 0.618 
0.480685 0.011183 0.617 
0.507792 0.0111467 0.615 
0.535585 0.0111286 0.614 
0.566042 0.0111649 0.616 
0.591857 0.0111105 0.613 
-0.418017 0.0103902 0.528 
-0.415268 0.0111774 0.568 
-0.517174 0.014936 0.759 
-0.469101 0.0145424 0.739 
-0.445831 0.0149163 0.758 
-0.4105 0.0149163 0.758 
-0.37418 0.0148769 0.756 
-0.341184 0.0149753 0.761 
-0.302167 0.0149753 0.761 
-0.265995 0.014936 0.759 
-0.229099 0.0148376 0.754 
-0.189324 0.0144834 0.736 
-0.157757 0.0147392 0.749 
-0.118665 0.0147982 0.752 
-0.0802153 0.0148179 0.753 
-0.0427806 0.0144243 0.733 
0.0160614 0.0123778 0.629 
0.0453793 0.0123778 0.629 
0.0748159 0.0123974 0.63 
0.104015 0.0123778 0.629 
0.132909 0.0123384 0.627 
0.161875 0.0123187 0.626 
0.191053 0.0123187 0.626 
0.219879 0.012299 0.625 
0.247816 0.01224 0.622 
0.278142 0.012299 0.625 
0.307765 0.0123187 0.626 
0.336405 0.012299 0.625 
0.362612 0.0122006 0.62 
0.391511 0.0122006 0.62 
0.418375 0.0121416 0.617 
0.447858 0.0121613 0.618 
0.475892 0.0121416 0.617 
0.503015 0.0121023 0.615 
0.530815 0.0120826 0.614 
0.561256 0.0121219 0.616 
0.586137 0.0120432 0.612 
-0.418017 0.0112106 0.528 
-0.413362 0.0119537 0.563 
-0.518353 0.0161152 0.759 
-0.470249 0.0156906 0.739 
-0.445829 0.0160515 0.756 
-0.411678 0.016094 0.758 
-0.374858 0.0160303 0.755 
-0.341467 0.0161152 0.759 
-0.304531 0.0161577 0.761 
-0.267647 0.0160727 0.757 
-0.231749 0.0160303 0.755 
-0.191872 0.0156481 0.737 
-0.159871 0.0158816 0.748 
-0.117496 0.0159666 0.752 
-0.0801088 0.0159666 0.752 
-0.0426638 0.0155207 0.731 
0.0141293 0.0133762 0.63 
0.0433557 0.0133338 0.628 
0.0727426 0.013355 0.629 
0.101898 0.0133338 0.628 
0.130752 0.0132913 0.626 
0.15993 0.0132913 0.626 
0.189108 0.0132913 0.626 
0.217937 0.0132701 0.625 
0.246278 0.0132276 0.623 
0.2762 0.0132701 0.625 
0.305332 0.0132701 0.625 
0.334463 0.0132701 0.625 
0.360686 0.0131639 0.62 
0.388956 0.0131427 0.619 
0.416458 0.0131002 0.617 
0.445938 0.0131215 0.618 
0.473975 0.0131002 0.617 
0.500289 0.0130365 0.614 
0.528046 0.0130153 0.613 
0.558434 0.0130578 0.615 
0.583281 0.0129728 0.611 
-0.419735 0.0119398 0.524 
-0.414269 0.0126689 0.556 
-0.527301 0.0173172 0.76 
-0.483464 0.017021 0.747 
-0.451048 0.0171121 0.751 
-0.420476 0.0172944 0.759 
-0.383576 0.0172261 0.756 
-0.3488 0.0172489 0.757 
-0.314758 0.0173172 0.76 
-0.279702 0.01734 0.761 
-0.242306 0.0172033 0.755 
-0.204921 0.017021 0.747 
-0.168736 0.0168843 0.741 
-0.12626 0.0167476 0.735 
-0.0945047 0.0172033 0.755 
-0.0589211 0.0170894 0.75 
-0.0233563 0.0166564 0.731 
0.0296485 0.0142867 0.627 
0.059061 0.0143323 0.629 
0.0882384 0.0143095 0.628 
0.117135 0.0142639 0.626 
0.145612 0.0141956 0.623 
0.175772 0.0142867 0.627 
0.203689 0.0141956 0.623 
0.2331 0.0142183 0.624 
0.261765 0.0141956 0.623 
0.29127 0.0142183 0.624 
0.319328 0.0141728 0.622 
0.3472 0.0141272 0.62 
0.375492 0.0141044 0.619 
0.40369 0.0140816 0.618 
0.433195 0.0141044 0.619 
0.458315 0.0139905 0.614 
0.486933 0.0139905 0.614 
0.514712 0.0139677 0.613 
0.544171 0.0139905 0.614 
0.570924 0.0139449 0.612 
0.599449 0.0139449 0.612 
-0.419543 0.0132894 0.546 
-0.530145 0.0184737 0.759 
-0.489553 0.018279 0.751 
-0.453338 0.0182303 0.749 
-0.424013 0.0184737 0.759 
-0.386588 0.0183763 0.755 
-0.351863 0.0184007 0.756 
-0.317882 0.0184737 0.759 
-0.284366 0.0185954 0.764 
-0.245825 0.0183763 0.755 
-0.208681 0.0182059 0.748 
-0.170796 0.0178895 0.735 
-0.131663 0.0176948 0.727 
-0.101139 0.0183033 0.752 
-0.0659126 0.0182546 0.75 
-0.0298818 0.0176218 0.724 
0.0218204 0.0152365 0.626 
0.0511614 0.0152852 0.628 
0.0803046 0.0152609 0.627 
0.109005 0.0151878 0.624 
0.137869 0.0151635 0.623 
0.167979 0.0152609 0.627 
0.19626 0.0151878 0.624 
0.225344 0.0151878 0.624 
0.253206 0.0151148 0.621 
0.282605 0.0151392 0.622 
0.312599 0.0151878 0.624 
0.340041 0.0151148 0.621 
0.367798 0.0150661 0.619 
0.396009 0.0150418 0.618 
0.423439 0.0149931 0.616 
0.451417 0.0149688 0.615 
0.480082 0.0149688 0.615 
0.507093 0.0149201 0.613 
0.535665 0.0149201 0.613 
0.566078 0.0149688 0.615 
0.589908 0.0148471 0.61 
-0.417225 0.0136457 0.527 
-0.411159 0.0145002 0.56 
-0.503891 0.0195493 0.755 
-0.459388 0.0191609 0.74 
-0.435232 0.019627 0.758 
-0.398846 0.0195752 0.756 
-0.36457 0.019627 0.758 
-0.328371 0.0195752 0.756 
-0.295848 0.0197565 0.763 
-0.257896 0.0195752 0.756 
-0.220008 0.0193422 0.747 
-0.180728 0.0188761 0.729 
-0.145078 0.0189538 0.732 
-0.113688 0.0194199 0.75 
-0.0787305 0.0194199 0.75 
-0.042372 0.0187984 0.726 
0.0111751 0.0162868 0.629 
0.0402999 0.0162091 0.626 
0.0694779 0.0162091 0.626 
0.098656 0.0162091 0.626 
0.127834 0.0162091 0.626 
0.15651 0.0161573 0.624 
0.185893 0.0161832 0.625 
0.213648 0.0160797 0.621 
0.243374 0.0161314 0.623 
0.272412 0.0161314 0.623 
0.300967 0.0161056 0.622 
0.33155 0.0161832 0.625 
0.357219 0.0160279 0.619 
0.385447 0.016002 0.618 
0.412241 0.0159243 0.615 
0.44234 0.0159761 0.617 
0.469572 0.0159243 0.615 
0.495807 0.0158466 0.612 
0.525189 0.0158725 0.613 
0.553761 0.0158725 0.613 
0.578533 0.0157689 0.609 
-0.423806 0.0143821 0.524 
-0.416635 0.0150958 0.55 
-0.526607 0.0208322 0.759 
-0.484111 0.0205302 0.748 
-0.451079 0.0206675 0.753 
-0.417639 0.0207498 0.756 
-0.38139 0.0206949 0.754 
-0.346705 0.0207224 0.755 
-0.313165 0.0208322 0.759 
-0.278154 0.0208596 0.76 
-0.239536 0.0205851 0.75 
-0.202942 0.0204205 0.744 
-0.168264 0.0204205 0.744 
-0.129226 0.0199264 0.726 
-0.0985399 0.0205851 0.75 
-0.0633278 0.0205028 0.747 
-0.0276321 0.0198715 0.724 
0.0237656 0.0171817 0.626 
0.0530283 0.0172092 0.627 
0.0822529 0.0172092 0.627 
0.110944 0.0171268 0.624 
0.13958 0.0170719 0.622 
0.169927 0.0172092 0.627 
0.197563 0.0170719 0.622 
0.226555 0.0170719 0.622 
0.254725 0.017017 0.62 
0.283623 0.017017 0.62 
0.313026 0.0170445 0.621 
0.340869 0.0169896 0.619 
0.369124 0.0169622 0.618 
0.396641 0.0169073 0.616 
0.425353 0.0169073 0.616 
0.452591 0.0168524 0.614 
0.480426 0.0168249 0.613 
0.508168 0.0167975 0.612 
0.53757 0.0168249 0.613 
0.565219 0.0167975 0.612 
0.590834 0.0167151 0.609 
-0.417197 0.0153123 0.528 
-0.412418 0.0161533 0.557 
-0.511606 0.0219244 0.756 
-0.464396 0.0213734 0.737 
-0.441131 0.0219244 0.756 
-0.405893 0.0219244 0.756 
-0.370656 0.0219244 0.756 
-0.334531 0.0218664 0.754 
-0.301372 0.0220114 0.759 
-0.264243 0.0218664 0.754 
-0.227883 0.0217504 0.75 
-0.187781 0.0211704 0.73 
-0.157125 0.0216344 0.746 
-0.121033 0.0216054 0.745 
-0.087119 0.0218084 0.752 
-0.0510294 0.0213734 0.737 
0.00531998 0.0182703 0.63 
0.0344092 0.0181253 0.625 
0.0635406 0.0181253 0.625 
0.0929686 0.0181833 0.627 
0.122193 0.0181833 0.627 
0.149969 0.0180093 0.621 
0.179202 0.0180383 0.622 
0.207859 0.0180093 0.621 
0.237185 0.0180383 0.622 
0.266605 0.0180673 0.623 
0.293745 0.0179513 0.619 
0.322597 0.0179513 0.619 
0.350881 0.0179223 0.618 
0.379686 0.0179223 0.618 
0.406508 0.0178353 0.615 
0.438004 0.0179513 0.619 
0.461576 0.0177483 0.612 
0.489301 0.0177193 0.611 
0.519474 0.0177773 0.613 
0.546258 0.0177193 0.611 
0.572856 0.0176613 0.609 
0.603216 0.0177193 0.611 
-0.418925 0.0165909 0.543 
-0.525914 0.0231601 0.758 
-0.482817 0.0227934 0.746 
-0.451649 0.0229768 0.752 
-0.417706 0.0230379 0.754 
-0.382054 0.0230073 0.753 
-0.346957 0.0230073 0.753 
-0.31393 0.0231601 0.758 
-0.279702 0.0232517 0.761 
-0.240059 0.0228545 0.748 
-0.204372 0.0227629 0.745 
-0.168964 0.0226712 0.742 
-0.1313 0.0221518 0.725 
-0.100601 0.0228545 0.748 
-0.0655611 0.0227934 0.746 
-0.0286775 0.0220601 0.722 
0.0256698 0.0190964 0.625 
0.0548889 0.0191269 0.626 
0.0842012 0.0191575 0.627 
0.112883 0.0190658 0.624 
0.141285 0.0189742 0.621 
0.171601 0.0191269 0.626 
0.199175 0.0189742 0.621 
0.22812 0.0189742 0.621 
0.256238 0.018913 0.619 
0.284629 0.0188825 0.618 
0.312927 0.0188519 0.617 
0.341685 0.0188519 0.617 
0.369843 0.0188214 0.616 
0.397908 0.0187908 0.615 
0.426574 0.0187908 0.615 
0.453018 0.0186992 0.612 
0.481544 0.0186992 0.612 
0.509236 0.0186686 0.611 
0.537715 0.0186686 0.611 
0.565267 0.0186381 0.61 
0.592726 0.0186075 0.609 
-0.417917 0.0170493 0.531 
-0.53769 0.0243378 0.758 
-0.498383 0.0241451 0.752 
-0.457787 0.0238562 0.743 
-0.43056 0.0242736 0.756 
-0.393231 0.0241451 0.752 
-0.359609 0.0242414 0.755 
-0.323558 0.0241772 0.753 
-0.290759 0.0243699 0.759 
-0.253363 0.0241772 0.753 
-0.214789 0.0239204 0.745 
-0.175714 0.0233424 0.727 
-0.141633 0.0233103 0.726 
-0.109752 0.0239846 0.747 
-0.0750341 0.0240167 0.748 
-0.0386659 0.0231177 0.72 
0.014062 0.0201316 0.627 
0.0430796 0.0200353 0.624 
0.0721644 0.0200353 0.624 
0.101087 0.0200032 0.623 
0.130334 0.0200353 0.624 
0.158908 0.0199711 0.622 
0.1879 0.0199711 0.622 
0.215845 0.0198748 0.619 
0.245092 0.0199069 0.62 
0.273549 0.0198748 0.619 
0.301912 0.0198427 0.618 
0.331252 0.0198748 0.619 
0.35894 0.0198106 0.617 
0.387071 0.0197785 0.616 
0.413083 0.01965 0.612 
0.443051 0.0197142 0.614 
0.470134 0.01965 0.612 
0.497844 0.0196179 0.611 
0.527185 0.01965 0.612 
0.552986 0.0195537 0.609 
0.579463 0.0194895 0.607 
-0.421363 0.0176387 0.524 
-0.408957 0.0187495 0.557 
-0.508405 0.0253471 0.753 
-0.462622 0.0247749 0.736 
-0.439956 0.0254481 0.756 
-0.403113 0.0253471 0.753 
-0.369481 0.0254481 0.756 
-0.332476 0.0253135 0.752 
-0.299007 0.0254481 0.756 
-0.262374 0.0253135 0.752 
-0.226416 0.0252125 0.749 
-0.18588 0.0244719 0.727 
-0.154921 0.0249432 0.741 
-0.110764 0.0251115 0.746 
-0.0762981 0.0252125 0.749 
-0.0398398 0.02427 0.721 
0.0111573 0.0211395 0.628 
0.0401711 0.0210048 0.624 
0.0691449 0.0209711 0.623 
0.0981832 0.0209711 0.623 
0.12763 0.0210385 0.625 
0.155507 0.0208702 0.62 
0.184703 0.0209038 0.621 
0.212616 0.0208028 0.618 
0.242202 0.0208702 0.62 
0.271101 0.0208702 0.62 
0.298547 0.0207692 0.617 
0.327306 0.0207692 0.617 
0.356642 0.0208028 0.618 
0.384823 0.0207692 0.617 
0.40956 0.0205672 0.611 
0.440906 0.0207019 0.615 
0.466518 0.0205672 0.611 
0.494186 0.0205335 0.61 
0.524332 0.0206009 0.612 
0.549244 0.0204662 0.608 
0.576633 0.0204326 0.607 
-0.422992 0.0184528 0.524 
-0.413159 0.0196501 0.558 
-0.509575 0.0265171 0.753 
-0.461994 0.0258832 0.735 
-0.439956 0.0266227 0.756 
-0.402577 0.0264819 0.752 
-0.368993 0.0265875 0.755 
-0.332476 0.0264819 0.752 
-0.298216 0.0265523 0.754 
-0.262025 0.0264466 0.751 
-0.226416 0.0263762 0.749 
-0.185624 0.0255663 0.726 
-0.154712 0.0260593 0.74 
-0.111623 0.0262001 0.744 
-0.0774618 0.0263762 0.749 
-0.04096 0.0253902 0.721 
0.0111573 0.0221152 0.628 
0.0401067 0.0219391 0.623 
0.069034 0.0219039 0.622 
0.0980256 0.0219039 0.622 
0.12763 0.0220095 0.625 
0.155507 0.0218334 0.62 
0.184406 0.0218334 0.62 
0.212616 0.021763 0.618 
0.242202 0.0218334 0.62 
0.270663 0.0217982 0.619 
0.298064 0.0216926 0.616 
0.326776 0.0216926 0.616 
0.356642 0.021763 0.618 
0.384199 0.0216926 0.616 
0.40956 0.0215165 0.611 
0.440189 0.0216222 0.614 
0.465754 0.0214813 0.61 
0.493376 0.0214461 0.609 
0.524332 0.0215517 0.612 
0.549244 0.0214109 0.608 
0.576633 0.0213756 0.607 
-1.48529 0.0656325 1.785 
-0.521486 0.0277605 0.755 
-0.476634 0.027209 0.74 
-0.44991 0.027687 0.753 
-0.413159 0.0275767 0.75 
-0.37921 0.0276502 0.752 
-0.343702 0.0276134 0.751 
-0.309519 0.027687 0.753 
-0.273615 0.0277238 0.754 
-0.236257 0.0274664 0.747 
-0.20036 0.0273193 0.743 
-0.165952 0.0273561 0.744 
-0.124145 0.0270619 0.736 
-0.0911821 0.0274664 0.747 
-0.055836 0.027209 0.74 
-0.0209118 0.0266575 0.725 
0.0275677 0.0229438 0.624 
0.0565617 0.022907 0.623 
0.0858747 0.0229806 0.625 
0.114822 0.0229438 0.624 
0.142984 0.0227967 0.62 
0.172437 0.0228703 0.622 
0.200457 0.02276 0.619 
0.228939 0.0227232 0.618 
0.257327 0.0226864 0.617 
0.285158 0.0226129 0.615 
0.312803 0.0225393 0.613 
0.342489 0.0226129 0.615 
0.370551 0.0225761 0.614 
0.399169 0.0225761 0.614 
0.427788 0.0225761 0.614 
0.453433 0.022429 0.61 
0.481076 0.0223923 0.609 
0.510298 0.022429 0.61 
0.537847 0.0223923 0.609 
0.563443 0.022282 0.606 
0.591689 0.022282 0.606 
-0.535097 0.0289719 0.756 
-0.49457 0.0286653 0.748 
-0.454789 0.0283587 0.74 
-0.425977 0.0287419 0.75 
-0.390498 0.0287036 0.749 
-0.356062 0.0287419 0.75 
-0.321104 0.0287419 0.75 
-0.286909 0.0288186 0.752 
-0.24969 0.0287036 0.749 
-0.213345 0.028512 0.744 
-0.171902 0.0279755 0.73 
-0.131879 0.0276689 0.722 
-0.101083 0.0284737 0.743 
-0.0666307 0.0285503 0.745 
-0.0306641 0.027439 0.716 
0.0198117 0.0239133 0.624 
0.0487398 0.0238366 0.622 
0.0777314 0.0238366 0.622 
0.106208 0.0237217 0.619 
0.135278 0.02376 0.62 
0.164441 0.0237983 0.621 
0.192452 0.0236834 0.618 
0.221257 0.0236834 0.618 
0.250063 0.0236834 0.618 
0.277514 0.0235684 0.615 
0.305681 0.0235301 0.614 
0.333756 0.0234917 0.613 
0.362328 0.0234917 0.613 
0.391538 0.0235301 0.614 
0.419472 0.0234917 0.613 
0.445851 0.0233768 0.61 
0.473506 0.0233385 0.609 
0.501892 0.0233385 0.609 
0.530278 0.0233385 0.609 
0.554994 0.0231852 0.605 
0.583193 0.0231852 0.605 
-0.409557 0.0222908 0.559 
-0.500381 0.0298274 0.748 
-0.455559 0.0291894 0.732 
-0.432955 0.0299869 0.752 
-0.395788 0.0298274 0.748 
-0.361888 0.0299072 0.75 
-0.32693 0.0299072 0.75 
-0.291583 0.0298673 0.749 
-0.256329 0.0298274 0.748 
-0.221169 0.0297876 0.747 
-0.177239 0.0288704 0.724 
-0.143295 0.0288305 0.723 
-0.112476 0.0295882 0.742 
-0.0783106 0.0297477 0.746 
-0.0420802 0.0287508 0.721 
0.010133 0.0249227 0.625 
0.0390131 0.0247632 0.621 
0.0677393 0.0246834 0.619 
0.0969031 0.0247632 0.621 
0.126456 0.0248828 0.624 
0.154045 0.0246435 0.618 
0.18285 0.0246435 0.618 
0.211998 0.0246834 0.619 
0.240461 0.0246435 0.618 
0.269266 0.0246435 0.618 
0.29566 0.0244441 0.613 
0.324761 0.024484 0.614 
0.35453 0.0245638 0.616 
0.38262 0.0245239 0.615 
0.407942 0.0243245 0.61 
0.43852 0.0244441 0.613 
0.464044 0.0242846 0.609 
0.491621 0.0242448 0.608 
0.521671 0.0243245 0.61 
0.546496 0.024165 0.606 
0.573793 0.0241251 0.605 
0.604978 0.0242448 0.608 
-0.509876 0.0310725 0.75 
-0.464153 0.0303681 0.733 
-0.441133 0.0311553 0.752 
-0.403923 0.0309896 0.748 
-0.370538 0.0311139 0.751 
-0.335087 0.0310725 0.75 
-0.298529 0.0309067 0.746 
-0.264465 0.0309896 0.748 
-0.2296 0.0309896 0.748 
-0.18598 0.0299538 0.723 
-0.15523 0.0305339 0.737 
-0.12137 0.0306582 0.74 
-0.0874655 0.0308653 0.745 
-0.0456929 0.0300367 0.725 
0.00724296 0.0259766 0.627 
0.04473 0.0256866 0.62 
0.0736284 0.0256866 0.62 
0.102361 0.0256451 0.619 
0.132388 0.0256866 0.62 
0.160767 0.0256037 0.618 
0.188958 0.0255208 0.616 
0.21767 0.0255208 0.616 
0.246782 0.0255623 0.617 
0.274647 0.0254794 0.615 
0.301833 0.0253551 0.612 
0.330359 0.0253551 0.612 
0.358884 0.0253551 0.612 
0.388676 0.025438 0.614 
0.415935 0.0253551 0.612 
0.443008 0.0252723 0.61 
0.469895 0.0251894 0.608 
0.498234 0.0251894 0.608 
0.527439 0.0252308 0.609 
0.553087 0.0251065 0.606 
0.579414 0.0250237 0.604 
-0.416222 0.0238129 0.554 
-0.503867 0.0321517 0.748 
-0.458344 0.031421 0.731 
-0.43588 0.0322807 0.751 
-0.399274 0.0321517 0.748 
-0.364897 0.0321947 0.749 
-0.328822 0.0321947 0.749 
-0.291949 0.0319798 0.744 
-0.258308 0.0321088 0.747 
-0.22349 0.0321088 0.747 
-0.180114 0.0310342 0.722 
-0.145944 0.0311631 0.725 
-0.114472 0.0318079 0.74 
-0.0790435 0.0318938 0.742 
-0.0396188 0.0308192 0.717 
0.0216113 0.0266498 0.62 
0.0505097 0.0266498 0.62 
0.0794081 0.0266498 0.62 
0.107782 0.0265209 0.617 
0.137945 0.0266069 0.619 
0.166528 0.0265639 0.618 
0.194701 0.0264779 0.616 
0.22305 0.0264349 0.615 
0.252124 0.0264779 0.616 
0.279469 0.026349 0.613 
0.307538 0.026306 0.612 
0.336064 0.026306 0.612 
0.363994 0.026263 0.611 
0.393757 0.026349 0.613 
0.423018 0.0263919 0.614 
0.447224 0.026134 0.608 
0.47478 0.0260911 0.607 
0.502244 0.0260481 0.606 
0.531365 0.0260911 0.607 
0.556892 0.0259621 0.604 
0.584076 0.0259191 0.603 
-0.414026 0.0248518 0.558 
-0.50503 0.0333139 0.748 
-0.45948 0.0325568 0.731 
-0.436465 0.033403 0.75 
-0.399901 0.0332694 0.747 
-0.365572 0.0333139 0.748 
-0.327221 0.0333139 0.748 
-0.290402 0.0330912 0.743 
-0.256803 0.0332248 0.746 
-0.222032 0.0332248 0.746 
-0.178745 0.0321114 0.721 
-0.145743 0.032245 0.724 
-0.114472 0.0329576 0.74 
-0.078937 0.0330021 0.741 
-0.0419051 0.0319778 0.718 
0.0167678 0.0275686 0.619 
0.0456196 0.0275686 0.619 
0.074351 0.027524 0.618 
0.102989 0.0274795 0.617 
0.132175 0.0275686 0.619 
0.160246 0.027435 0.616 
0.188651 0.0273904 0.615 
0.216963 0.0273459 0.614 
0.246382 0.027435 0.616 
0.274201 0.0273459 0.614 
0.30134 0.0272123 0.611 
0.330359 0.0272568 0.612 
0.358298 0.0272123 0.611 
0.388043 0.0273014 0.613 
0.416615 0.0273014 0.613 
0.442282 0.0271232 0.609 
0.469122 0.0270341 0.607 
0.496595 0.0269896 0.606 
0.525707 0.0270341 0.607 
0.552174 0.0269451 0.605 
0.578455 0.026856 0.603 
-0.422096 0.0243821 0.529 
-0.416973 0.0255805 0.555 
-0.516651 0.034476 0.748 
-0.47599 0.0340612 0.739 
-0.448117 0.0345682 0.75 
-0.410956 0.0343839 0.746 
-0.377697 0.0345221 0.749 
-0.341871 0.03443 0.747 
-0.302352 0.0342917 0.744 
-0.268394 0.0343839 0.746 
-0.233622 0.0343839 0.746 
-0.196719 0.0340151 0.738 
-0.160027 0.0340151 0.738 
-0.124607 0.0337386 0.732 
-0.0917246 0.0341995 0.742 
-0.0569858 0.0341073 0.74 
0.00908866 0.0285764 0.62 
0.0379258 0.0285303 0.619 
0.0664539 0.028392 0.616 
0.0954748 0.0284842 0.618 
0.124682 0.0285764 0.62 
0.152837 0.0284381 0.617 
0.181007 0.0283459 0.615 
0.210355 0.0284381 0.617 
0.238726 0.028392 0.616 
0.267438 0.028392 0.616 
0.294226 0.0282077 0.612 
0.323279 0.0282538 0.613 
0.351851 0.0282538 0.613 
0.381044 0.0282999 0.614 
0.406327 0.0280694 0.609 
0.435426 0.0281155 0.61 
0.461577 0.0279772 0.607 
0.48987 0.0279772 0.607 
0.518162 0.0279772 0.607 
0.544654 0.027885 0.605 
0.57096 0.0277929 0.603 
0.598072 0.0277468 0.602 
-0.417762 0.0260616 0.547 
-0.52711 0.0356382 0.748 
-0.488956 0.0354 0.743 
-0.453713 0.0353523 0.742 
-0.420257 0.0354476 0.744 
-0.386616 0.0355429 0.746 
-0.351845 0.0355429 0.746 
-0.315491 0.0354953 0.745 
-0.280766 0.0354953 0.745 
-0.245381 0.0354 0.743 
-0.211033 0.0354476 0.744 
-0.170534 0.0347329 0.729 
-0.134495 0.0342089 0.718 
-0.104124 0.035257 0.74 
-0.0698209 0.0353523 0.742 
-0.0305784 0.0340183 0.714 
0.0244221 0.0294444 0.618 
0.0532273 0.0294444 0.618 
0.0821652 0.029492 0.619 
0.1103 0.0293015 0.615 
0.139643 0.0294444 0.618 
0.16763 0.0293015 0.615 
0.195976 0.0292538 0.614 
0.224229 0.0292062 0.613 
0.253626 0.0293015 0.615 
0.280915 0.0291585 0.612 
0.30944 0.0291585 0.612 
0.337413 0.0291109 0.611 
0.365293 0.0290632 0.61 
0.395017 0.0291585 0.612 
0.424234 0.0292062 0.613 
0.447635 0.0288727 0.606 
0.475881 0.0288727 0.606 
0.502463 0.0287774 0.604 
0.531494 0.028825 0.605 
0.557844 0.0287297 0.603 
0.584978 0.0286821 0.602 
-0.418572 0.0263211 0.535 
-0.531759 0.0368003 0.748 
-0.493573 0.0365544 0.743 
-0.455236 0.0362592 0.737 
-0.425452 0.0366528 0.745 
-0.390728 0.0366528 0.745 
-0.356481 0.0367019 0.746 
-0.321278 0.0366528 0.745 
-0.285015 0.036456 0.741 
-0.251491 0.0366036 0.744 
-0.216813 0.0366036 0.744 
-0.175384 0.035472 0.721 
-0.140073 0.0353244 0.718 
-0.109724 0.0363576 0.739 
-0.0752794 0.0363576 0.739 
-0.0349176 0.0350292 0.712 
0.0215067 0.0303554 0.617 
0.0503467 0.0304046 0.618 
0.07928 0.0304538 0.619 
0.107433 0.030257 0.615 
0.136541 0.0303554 0.617 
0.164764 0.030257 0.615 
0.1928 0.0301586 0.613 
0.221011 0.0301094 0.612 
0.25076 0.030257 0.615 
0.278062 0.0301094 0.612 
0.306086 0.0300602 0.611 
0.334565 0.0300602 0.611 
0.36245 0.030011 0.61 
0.392164 0.0301094 0.612 
0.422064 0.0302078 0.614 
0.445545 0.0298634 0.607 
0.473057 0.0298142 0.606 
0.499648 0.0297158 0.604 
0.527801 0.0297158 0.604 
0.555033 0.0296666 0.603 
0.581205 0.0295682 0.601 
-0.420319 0.0270508 0.533 
-0.414959 0.0289286 0.57 
-0.495882 0.0377087 0.743 
-0.456284 0.0373027 0.735 
-0.427767 0.0378102 0.745 
-0.392515 0.0377595 0.744 
-0.35928 0.0379117 0.747 
-0.323593 0.0378102 0.745 
-0.286542 0.0375057 0.739 
-0.253803 0.0377595 0.744 
-0.219125 0.0377595 0.744 
-0.175141 0.0365414 0.72 
-0.141188 0.0364399 0.718 
-0.110873 0.0375057 0.739 
-0.0763242 0.037455 0.738 
-0.0371822 0.0361862 0.713 
0.0157295 0.0312632 0.616 
0.0445857 0.0313647 0.618 
0.0731534 0.0312632 0.616 
0.1017 0.0312125 0.615 
0.130789 0.031314 0.617 
0.158772 0.0311617 0.614 
0.18678 0.0310602 0.612 
0.215306 0.0310602 0.612 
0.245027 0.0312125 0.615 
0.272802 0.031111 0.613 
0.299899 0.0309587 0.61 
0.329408 0.0310602 0.612 
0.356764 0.0309587 0.61 
0.386459 0.0310602 0.612 
0.414984 0.0310602 0.612 
0.440611 0.0308572 0.608 
0.467408 0.0307557 0.606 
0.494835 0.030705 0.605 
0.523035 0.030705 0.605 
0.549412 0.0306035 0.603 
0.575602 0.0305019 0.601 
-0.422867 0.0277743 0.531 
-0.41576 0.0291866 0.558 
-0.513165 0.0391246 0.748 
-0.471266 0.0385493 0.737 
-0.443436 0.0391246 0.748 
-0.406386 0.0389154 0.744 
-0.373707 0.0391246 0.748 
-0.338389 0.0390723 0.747 
-0.301133 0.0387585 0.741 
-0.267314 0.0388631 0.743 
-0.232996 0.0389154 0.744 
-0.196452 0.0385493 0.737 
-0.158234 0.0384447 0.735 
-0.12347 0.0382878 0.732 
-0.0904497 0.0387585 0.741 
-0.0555342 0.038497 0.736 
-0.0186075 0.037817 0.723 
0.0320515 0.0322726 0.617 
0.0607115 0.0322203 0.616 
0.0897138 0.0323249 0.618 
0.117944 0.032168 0.615 
0.146847 0.0322203 0.616 
0.174989 0.0321157 0.614 
0.203276 0.0320634 0.613 
0.232227 0.0321157 0.614 
0.260845 0.0321157 0.614 
0.28805 0.0319588 0.611 
0.318083 0.0321157 0.614 
0.345008 0.0319588 0.611 
0.372875 0.0319065 0.61 
0.40065 0.0318542 0.609 
0.42974 0.0319065 0.61 
0.454417 0.0316449 0.605 
0.484211 0.0317495 0.607 
0.509971 0.0315926 0.604 
0.536342 0.031488 0.602 
0.563463 0.0314357 0.601 
0.589508 0.0313311 0.599 
-0.418775 0.0293533 0.545 
-0.528727 0.0402329 0.747 
-0.490603 0.0399636 0.742 
-0.454789 0.0398559 0.74 
-0.422001 0.0400175 0.743 
-0.387891 0.0400714 0.744 
-0.353213 0.0400714 0.744 
-0.317251 0.0399098 0.741 
-0.282331 0.0398559 0.74 
-0.248174 0.0399098 0.741 
-0.214213 0.0400175 0.743 
-0.172262 0.0388865 0.722 
-0.137266 0.0385094 0.715 
-0.107428 0.0398021 0.739 
-0.0728843 0.0397482 0.738 
-0.0360238 0.0383479 0.712 
0.0157295 0.0331774 0.616 
0.0445857 0.0332851 0.618 
0.0730346 0.0331235 0.615 
0.1017 0.0331235 0.615 
0.130365 0.0331235 0.615 
0.158513 0.0330158 0.613 
0.186475 0.0329081 0.611 
0.215306 0.0329619 0.612 
0.244628 0.0330696 0.614 
0.272357 0.0329619 0.612 
0.299899 0.0328542 0.61 
0.328331 0.0328542 0.61 
0.356179 0.0328003 0.609 
0.385827 0.0329081 0.611 
0.413628 0.0328542 0.61 
0.439886 0.0326926 0.607 
0.466636 0.0325849 0.605 
0.4932 0.0324772 0.603 
0.52217 0.032531 0.604 
0.548501 0.0324233 0.602 
0.575602 0.0323695 0.601 
-0.422071 0.0293689 0.53 
-0.416111 0.0307542 0.555 
-0.5148 0.0413935 0.747 
-0.475484 0.0410056 0.74 
-0.445164 0.0413935 0.747 
-0.408149 0.0411719 0.743 
-0.375026 0.0413381 0.746 
-0.339798 0.0412827 0.745 
-0.303845 0.0411165 0.742 
-0.26926 0.0411165 0.742 
-0.234675 0.0411165 0.742 
-0.199012 0.0408948 0.738 
-0.163944 0.0407286 0.735 
-0.127215 0.0399528 0.721 
-0.0959464 0.0409502 0.739 
-0.0602716 0.0408948 0.738 
-0.0252071 0.039842 0.719 
0.025259 0.034079 0.615 
0.0538367 0.0340236 0.614 
0.0829926 0.0342452 0.618 
0.111074 0.0340236 0.614 
0.13992 0.034079 0.615 
0.168037 0.0339682 0.613 
0.196289 0.0339128 0.612 
0.224447 0.0338574 0.611 
0.253754 0.0339682 0.613 
0.280944 0.0338019 0.61 
0.310391 0.0339128 0.612 
0.337809 0.0338019 0.61 
0.36504 0.0336911 0.608 
0.394026 0.0337465 0.609 
0.422412 0.0337465 0.609 
0.447097 0.0334695 0.604 
0.476036 0.0335249 0.605 
0.501735 0.0333586 0.602 
0.529794 0.0333586 0.602 
0.556927 0.0333032 0.601 
0.583967 0.0332478 0.6 
-0.418468 0.0305911 0.537 
-0.414685 0.0322432 0.566 
-0.496367 0.0422693 0.742 
-0.456804 0.0418136 0.734 
-0.427773 0.0423263 0.743 
-0.392613 0.0422693 0.742 
-0.359958 0.0424972 0.746 
-0.323007 0.0422123 0.741 
-0.287301 0.0420414 0.738 
-0.254273 0.0422693 0.742 
-0.219689 0.0422693 0.742 
-0.179117 0.0409021 0.718 
-0.146259 0.041073 0.721 
-0.115309 0.0420414 0.738 
-0.0806914 0.0419275 0.736 
-0.0404487 0.0405603 0.712 
0.0128374 0.0350345 0.615 
0.0416377 0.0351485 0.617 
0.070054 0.0349776 0.614 
0.098512 0.0349206 0.613 
0.127084 0.0349206 0.613 
0.155148 0.0348067 0.611 
0.183327 0.0347497 0.61 
0.212453 0.0348636 0.612 
0.241373 0.0349206 0.613 
0.269064 0.0348067 0.611 
0.297056 0.0347497 0.61 
0.324955 0.0346927 0.609 
0.35276 0.0346358 0.608 
0.381726 0.0346927 0.609 
0.410112 0.0346927 0.609 
0.436337 0.0345218 0.606 
0.46305 0.0344079 0.604 
0.490389 0.0343509 0.603 
0.518495 0.0343509 0.603 
0.544788 0.034237 0.601 
0.570895 0.0341231 0.599 
-0.421247 0.0310158 0.53 
-0.415997 0.0325373 0.556 
-0.491756 0.0434221 0.742 
-0.454707 0.043188 0.738 
-0.422586 0.0434221 0.742 
-0.388001 0.0434221 0.742 
-0.353417 0.0434221 0.742 
-0.317543 0.0432466 0.739 
-0.282715 0.043188 0.738 
-0.249662 0.0434221 0.742 
-0.214787 0.0433636 0.741 
-0.174654 0.0420176 0.718 
-0.140402 0.0417836 0.714 
-0.110573 0.0431295 0.737 
-0.0758071 0.0428954 0.733 
-0.0381826 0.041608 0.711 
0.0147244 0.0359315 0.614 
0.0435549 0.0361071 0.617 
0.0718447 0.035873 0.613 
0.100417 0.035873 0.613 
0.128989 0.035873 0.613 
0.15679 0.0356974 0.61 
0.185222 0.0356974 0.61 
0.214005 0.035756 0.611 
0.24288 0.0358145 0.612 
0.270076 0.0356389 0.609 
0.298461 0.0356389 0.609 
0.325774 0.0355219 0.607 
0.354066 0.0355219 0.607 
0.382358 0.0355219 0.607 
0.411327 0.0355804 0.608 
0.436774 0.0353463 0.604 
0.464927 0.0353463 0.604 
0.491446 0.0352293 0.602 
0.519506 0.0352293 0.602 
0.545746 0.0351122 0.6 
0.572756 0.0350537 0.599 
-0.420357 0.0319594 0.532 
-0.534973 0.0448152 0.746 
-0.485992 0.0445749 0.742 
-0.452015 0.044635 0.743 
-0.41626 0.0445149 0.741 
-0.382752 0.044635 0.743 
-0.347184 0.0445149 0.741 
-0.312646 0.0445149 0.741 
-0.277732 0.0444548 0.74 
-0.243569 0.0445149 0.741 
-0.208467 0.0443947 0.739 
-0.170019 0.0433735 0.722 
-0.134477 0.0427727 0.712 
-0.104705 0.0442145 0.736 
-0.0702085 0.0440944 0.734 
-0.0326593 0.0427127 0.711 
0.0204149 0.0368254 0.613 
0.048987 0.0368254 0.613 
0.0776856 0.0368855 0.614 
0.106304 0.0368855 0.614 
0.134484 0.0367653 0.612 
0.163692 0.0367052 0.611 
0.191856 0.0366452 0.61 
0.220289 0.0366452 0.61 
0.248721 0.0366452 0.61 
0.276245 0.036525 0.608 
0.304083 0.036465 0.607 
0.33128 0.0363448 0.605 
0.359479 0.0363448 0.605 
0.388319 0.0364049 0.606 
0.415878 0.0363448 0.605 
0.442609 0.0362247 0.603 
0.470715 0.0362247 0.603 
0.497166 0.0361045 0.601 
0.525179 0.0361045 0.601 
0.552271 0.0360444 0.6 
0.579271 0.0359844 0.599 
-0.420187 0.0330325 0.536 
-0.533099 0.0459127 0.745 
-0.487145 0.0457278 0.742 
-0.45195 0.0456662 0.741 
-0.416848 0.0456045 0.74 
-0.38339 0.0457278 0.742 
-0.348335 0.0456662 0.741 
-0.313373 0.0456045 0.74 
-0.278882 0.0456045 0.74 
-0.244721 0.0456662 0.741 
-0.209331 0.0454813 0.738 
-0.170903 0.0444336 0.721 
-0.135393 0.0438173 0.711 
-0.105848 0.045358 0.736 
-0.0712517 0.0451731 0.733 
-0.0304499 0.0438173 0.711 
0.0232721 0.0377778 0.613 
0.0517596 0.0377162 0.612 
0.0805475 0.0378394 0.614 
0.108811 0.0377162 0.612 
0.137112 0.0376545 0.611 
0.16532 0.0375929 0.61 
0.193752 0.0375929 0.61 
0.22182 0.0375313 0.609 
0.252098 0.0375313 0.609 
0.279563 0.037408 0.607 
0.307348 0.0373464 0.606 
0.334486 0.0372231 0.604 
0.362639 0.0372231 0.604 
0.391438 0.0372848 0.605 
0.41825 0.0371615 0.603 
0.445616 0.0370999 0.602 
0.474462 0.0371615 0.603 
0.500068 0.0369766 0.6 
0.528034 0.0369766 0.6 
0.555074 0.036915 0.599 
0.582993 0.036915 0.599 
-0.419247 0.0339916 0.538 
-0.491093 0.0468174 0.741 
-0.45409 0.0465647 0.737 
-0.420878 0.0466911 0.739 
-0.385176 0.0468174 0.741 
-0.349691 0.0466911 0.739 
-0.315246 0.0466911 0.739 
-0.280421 0.0466279 0.738 
-0.247023 0.0468174 0.741 
-0.211625 0.0466279 0.738 
-0.172423 0.0453643 0.718 
-0.137215 0.0447956 0.709 
-0.107989 0.0464383 0.735 
-0.0733288 0.0461856 0.731 
-0.0314215 0.0447324 0.708 
0.0213324 0.038667 0.612 
0.0498579 0.038667 0.612 
