# .PCD v.7 - Point Cloud Data file format
VERSION .7
FIELDS x y z
SIZE 4 4 4
TYPE F F F
COUNT 1 1 1
WIDTH 1892
HEIGHT 1
VIEWPOINT 0 0 0 1 0 0 0
POINTS 1892
DATA ascii
-0.0250696 0.160961 0.627 
-7.23814e-05 0.160961 0.627 
0.0249248 0.160961 0.627 
0.0500812 0.161475 0.629 
0.0752777 0.161732 0.63 
0.101032 0.162758 0.634 
0.126707 0.163272 0.636 
0.152541 0.163785 0.638 
0.178534 0.164299 0.64 
0.20405 0.164299 0.64 
0.229924 0.164555 0.641 
0.257074 0.165582 0.645 
0.283227 0.165839 0.646 
0.309938 0.166352 0.648 
0.330073 0.163529 0.637 
0.341518 0.157111 0.612 
0.344392 0.147869 0.576 
0.34631 0.139397 0.543 
0.348984 0.132209 0.515 
0.353352 0.123994 0.483 
0.364123 0.12117 0.472 
0.38294 0.12117 0.472 
0.402609 0.121427 0.473 
0.423249 0.12194 0.475 
0.443117 0.122197 0.476 
0.463065 0.122454 0.477 
-0.472475 0.152587 0.589 
-0.449755 0.152847 0.59 
-0.443571 0.159064 0.614 
-0.416123 0.159582 0.616 
-0.387751 0.158028 0.61 
-0.355686 0.15466 0.597 
-0.332441 0.154919 0.598 
-0.309632 0.155437 0.6 
-0.285711 0.155437 0.6 
-0.262227 0.155696 0.601 
-0.239852 0.156732 0.605 
-0.216445 0.157251 0.607 
-0.192562 0.15751 0.608 
-0.169153 0.158287 0.611 
-0.145978 0.159582 0.616 
-0.121814 0.1601 0.618 
-0.0970183 0.159841 0.617 
-0.0725372 0.1601 0.618 
-0.0481313 0.160877 0.621 
-0.0235991 0.162432 0.627 
0.00139581 0.162173 0.626 
0.0263952 0.162432 0.627 
0.0515564 0.16295 0.629 
0.0767551 0.163209 0.63 
0.102519 0.164245 0.634 
0.1284 0.165022 0.637 
0.154037 0.165281 0.638 
0.180035 0.1658 0.64 
0.205551 0.1658 0.64 
0.231427 0.166059 0.641 
0.258987 0.167354 0.646 
0.284742 0.167354 0.646 
0.311458 0.167872 0.648 
0.331046 0.164763 0.636 
0.341272 0.157769 0.609 
0.344543 0.148702 0.574 
0.346261 0.139116 0.537 
0.349869 0.132381 0.511 
0.353751 0.124868 0.482 
0.364456 0.122018 0.471 
0.384047 0.122277 0.472 
0.403718 0.122536 0.473 
0.423469 0.122795 0.474 
0.444233 0.123313 0.476 
0.46321 0.123313 0.476 
-0.473856 0.153969 0.589 
-0.451139 0.15423 0.59 
-0.443561 0.159981 0.612 
-0.417568 0.161027 0.616 
-0.389819 0.15972 0.611 
-0.357086 0.15606 0.597 
-0.333843 0.156321 0.598 
-0.311039 0.156844 0.6 
-0.287118 0.156844 0.6 
-0.263636 0.157106 0.601 
-0.241271 0.158151 0.605 
-0.217869 0.158674 0.607 
-0.193988 0.158936 0.608 
-0.170586 0.15972 0.611 
-0.147423 0.161027 0.616 
-0.123064 0.161288 0.617 
-0.0984653 0.161288 0.617 
-0.0741062 0.161811 0.619 
-0.0495877 0.162334 0.621 
-0.0250696 0.163902 0.627 
-7.22659e-05 0.163641 0.626 
0.0249248 0.163902 0.627 
0.0500812 0.164425 0.629 
0.0752777 0.164686 0.63 
0.101032 0.165732 0.634 
0.126707 0.166255 0.636 
0.152541 0.166778 0.638 
0.178534 0.167301 0.64 
0.20405 0.167301 0.64 
0.229565 0.167301 0.64 
0.257074 0.168608 0.645 
0.283227 0.168869 0.646 
0.309938 0.169392 0.648 
0.329555 0.166255 0.636 
0.34096 0.15972 0.611 
0.34499 0.150832 0.577 
0.346287 0.140898 0.539 
0.349869 0.133579 0.511 
0.354084 0.126521 0.484 
0.364123 0.123384 0.472 
0.38294 0.123384 0.472 
0.402609 0.123646 0.473 
0.422358 0.123907 0.474 
0.443117 0.12443 0.476 
0.462094 0.12443 0.476 
-0.474431 0.155086 0.588 
-0.452522 0.155614 0.59 
-0.44427 0.161153 0.611 
-0.417652 0.161944 0.614 
-0.391893 0.161416 0.612 
-0.356488 0.157196 0.596 
-0.333843 0.157724 0.598 
-0.311039 0.158251 0.6 
-0.287118 0.158251 0.6 
-0.263636 0.158515 0.601 
-0.241271 0.15957 0.605 
-0.217869 0.160098 0.607 
-0.194307 0.160625 0.609 
-0.170586 0.161153 0.611 
-0.147423 0.162471 0.616 
-0.123064 0.162735 0.617 
-0.0984653 0.162735 0.617 
-0.0741062 0.163263 0.619 
-0.0495877 0.16379 0.621 
-0.0250296 0.165109 0.626 
-7.22659e-05 0.165109 0.626 
0.0249248 0.165373 0.627 
0.0500812 0.1659 0.629 
0.0752777 0.166164 0.63 
0.100873 0.166955 0.633 
0.126707 0.167746 0.636 
0.152541 0.168274 0.638 
0.178255 0.168538 0.639 
0.20405 0.168801 0.64 
0.229565 0.168801 0.64 
0.257074 0.17012 0.645 
0.283227 0.170384 0.646 
0.309938 0.170911 0.648 
0.329555 0.167746 0.636 
0.340402 0.160889 0.61 
0.34499 0.152185 0.577 
0.346261 0.141635 0.537 
0.349693 0.13425 0.509 
0.354084 0.127656 0.484 
0.364123 0.124491 0.472 
0.38294 0.124491 0.472 
0.402609 0.124755 0.473 
0.422358 0.125019 0.474 
0.443117 0.125546 0.476 
0.462094 0.125546 0.476 
-0.474431 0.156465 0.588 
-0.453289 0.157264 0.591 
-0.44427 0.162586 0.611 
-0.416972 0.163118 0.613 
-0.391893 0.162852 0.612 
-0.356488 0.158594 0.596 
-0.333843 0.159126 0.598 
-0.311039 0.159658 0.6 
-0.287118 0.159658 0.6 
-0.263636 0.159925 0.601 
-0.24167 0.161255 0.606 
-0.217869 0.161521 0.607 
-0.194307 0.162053 0.609 
-0.170586 0.162586 0.611 
-0.147423 0.163916 0.616 
-0.123064 0.164182 0.617 
-0.0984653 0.164182 0.617 
-0.0741062 0.164714 0.619 
-0.0495877 0.165247 0.621 
-0.0249896 0.166311 0.625 
-7.22659e-05 0.166577 0.626 
0.0249248 0.166843 0.627 
0.0500812 0.167375 0.629 
0.0751582 0.167375 0.629 
0.101032 0.168706 0.634 
0.126707 0.169238 0.636 
0.152302 0.169504 0.637 
0.178255 0.170036 0.639 
0.20405 0.170302 0.64 
0.229565 0.170302 0.64 
0.257074 0.171633 0.645 
0.283227 0.171899 0.646 
0.309938 0.172431 0.648 
0.329555 0.169238 0.636 
0.340402 0.162319 0.61 
0.34499 0.153538 0.577 
0.346287 0.143427 0.539 
0.349184 0.13571 0.51 
0.354084 0.128791 0.484 
0.364456 0.125332 0.471 
0.384047 0.125598 0.472 
0.403718 0.125864 0.473 
0.423469 0.12613 0.474 
0.4433 0.126396 0.475 
0.46321 0.126662 0.476 
-0.473052 0.157844 0.588 
-0.448503 0.158918 0.592 
-0.44428 0.166166 0.619 
-0.411313 0.164018 0.611 
-0.385687 0.163482 0.609 
-0.353693 0.159992 0.596 
-0.331592 0.160797 0.599 
-0.308225 0.161066 0.6 
-0.284304 0.161066 0.6 
-0.261685 0.161871 0.603 
-0.239221 0.162945 0.607 
-0.215022 0.162945 0.607 
-0.19145 0.163482 0.609 
-0.16772 0.164018 0.611 
-0.144534 0.165361 0.616 
-0.12017 0.165629 0.617 
-0.0957262 0.165898 0.618 
-0.0712029 0.166166 0.619 
-0.0466749 0.166703 0.621 
-0.0220228 0.167508 0.624 
0.00286846 0.168314 0.627 
0.0278657 0.168314 0.627 
0.0530315 0.16885 0.629 
0.0782326 0.169119 0.63 
0.104006 0.170193 0.634 
0.129894 0.170998 0.637 
0.155533 0.171266 0.638 
0.181253 0.171535 0.639 
0.207052 0.171803 0.64 
0.232567 0.171803 0.64 
0.260502 0.173414 0.646 
0.2867 0.173682 0.647 
0.312978 0.173951 0.648 
0.332538 0.170729 0.636 
0.341012 0.162676 0.606 
0.344081 0.153281 0.571 
0.345616 0.143885 0.536 
0.350887 0.136637 0.509 
0.354084 0.129926 0.484 
0.363351 0.126436 0.471 
0.382129 0.126436 0.471 
0.402609 0.126973 0.473 
0.421467 0.126973 0.473 
0.442186 0.12751 0.475 
0.462094 0.127779 0.476 
-0.47051 0.159765 0.59 
-0.44734 0.161389 0.596 
-0.441346 0.168159 0.621 
-0.406348 0.165181 0.61 
-0.377645 0.163285 0.603 
-0.349499 0.161389 0.596 
-0.327378 0.162202 0.599 
-0.304004 0.162473 0.6 
-0.28055 0.162743 0.601 
-0.258297 0.163827 0.605 
-0.234951 0.164368 0.607 
-0.210751 0.164368 0.607 
-0.187166 0.16491 0.609 
-0.163421 0.165451 0.611 
-0.140427 0.167076 0.617 
-0.115829 0.167076 0.617 
-0.0913783 0.167347 0.618 
-0.0668479 0.167618 0.619 
-0.042374 0.16843 0.622 
-0.0176044 0.168701 0.623 
0.00727973 0.169784 0.627 
0.0322769 0.169784 0.627 
0.0574568 0.170325 0.629 
0.0826649 0.170596 0.63 
0.108466 0.171679 0.634 
0.134375 0.172492 0.637 
0.160022 0.172763 0.638 
0.185748 0.173033 0.639 
0.211885 0.173575 0.641 
0.237811 0.173846 0.642 
0.265047 0.174929 0.646 
0.291252 0.1752 0.647 
0.317046 0.1752 0.647 
0.335423 0.171409 0.633 
0.341287 0.162202 0.599 
0.342094 0.15137 0.559 
0.346128 0.143788 0.531 
0.351389 0.13756 0.508 
0.354485 0.13079 0.483 
0.364456 0.127541 0.471 
0.383234 0.127541 0.471 
0.403718 0.128083 0.473 
0.422576 0.128083 0.473 
0.4433 0.128624 0.475 
0.46321 0.128895 0.476 
-0.468535 0.161422 0.591 
-0.447232 0.162241 0.594 
-0.441377 0.169069 0.619 
-0.409967 0.166338 0.609 
-0.385054 0.166065 0.608 
-0.353693 0.162787 0.596 
-0.331592 0.163607 0.599 
-0.308225 0.16388 0.6 
-0.284304 0.16388 0.6 
-0.261685 0.164699 0.603 
-0.239221 0.165792 0.607 
-0.215022 0.165792 0.607 
-0.19145 0.166338 0.609 
-0.16772 0.166884 0.611 
-0.144534 0.16825 0.616 
-0.12017 0.168523 0.617 
-0.0957262 0.168796 0.618 
-0.0712029 0.169069 0.619 
-0.0466749 0.169616 0.621 
-0.0219523 0.169889 0.622 
0.00286389 0.170981 0.626 
0.0278657 0.171254 0.627 
0.0530315 0.171801 0.629 
0.0782326 0.172074 0.63 
0.103841 0.172893 0.633 
0.129894 0.173986 0.637 
0.155289 0.173986 0.637 
0.181253 0.174532 0.639 
0.207052 0.174805 0.64 
0.232567 0.174805 0.64 
0.260099 0.176171 0.645 
0.286257 0.176444 0.646 
0.312978 0.17699 0.648 
0.332015 0.173439 0.635 
0.340449 0.165245 0.605 
0.344081 0.155959 0.571 
0.345644 0.146946 0.538 
0.34867 0.139571 0.511 
0.356043 0.134655 0.493 
0.360037 0.128646 0.471 
0.378815 0.128646 0.471 
0.399281 0.129192 0.473 
0.418139 0.129192 0.473 
0.438844 0.129738 0.475 
0.458745 0.130011 0.476 
-0.472475 0.162257 0.589 
-0.450517 0.162808 0.591 
-0.442849 0.168868 0.613 
-0.414251 0.167766 0.609 
-0.389972 0.167766 0.609 
-0.357285 0.163909 0.595 
-0.335246 0.164736 0.598 
-0.311039 0.165287 0.6 
-0.287118 0.165287 0.6 
-0.256878 0.166664 0.605 
-0.233912 0.167491 0.608 
-0.209672 0.167491 0.608 
-0.185738 0.167766 0.609 
-0.161988 0.168317 0.611 
-0.13898 0.16997 0.617 
-0.114382 0.16997 0.617 
-0.089929 0.170245 0.618 
-0.0653962 0.170521 0.619 
-0.0409153 0.171347 0.622 
-0.0160916 0.171072 0.621 
0.00875016 0.172725 0.627 
0.0337473 0.172725 0.627 
0.0589319 0.173276 0.629 
0.0841424 0.173551 0.63 
0.109953 0.174653 0.634 
0.135869 0.17548 0.637 
0.161518 0.175755 0.638 
0.186954 0.175755 0.638 
0.213721 0.176857 0.642 
0.238944 0.176581 0.641 
0.266562 0.177959 0.646 
0.292769 0.178234 0.647 
0.317579 0.177683 0.645 
0.335843 0.173827 0.631 
0.341548 0.16446 0.597 
0.342706 0.154268 0.56 
0.346128 0.146279 0.531 
0.351389 0.139943 0.508 
0.354084 0.133331 0.484 
0.363351 0.12975 0.471 
0.382129 0.12975 0.471 
0.402609 0.130301 0.473 
0.421467 0.130301 0.473 
0.442186 0.130852 0.475 
0.462094 0.131128 0.476 
-0.47051 0.163916 0.59 
-0.448503 0.164471 0.592 
-0.442127 0.171139 0.616 
-0.409293 0.168917 0.608 
-0.38442 0.168639 0.607 
-0.353099 0.165305 0.595 
-0.324568 0.166416 0.599 
-0.301189 0.166694 0.6 
-0.259716 0.168083 0.605 
-0.236374 0.168639 0.607 
-0.212524 0.168917 0.608 
-0.188594 0.169194 0.609 
-0.164584 0.169472 0.61 
-0.141644 0.171139 0.616 
-0.117276 0.171417 0.617 
-0.0928276 0.171695 0.618 
-0.0682995 0.171973 0.619 
-0.0437622 0.172528 0.621 
-0.0190043 0.172528 0.621 
0.00580931 0.174195 0.627 
0.0308065 0.174195 0.627 
0.0559817 0.174751 0.629 
0.0811875 0.175029 0.63 
0.10681 0.175862 0.633 
0.132881 0.176973 0.637 
0.158526 0.177251 0.638 
0.18425 0.177529 0.639 
0.210382 0.178085 0.641 
0.235569 0.177807 0.64 
0.263124 0.179196 0.645 
0.289735 0.179752 0.647 
0.315529 0.179752 0.647 
0.333938 0.175862 0.633 
0.34045 0.166694 0.6 
0.343116 0.15697 0.565 
0.346226 0.148635 0.535 
0.349693 0.141412 0.509 
0.354145 0.133633 0.481 
0.366336 0.131133 0.472 
0.384338 0.130855 0.471 
0.404828 0.13141 0.473 
0.423685 0.13141 0.473 
0.444414 0.131966 0.475 
0.464327 0.132244 0.476 
-0.469921 0.16558 0.591 
-0.447114 0.16586 0.592 
-0.440682 0.172584 0.616 
-0.406442 0.170342 0.608 
-0.37843 0.168661 0.602 
-0.350308 0.1667 0.595 
-0.318949 0.167821 0.599 
-0.263099 0.168942 0.603 
-0.233912 0.170342 0.608 
-0.209672 0.170342 0.608 
-0.185738 0.170623 0.609 
-0.161988 0.171183 0.611 
-0.138755 0.172584 0.616 
-0.114382 0.172864 0.617 
-0.089929 0.173144 0.618 
-0.0653962 0.173424 0.619 
-0.0408495 0.173985 0.621 
-0.0160916 0.173985 0.621 
0.00875016 0.175666 0.627 
0.0337473 0.175666 0.627 
0.0589319 0.176226 0.629 
0.084276 0.176786 0.631 
0.109953 0.177627 0.634 
0.135869 0.178467 0.637 
0.161518 0.178747 0.638 
0.186954 0.178747 0.638 
0.213388 0.179588 0.641 
0.238944 0.179588 0.641 
0.266149 0.180709 0.645 
0.292769 0.181269 0.647 
0.318071 0.180989 0.646 
0.33531 0.176506 0.63 
0.34065 0.16614 0.593 
0.34279 0.156334 0.558 
0.346719 0.148489 0.53 
0.35258 0.142326 0.508 
0.355299 0.133921 0.478 
0.369657 0.13224 0.472 
0.388475 0.13224 0.472 
0.408155 0.13252 0.473 
0.427013 0.13252 0.473 
0.447756 0.13308 0.475 
0.468658 0.13364 0.477 
-0.467149 0.166966 0.591 
-0.44734 0.168378 0.596 
-0.431348 0.173181 0.613 
-0.40359 0.171768 0.608 
-0.373735 0.169226 0.599 
-0.347518 0.168096 0.595 
-0.311039 0.169508 0.6 
-0.242068 0.171486 0.607 
-0.217869 0.171486 0.607 
-0.19145 0.172051 0.609 
-0.167445 0.172333 0.61 
-0.144534 0.174028 0.616 
-0.119975 0.174028 0.616 
-0.0957262 0.174593 0.618 
-0.0713179 0.175158 0.62 
-0.0466749 0.175441 0.621 
-0.0219523 0.175723 0.622 
0.00286389 0.176854 0.626 
0.0278657 0.177136 0.627 
0.0529472 0.177419 0.628 
0.0783568 0.178266 0.631 
0.103513 0.178266 0.631 
0.129894 0.179961 0.637 
0.155289 0.179961 0.637 
0.181253 0.180526 0.639 
0.207052 0.180809 0.64 
0.232567 0.180809 0.64 
0.260099 0.182221 0.645 
0.286257 0.182504 0.646 
0.312495 0.182786 0.647 
0.332015 0.179396 0.635 
0.339043 0.169508 0.6 
0.342395 0.159903 0.566 
0.345616 0.151427 0.536 
0.349184 0.144082 0.51 
0.355026 0.138432 0.49 
0.361142 0.133064 0.471 
0.37992 0.133064 0.471 
0.400391 0.133629 0.473 
0.419248 0.133629 0.473 
0.439958 0.134194 0.475 
0.459861 0.134476 0.476 
-0.473624 0.167212 0.587 
-0.453289 0.168352 0.591 
-0.442815 0.173479 0.609 
-0.414997 0.173194 0.608 
-0.390757 0.173194 0.608 
-0.358681 0.169491 0.595 
-0.320354 0.17063 0.599 
-0.242068 0.172909 0.607 
-0.217869 0.172909 0.607 
-0.19145 0.173479 0.609 
-0.167445 0.173764 0.61 
-0.144534 0.175473 0.616 
-0.119975 0.175473 0.616 
-0.0957262 0.176043 0.618 
-0.0713179 0.176612 0.62 
-0.0465998 0.176612 0.62 
-0.0219523 0.177182 0.622 
0.00286389 0.178322 0.626 
0.0278657 0.178606 0.627 
0.0529472 0.178891 0.628 
0.0783568 0.179746 0.631 
0.103513 0.179746 0.631 
0.129894 0.181455 0.637 
0.155289 0.181455 0.637 
0.181253 0.182025 0.639 
0.206728 0.182025 0.639 
0.232567 0.18231 0.64 
0.259696 0.183449 0.644 
0.286257 0.184019 0.646 
0.312495 0.184304 0.647 
0.332015 0.180885 0.635 
0.339043 0.170915 0.6 
0.342395 0.16123 0.566 
0.345616 0.152684 0.536 
0.348499 0.144993 0.509 
0.355026 0.139581 0.49 
0.360037 0.134168 0.471 
0.378815 0.134168 0.471 
0.399281 0.134738 0.473 
0.418139 0.134738 0.473 
0.438844 0.135308 0.475 
0.457781 0.135308 0.475 
-0.473624 0.168589 0.587 
-0.453289 0.169738 0.591 
-0.442815 0.174907 0.609 
-0.417849 0.17462 0.608 
-0.393609 0.17462 0.608 
-0.360864 0.170599 0.594 
-0.320354 0.172035 0.599 
-0.229257 0.174333 0.607 
-0.205057 0.174333 0.607 
-0.181453 0.174907 0.609 
-0.157948 0.175769 0.612 
-0.133985 0.176343 0.614 
-0.110041 0.177205 0.617 
-0.0857195 0.177779 0.619 
-0.0610412 0.177779 0.619 
-0.0364217 0.178066 0.62 
-0.0117414 0.178641 0.622 
0.0131614 0.180077 0.627 
0.0381586 0.180077 0.627 
0.0633573 0.180651 0.629 
0.0887154 0.181226 0.631 
0.114413 0.182087 0.634 
0.140351 0.182949 0.637 
0.166007 0.183236 0.638 
0.191442 0.183236 0.638 
0.217558 0.183811 0.64 
0.243833 0.184385 0.642 
0.270687 0.185247 0.645 
0.297321 0.185821 0.647 
0.31962 0.183811 0.64 
0.337046 0.179502 0.625 
0.342273 0.169738 0.591 
0.343551 0.159398 0.555 
0.34657 0.151069 0.526 
0.352867 0.145038 0.505 
0.353813 0.136709 0.476 
0.368874 0.135273 0.471 
0.388475 0.13556 0.472 
0.408155 0.135847 0.473 
0.427013 0.135847 0.473 
0.447756 0.136422 0.475 
0.467676 0.136709 0.476 
-0.465763 0.171124 0.591 
-0.448187 0.17344 0.599 
-0.432098 0.176625 0.61 
-0.406442 0.176046 0.608 
-0.377173 0.173729 0.6 
-0.350308 0.172282 0.595 
-0.238827 0.175467 0.606 
-0.213598 0.175756 0.607 
-0.18971 0.176046 0.608 
-0.166015 0.176625 0.61 
-0.143089 0.178362 0.616 
-0.11853 0.178362 0.616 
-0.0942769 0.178941 0.618 
-0.0698639 0.17952 0.62 
-0.0451458 0.17952 0.62 
-0.0205265 0.180389 0.623 
0.00433197 0.181258 0.626 
0.0293361 0.181547 0.627 
0.0544199 0.181837 0.628 
0.0798366 0.182706 0.631 
0.104993 0.182706 0.631 
0.131181 0.184153 0.636 
0.157029 0.184732 0.638 
0.182465 0.184732 0.638 
0.208227 0.185022 0.639 
0.233702 0.185022 0.639 
0.261612 0.186759 0.645 
0.287772 0.187049 0.646 
0.314012 0.187338 0.647 
0.332979 0.183574 0.634 
0.339882 0.17344 0.599 
0.341392 0.162148 0.56 
0.346128 0.153751 0.531 
0.350697 0.146801 0.507 
0.354084 0.140142 0.484 
0.363351 0.136378 0.471 
0.382129 0.136378 0.471 
0.402609 0.136957 0.473 
0.421467 0.136957 0.473 
0.442186 0.137536 0.475 
0.462094 0.137825 0.476 
-0.470294 0.171634 0.588 
-0.448371 0.172218 0.59 
-0.437105 0.178347 0.611 
-0.410719 0.177472 0.608 
-0.384573 0.176596 0.605 
-0.353899 0.173385 0.594 
-0.247954 0.176304 0.604 
-0.224986 0.17718 0.607 
-0.200786 0.17718 0.607 
-0.177168 0.177764 0.609 
-0.153893 0.178931 0.613 
-0.129665 0.179223 0.614 
-0.1057 0.180099 0.617 
-0.0816274 0.181266 0.621 
-0.0567778 0.180974 0.62 
-0.0321114 0.181266 0.621 
-0.00736529 0.181558 0.622 
0.0175727 0.183018 0.627 
0.0425699 0.183018 0.627 
0.0677826 0.183602 0.629 
0.0933024 0.184477 0.632 
0.119061 0.185353 0.635 
0.144832 0.185937 0.637 
0.170495 0.186229 0.638 
0.195931 0.186229 0.638 
0.222061 0.186812 0.64 
0.248737 0.187688 0.643 
0.275652 0.188564 0.646 
0.301873 0.188856 0.647 
0.322603 0.185937 0.637 
0.335777 0.178639 0.612 
0.34252 0.169882 0.582 
0.345662 0.159374 0.546 
0.347242 0.150617 0.516 
0.354983 0.145363 0.498 
0.35602 0.138066 0.473 
0.374085 0.137774 0.472 
0.392903 0.137774 0.472 
0.412593 0.138066 0.473 
0.432362 0.138358 0.474 
0.452212 0.13865 0.475 
0.472141 0.138942 0.476 
-0.45944 0.173601 0.59 
-0.446366 0.178898 0.608 
-0.42282 0.179192 0.609 
-0.397886 0.178898 0.608 
-0.365658 0.175072 0.595 
-0.257998 0.176838 0.601 
-0.235595 0.178015 0.605 
-0.212174 0.178603 0.607 
-0.188284 0.178898 0.608 
-0.164584 0.179486 0.61 
-0.141185 0.180663 0.614 
-0.116706 0.180663 0.614 
-0.0913783 0.18184 0.618 
-0.0668479 0.182134 0.619 
-0.0422378 0.182428 0.62 
-0.0176327 0.183605 0.624 
0.00727973 0.184488 0.627 
0.0322769 0.184488 0.627 
0.0573655 0.184782 0.628 
0.0829274 0.185959 0.632 
0.108124 0.185959 0.632 
0.134375 0.187431 0.637 
0.160022 0.187725 0.638 
0.185458 0.187725 0.638 
0.211554 0.188313 0.64 
0.23707 0.188313 0.64 
0.264637 0.189784 0.645 
0.290802 0.190079 0.646 
0.316066 0.189784 0.645 
0.333833 0.185371 0.63 
0.341287 0.176249 0.599 
0.34279 0.164186 0.558 
0.346065 0.155653 0.529 
0.350498 0.148591 0.505 
0.353813 0.140058 0.476 
0.368874 0.138587 0.471 
0.388475 0.138881 0.472 
0.408155 0.139175 0.473 
0.427013 0.139175 0.473 
0.447756 0.139764 0.475 
0.467676 0.140058 0.476 
-0.464975 0.174985 0.59 
-0.448187 0.177654 0.599 
-0.428533 0.18062 0.609 
-0.40359 0.180323 0.608 
-0.374359 0.177951 0.6 
-0.321759 0.177654 0.599 
-0.248958 0.178841 0.603 
-0.226037 0.17973 0.606 
-0.201877 0.17973 0.606 
-0.178597 0.18062 0.609 
-0.154824 0.181213 0.611 
-0.130892 0.181806 0.613 
-0.106973 0.182696 0.616 
-0.0832175 0.184476 0.622 
-0.0582318 0.183882 0.62 
-0.0335678 0.184179 0.621 
-0.00883817 0.184772 0.623 
0.0161023 0.185959 0.627 
0.0410995 0.185959 0.627 
0.0662021 0.186255 0.628 
0.0918203 0.187441 0.632 
0.117572 0.188331 0.635 
0.143338 0.188924 0.637 
0.168999 0.189221 0.638 
0.19474 0.189518 0.639 
0.22056 0.189814 0.64 
0.247229 0.190704 0.643 
0.274137 0.191594 0.646 
0.300356 0.19189 0.647 
0.321109 0.188924 0.637 
0.335626 0.182993 0.617 
0.343877 0.174688 0.589 
0.346274 0.162825 0.549 
0.347777 0.152741 0.515 
0.35472 0.147106 0.496 
0.356724 0.139691 0.471 
0.376299 0.139988 0.472 
0.395953 0.140285 0.473 
0.414811 0.140285 0.473 
0.434585 0.140581 0.474 
0.45444 0.140878 0.475 
-0.479946 0.175771 0.588 
-0.45728 0.17607 0.589 
-0.447055 0.18145 0.607 
-0.42282 0.182048 0.609 
-0.397886 0.181749 0.608 
-0.365658 0.177863 0.595 
-0.326831 0.17876 0.598 
-0.300687 0.179059 0.599 
-0.273047 0.179358 0.6 
-0.250372 0.180255 0.603 
-0.227458 0.181151 0.606 
-0.203298 0.181151 0.606 
-0.180025 0.182048 0.609 
-0.156001 0.182347 0.61 
-0.132113 0.182945 0.612 
-0.108418 0.184141 0.616 
-0.0845401 0.185635 0.621 
-0.0595896 0.185038 0.619 
-0.0350241 0.185635 0.621 
-0.0103157 0.186532 0.624 
0.0146318 0.187429 0.627 
0.039629 0.187429 0.627 
0.0647293 0.187728 0.628 
0.0904811 0.189223 0.633 
0.1159 0.189522 0.634 
0.141845 0.190418 0.637 
0.167503 0.190717 0.638 
0.193241 0.191016 0.639 
0.219744 0.191913 0.642 
0.245339 0.191913 0.642 
0.272622 0.193109 0.646 
0.298839 0.193408 0.647 
0.320117 0.190717 0.638 
0.33617 0.184739 0.618 
0.343877 0.17607 0.589 
0.346307 0.162917 0.545 
0.347472 0.152753 0.511 
0.355607 0.147671 0.494 
0.357828 0.140796 0.471 
0.376606 0.140796 0.471 
0.397063 0.141394 0.473 
0.41592 0.141394 0.473 
0.435697 0.141693 0.474 
0.455553 0.141992 0.475 
-0.478567 0.17715 0.588 
-0.455125 0.17715 0.588 
-0.445632 0.182874 0.607 
-0.421392 0.183476 0.609 
-0.395809 0.182874 0.607 
-0.36365 0.178957 0.594 
-0.341113 0.17956 0.596 
-0.310521 0.180464 0.599 
-0.287118 0.180765 0.6 
-0.26179 0.180765 0.6 
-0.239456 0.18197 0.604 
-0.216445 0.182874 0.607 
-0.192245 0.182874 0.607 
-0.168599 0.183476 0.609 
-0.145504 0.184983 0.614 
-0.120631 0.18438 0.612 
-0.0971755 0.186188 0.618 
-0.0728893 0.187092 0.621 
-0.0482088 0.187393 0.622 
-0.0234862 0.187996 0.624 
0.00139358 0.188297 0.625 
0.0263952 0.188899 0.627 
0.0513924 0.188899 0.627 
0.0767551 0.189803 0.63 
0.102034 0.190105 0.631 
0.1284 0.191912 0.637 
0.154037 0.192213 0.638 
0.179473 0.192213 0.638 
0.205551 0.192816 0.64 
0.231066 0.192816 0.64 
0.258185 0.194021 0.644 
0.284742 0.194624 0.646 
0.310977 0.194925 0.647 
0.330526 0.19131 0.635 
0.339591 0.182573 0.606 
0.342094 0.168413 0.559 
0.344825 0.159374 0.529 
0.350498 0.152144 0.505 
0.355219 0.145817 0.484 
0.363682 0.141599 0.47 
0.384047 0.142202 0.472 
0.403718 0.142503 0.473 
0.422576 0.142503 0.473 
0.4433 0.143106 0.475 
0.46321 0.143407 0.476 
-0.471094 0.178832 0.589 
-0.448371 0.179136 0.59 
-0.442131 0.186423 0.614 
-0.40862 0.184297 0.607 
-0.38252 0.183387 0.604 
-0.353099 0.180654 0.595 
-0.328783 0.181868 0.599 
-0.304902 0.181868 0.599 
-0.28149 0.182172 0.6 
-0.257569 0.182172 0.6 
-0.235206 0.183387 0.604 
-0.211825 0.183994 0.606 
-0.187975 0.184297 0.607 
-0.164314 0.184905 0.609 
-0.140955 0.186119 0.613 
-0.116516 0.186119 0.613 
-0.0928276 0.187637 0.618 
-0.0682995 0.187941 0.619 
-0.0438327 0.188852 0.622 
-0.0190961 0.189459 0.624 
0.00580005 0.190066 0.626 
0.0308065 0.19037 0.627 
0.0558037 0.19037 0.627 
0.0814452 0.191888 0.632 
0.106642 0.191888 0.632 
0.132881 0.193406 0.637 
0.158526 0.19371 0.638 
0.183961 0.19371 0.638 
0.21071 0.194924 0.642 
0.235569 0.194317 0.64 
0.263124 0.195835 0.645 
0.289735 0.196442 0.647 
0.314554 0.195835 0.645 
0.333411 0.191888 0.632 
0.34045 0.182172 0.6 
0.344099 0.16942 0.558 
0.34468 0.159401 0.525 
0.350986 0.153025 0.504 
0.355299 0.14513 0.478 
0.368091 0.142701 0.47 
0.388475 0.143309 0.472 
0.408155 0.143612 0.473 
0.427916 0.143916 0.474 
0.447756 0.14422 0.475 
0.467676 0.144523 0.476 
-0.467742 0.18052 0.59 
-0.447232 0.181743 0.594 
-0.440664 0.189087 0.618 
-0.403017 0.185109 0.605 
-0.375766 0.183579 0.6 
-0.350086 0.182661 0.597 
-0.324568 0.183273 0.599 
-0.300687 0.183273 0.599 
-0.277269 0.183579 0.6 
-0.25377 0.183885 0.601 
-0.231339 0.185109 0.605 
-0.207561 0.185415 0.606 
-0.183704 0.185721 0.607 
-0.16003 0.186333 0.609 
-0.136419 0.187251 0.612 
-0.112569 0.188169 0.615 
-0.0886228 0.189393 0.619 
-0.0639446 0.189393 0.619 
-0.0393932 0.190004 0.621 
-0.0147059 0.190922 0.624 
0.0102206 0.19184 0.627 
0.0352178 0.19184 0.627 
0.060215 0.19184 0.627 
0.0860276 0.193676 0.633 
0.111264 0.193676 0.633 
0.137363 0.1949 0.637 
0.163014 0.195206 0.638 
0.18845 0.195206 0.638 
0.215227 0.19643 0.642 
0.240447 0.196124 0.641 
0.267662 0.197348 0.645 
0.294287 0.19796 0.647 
0.316618 0.195818 0.64 
0.335719 0.192146 0.628 
0.341224 0.181743 0.594 
0.344906 0.169199 0.553 
0.345719 0.159408 0.521 
0.353125 0.153595 0.502 
0.355299 0.146251 0.478 
0.368091 0.143804 0.47 
0.388475 0.144416 0.472 
0.408155 0.144722 0.473 
0.427013 0.144722 0.473 
0.447756 0.145334 0.475 
0.467676 0.14564 0.476 
-0.462806 0.181595 0.589 
-0.447528 0.184986 0.6 
-0.427105 0.187761 0.609 
-0.398857 0.185911 0.603 
-0.371708 0.18437 0.598 
-0.347286 0.184061 0.597 
-0.324568 0.184678 0.599 
-0.300687 0.184678 0.599 
-0.277269 0.184986 0.6 
-0.253348 0.184986 0.6 
-0.231339 0.186528 0.605 
-0.207904 0.187144 0.607 
-0.184007 0.187453 0.608 
-0.16003 0.187761 0.609 
-0.136419 0.188686 0.612 
-0.112569 0.189611 0.615 
-0.0886228 0.190844 0.619 
-0.0639446 0.190844 0.619 
-0.0393932 0.191461 0.621 
-0.0147059 0.192386 0.624 
0.0102206 0.193311 0.627 
0.0352178 0.193311 0.627 
0.060215 0.193311 0.627 
0.0860276 0.195161 0.633 
0.111264 0.195161 0.633 
0.137363 0.196394 0.637 
0.163014 0.196702 0.638 
0.18845 0.196702 0.638 
0.215227 0.197935 0.642 
0.240447 0.197627 0.641 
0.267662 0.19886 0.645 
0.294287 0.199477 0.647 
0.316618 0.197319 0.64 
0.335719 0.193619 0.628 
0.341224 0.183136 0.594 
0.34279 0.172037 0.558 
0.345411 0.162788 0.528 
0.350498 0.155697 0.505 
0.355953 0.149531 0.485 
0.362908 0.144598 0.469 
0.384047 0.145523 0.472 
0.403718 0.145831 0.473 
0.422576 0.145831 0.473 
0.4433 0.146447 0.475 
0.46321 0.146756 0.476 
-0.47051 0.183287 0.59 
-0.447985 0.18484 0.595 
-0.442803 0.192917 0.621 
-0.404513 0.187325 0.603 
-0.379211 0.186704 0.601 
-0.352295 0.185151 0.596 
-0.329636 0.185772 0.598 
-0.305795 0.185772 0.598 
-0.282897 0.186393 0.6 
-0.258976 0.186393 0.6 
-0.237014 0.187947 0.605 
-0.213598 0.188568 0.607 
-0.18971 0.188879 0.608 
-0.165743 0.189189 0.609 
-0.142392 0.190432 0.613 
-0.117953 0.190432 0.613 
-0.0942769 0.191985 0.618 
-0.0697512 0.192296 0.619 
-0.0452914 0.193228 0.622 
-0.0205595 0.193849 0.624 
0.00433197 0.19447 0.626 
0.0293361 0.194781 0.627 
0.0543333 0.194781 0.627 
0.0798366 0.196024 0.631 
0.10516 0.196334 0.632 
0.131387 0.197888 0.637 
0.157029 0.198198 0.638 
0.182465 0.198198 0.638 
0.208878 0.19913 0.641 
0.234434 0.19913 0.641 
0.261206 0.200062 0.644 
0.288217 0.200994 0.647 
0.313041 0.200373 0.645 
0.332979 0.196956 0.634 
0.340173 0.187015 0.602 
0.34179 0.17552 0.565 
0.344972 0.166201 0.535 
0.348499 0.158124 0.509 
0.35575 0.152532 0.491 
0.358509 0.145698 0.469 
0.37962 0.146629 0.472 
0.398437 0.146629 0.472 
0.418139 0.14694 0.473 
0.43792 0.147251 0.474 
0.457781 0.147561 0.475 
-0.478812 0.18467 0.59 
-0.450988 0.184044 0.588 
-0.442815 0.190618 0.609 
-0.41153 0.189366 0.605 
-0.38613 0.18874 0.603 
-0.356084 0.18561 0.593 
-0.335246 0.187175 0.598 
-0.311405 0.187175 0.598 
-0.288525 0.187801 0.6 
-0.265046 0.188113 0.601 
-0.242288 0.189053 0.604 
-0.219292 0.189992 0.607 
-0.195092 0.189992 0.607 
-0.171174 0.190305 0.608 
-0.147901 0.191557 0.612 
-0.123905 0.192183 0.614 
-0.100074 0.193435 0.618 
-0.0755579 0.193748 0.619 
-0.051044 0.194374 0.621 
-0.026413 0.195313 0.624 
-0.00153542 0.195313 0.624 
0.023417 0.195939 0.626 
0.0484516 0.196252 0.627 
0.0738002 0.197191 0.63 
0.099074 0.197504 0.631 
0.125412 0.199382 0.637 
0.151045 0.199695 0.638 
0.176204 0.199382 0.637 
0.202233 0.200008 0.639 
0.228421 0.200634 0.641 
0.254769 0.20126 0.643 
0.281712 0.202199 0.646 
0.307943 0.202512 0.647 
0.328063 0.199069 0.636 
0.338971 0.190931 0.61 
0.340805 0.17841 0.57 
0.345034 0.169333 0.541 
0.347472 0.159943 0.511 
0.35575 0.153683 0.491 
0.360708 0.146797 0.469 
0.381833 0.147736 0.472 
0.400651 0.147736 0.472 
0.420357 0.148049 0.473 
0.440143 0.148362 0.474 
0.460978 0.148988 0.476 
-0.478812 0.186054 0.59 
-0.452974 0.185108 0.587 
-0.444208 0.191415 0.607 
-0.412949 0.190784 0.605 
-0.386258 0.189523 0.601 
-0.357475 0.187 0.593 
-0.336085 0.188262 0.597 
-0.31333 0.188892 0.599 
-0.289449 0.188892 0.599 
-0.266455 0.189523 0.601 
-0.243705 0.190469 0.604 
-0.220716 0.191415 0.607 
-0.196516 0.191415 0.607 
-0.1726 0.19173 0.608 
-0.149336 0.192992 0.612 
-0.125345 0.193622 0.614 
-0.101523 0.194884 0.618 
-0.0768851 0.194884 0.618 
-0.0524158 0.195515 0.62 
-0.0278764 0.196776 0.624 
-0.00299881 0.196776 0.624 
0.021984 0.197722 0.627 
0.0469812 0.197722 0.627 
0.0723227 0.198668 0.63 
0.0975942 0.198983 0.631 
0.123724 0.20056 0.636 
0.149548 0.201191 0.638 
0.17471 0.200875 0.637 
0.200734 0.201506 0.639 
0.226918 0.202137 0.641 
0.253261 0.202767 0.643 
0.279763 0.203398 0.645 
0.306425 0.204029 0.647 
0.326572 0.20056 0.636 
0.339201 0.193307 0.613 
0.341098 0.181324 0.575 
0.343763 0.171233 0.543 
0.347242 0.162719 0.516 
0.354983 0.157042 0.498 
0.355619 0.148528 0.471 
0.374397 0.148528 0.471 
0.394009 0.148843 0.472 
0.413702 0.149159 0.473 
0.432559 0.149159 0.473 
0.453326 0.149789 0.475 
0.475246 0.150735 0.478 
-0.46202 0.186802 0.588 
-0.447528 0.190615 0.6 
-0.423552 0.193156 0.608 
-0.394058 0.190615 0.6 
-0.365819 0.188391 0.593 
-0.343909 0.189344 0.596 
-0.321759 0.190297 0.599 
-0.297381 0.189979 0.598 
-0.274912 0.190932 0.601 
-0.250951 0.190932 0.601 
-0.228879 0.192521 0.606 
-0.204381 0.192203 0.605 
-0.181155 0.193156 0.608 
-0.157173 0.193474 0.609 
-0.133767 0.194745 0.613 
-0.109863 0.195698 0.616 
-0.0854425 0.196015 0.617 
-0.0609426 0.196333 0.618 
-0.036598 0.197922 0.623 
-0.0117603 0.197922 0.623 
0.0131404 0.198875 0.626 
0.0381586 0.199192 0.627 
0.0632565 0.19951 0.628 
0.0887154 0.200463 0.631 
0.114052 0.200781 0.632 
0.140571 0.202687 0.638 
0.165747 0.202369 0.637 
0.191442 0.202687 0.638 
0.217898 0.20364 0.641 
0.243833 0.203958 0.642 
0.270268 0.204593 0.644 
0.297321 0.205546 0.647 
0.319121 0.203005 0.639 
0.338125 0.199192 0.627 
0.340536 0.186802 0.588 
0.342313 0.175683 0.553 
0.345252 0.16647 0.524 
0.352168 0.160116 0.504 
0.354929 0.151221 0.476 
0.369193 0.149315 0.47 
0.389582 0.14995 0.472 
0.409265 0.150268 0.473 
0.428122 0.150268 0.473 
0.447925 0.150586 0.474 
0.470762 0.151856 0.478 
-0.468331 0.188501 0.589 
-0.44938 0.190422 0.595 
-0.442113 0.197782 0.618 
-0.399687 0.192022 0.6 
-0.372634 0.190422 0.595 
-0.348913 0.190422 0.595 
-0.327378 0.191702 0.599 
-0.30299 0.191382 0.598 
-0.280083 0.192022 0.6 
-0.256162 0.192022 0.6 
-0.234177 0.193622 0.605 
-0.210057 0.193622 0.605 
-0.186858 0.194582 0.608 
-0.162886 0.194902 0.609 
-0.139289 0.195862 0.612 
-0.115641 0.197142 0.616 
-0.0912304 0.197462 0.617 
-0.0667399 0.197782 0.618 
-0.0423059 0.198743 0.621 
-0.0176044 0.199383 0.623 
0.00725651 0.200023 0.625 
0.0322769 0.200663 0.627 
0.0572741 0.200663 0.627 
0.0826649 0.201623 0.63 
0.107953 0.201943 0.631 
0.134375 0.203863 0.637 
0.159771 0.203863 0.637 
0.185458 0.204183 0.638 
0.211554 0.204823 0.64 
0.23744 0.205143 0.641 
0.263816 0.205783 0.643 
0.291252 0.207064 0.647 
0.315086 0.205783 0.643 
0.334363 0.201943 0.631 
0.340148 0.191062 0.597 
0.342612 0.17986 0.562 
0.344825 0.169299 0.529 
0.350005 0.161938 0.506 
0.355219 0.154898 0.484 
0.364008 0.150097 0.469 
0.384338 0.150737 0.471 
0.403972 0.151057 0.472 
0.423685 0.151377 0.473 
0.443478 0.151697 0.474 
0.464327 0.152337 0.476 
-0.473277 0.190205 0.59 
-0.450517 0.190527 0.591 
-0.441404 0.196975 0.611 
-0.405991 0.193751 0.601 
-0.381394 0.193429 0.6 
-0.354495 0.191817 0.595 
-0.332441 0.192784 0.598 
-0.3086 0.192784 0.598 
-0.285711 0.193429 0.6 
-0.262227 0.193751 0.601 
-0.239852 0.195041 0.605 
-0.216088 0.195363 0.606 
-0.192879 0.19633 0.609 
-0.168599 0.19633 0.609 
-0.14503 0.197298 0.612 
-0.121223 0.198265 0.615 
-0.0970183 0.198909 0.617 
-0.0725372 0.199232 0.618 
-0.0480538 0.199877 0.62 
-0.0234862 0.201166 0.624 
0.00138912 0.200844 0.623 
0.0263531 0.201811 0.626 
0.0513924 0.202133 0.627 
0.0767551 0.2031 0.63 
0.101872 0.2031 0.63 
0.128198 0.205035 0.636 
0.154037 0.205679 0.638 
0.179473 0.205679 0.638 
0.208227 0.206002 0.639 
0.234434 0.206647 0.641 
0.2608 0.207291 0.643 
0.288217 0.208581 0.647 
0.312556 0.207614 0.644 
0.332979 0.20439 0.634 
0.339043 0.193429 0.6 
0.342395 0.182468 0.566 
0.344327 0.172152 0.534 
0.348499 0.164092 0.509 
0.355026 0.157967 0.49 
0.359609 0.151197 0.469 
0.37992 0.151842 0.471 
0.398698 0.151842 0.471 
0.419248 0.152486 0.473 
0.439032 0.152809 0.474 
0.458895 0.153131 0.475 
-0.475237 0.191264 0.589 
-0.451755 0.191264 0.589 
-0.442088 0.197434 0.608 
-0.41017 0.19581 0.603 
-0.384208 0.194836 0.6 
-0.356084 0.192563 0.593 
-0.335246 0.194187 0.598 
-0.311405 0.194187 0.598 
-0.288045 0.194511 0.599 
-0.265046 0.195161 0.601 
-0.24269 0.19646 0.605 
-0.218931 0.196784 0.606 
-0.195414 0.197434 0.608 
-0.171455 0.197759 0.609 
-0.147659 0.198408 0.611 
-0.123905 0.199382 0.614 
-0.0997503 0.200032 0.616 
-0.0753137 0.200356 0.617 
-0.0508796 0.201006 0.619 
-0.026413 0.202629 0.624 
-0.0015305 0.20198 0.622 
0.023417 0.203279 0.626 
0.0484516 0.203604 0.627 
0.0738002 0.204578 0.63 
0.098917 0.204578 0.63 
0.124821 0.205877 0.634 
0.150808 0.206851 0.637 
0.176204 0.206851 0.637 
0.203731 0.2075 0.639 
0.229565 0.207825 0.64 
0.256277 0.208799 0.643 
0.283227 0.209773 0.646 
0.308503 0.209449 0.645 
0.329555 0.206526 0.636 
0.339286 0.197434 0.608 
0.342001 0.185744 0.572 
0.343121 0.174703 0.538 
0.346951 0.16626 0.512 
0.355166 0.16074 0.495 
0.355966 0.152622 0.47 
0.374704 0.152622 0.47 
0.394279 0.152946 0.471 
0.414811 0.153596 0.473 
0.433669 0.153596 0.473 
0.45444 0.154245 0.475 
-0.480763 0.192645 0.589 
-0.454951 0.191664 0.586 
-0.445582 0.197878 0.605 
-0.415787 0.197878 0.605 
-0.38843 0.196243 0.6 
-0.358866 0.193954 0.593 
-0.337485 0.195262 0.597 
-0.31421 0.195589 0.598 
-0.290854 0.195916 0.599 
-0.267865 0.19657 0.601 
-0.245121 0.197551 0.604 
-0.222139 0.198533 0.607 
-0.198265 0.19886 0.608 
-0.174312 0.199187 0.609 
-0.150525 0.199841 0.611 
-0.126579 0.200495 0.613 
-0.10264 0.201476 0.616 
-0.0782077 0.201803 0.617 
-0.0537829 0.202458 0.619 
-0.0292928 0.203766 0.623 
-0.0044479 0.203439 0.622 
0.0204481 0.20442 0.625 
0.0455107 0.205074 0.627 
0.0708453 0.206055 0.63 
0.0959621 0.206055 0.63 
0.121463 0.206709 0.632 
0.14782 0.208345 0.637 
0.173216 0.208345 0.637 
0.198924 0.208672 0.638 
0.225063 0.209326 0.64 
0.251361 0.20998 0.642 
0.277819 0.210634 0.644 
0.304437 0.211288 0.646 
0.325591 0.208345 0.637 
0.339416 0.201476 0.616 
0.341098 0.188066 0.575 
0.343763 0.1776 0.543 
0.346569 0.168442 0.515 
0.35427 0.162555 0.497 
0.355267 0.154378 0.472 
0.371707 0.153397 0.469 
0.39207 0.154051 0.471 
0.412593 0.154705 0.473 
0.43145 0.154705 0.473 
0.452212 0.155359 0.475 
0.473133 0.156013 0.477 
-0.459857 0.193368 0.587 
-0.447608 0.198309 0.602 
-0.422126 0.200286 0.608 
-0.392651 0.19765 0.6 
-0.362426 0.195015 0.592 
-0.341113 0.196333 0.596 
-0.318949 0.197321 0.599 
-0.294576 0.196991 0.598 
-0.27164 0.19765 0.6 
-0.248958 0.198638 0.603 
-0.226037 0.199627 0.606 
-0.20221 0.199956 0.607 
-0.178597 0.200615 0.609 
-0.15457 0.200944 0.61 
-0.130678 0.201603 0.612 
-0.1068 0.202591 0.615 
-0.0825486 0.20325 0.617 
-0.058044 0.20358 0.618 
-0.0336218 0.204897 0.622 
-0.00883817 0.205227 0.623 
0.0160509 0.205886 0.625 
0.0410995 0.206545 0.627 
0.0662021 0.206874 0.628 
0.0915297 0.207533 0.63 
0.116646 0.207533 0.63 
0.143338 0.209839 0.637 
0.168734 0.209839 0.637 
0.194435 0.210168 0.638 
0.220905 0.211156 0.641 
0.246844 0.211486 0.642 
0.27244 0.211486 0.642 
0.299892 0.212803 0.646 
0.321109 0.209839 0.637 
0.337802 0.204568 0.621 
0.33979 0.191721 0.582 
0.343035 0.181179 0.55 
0.346383 0.171956 0.522 
0.353125 0.165367 0.502 
0.353069 0.156473 0.475 
0.367308 0.154497 0.469 
0.387652 0.155155 0.471 
0.408155 0.155814 0.473 
0.427013 0.155814 0.473 
0.446813 0.156144 0.474 
0.467676 0.156803 0.476 
-0.466157 0.195076 0.588 
-0.450244 0.198394 0.598 
-0.429961 0.202043 0.609 
-0.400353 0.199389 0.601 
-0.369991 0.196735 0.593 
-0.348102 0.19773 0.596 
-0.325429 0.198394 0.598 
-0.300579 0.19773 0.596 
-0.278676 0.199057 0.6 
-0.255604 0.199721 0.602 
-0.233143 0.201048 0.606 
-0.208638 0.200716 0.605 
-0.185738 0.202043 0.609 
-0.161458 0.202043 0.609 
-0.137629 0.202707 0.611 
-0.113826 0.203702 0.614 
-0.0897834 0.204697 0.617 
-0.0652906 0.205029 0.618 
-0.0407838 0.205693 0.62 
-0.0161434 0.206688 0.623 
0.00870829 0.20702 0.624 
0.0337473 0.208015 0.627 
0.0588382 0.208347 0.628 
0.0840088 0.208678 0.629 
0.109086 0.208678 0.629 
0.135656 0.211001 0.636 
0.161265 0.211333 0.637 
0.186954 0.211664 0.638 
0.213388 0.21266 0.641 
0.239316 0.212991 0.642 
0.264499 0.21266 0.641 
0.292317 0.214318 0.646 
0.315117 0.212328 0.64 
0.334778 0.208678 0.629 
0.338798 0.194081 0.585 
0.341694 0.183133 0.552 
0.344593 0.173512 0.523 
0.351469 0.166876 0.503 
0.353796 0.158914 0.479 
0.365108 0.155596 0.469 
0.385443 0.15626 0.471 
0.405937 0.156924 0.473 
0.424794 0.156924 0.473 
0.44459 0.157255 0.474 
0.464465 0.157587 0.475 
-0.468915 0.196455 0.588 
-0.450018 0.19846 0.594 
-0.43782 0.203806 0.61 
-0.403842 0.201133 0.602 
-0.377949 0.20013 0.599 
-0.350308 0.198794 0.595 
-0.327685 0.199462 0.597 
-0.303884 0.199462 0.597 
-0.28149 0.200464 0.6 
-0.258428 0.201133 0.602 
-0.235985 0.202469 0.606 
-0.211475 0.202135 0.605 
-0.188594 0.203471 0.609 
-0.164314 0.203471 0.609 
-0.140495 0.20414 0.611 
-0.116516 0.204808 0.613 
-0.0926774 0.206144 0.617 
-0.0680789 0.206144 0.617 
-0.0436918 0.207147 0.62 
-0.0190349 0.207815 0.622 
0.00577225 0.208149 0.623 
0.0308065 0.209485 0.627 
0.0558037 0.209485 0.627 
0.0810586 0.210154 0.629 
0.106136 0.210154 0.629 
0.132255 0.211824 0.634 
0.158277 0.212826 0.637 
0.183961 0.213161 0.638 
0.210054 0.213829 0.64 
0.235937 0.214163 0.641 
0.261492 0.214163 0.641 
0.289287 0.215833 0.646 
0.313091 0.214497 0.642 
0.332883 0.210822 0.631 
0.33818 0.199128 0.596 
0.342508 0.188437 0.564 
0.343638 0.177411 0.531 
0.349006 0.169727 0.508 
0.353268 0.162376 0.486 
0.359609 0.156696 0.469 
0.37992 0.157365 0.471 
0.398698 0.157365 0.471 
0.419248 0.158033 0.473 
0.438106 0.158033 0.473 
0.457929 0.158367 0.474 
-0.476377 0.197498 0.587 
-0.453746 0.197834 0.588 
-0.44494 0.204563 0.608 
-0.413632 0.20389 0.606 
-0.385616 0.201872 0.6 
-0.357475 0.199516 0.593 
-0.336085 0.200862 0.597 
-0.312807 0.201199 0.598 
-0.289449 0.201535 0.599 
-0.266898 0.202544 0.602 
-0.243705 0.203217 0.604 
-0.220716 0.204227 0.607 
-0.197163 0.2049 0.609 
-0.172884 0.2049 0.609 
-0.148848 0.205236 0.61 
-0.124733 0.205573 0.611 
-0.101031 0.206918 0.615 
-0.0767607 0.207591 0.617 
-0.0522467 0.207928 0.618 
-0.0277424 0.208937 0.621 
-0.00299881 0.209946 0.624 
0.0219138 0.210283 0.625 
0.0469812 0.210956 0.627 
0.0720931 0.211292 0.628 
0.0972849 0.211629 0.629 
0.122751 0.212302 0.631 
0.149314 0.21432 0.637 
0.17471 0.21432 0.637 
0.200734 0.214993 0.639 
0.227272 0.216003 0.642 
0.252473 0.215666 0.641 
0.279329 0.216675 0.644 
0.305478 0.217012 0.645 
0.326058 0.213647 0.635 
0.336987 0.2049 0.609 
0.341098 0.19346 0.575 
0.343763 0.182694 0.543 
0.345896 0.172937 0.514 
0.35427 0.167217 0.497 
0.354864 0.158133 0.47 
0.372807 0.157796 0.469 
0.39234 0.158133 0.47 
0.414576 0.159479 0.474 
0.432559 0.159142 0.473 
0.452371 0.159479 0.474 
0.473257 0.160151 0.476 
-0.458481 0.198874 0.587 
-0.449161 0.205311 0.606 
-0.4207 0.205989 0.608 
-0.391244 0.203279 0.6 
-0.362426 0.200568 0.592 
-0.341685 0.202262 0.597 
-0.318417 0.202601 0.598 
-0.294576 0.202601 0.598 
-0.272093 0.203617 0.601 
-0.249371 0.204634 0.604 
-0.22641 0.20565 0.607 
-0.202543 0.205989 0.608 
-0.178597 0.206328 0.609 
-0.15457 0.206667 0.61 
-0.130251 0.206667 0.61 
-0.106452 0.207683 0.613 
-0.0826824 0.209377 0.618 
-0.058044 0.209377 0.618 
-0.0335678 0.210393 0.621 
-0.00885236 0.21141 0.624 
0.0160252 0.21141 0.624 
0.0410995 0.212426 0.627 
0.0662021 0.212765 0.628 
0.0913844 0.213104 0.629 
0.116646 0.213443 0.63 
0.143113 0.215475 0.636 
0.168734 0.215814 0.637 
0.194435 0.216153 0.638 
0.221594 0.217847 0.643 
0.246075 0.216831 0.64 
0.27244 0.217508 0.642 
0.299892 0.218863 0.646 
0.321109 0.215814 0.637 
0.336714 0.209716 0.619 
0.33979 0.19718 0.582 
0.343035 0.186339 0.55 
0.345056 0.176175 0.52 
0.353125 0.170076 0.502 
0.352692 0.160251 0.473 
0.368408 0.158896 0.469 
0.387931 0.159235 0.47 
0.409265 0.160251 0.473 
0.428122 0.160251 0.473 
0.447925 0.16059 0.474 
0.467807 0.160929 0.475 
-0.467536 0.200592 0.588 
-0.450135 0.203321 0.596 
-0.432098 0.208097 0.61 
-0.403099 0.205709 0.603 
-0.375287 0.203662 0.597 
-0.350308 0.20298 0.595 
-0.327685 0.203662 0.597 
-0.303884 0.203662 0.597 
-0.28149 0.204686 0.6 
-0.258857 0.205709 0.603 
-0.235985 0.206733 0.606 
-0.212174 0.207074 0.607 
-0.188594 0.207756 0.609 
-0.164045 0.207415 0.608 
-0.140495 0.208438 0.611 
-0.116135 0.208438 0.611 
-0.0926774 0.210485 0.617 
-0.0680789 0.210485 0.617 
-0.0436213 0.211167 0.619 
-0.0190043 0.21185 0.621 
0.00578151 0.212873 0.624 
0.0307574 0.213555 0.626 
0.0558927 0.214238 0.628 
0.0809297 0.214238 0.628 
0.106304 0.21492 0.63 
0.132255 0.216285 0.634 
0.158277 0.217308 0.637 
0.183673 0.217308 0.637 
0.210054 0.218331 0.64 
0.235937 0.218673 0.641 
0.261492 0.218673 0.641 
0.288839 0.220037 0.645 
0.312603 0.218673 0.641 
0.332355 0.21492 0.63 
0.33818 0.203321 0.596 
0.341901 0.192063 0.563 
0.343638 0.181147 0.531 
0.349006 0.173301 0.508 
0.35149 0.164431 0.482 
0.359939 0.159655 0.468 
0.380215 0.160337 0.47 
0.400651 0.161019 0.472 
0.420357 0.161361 0.473 
0.439215 0.161361 0.473 
0.459041 0.161702 0.474 
-0.472817 0.201284 0.586 
-0.451755 0.202314 0.589 
-0.443542 0.209528 0.61 
-0.412891 0.208497 0.607 
-0.384208 0.206093 0.6 
-0.355292 0.204032 0.594 
-0.333285 0.205062 0.597 
-0.310002 0.205406 0.598 
-0.287118 0.206093 0.6 
-0.264514 0.207123 0.603 
-0.240872 0.207467 0.604 
-0.21751 0.208154 0.606 
-0.194307 0.209184 0.609 
-0.169748 0.208841 0.608 
-0.146226 0.209871 0.611 
-0.121668 0.209528 0.61 
-0.0983057 0.211589 0.616 
-0.0738668 0.211932 0.617 
-0.0494279 0.212619 0.619 
-0.0248297 0.213306 0.621 
-7.2035e-05 0.214337 0.624 
0.0248851 0.215024 0.626 
0.049922 0.215367 0.627 
0.0750387 0.215711 0.628 
0.100235 0.216054 0.629 
0.12591 0.217084 0.632 
0.152063 0.218458 0.636 
0.177698 0.218802 0.637 
0.203731 0.219489 0.639 
0.230283 0.220519 0.642 
0.255081 0.219832 0.64 
0.28235 0.221206 0.644 
0.308503 0.22155 0.645 
0.328 0.217428 0.633 
0.336495 0.207123 0.603 
0.341403 0.196132 0.571 
0.343759 0.18514 0.539 
0.345596 0.175179 0.51 
0.353155 0.167966 0.489 
0.357409 0.161096 0.469 
0.376107 0.161096 0.469 
0.395647 0.161439 0.47 
0.41703 0.16247 0.473 
0.435887 0.16247 0.473 
0.455706 0.162813 0.474 
-0.480507 0.203004 0.587 
-0.457104 0.203004 0.587 
-0.449218 0.210267 0.608 
-0.4207 0.210267 0.608 
-0.391244 0.2075 0.6 
-0.360256 0.205079 0.593 
-0.339453 0.206808 0.598 
-0.315612 0.206808 0.598 
-0.292259 0.207154 0.599 
-0.27017 0.208537 0.603 
-0.246538 0.208883 0.604 
-0.223563 0.209921 0.607 
-0.20002 0.210612 0.609 
-0.175452 0.210267 0.608 
-0.151709 0.210958 0.61 
-0.12739 0.210958 0.61 
-0.103577 0.211996 0.613 
-0.0797837 0.213725 0.618 
-0.0551454 0.213725 0.618 
-0.0306057 0.214417 0.62 
-0.00592558 0.2158 0.624 
0.018952 0.2158 0.624 
0.0440403 0.216837 0.627 
0.0691476 0.217183 0.628 
0.0943346 0.217529 0.629 
0.119981 0.218567 0.632 
0.145867 0.219604 0.635 
0.171722 0.220296 0.637 
0.197427 0.220642 0.638 
0.224959 0.222717 0.644 
0.249077 0.221333 0.64 
0.27588 0.222371 0.643 
0.302922 0.223408 0.646 
0.322571 0.219258 0.634 
0.335559 0.210612 0.609 
0.34034 0.1992 0.576 
0.34312 0.188133 0.544 
0.345361 0.178104 0.515 
0.355946 0.173262 0.501 
0.355209 0.162196 0.469 
0.373907 0.162196 0.469 
0.393442 0.162542 0.47 
0.414811 0.163579 0.473 
0.433669 0.163579 0.473 
0.453483 0.163925 0.474 
-0.478314 0.204033 0.586 
-0.455728 0.204381 0.587 
-0.448528 0.212041 0.609 
-0.414314 0.211344 0.607 
-0.385616 0.208907 0.6 
-0.354495 0.207166 0.595 
-0.331885 0.207863 0.597 
-0.308084 0.207863 0.597 
-0.285711 0.208907 0.6 
-0.263536 0.2103 0.604 
-0.239456 0.2103 0.604 
-0.216088 0.210996 0.606 
-0.192879 0.212041 0.609 
-0.168322 0.211692 0.608 
-0.144793 0.212737 0.611 
-0.120434 0.212737 0.611 
-0.0970183 0.214826 0.617 
-0.0724198 0.214826 0.617 
-0.0479763 0.215522 0.619 
-0.0233357 0.215871 0.62 
0.00139135 0.217263 0.624 
0.0263531 0.21796 0.626 
0.0513924 0.218308 0.627 
0.0763896 0.218308 0.627 
0.101872 0.219352 0.63 
0.127593 0.220397 0.633 
0.153554 0.221441 0.636 
0.179191 0.22179 0.637 
0.20523 0.222486 0.639 
0.231788 0.223531 0.642 
0.256983 0.223182 0.641 
0.28342 0.223879 0.643 
0.310016 0.224575 0.645 
0.328444 0.219701 0.631 
0.336228 0.208907 0.6 
0.340941 0.197765 0.568 
0.343743 0.186972 0.537 
0.346112 0.177223 0.509 
0.35171 0.169563 0.487 
0.357409 0.163296 0.469 
0.376107 0.163296 0.469 
0.396488 0.163992 0.471 
0.416148 0.16434 0.472 
0.435887 0.164688 0.473 
0.455706 0.165037 0.474 
-0.474191 0.205407 0.586 
-0.452367 0.206108 0.588 
-0.444973 0.213819 0.61 
-0.400353 0.210665 0.601 
-0.363814 0.20751 0.592 
-0.342511 0.208912 0.596 
-0.319284 0.209263 0.597 
-0.295978 0.209613 0.598 
-0.273957 0.211015 0.602 
-0.250787 0.211716 0.604 
-0.227458 0.212417 0.606 
-0.204304 0.213469 0.609 
-0.179729 0.213118 0.608 
-0.155745 0.213469 0.609 
-0.131681 0.213819 0.61 
-0.107714 0.21452 0.612 
-0.0841317 0.216624 0.618 
-0.0594933 0.216624 0.618 
-0.0349677 0.217325 0.62 
-0.0102992 0.218376 0.623 
0.0145618 0.218727 0.624 
0.039629 0.219778 0.627 
0.0647293 0.220129 0.628 
0.0899093 0.220479 0.629 
0.115717 0.221881 0.633 
0.141399 0.222583 0.635 
0.16724 0.223284 0.637 
0.192939 0.223634 0.638 
0.220086 0.225387 0.643 
0.244192 0.223985 0.639 
0.270934 0.225036 0.642 
0.298839 0.226789 0.647 
0.319114 0.222933 0.636 
0.335262 0.216974 0.619 
0.339589 0.204706 0.584 
0.341745 0.192788 0.55 
0.343836 0.182272 0.52 
0.352649 0.176313 0.503 
0.353801 0.165798 0.473 
0.369507 0.164396 0.469 
0.389033 0.164746 0.47 
0.409506 0.165447 0.472 
0.428324 0.165447 0.472 
0.449036 0.166148 0.474 
0.468921 0.166499 0.475 
-0.460641 0.207487 0.588 
-0.450582 0.213838 0.606 
-0.410111 0.213486 0.605 
-0.382801 0.211721 0.6 
-0.348102 0.21031 0.596 
-0.324885 0.210663 0.597 
-0.301083 0.210663 0.597 
-0.27914 0.212074 0.601 
-0.256878 0.213486 0.605 
-0.232758 0.213486 0.605 
-0.209672 0.214544 0.608 
-0.185738 0.214897 0.609 
-0.161193 0.214544 0.608 
-0.137629 0.215603 0.611 
-0.113455 0.215956 0.612 
-0.089929 0.218073 0.618 
-0.0652906 0.218073 0.618 
-0.040718 0.218426 0.619 
-0.0160916 0.219132 0.621 
0.00869433 0.219837 0.623 
0.0336935 0.220896 0.626 
0.0588382 0.221602 0.628 
0.0838753 0.221602 0.628 
0.109606 0.223013 0.632 
0.135229 0.223719 0.634 
0.161012 0.224425 0.636 
0.186661 0.224777 0.637 
0.213388 0.226189 0.641 
0.238571 0.225836 0.64 
0.264499 0.226189 0.641 
0.291412 0.227248 0.644 
0.314625 0.225483 0.639 
0.333714 0.221249 0.627 
0.339501 0.208545 0.591 
0.339719 0.195136 0.553 
0.343448 0.185256 0.525 
0.350498 0.178199 0.505 
0.354178 0.168671 0.478 
0.365427 0.165143 0.468 
0.385727 0.165848 0.47 
0.406186 0.166554 0.472 
0.425003 0.166554 0.472 
0.445702 0.16726 0.474 
0.464599 0.16726 0.474 
-0.468915 0.208866 0.588 
-0.450018 0.210997 0.594 
-0.4207 0.21597 0.608 
-0.391244 0.213128 0.6 
-0.358261 0.210287 0.592 
-0.337485 0.212063 0.597 
-0.313684 0.212063 0.597 
-0.290854 0.212773 0.599 
-0.269202 0.214549 0.604 
-0.244716 0.214194 0.603 
-0.221773 0.21526 0.606 
-0.198918 0.216681 0.61 
-0.173739 0.215615 0.607 
-0.150525 0.217036 0.611 
-0.125959 0.216681 0.61 
-0.10264 0.218812 0.616 
-0.0782077 0.219167 0.617 
-0.053696 0.219522 0.618 
-0.0291047 0.219877 0.619 
-0.0044622 0.221654 0.624 
0.0204154 0.221654 0.624 
0.0455107 0.222719 0.627 
0.0705079 0.222719 0.627 
0.0958098 0.22343 0.629 
0.121655 0.22485 0.633 
0.147356 0.225561 0.635 
0.175927 0.225916 0.636 
0.202233 0.226982 0.639 
0.228777 0.228047 0.642 
0.253976 0.227692 0.641 
0.279968 0.228047 0.642 
0.307943 0.229823 0.647 
0.325484 0.22414 0.631 
0.335637 0.214549 0.604 
0.341255 0.203538 0.573 
0.343766 0.192171 0.541 
0.345075 0.181514 0.511 
0.351403 0.172279 0.485 
0.357744 0.16624 0.468 
0.377207 0.166595 0.469 
0.397593 0.167306 0.471 
0.417255 0.167661 0.472 
0.436996 0.168016 0.473 
0.456818 0.168371 0.474 
-0.477498 0.209172 0.585 
-0.455728 0.209887 0.587 
-0.447792 0.217396 0.608 
