# .PCD v.7 - Point Cloud Data file format
VERSION .7
FIELDS x y z
SIZE 4 4 4
TYPE F F F
COUNT 1 1 1
WIDTH 1861
HEIGHT 1
VIEWPOINT 0 0 0 1 0 0 0
POINTS 1861
DATA ascii
0.166258 -0.431406 1.4 
0.243418 -0.453593 1.472 
0.319024 -0.463762 1.505 
0.404429 -0.481942 1.564 
0.481905 -0.486565 1.579 
0.556559 -0.487489 1.582 
0.638264 -0.493652 1.602 
0.749871 -0.519228 1.685 
0.811694 -0.508751 1.651 
0.921481 -0.527548 1.712 
1.00479 -0.529397 1.718 
1.09118 -0.532479 1.728 
1.16901 -0.531246 1.724 
1.26966 -0.539874 1.752 
1.34746 -0.538333 1.747 
1.45097 -0.546653 1.774 
1.55873 -0.55559 1.803 
1.64277 -0.55559 1.803 
1.75458 -0.564526 1.832 
-48.2287 -16.1976 52.831 
-1.1154 -0.458971 1.497 
-0.588492 -0.36454 1.189 
-0.49819 -0.371591 1.212 
-0.418618 -0.363007 1.184 
-0.363807 -0.372818 1.216 
-0.310665 -0.37711 1.23 
-0.0440926 -0.423099 1.38 
0.0211091 -0.441495 1.44 
0.091414 -0.457438 1.492 
0.159846 -0.429538 1.401 
0.2372 -0.452532 1.476 
0.310765 -0.459584 1.499 
0.390791 -0.471848 1.539 
0.471841 -0.481352 1.57 
0.549879 -0.485644 1.584 
0.62686 -0.488097 1.592 
0.7451 -0.518756 1.692 
0.801077 -0.504346 1.645 
0.907632 -0.521516 1.701 
0.995619 -0.526115 1.716 
1.0825 -0.529487 1.727 
1.15895 -0.527648 1.721 
1.26149 -0.537152 1.752 
1.34008 -0.535926 1.748 
1.4427 -0.543897 1.774 
1.54947 -0.552482 1.802 
1.62983 -0.551255 1.798 
1.73651 -0.558614 1.822 
-49.3992 -16.5631 54.298 
-1.09335 -0.453289 1.486 
-0.493205 -0.360557 1.182 
-0.421271 -0.358727 1.176 
-0.37228 -0.371844 1.219 
-0.317274 -0.373979 1.226 
-0.0834162 -0.413939 1.357 
0.00768537 -0.439258 1.44 
0.0763626 -0.448409 1.47 
0.148358 -0.431937 1.416 
0.225409 -0.454204 1.489 
0.299959 -0.462135 1.515 
0.372775 -0.464881 1.524 
0.451381 -0.472812 1.55 
0.531735 -0.480133 1.574 
0.612404 -0.485929 1.593 
0.727172 -0.514602 1.687 
0.782876 -0.49996 1.639 
0.887056 -0.516128 1.692 
0.977909 -0.522533 1.713 
1.06084 -0.524059 1.718 
1.14557 -0.526194 1.725 
1.24231 -0.53321 1.748 
1.32303 -0.532905 1.747 
1.42375 -0.540226 1.771 
1.5114 -0.542056 1.777 
1.60859 -0.546937 1.793 
1.70631 -0.551512 1.808 
1.84407 -0.567984 1.862 
-1.10008 -0.452801 1.492 
-0.494736 -0.353258 1.164 
-0.43004 -0.356596 1.175 
-0.368867 -0.368432 1.214 
-0.314855 -0.371467 1.224 
-0.101265 -0.399084 1.315 
0.000976195 -0.438234 1.444 
0.0693218 -0.444911 1.466 
0.144466 -0.431254 1.421 
0.222496 -0.450677 1.485 
0.297802 -0.460085 1.516 
0.370651 -0.462817 1.525 
0.448393 -0.469797 1.548 
0.526599 -0.475259 1.566 
0.609163 -0.482847 1.591 
0.724551 -0.511981 1.687 
0.778901 -0.496503 1.636 
0.883905 -0.513195 1.691 
0.972971 -0.518658 1.709 
1.05817 -0.521389 1.718 
1.1462 -0.525031 1.73 
1.24314 -0.532011 1.753 
1.32258 -0.531101 1.75 
1.4194 -0.536867 1.769 
1.5061 -0.538385 1.774 
1.6049 -0.543847 1.792 
1.70256 -0.5484 1.807 
1.83722 -0.563877 1.858 
-1.09471 -0.450181 1.491 
-1.04816 -0.479771 1.589 
-0.502402 -0.351751 1.165 
-0.494257 -0.387983 1.285 
-0.380133 -0.370169 1.226 
-0.322725 -0.369867 1.225 
-0.272349 -0.379227 1.256 
-0.0967357 -0.39523 1.309 
0.0032197 -0.435991 1.444 
0.0718437 -0.444143 1.471 
0.143958 -0.427537 1.416 
0.220189 -0.44837 1.485 
0.295447 -0.45773 1.516 
0.36804 -0.460145 1.524 
0.444548 -0.465882 1.543 
0.521823 -0.470713 1.559 
0.605166 -0.479167 1.587 
0.721074 -0.508756 1.685 
0.77541 -0.493358 1.634 
0.879714 -0.509662 1.688 
0.967477 -0.514493 1.704 
1.05427 -0.518116 1.716 
1.14615 -0.523551 1.734 
1.24396 -0.530797 1.758 
1.32439 -0.530194 1.756 
1.41665 -0.534119 1.769 
1.50165 -0.535025 1.772 
1.59854 -0.539855 1.788 
1.7007 -0.545894 1.808 
1.82742 -0.558877 1.851 
-1.09838 -0.449367 1.496 
-1.05823 -0.478504 1.593 
-0.913295 -0.483009 1.608 
-0.500246 -0.385987 1.285 
-0.370448 -0.36436 1.213 
-0.316756 -0.367664 1.224 
-0.265434 -0.375774 1.251 
-0.0905652 -0.392896 1.308 
0.0188981 -0.433146 1.442 
0.0886779 -0.446063 1.485 
0.155049 -0.419629 1.397 
0.233244 -0.444561 1.48 
0.306107 -0.450268 1.499 
0.37723 -0.45177 1.504 
0.461014 -0.465587 1.55 
0.540141 -0.471595 1.57 
0.617225 -0.474599 1.58 
0.73547 -0.505237 1.682 
0.792094 -0.49172 1.637 
0.893328 -0.505838 1.684 
0.981053 -0.510644 1.7 
1.07526 -0.517853 1.724 
1.16031 -0.519956 1.731 
1.2625 -0.528967 1.761 
1.34229 -0.528066 1.758 
1.43557 -0.532271 1.772 
1.54044 -0.540081 1.798 
1.6125 -0.536176 1.785 
1.72705 -0.546089 1.818 
-39.8485 -12.6983 42.494 
-1.11913 -0.482005 1.613 
-1.01822 -0.480511 1.608 
-26.9876 -14.9774 50.121 
-0.485028 -0.384588 1.287 
-0.359239 -0.360682 1.207 
-0.307499 -0.366061 1.225 
-0.253059 -0.369946 1.238 
-0.100495 -0.389967 1.305 
0.0369745 -0.432699 1.448 
0.115432 -0.47812 1.6 
0.173209 -0.414172 1.386 
0.25188 -0.438675 1.468 
0.327504 -0.448537 1.501 
0.409382 -0.461984 1.546 
0.489227 -0.469454 1.571 
0.559588 -0.467064 1.563 
0.646197 -0.477224 1.597 
0.746355 -0.494257 1.654 
0.81598 -0.489775 1.639 
0.913609 -0.501429 1.678 
1.00364 -0.507405 1.698 
1.11467 -0.522346 1.748 
1.19546 -0.522048 1.747 
1.29078 -0.527725 1.766 
1.36765 -0.525634 1.759 
1.46282 -0.530415 1.775 
1.55339 -0.533104 1.784 
1.6448 -0.535794 1.793 
1.75633 -0.54446 1.822 
-40.1273 -12.9132 43.439 
-1.08141 -0.47504 1.598 
-1.00074 -0.476824 1.604 
-25.2046 -13.8353 46.541 
-0.492644 -0.382291 1.286 
-0.36299 -0.358807 1.207 
-0.311051 -0.36386 1.224 
-0.257943 -0.369509 1.243 
-0.116358 -0.38675 1.301 
0.0301001 -0.428666 1.442 
0.115865 -0.477418 1.606 
0.187161 -0.419153 1.41 
0.265436 -0.439962 1.48 
0.342554 -0.450664 1.516 
0.423845 -0.462257 1.555 
0.499516 -0.46523 1.565 
0.568438 -0.46196 1.554 
0.668913 -0.482174 1.622 
0.7514 -0.486634 1.637 
0.829218 -0.487525 1.64 
0.929957 -0.500605 1.684 
1.01504 -0.503875 1.695 
1.12567 -0.518442 1.744 
1.21526 -0.522009 1.756 
1.30893 -0.526765 1.772 
1.38524 -0.524387 1.764 
1.47661 -0.527657 1.775 
1.56286 -0.528846 1.779 
1.66798 -0.535981 1.803 
1.77145 -0.541926 1.823 
-1.10543 -0.447125 1.512 
-1.06632 -0.471374 1.594 
-0.998247 -0.474331 1.604 
-0.903605 -0.476993 1.613 
-0.437067 -0.382363 1.293 
-0.347833 -0.358706 1.213 
-0.295137 -0.363437 1.229 
-0.23824 -0.364029 1.231 
-0.113985 -0.383546 1.297 
0.0300374 -0.425538 1.439 
0.105883 -0.463981 1.569 
0.176875 -0.408386 1.381 
0.268098 -0.438254 1.482 
0.344227 -0.447421 1.513 
0.423794 -0.45718 1.546 
0.501306 -0.462207 1.563 
0.570485 -0.45925 1.553 
0.675573 -0.482612 1.632 
0.75072 -0.48202 1.63 
0.832273 -0.485273 1.641 
0.931466 -0.497397 1.682 
1.01587 -0.500355 1.692 
1.12708 -0.515141 1.742 
1.22146 -0.520759 1.761 
1.3139 -0.524899 1.775 
1.39034 -0.522533 1.767 
1.48103 -0.525491 1.777 
1.5665 -0.526378 1.78 
1.67727 -0.535249 1.81 
1.77331 -0.538798 1.822 
-1.08564 -0.42595 1.448 
-1.11048 -0.475075 1.615 
-1.03777 -0.476252 1.619 
-0.937526 -0.473899 1.611 
-0.525149 -0.373 1.268 
-0.39218 -0.364764 1.24 
-0.331956 -0.362116 1.231 
-0.277255 -0.365646 1.243 
-0.197807 -0.372412 1.266 
-0.121199 -0.378884 1.288 
0.0277051 -0.421831 1.434 
0.10239 -0.456837 1.553 
0.171834 -0.404476 1.375 
0.259251 -0.432716 1.471 
0.334055 -0.440952 1.499 
0.412277 -0.450071 1.53 
0.494969 -0.460661 1.566 
0.564334 -0.45772 1.556 
0.655687 -0.471251 1.602 
0.743122 -0.479488 1.63 
0.822112 -0.481253 1.636 
0.916488 -0.49096 1.669 
1.005 -0.496255 1.687 
1.11639 -0.511257 1.738 
1.21187 -0.517435 1.759 
1.30563 -0.522141 1.775 
1.38367 -0.520376 1.769 
1.47441 -0.523318 1.779 
1.55996 -0.524201 1.782 
1.66422 -0.530966 1.805 
1.76482 -0.535967 1.822 
-1.07805 -0.41814 1.429 
-1.12285 -0.474614 1.622 
-1.04531 -0.473736 1.619 
-0.96171 -0.473444 1.618 
-24.3361 -13.3018 45.459 
-0.428695 -0.374541 1.28 
-0.351447 -0.356692 1.219 
-0.297046 -0.359618 1.229 
-0.239762 -0.359618 1.229 
-0.17054 -0.379808 1.298 
-0.109361 -0.377468 1.29 
0.05117 -0.429552 1.468 
0.133747 -0.471396 1.611 
0.204425 -0.421066 1.439 
0.282252 -0.437745 1.496 
0.35551 -0.442134 1.511 
0.429885 -0.446231 1.525 
0.505893 -0.45062 1.54 
0.582549 -0.454424 1.553 
0.709337 -0.492171 1.682 
0.756357 -0.472566 1.615 
0.850686 -0.483393 1.652 
0.942286 -0.491 1.678 
1.02658 -0.493927 1.688 
1.13669 -0.507972 1.736 
1.24285 -0.518506 1.772 
1.33143 -0.520847 1.78 
1.41042 -0.519384 1.775 
1.50746 -0.524358 1.792 
1.58033 -0.520847 1.78 
1.71189 -0.536062 1.832 
1.7806 -0.531088 1.815 
-1.10836 -0.441242 1.516 
-1.05592 -0.464818 1.597 
-0.984557 -0.466273 1.602 
-0.916703 -0.469766 1.614 
-0.433982 -0.371971 1.278 
-0.357129 -0.354798 1.219 
-0.302775 -0.357709 1.229 
-0.246489 -0.359164 1.234 
-0.16194 -0.381284 1.31 
-0.0977885 -0.37721 1.296 
0.0913527 -0.433966 1.491 
0.171209 -0.398748 1.37 
0.249993 -0.42407 1.457 
0.325541 -0.434257 1.492 
0.396937 -0.436294 1.499 
0.483622 -0.452011 1.553 
0.559588 -0.454922 1.563 
0.644174 -0.463363 1.592 
0.729659 -0.470639 1.617 
0.812993 -0.475296 1.633 
0.902175 -0.482281 1.657 
0.995367 -0.49014 1.684 
1.10383 -0.503819 1.731 
1.19409 -0.507894 1.745 
1.29882 -0.517208 1.777 
1.37931 -0.516335 1.774 
1.46612 -0.51779 1.779 
1.56036 -0.521574 1.792 
1.64847 -0.523029 1.797 
1.7544 -0.529723 1.82 
-1.08338 -0.417464 1.442 
-1.09453 -0.4661 1.61 
-1.02204 -0.468416 1.618 
-0.946627 -0.468416 1.618 
-0.517377 -0.369985 1.278 
-0.35479 -0.354352 1.224 
-0.299442 -0.356378 1.231 
-0.242262 -0.356668 1.232 
-0.171328 -0.377512 1.304 
-0.106858 -0.371722 1.284 
0.0365148 -0.41399 1.43 
0.134245 -0.468127 1.617 
0.191398 -0.403278 1.393 
0.279233 -0.428465 1.48 
0.35551 -0.437439 1.511 
0.428193 -0.439755 1.519 
0.504907 -0.444966 1.537 
0.579923 -0.447572 1.546 
0.710602 -0.487813 1.685 
0.753547 -0.465811 1.609 
0.846566 -0.475943 1.644 
0.938356 -0.48376 1.671 
1.02232 -0.486655 1.681 
1.13145 -0.500261 1.728 
1.23654 -0.510394 1.763 
1.33891 -0.518211 1.79 
1.41757 -0.516474 1.784 
1.50998 -0.519658 1.795 
1.5821 -0.515895 1.782 
1.71656 -0.531817 1.837 
1.77864 -0.524869 1.813 
-1.10733 -0.433364 1.505 
-1.05658 -0.460143 1.598 
-0.971165 -0.465614 1.617 
-0.524209 -0.363104 1.261 
-0.367501 -0.351874 1.222 
-0.313084 -0.354754 1.232 
-0.257736 -0.357633 1.242 
-0.202772 -0.370015 1.285 
-0.142127 -0.378654 1.315 
-0.0736258 -0.373183 1.296 
0.0576962 -0.420406 1.46 
0.170709 -0.393339 1.366 
0.253123 -0.417239 1.449 
0.328628 -0.427605 1.485 
0.401595 -0.431636 1.499 
0.487189 -0.446034 1.549 
0.563361 -0.449201 1.56 
0.649529 -0.458704 1.593 
0.729231 -0.462159 1.605 
0.817567 -0.469934 1.632 
0.907324 -0.477132 1.657 
0.998817 -0.484043 1.681 
1.0996 -0.494121 1.716 
1.19539 -0.500744 1.739 
1.30654 -0.51255 1.78 
1.39341 -0.51399 1.785 
1.47826 -0.514566 1.787 
1.57029 -0.517445 1.797 
1.66786 -0.521764 1.812 
1.75328 -0.522052 1.813 
-1.08336 -0.41642 1.454 
-1.05658 -0.45766 1.598 
-0.959789 -0.463675 1.619 
-0.409893 -0.357136 1.247 
-0.348949 -0.354272 1.237 
-0.291999 -0.355131 1.24 
-0.233258 -0.353699 1.235 
-0.175514 -0.373747 1.305 
-0.108344 -0.366014 1.278 
-0.0504935 -0.378902 1.323 
0.0781777 -0.406682 1.42 
0.174698 -0.390644 1.364 
0.260415 -0.415847 1.452 
0.336905 -0.427016 1.491 
0.41049 -0.431312 1.506 
0.494409 -0.443627 1.549 
0.568438 -0.445059 1.554 
0.668501 -0.464248 1.621 
0.736253 -0.459379 1.604 
0.825173 -0.467398 1.632 
0.915599 -0.474844 1.658 
1.00486 -0.480572 1.678 
1.10566 -0.490596 1.713 
1.2028 -0.497756 1.738 
1.32075 -0.512076 1.788 
1.40723 -0.513221 1.792 
1.49325 -0.51408 1.795 
1.58131 -0.515512 1.8 
1.69018 -0.523245 1.827 
1.76076 -0.518949 1.812 
-1.15155 -0.468565 1.645 
-1.04983 -0.463153 1.626 
-0.957274 -0.461159 1.619 
-0.40084 -0.35235 1.237 
-0.344016 -0.353204 1.24 
-0.287142 -0.354344 1.244 
-0.228054 -0.352635 1.238 
-0.172773 -0.374567 1.315 
-0.106275 -0.363743 1.277 
0.00934385 -0.386246 1.356 
0.121699 -0.402482 1.413 
0.184518 -0.391373 1.374 
0.269253 -0.413306 1.451 
0.348493 -0.427548 1.501 
0.422079 -0.431251 1.514 
0.500782 -0.438372 1.539 
0.574375 -0.439796 1.544 
0.702855 -0.47825 1.679 
0.746221 -0.456887 1.604 
0.835316 -0.464862 1.632 
0.925345 -0.471983 1.657 
1.01165 -0.476256 1.672 
1.11761 -0.488504 1.715 
1.21361 -0.495056 1.738 
1.3408 -0.512716 1.8 
1.42074 -0.511292 1.795 
1.51027 -0.513286 1.802 
1.58541 -0.510437 1.792 
1.70899 -0.522685 1.835 
1.77202 -0.516134 1.812 
-1.07517 -0.407935 1.44 
-1.06518 -0.452128 1.596 
-0.956682 -0.458361 1.618 
-0.386791 -0.348162 1.229 
-0.333797 -0.352694 1.245 
-0.275989 -0.352977 1.246 
-0.218087 -0.353261 1.247 
-0.169585 -0.374507 1.322 
-0.102227 -0.361476 1.276 
-0.0346858 -0.36006 1.271 
0.058486 -0.403403 1.424 
0.151018 -0.390938 1.38 
0.224703 -0.407935 1.44 
0.297496 -0.415867 1.468 
0.371902 -0.422666 1.492 
0.442924 -0.424083 1.497 
0.523317 -0.432865 1.528 
0.61944 -0.450995 1.592 
0.707586 -0.46006 1.624 
0.778458 -0.457228 1.614 
0.865323 -0.46346 1.636 
0.948484 -0.466859 1.648 
1.04645 -0.476491 1.682 
1.14291 -0.48414 1.709 
1.26405 -0.500571 1.767 
1.36775 -0.508503 1.795 
1.44495 -0.506236 1.787 
1.53765 -0.509353 1.798 
1.5971 -0.501704 1.771 
1.71474 -0.512186 1.808 
1.80399 -0.513602 1.813 
-1.11251 -0.458946 1.629 
-1.02897 -0.456692 1.621 
-0.405993 -0.349633 1.241 
-0.349272 -0.35076 1.245 
-0.29171 -0.351323 1.247 
-0.231901 -0.348788 1.238 
-0.178953 -0.362311 1.286 
-0.115831 -0.358648 1.273 
-0.0511985 -0.363156 1.289 
0.0357233 -0.394147 1.399 
0.124841 -0.394147 1.399 
0.186924 -0.387667 1.376 
0.26219 -0.404853 1.437 
0.340851 -0.419221 1.488 
0.415721 -0.424856 1.508 
0.496967 -0.434435 1.542 
0.571422 -0.436407 1.549 
0.693067 -0.469934 1.668 
0.740313 -0.451339 1.602 
0.82821 -0.458664 1.628 
0.913532 -0.463454 1.645 
1.00646 -0.471061 1.672 
1.10514 -0.480076 1.704 
1.19917 -0.485992 1.725 
1.33149 -0.505714 1.795 
1.42462 -0.509095 1.807 
1.51135 -0.50994 1.81 
1.5869 -0.507123 1.8 
1.69586 -0.514729 1.827 
1.76639 -0.510503 1.812 
-1.08603 -0.398418 1.422 
-0.962436 -0.452492 1.615 
-0.377244 -0.344343 1.229 
-0.325167 -0.349946 1.249 
-0.265668 -0.348265 1.243 
-0.208946 -0.353589 1.262 
-0.154775 -0.374322 1.336 
-0.0862993 -0.357231 1.275 
-0.00117604 -0.375443 1.34 
0.0688882 -0.383008 1.367 
0.16362 -0.381046 1.36 
0.244159 -0.398698 1.423 
0.31834 -0.408784 1.459 
0.394289 -0.41719 1.489 
0.473657 -0.426155 1.521 
0.557082 -0.435962 1.556 
0.644579 -0.446328 1.593 
0.717926 -0.445768 1.591 
0.808513 -0.455014 1.624 
0.892375 -0.459217 1.639 
0.984728 -0.466782 1.666 
1.07705 -0.473226 1.689 
1.17151 -0.47967 1.712 
1.29662 -0.497041 1.774 
1.40108 -0.504886 1.802 
1.49414 -0.507968 1.813 
1.57603 -0.507128 1.81 
1.66682 -0.509089 1.817 
1.74283 -0.506567 1.808 
-1.10125 -0.394536 1.416 
-1.05645 -0.402617 1.445 
-0.403739 -0.345498 1.24 
-0.347616 -0.34717 1.246 
-0.290237 -0.348006 1.249 
-0.226496 -0.345498 1.24 
-0.171883 -0.356086 1.278 
-0.109466 -0.3533 1.268 
-0.0482798 -0.352464 1.265 
0.0330221 -0.38367 1.377 
0.132103 -0.38562 1.384 
0.225364 -0.398437 1.43 
0.295693 -0.403453 1.448 
0.372465 -0.413762 1.485 
0.443466 -0.415433 1.491 
0.522939 -0.423514 1.52 
0.618788 -0.441346 1.584 
0.70956 -0.450541 1.617 
0.782017 -0.448869 1.611 
0.868279 -0.45472 1.632 
0.94724 -0.456113 1.637 
1.04918 -0.467537 1.678 
1.14217 -0.473667 1.7 
1.26164 -0.48927 1.756 
1.37103 -0.4993 1.792 
1.45943 -0.500972 1.798 
1.54924 -0.502923 1.805 
1.6198 -0.498743 1.79 
1.71941 -0.50348 1.807 
-1.09713 -0.386241 1.394 
-1.05067 -0.393168 1.419 
-0.419987 -0.34745 1.254 
-0.360385 -0.346342 1.25 
-0.303572 -0.348005 1.256 
-0.238982 -0.339415 1.225 
-0.189753 -0.3541 1.278 
-0.107496 -0.35133 1.268 
-0.0462778 -0.350221 1.264 
0.0372197 -0.380699 1.374 
0.143329 -0.379037 1.368 
0.257605 -0.394553 1.424 
0.332396 -0.404805 1.461 
0.408992 -0.413394 1.492 
0.493929 -0.426694 1.54 
0.569383 -0.429464 1.55 
0.703039 -0.468809 1.692 
0.738464 -0.442764 1.598 
0.825157 -0.449414 1.622 
0.907423 -0.452739 1.634 
1.00405 -0.462159 1.668 
1.1006 -0.470194 1.697 
1.195 -0.47629 1.719 
1.33372 -0.498179 1.798 
1.42068 -0.499287 1.802 
1.52555 -0.506214 1.827 
1.59131 -0.500118 1.805 
1.68936 -0.504274 1.82 
1.76932 -0.502889 1.815 
-1.08585 -0.390136 1.416 
-0.966738 -0.445791 1.618 
-0.381373 -0.33889 1.23 
-0.329838 -0.344951 1.252 
-0.268663 -0.341369 1.239 
-0.211253 -0.34192 1.241 
-0.151214 -0.364513 1.323 
-0.0801044 -0.350186 1.271 
-0.0011699 -0.367268 1.333 
0.0618306 -0.372503 1.352 
0.164027 -0.37085 1.346 
0.28248 -0.396198 1.438 
0.361658 -0.409974 1.488 
0.431593 -0.410525 1.49 
0.509786 -0.417688 1.516 
0.58887 -0.42375 1.538 
0.715965 -0.457639 1.661 
0.766636 -0.44221 1.605 
0.848785 -0.446067 1.619 
0.930527 -0.449098 1.63 
1.02997 -0.459567 1.668 
1.12564 -0.467007 1.695 
1.22526 -0.474997 1.724 
1.35787 -0.494007 1.793 
1.4527 -0.497865 1.807 
1.54372 -0.500069 1.815 
1.60589 -0.493181 1.79 
1.71292 -0.500069 1.815 
1.80728 -0.501998 1.822 
-1.06749 -0.387662 1.415 
-0.959196 -0.443278 1.618 
-0.376556 -0.337801 1.233 
-0.325555 -0.34465 1.258 
-0.260766 -0.336705 1.229 
-0.205635 -0.340266 1.242 
-0.124229 -0.350129 1.278 
-0.0641548 -0.347389 1.268 
0.0152945 -0.362732 1.324 
0.0782861 -0.368759 1.346 
0.155778 -0.369033 1.347 
0.25927 -0.389306 1.421 
0.336014 -0.399169 1.457 
0.41141 -0.406566 1.484 
0.496124 -0.419717 1.532 
0.571976 -0.423004 1.544 
0.710673 -0.466839 1.704 
0.74002 -0.43725 1.596 
0.827167 -0.4441 1.621 
0.908848 -0.447113 1.632 
1.00302 -0.455332 1.662 
1.09934 -0.463277 1.691 
1.19906 -0.471496 1.721 
1.33577 -0.492318 1.797 
1.41637 -0.491222 1.793 
1.53257 -0.501907 1.832 
1.59676 -0.495331 1.808 
1.69219 -0.498619 1.82 
1.77214 -0.497249 1.815 
-1.08794 -0.384919 1.413 
-1.17321 -0.445667 1.636 
-0.956682 -0.440764 1.618 
-0.372914 -0.337792 1.24 
-0.320708 -0.343785 1.262 
-0.252548 -0.331526 1.217 
-0.20065 -0.339699 1.247 
-0.121765 -0.346781 1.273 
-0.0621848 -0.345419 1.268 
0.01935 -0.359585 1.32 
0.0822848 -0.36585 1.343 
0.161335 -0.365305 1.341 
0.266455 -0.387916 1.424 
0.356074 -0.40426 1.484 
0.424671 -0.403716 1.482 
0.504742 -0.412705 1.515 
0.579913 -0.415974 1.527 
0.712515 -0.453567 1.665 
0.760225 -0.436405 1.602 
0.841148 -0.439674 1.614 
0.924326 -0.443488 1.628 
1.02294 -0.453567 1.665 
1.11641 -0.460105 1.689 
1.21778 -0.468822 1.721 
1.34626 -0.486257 1.785 
1.43987 -0.489798 1.798 
1.54232 -0.495791 1.82 
1.61642 -0.492522 1.808 
1.7101 -0.495246 1.818 
1.79879 -0.496336 1.822 
-1.07181 -0.382453 1.412 
-1.15796 -0.443125 1.636 
-1.02707 -0.442584 1.634 
-0.420322 -0.339928 1.255 
-0.342365 -0.336136 1.241 
-0.284751 -0.336407 1.242 
-0.224486 -0.332886 1.229 
-0.166446 -0.347241 1.282 
-0.0951476 -0.341553 1.261 
-0.0364586 -0.342366 1.264 
0.0487174 -0.362409 1.338 
0.129296 -0.372973 1.377 
0.188701 -0.363764 1.343 
0.281301 -0.38787 1.432 
0.363236 -0.402226 1.485 
0.430953 -0.398705 1.472 
0.511102 -0.407914 1.506 
0.592105 -0.415498 1.534 
0.709461 -0.444209 1.64 
0.762421 -0.430937 1.591 
0.848146 -0.436896 1.613 
0.929625 -0.439875 1.624 
1.03132 -0.451251 1.666 
1.12295 -0.456939 1.687 
1.22794 -0.466961 1.724 
1.34851 -0.481317 1.777 
1.44584 -0.486192 1.795 
1.55081 -0.492963 1.82 
1.63294 -0.492151 1.817 
1.72047 -0.492963 1.82 
1.80331 -0.492422 1.818 
-1.06598 -0.380528 1.413 
-1.14893 -0.440045 1.634 
-1.05117 -0.439506 1.632 
-0.970323 -0.437352 1.624 
-0.32777 -0.339055 1.259 
-0.260966 -0.328822 1.221 
-0.205559 -0.331246 1.23 
-0.14687 -0.346057 1.285 
-0.0860286 -0.342287 1.271 
-0.0266815 -0.340941 1.266 
0.0527565 -0.359523 1.335 
0.129296 -0.370833 1.377 
0.188279 -0.360869 1.34 
0.278297 -0.384568 1.428 
0.358863 -0.400188 1.486 
0.42551 -0.39561 1.469 
0.504405 -0.403958 1.5 
0.581978 -0.409344 1.52 
0.707344 -0.44193 1.641 
0.757083 -0.426849 1.585 
0.843018 -0.433043 1.608 
0.925389 -0.436544 1.621 
1.02811 -0.448393 1.665 
1.11834 -0.45351 1.684 
1.22384 -0.463744 1.722 
1.34424 -0.478017 1.775 
1.43662 -0.481249 1.787 
1.54968 -0.490674 1.822 
1.64088 -0.49256 1.829 
1.72047 -0.490944 1.823 
1.7995 -0.489328 1.817 
-1.06742 -0.378065 1.412 
-1.14823 -0.437239 1.633 
-1.04671 -0.436168 1.629 
-0.9678 -0.434829 1.624 
-0.28645 -0.33228 1.241 
-0.225475 -0.327728 1.224 
-0.172822 -0.348077 1.3 
-0.107157 -0.338438 1.264 
-0.0484707 -0.340045 1.27 
0.0251742 -0.34888 1.303 
0.0882149 -0.358252 1.338 
0.154621 -0.357984 1.337 
0.232352 -0.37271 1.392 
0.306202 -0.383956 1.434 
0.390659 -0.397344 1.484 
0.449294 -0.38824 1.45 
0.537197 -0.403502 1.507 
0.667901 -0.443665 1.657 
0.701064 -0.417425 1.559 
0.782167 -0.421977 1.576 
0.887114 -0.437506 1.634 
0.958559 -0.435364 1.626 
1.06552 -0.448484 1.675 
1.15861 -0.454375 1.697 
1.30189 -0.477937 1.785 
1.37423 -0.474188 1.771 
1.4905 -0.485166 1.812 
1.58191 -0.487308 1.82 
1.67773 -0.490521 1.832 
1.76023 -0.489718 1.829 
-1.09001 -0.375339 1.41 
-1.17542 -0.434435 1.632 
-1.09562 -0.434968 1.634 
-1.0207 -0.4355 1.636 
-0.318747 -0.335942 1.262 
-0.249421 -0.322366 1.211 
-0.197851 -0.340467 1.279 
-0.134682 -0.341532 1.283 
-0.0746471 -0.340467 1.279 
-0.00316314 -0.346324 1.301 
0.0607787 -0.353777 1.329 
0.129577 -0.367353 1.38 
0.187717 -0.355641 1.336 
0.264705 -0.373476 1.403 
0.377043 -0.3977 1.494 
0.435019 -0.387318 1.455 
0.512513 -0.394772 1.483 
0.608306 -0.412873 1.551 
0.701223 -0.425384 1.598 
0.761629 -0.417665 1.569 
0.851785 -0.426183 1.601 
0.939717 -0.432306 1.624 
1.04105 -0.44322 1.665 
1.13008 -0.447745 1.682 
1.25158 -0.463717 1.742 
1.34119 -0.466645 1.753 
1.44888 -0.475163 1.785 
1.5604 -0.483948 1.818 
1.66414 -0.489538 1.839 
1.73654 -0.485811 1.825 
-1.09672 -0.370237 1.399 
-1.03446 -0.371296 1.403 
-1.11319 -0.43137 1.63 
-1.03467 -0.430312 1.626 
-0.331419 -0.332923 1.258 
-0.243173 -0.31969 1.208 
-0.193689 -0.341656 1.291 
-0.130389 -0.338745 1.28 
-0.0708386 -0.339274 1.282 
-0.00712827 -0.340597 1.287 
0.0545842 -0.351712 1.329 
0.138163 -0.359652 1.359 
0.199727 -0.356476 1.347 
0.297082 -0.379235 1.433 
0.425754 -0.38691 1.462 
0.500655 -0.392203 1.482 
0.580912 -0.39829 1.505 
0.699511 -0.42793 1.617 
0.754753 -0.416815 1.575 
0.835 -0.420255 1.588 
0.929625 -0.429782 1.624 
1.02822 -0.439574 1.661 
1.11763 -0.444338 1.679 
1.23007 -0.457041 1.727 
1.32954 -0.463657 1.752 
1.43134 -0.470273 1.777 
1.54399 -0.479536 1.812 
1.65541 -0.487475 1.842 
1.73181 -0.484828 1.832 
1.80331 -0.481123 1.818 
-1.06315 -0.373063 1.418 
-1.12977 -0.429364 1.632 
-1.05177 -0.428575 1.629 
-0.984827 -0.432521 1.644 
-0.250473 -0.31755 1.207 
-0.200463 -0.337545 1.283 
-0.137263 -0.334125 1.27 
-0.0789288 -0.337808 1.284 
-0.0188137 -0.333073 1.266 
0.0416237 -0.344912 1.311 
0.118912 -0.369905 1.406 
0.17548 -0.347806 1.322 
0.26028 -0.365959 1.391 
0.441414 -0.378587 1.439 
0.52262 -0.389111 1.479 
0.697015 -0.451464 1.716 
0.69879 -0.404633 1.538 
0.785505 -0.412526 1.568 
0.887611 -0.42647 1.621 
0.967326 -0.428312 1.628 
1.07397 -0.44094 1.676 
1.16514 -0.445939 1.695 
1.31388 -0.470932 1.79 
1.37311 -0.462776 1.759 
1.4824 -0.471458 1.792 
1.59039 -0.478825 1.82 
1.69087 -0.483298 1.837 
1.78133 -0.484613 1.842 
-1.08948 -0.370075 1.415 
-1.16813 -0.427875 1.636 
-1.0892 -0.426828 1.632 
-1.01624 -0.428136 1.637 
-0.679183 -0.45089 1.724 
-0.185032 -0.343921 1.315 
-0.0960531 -0.332937 1.273 
-0.0368047 -0.333721 1.276 
0.0228299 -0.336075 1.285 
0.0870282 -0.345229 1.32 
0.156347 -0.34889 1.334 
0.226551 -0.358306 1.37 
0.307999 -0.374521 1.432 
0.502192 -0.385244 1.473 
0.578212 -0.390213 1.492 
0.693798 -0.407736 1.559 
0.763514 -0.406167 1.553 
0.855276 -0.415582 1.589 
0.954489 -0.426828 1.632 
1.0495 -0.434674 1.662 
1.14053 -0.439905 1.682 
1.28922 -0.465274 1.779 
1.34052 -0.454551 1.738 
1.45915 -0.466582 1.784 
1.56305 -0.472859 1.808 
1.6783 -0.481751 1.842 
1.77757 -0.485413 1.856 
-1.09813 -0.367096 1.412 
-1.17686 -0.424813 1.634 
-1.09665 -0.423253 1.628 
-1.02203 -0.423773 1.63 
-0.688399 -0.443792 1.707 
-0.180535 -0.344998 1.327 
-0.0830478 -0.334339 1.286 
-0.0227835 -0.329659 1.268 
0.0457323 -0.341098 1.312 
0.123018 -0.364757 1.403 
0.178501 -0.341618 1.314 
0.250877 -0.357477 1.375 
0.454196 -0.373596 1.437 
0.537496 -0.385295 1.482 
0.712829 -0.447691 1.722 
0.722685 -0.399854 1.538 
0.818647 -0.412074 1.585 
0.903224 -0.417013 1.604 
1.00177 -0.427153 1.643 
1.10132 -0.436252 1.678 
1.20765 -0.446651 1.718 
1.31546 -0.456271 1.755 
1.40044 -0.457311 1.759 
1.5035 -0.46381 1.784 
1.62756 -0.475769 1.83 
1.73907 -0.483049 1.858 
1.8197 -0.480709 1.849 
-1.05061 -0.365161 1.413 
-1.12079 -0.42124 1.63 
-1.04674 -0.422016 1.633 
-0.992024 -0.431319 1.669 
-0.701248 -0.440881 1.706 
-0.184937 -0.343453 1.329 
-0.0792361 -0.333116 1.289 
-0.0189177 -0.328981 1.273 
0.0415284 -0.338026 1.308 
0.116395 -0.362318 1.402 
0.169946 -0.338801 1.311 
0.240217 -0.35224 1.363 
0.445575 -0.371622 1.438 
0.524721 -0.380408 1.472 
0.71176 -0.449409 1.739 
0.706636 -0.393847 1.524 
0.802674 -0.40651 1.573 
0.893255 -0.414521 1.604 
0.982502 -0.420723 1.628 
1.09154 -0.433903 1.679 
1.18513 -0.439589 1.701 
1.31124 -0.45587 1.764 
1.38714 -0.453802 1.756 
1.48488 -0.458713 1.775 
1.60559 -0.469825 1.818 
1.72566 -0.479645 1.856 
1.83365 -0.485331 1.878 
-1.06234 -0.363223 1.414 
-1.13231 -0.419222 1.632 
-1.06142 -0.421277 1.64 
-1.0036 -0.42924 1.671 
-0.8199 -0.420249 1.636 
-0.701659 -0.438487 1.707 
-0.179146 -0.342159 1.332 
-0.0855749 -0.332397 1.294 
-0.0250269 -0.329315 1.282 
0.0352422 -0.334196 1.301 
0.11124 -0.357571 1.392 
0.167525 -0.335994 1.308 
0.237401 -0.349094 1.359 
0.440094 -0.370415 1.442 
0.517508 -0.377865 1.471 
0.705387 -0.449533 1.75 
0.697696 -0.390451 1.52 
0.786746 -0.399699 1.556 
0.884674 -0.411515 1.602 
0.970722 -0.416396 1.621 
1.0792 -0.429497 1.672 
1.16751 -0.43335 1.687 
1.31114 -0.455955 1.775 
1.37582 -0.450047 1.752 
1.47411 -0.455184 1.772 
1.59273 -0.465716 1.813 
1.70961 -0.474707 1.848 
1.8385 -0.486009 1.892 
-1.07629 -0.361281 1.415 
-1.14823 -0.416941 1.633 
-1.08196 -0.420771 1.648 
-1.01612 -0.425367 1.666 
-0.906927 -0.411069 1.61 
-0.737 -0.436346 1.709 
-0.609024 -0.437878 1.715 
-0.109271 -0.335238 1.313 
-0.0456462 -0.33243 1.302 
0.0147863 -0.326813 1.28 
0.0764831 -0.335749 1.315 
0.15243 -0.341111 1.336 
0.218076 -0.346472 1.357 
0.288375 -0.355153 1.391 
0.497344 -0.377622 1.479 
0.565132 -0.376856 1.476 
0.673761 -0.390643 1.53 
0.759197 -0.398047 1.559 
0.832929 -0.398558 1.561 
0.93934 -0.413367 1.619 
1.03047 -0.41975 1.644 
1.1273 -0.427409 1.674 
1.27013 -0.450389 1.764 
1.32245 -0.440431 1.725 
1.45084 -0.455495 1.784 
1.53227 -0.454984 1.782 
1.66518 -0.469027 1.837 
1.80132 -0.482559 1.89 
-1.09877 -0.357814 1.41 
-1.18661 -0.417196 1.644 
-1.10256 -0.414404 1.633 
-1.03273 -0.416942 1.643 
-0.960804 -0.418972 1.651 
-0.811639 -0.422779 1.666 
-0.702283 -0.435213 1.715 
-0.178877 -0.337512 1.33 
-0.0718885 -0.330153 1.301 
-0.011188 -0.328377 1.294 
0.0591557 -0.339796 1.339 
0.129483 -0.349947 1.379 
0.1828 -0.330153 1.301 
0.252982 -0.343095 1.352 
0.43472 -0.36898 1.454 
0.521207 -0.374309 1.475 
0.712043 -0.444856 1.753 
0.697294 -0.384206 1.514 
0.786628 -0.393595 1.551 
0.884394 -0.405268 1.597 
0.968437 -0.409329 1.613 
1.08115 -0.424047 1.671 
1.16458 -0.426078 1.679 
1.30946 -0.448917 1.769 
1.3746 -0.443334 1.747 
1.47603 -0.449424 1.771 
1.59114 -0.458814 1.808 
1.70877 -0.467949 1.844 
1.8502 -0.482414 1.901 
-1.074 -0.356127 1.412 
-1.15245 -0.41338 1.639 
-1.08327 -0.416155 1.65 
-1.021 -0.422208 1.674 
-0.917066 -0.410606 1.628 
-0.761342 -0.431287 1.71 
-0.696786 -0.440872 1.748 
-0.585208 -0.428765 1.7 
-0.11525 -0.336707 1.335 
-0.0521518 -0.331158 1.313 
0.0407041 -0.339986 1.348 
0.109242 -0.344778 1.367 
0.164228 -0.327375 1.298 
0.233385 -0.339986 1.348 
0.300744 -0.34276 1.359 
0.460257 -0.363694 1.442 
0.541003 -0.373026 1.479 
0.651108 -0.382358 1.516 
0.73272 -0.388159 1.539 
0.823793 -0.397491 1.576 
0.902375 -0.399761 1.585 
1.00643 -0.412119 1.634 
1.10578 -0.420947 1.669 
1.21691 -0.432801 1.716 
1.30747 -0.436332 1.73 
1.40576 -0.441881 1.752 
1.50015 -0.445664 1.767 
1.63804 -0.461301 1.829 
1.74779 -0.467859 1.855 
1.90151 -0.484253 1.92 
-1.05047 -0.351928 1.404 
-1.12767 -0.411084 1.64 
-1.05764 -0.413591 1.65 
-0.996184 -0.420108 1.676 
-0.830486 -0.414092 1.652 
-0.750715 -0.428631 1.71 
-0.690239 -0.440913 1.759 
-0.586812 -0.425372 1.697 
-0.180535 -0.332627 1.327 
-0.0761062 -0.326862 1.304 
-0.0154322 -0.329118 1.313 
0.0610074 -0.334382 1.334 
0.132604 -0.342654 1.367 
0.186411 -0.325358 1.298 
0.25414 -0.334883 1.336 
0.408461 -0.363208 1.449 
0.476656 -0.36371 1.451 
0.557417 -0.372483 1.486 
0.676124 -0.379501 1.514 
0.762474 -0.387522 1.546 
0.841551 -0.390781 1.559 
0.943537 -0.403314 1.609 
1.03562 -0.410082 1.636 
1.13159 -0.417351 1.665 
1.30215 -0.449436 1.793 
1.34013 -0.434647 1.734 
1.45455 -0.444924 1.775 
1.54508 -0.44718 1.784 
1.65835 -0.455452 1.817 
1.82746 -0.47751 1.905 
-1.0928 -0.347256 1.394 
-1.19423 -0.411277 1.651 
-1.11322 -0.409782 1.645 
-1.03591 -0.409533 1.644 
-0.968037 -0.413269 1.659 
-0.827056 -0.416259 1.671 
-0.740881 -0.427967 1.718 
-0.673882 -0.436436 1.752 
-0.567999 -0.430458 1.728 
-0.168944 -0.328075 1.317 
-0.0722753 -0.325833 1.308 
-0.0113868 -0.328075 1.317 
0.0792826 -0.322345 1.294 
0.150833 -0.32932 1.322 
0.21663 -0.335797 1.348 
0.284229 -0.341526 1.371 
0.428237 -0.362452 1.455 
0.497078 -0.363199 1.458 
0.574644 -0.366437 1.471 
0.696412 -0.375405 1.507 
0.787511 -0.385619 1.548 
0.883544 -0.39633 1.591 
0.963118 -0.398572 1.6 
1.07985 -0.414764 1.665 
1.15746 -0.414764 1.665 
1.30257 -0.437433 1.756 
1.37101 -0.433198 1.739 
1.47461 -0.439924 1.766 
1.59307 -0.450137 1.807 
1.69122 -0.453874 1.822 
1.88463 -0.477788 1.918 
-1.07239 -0.348308 1.407 
-1.15155 -0.407226 1.645 
-1.07684 -0.407969 1.648 
-1.02066 -0.416386 1.682 
-0.932175 -0.41193 1.664 
-0.781374 -0.425545 1.719 
-0.706962 -0.429011 1.733 
-0.619682 -0.424555 1.715 
-0.552334 -0.434457 1.755 
-0.118467 -0.333703 1.348 
-0.0545632 -0.327266 1.322 
0.0286806 -0.340139 1.374 
0.0887136 -0.318107 1.285 
0.155095 -0.323305 1.306 
0.222582 -0.333208 1.346 
0.289135 -0.337664 1.364 
0.42961 -0.359448 1.452 
0.496261 -0.358706 1.449 
0.572748 -0.364399 1.472 
0.697826 -0.372569 1.505 
0.788386 -0.382471 1.545 
0.886016 -0.393858 1.591 
0.96319 -0.395096 1.596 
1.07984 -0.411187 1.661 
1.15795 -0.411435 1.662 
1.29935 -0.432724 1.748 
1.37134 -0.429754 1.736 
1.47484 -0.436438 1.763 
1.59588 -0.44733 1.807 
1.69033 -0.450053 1.818 
1.88266 -0.474313 1.916 
-1.07162 -0.345876 1.406 
-1.15505 -0.4059 1.65 
-1.07423 -0.404424 1.644 
-1.02066 -0.413772 1.682 
-0.937777 -0.411804 1.674 
-0.783588 -0.422628 1.718 
-0.710064 -0.426564 1.734 
-0.623798 -0.422874 1.719 
-0.314078 -0.309714 1.259 
-0.0847914 -0.322998 1.313 
-0.0237179 -0.32472 1.32 
0.0577861 -0.321768 1.308 
0.133841 -0.334068 1.358 
0.190298 -0.319062 1.297 
0.256165 -0.32595 1.325 
0.371831 -0.343416 1.396 
0.448479 -0.352518 1.433 
0.527703 -0.35793 1.455 
0.663632 -0.370722 1.507 
0.747022 -0.377364 1.534 
0.831329 -0.383268 1.558 
0.914391 -0.387696 1.576 
1.01668 -0.399012 1.622 
1.11451 -0.40713 1.655 
1.29461 -0.442308 1.798 
1.32398 -0.424842 1.727 
1.42156 -0.430008 1.748 
1.52109 -0.435174 1.769 
1.64705 -0.446982 1.817 
1.76606 -0.455838 1.853 
-1.09683 -0.337336 1.38 
-1.19414 -0.405292 1.658 
-1.11484 -0.404559 1.655 
-1.02579 -0.399915 1.636 
-0.966945 -0.407248 1.666 
-0.846336 -0.414092 1.694 
-0.754666 -0.420204 1.719 
-0.689846 -0.429737 1.758 
-0.585083 -0.413604 1.692 
-0.310165 -0.307758 1.259 
-0.109763 -0.328536 1.344 
-0.0464175 -0.323647 1.324 
0.0554555 -0.318025 1.301 
0.132022 -0.332692 1.361 
0.185119 -0.315092 1.289 
0.249955 -0.321203 1.314 
0.355116 -0.339781 1.39 
0.434404 -0.351514 1.438 
0.509546 -0.352492 1.442 
0.654701 -0.368625 1.508 
0.727874 -0.370092 1.514 
0.820591 -0.380359 1.556 
0.900579 -0.383537 1.569 
0.999775 -0.393803 1.611 
1.10556 -0.405048 1.657 
1.26488 -0.433159 1.772 
1.30869 -0.420693 1.721 
1.39375 -0.422159 1.727 
1.50327 -0.43047 1.761 
1.63666 -0.444404 1.818 
1.73182 -0.447093 1.829 
1.90548 -0.468115 1.915 
-1.19712 -0.401988 1.655 
-1.12269 -0.402959 1.659 
-1.02646 -0.395673 1.629 
-0.973872 -0.405388 1.669 
-0.859583 -0.410246 1.689 
-0.76802 -0.417533 1.719 
-0.701502 -0.425791 1.753 
-0.600349 -0.412432 1.698 
-0.521982 -0.42822 1.763 
-0.241155 -0.420933 1.733 
-0.058893 -0.322319 1.327 
0.0419119 -0.337135 1.388 
0.114937 -0.330091 1.359 
0.170702 -0.31236 1.286 
0.236382 -0.320133 1.318 
0.303689 -0.326448 1.344 
0.398921 -0.345637 1.423 
0.478021 -0.343693 1.415 
0.566271 -0.357781 1.473 
0.701102 -0.364825 1.502 
0.787539 -0.372598 1.534 
0.887039 -0.384742 1.584 
0.965116 -0.386443 1.591 
1.07651 -0.400287 1.648 
1.15822 -0.401988 1.655 
1.28761 -0.41899 1.725 
1.36801 -0.41899 1.725 
1.47445 -0.42652 1.756 
1.60238 -0.43915 1.808 
1.68852 -0.439636 1.81 
1.83263 -0.454453 1.871 
-1.08305 -0.338116 1.401 
-1.1834 -0.400864 1.661 
-1.09932 -0.398451 1.651 
-1.02856 -0.400864 1.661 
-0.943556 -0.407622 1.689 
-0.833075 -0.41269 1.71 
-0.742079 -0.416793 1.727 
-0.668095 -0.420896 1.744 
-0.57503 -0.412449 1.709 
-0.303572 -0.303122 1.256 
-0.105822 -0.325084 1.347 
-0.0216014 -0.317602 1.316 
0.0897218 -0.306742 1.271 
0.158056 -0.313017 1.297 
0.224912 -0.322188 1.335 
0.289502 -0.324843 1.346 
0.373205 -0.334255 1.385 
0.466698 -0.341254 1.414 
0.553322 -0.354527 1.469 
0.698303 -0.36225 1.501 
0.784132 -0.369732 1.532 
0.881228 -0.380833 1.578 
0.963854 -0.384453 1.593 
1.06808 -0.395555 1.639 
1.15355 -0.398692 1.652 
1.28419 -0.416069 1.724 
1.36454 -0.416069 1.724 
1.47088 -0.42355 1.755 
1.59692 -0.435617 1.805 
1.68105 -0.435617 1.805 
1.81701 -0.448408 1.858 
-1.08058 -0.334501 1.395 
-1.18455 -0.397804 1.659 
-1.10456 -0.396845 1.655 
-1.0299 -0.397804 1.659 
-0.941085 -0.406197 1.694 
-0.806507 -0.410033 1.71 
-0.734454 -0.414349 1.728 
-0.657696 -0.416747 1.738 
-0.573037 -0.41411 1.727 
-0.299669 -0.301171 1.256 
-0.0924346 -0.320114 1.335 
0.0600536 -0.304528 1.27 
0.139871 -0.320114 1.335 
0.196949 -0.311961 1.301 
0.260955 -0.316037 1.318 
0.33945 -0.330664 1.379 
0.4346 -0.341455 1.424 
0.513474 -0.342414 1.428 
0.68107 -0.359438 1.499 
0.767972 -0.367591 1.533 
0.850377 -0.372387 1.553 
0.9495 -0.383177 1.598 
1.03744 -0.388213 1.619 
1.12253 -0.39157 1.633 
1.28553 -0.418186 1.744 
1.35115 -0.41339 1.724 
1.45309 -0.419625 1.75 
1.57412 -0.430415 1.795 
1.66425 -0.432094 1.802 
1.7725 -0.438088 1.827 
-1.08085 -0.330428 1.387 
-1.19392 -0.3907 1.64 
-1.13451 -0.396656 1.665 
-1.03088 -0.386889 1.624 
-0.963633 -0.403088 1.692 
-0.846692 -0.404994 1.7 
-0.750042 -0.412856 1.733 
-0.674673 -0.416191 1.747 
-0.578303 -0.405709 1.703 
-0.517383 -0.420717 1.766 
-0.240389 -0.416191 1.747 
0.0578975 -0.301601 1.266 
0.146503 -0.314466 1.32 
0.208501 -0.315181 1.323 
0.270779 -0.315895 1.326 
0.347383 -0.329951 1.385 
0.42562 -0.34091 1.431 
0.498862 -0.337813 1.418 
0.709867 -0.355204 1.491 
0.800271 -0.364733 1.531 
0.890988 -0.372833 1.565 
0.9781 -0.378312 1.588 
1.08856 -0.391415 1.643 
1.25785 -0.420717 1.766 
1.29767 -0.407376 1.71 
1.36932 -0.404994 1.7 
1.49627 -0.418335 1.756 
1.62216 -0.430008 1.805 
1.71101 -0.4312 1.81 
1.84497 -0.443111 1.86 
-1.07105 -0.333953 1.411 
-1.17424 -0.392649 1.659 
-1.08898 -0.389809 1.647 
-1.04479 -0.402353 1.7 
-0.928473 -0.401169 1.695 
-0.775581 -0.406613 1.718 
-0.70603 -0.412767 1.744 
-0.606183 -0.40401 1.707 
-0.544821 -0.417974 1.766 
-0.295677 -0.430754 1.82 
-0.0318971 -0.312178 1.319 
0.163722 -0.306262 1.294 
0.230442 -0.315019 1.331 
0.293798 -0.316439 1.337 
0.384443 -0.326379 1.379 
0.481191 -0.332533 1.405 
0.663536 -0.352887 1.491 
0.777337 -0.361644 1.528 
0.866328 -0.369218 1.56 
0.954089 -0.375135 1.585 
1.04937 -0.382945 1.618 
1.13591 -0.386732 1.634 
1.26522 -0.401169 1.695 
1.36008 -0.405903 1.715 
1.46773 -0.413713 1.748 
1.59352 -0.425547 1.798 
1.68105 -0.426494 1.802 
1.80325 -0.435724 1.841 
-1.07191 -0.327999 1.395 
-1.18055 -0.389601 1.657 
-1.09999 -0.388426 1.652 
-1.04528 -0.39689 1.688 
-0.934164 -0.397596 1.691 
-0.786257 -0.403944 1.718 
-0.714813 -0.408881 1.739 
-0.618457 -0.404179 1.719 
-0.553052 -0.41523 1.766 
-0.310667 -0.429102 1.825 
-0.217321 -0.413349 1.758 
0.166965 -0.30284 1.288 
0.234754 -0.313186 1.332 
0.297507 -0.313891 1.335 
0.374093 -0.319064 1.357 
0.517944 -0.334347 1.422 
0.703815 -0.349865 1.488 
0.792396 -0.358565 1.525 
0.887421 -0.3675 1.563 
0.970103 -0.371262 1.579 
1.06948 -0.380431 1.618 
1.25215 -0.413349 1.758 
1.29539 -0.401358 1.707 
1.36287 -0.397831 1.692 
1.49286 -0.411938 1.752 
1.61497 -0.422519 1.797 
1.71101 -0.425575 1.81 
1.83803 -0.435686 1.853 
-1.12309 -0.355028 1.52 
-1.14951 -0.389596 1.668 
-1.04606 -0.380253 1.628 
-0.984616 -0.397304 1.701 
-0.863654 -0.39637 1.697 
-0.761251 -0.405012 1.734 
-0.688669 -0.409917 1.755 
-0.591307 -0.399406 1.71 
-0.528657 -0.41272 1.767 
-0.296814 -0.426734 1.827 
-0.0297573 -0.307146 1.315 
0.173204 -0.297803 1.275 
0.243032 -0.311116 1.332 
0.304888 -0.310883 1.331 
0.466228 -0.333072 1.426 
0.541232 -0.33424 1.431 
0.72231 -0.347553 1.488 
0.818799 -0.359465 1.539 
0.898634 -0.362735 1.553 
0.996655 -0.372312 1.594 
1.08439 -0.376983 1.614 
1.25429 -0.40688 1.742 
1.30329 -0.39707 1.7 
1.37764 -0.395669 1.694 
1.50733 -0.40945 1.753 
1.63164 -0.420427 1.8 
1.72793 -0.423464 1.813 
-1.07068 -0.321344 1.385 
-1.15072 -0.386541 1.666 
-1.05117 -0.378652 1.632 
-0.990791 -0.391877 1.689 
-0.918006 -0.394429 1.7 
-0.77069 -0.398837 1.719 
-0.703824 -0.406494 1.752 
-0.61222 -0.399998 1.724 
-0.546363 -0.410902 1.771 
-0.330611 -0.419951 1.81 
-0.24094 -0.410902 1.771 
0.138623 -0.311599 1.343 
0.189983 -0.294198 1.268 
0.260871 -0.308119 1.328 
0.329089 -0.314151 1.354 
0.466038 -0.327608 1.412 
0.645055 -0.341065 1.47 
0.718426 -0.343385 1.48 
0.820396 -0.35777 1.542 
0.898634 -0.360323 1.553 
0.992278 -0.368211 1.587 
1.07901 -0.37262 1.606 
1.23917 -0.399301 1.721 
1.29715 -0.392573 1.692 
1.3752 -0.392341 1.691 
1.50475 -0.40603 1.75 
1.62711 -0.416471 1.795 
1.72698 -0.420415 1.812 
-1.1935 -0.375425 1.629 
-1.14296 -0.383952 1.666 
-1.0442 -0.376347 1.633 
-0.991677 -0.390636 1.695 
-0.91698 -0.392479 1.703 
-0.760222 -0.401928 1.744 
-0.683216 -0.404463 1.755 
-0.590792 -0.397319 1.724 
-0.524647 -0.408381 1.772 
-0.333423 -0.417139 1.81 
-0.244792 -0.409994 1.779 
-0.0235562 -0.302138 1.311 
0.175915 -0.291767 1.266 
0.250176 -0.30813 1.337 
0.312727 -0.30836 1.338 
0.445346 -0.324723 1.409 
0.514666 -0.325645 1.413 
0.676527 -0.34316 1.489 
0.75144 -0.345695 1.5 
0.850377 -0.35791 1.553 
0.928185 -0.35814 1.554 
1.02573 -0.367128 1.593 
1.1055 -0.368972 1.601 
1.2626 -0.387409 1.681 
1.35611 -0.391788 1.7 
1.47081 -0.401467 1.742 
1.58942 -0.411147 1.784 
1.68758 -0.414834 1.8 
1.80494 -0.42267 1.834 
-1.16862 -0.380448 1.662 
-1.07999 -0.376557 1.645 
-1.07041 -0.401737 1.755 
-0.946349 -0.387773 1.694 
-0.833341 -0.386629 1.689 
-0.713081 -0.400134 1.748 
-0.628354 -0.398074 1.739 
-0.558629 -0.406315 1.775 
-0.376912 -0.418905 1.83 
-0.292412 -0.420049 1.835 
-0.053542 -0.30857 1.348 
0.155058 -0.302848 1.323 
0.224674 -0.308113 1.346 
0.283995 -0.30445 1.33 
0.35223 -0.309944 1.354 
0.468427 -0.321847 1.406 
0.53548 -0.322763 1.41 
0.689016 -0.34016 1.486 
0.771546 -0.346112 1.512 
0.860955 -0.353895 1.546 
0.937239 -0.355497 1.553 
1.03043 -0.362822 1.585 
1.12242 -0.368774 1.611 
1.28097 -0.3864 1.688 
1.35643 -0.385484 1.684 
1.48093 -0.397845 1.738 
1.60328 -0.408375 1.784 
1.70818 -0.41364 1.807 
1.82613 -0.421423 1.841 
-1.16485 -0.378321 1.664 
-1.07423 -0.373773 1.644 
-1.06738 -0.399919 1.759 
-0.939974 -0.384686 1.692 
-0.841072 -0.385141 1.694 
-0.719334 -0.397873 1.75 
-0.634486 -0.395827 1.741 
-0.565415 -0.404467 1.779 
-0.366772 -0.414243 1.822 
-0.2674 -0.413788 1.82 
-0.0320906 -0.301702 1.327 
0.167782 -0.297836 1.31 
0.240912 -0.308068 1.355 
0.301377 -0.305339 1.343 
0.364516 -0.305794 1.345 
0.474305 -0.319208 1.404 
0.54013 -0.319435 1.405 
0.687603 -0.336032 1.478 
0.770824 -0.342398 1.506 
0.863357 -0.351493 1.546 
0.964463 -0.354221 1.558 
1.05772 -0.361269 1.589 
1.20153 -0.376956 1.658 
1.28884 -0.379912 1.671 
1.3839 -0.384686 1.692 
1.51032 -0.397191 1.747 
1.62637 -0.405831 1.785 
1.73064 -0.410832 1.807 
-1.20653 -0.376638 1.668 
-1.12404 -0.375058 1.661 
-1.06742 -0.382509 1.694 
-0.993643 -0.386574 1.712 
-0.912245 -0.385896 1.709 
-0.771582 -0.391316 1.733 
-0.701171 -0.397186 1.759 
-0.620591 -0.39809 1.763 
-0.54086 -0.399896 1.771 
-0.360119 -0.410283 1.817 
-0.261026 -0.409831 1.815 
-0.0299609 -0.298962 1.324 
0.164391 -0.300769 1.332 
0.243376 -0.306414 1.357 
0.305045 -0.304833 1.35 
0.365788 -0.303027 1.342 
0.482342 -0.316575 1.402 
0.550424 -0.318156 1.409 
0.687981 -0.331704 1.469 
0.771385 -0.338252 1.498 
0.905361 -0.349542 1.548 
0.99565 -0.354284 1.569 
1.08172 -0.358574 1.588 
1.23061 -0.374606 1.659 
1.3308 -0.381155 1.688 
1.43787 -0.388832 1.722 
1.55692 -0.398767 1.766 
1.65873 -0.403509 1.787 
1.76932 -0.409831 1.815 
-1.1759 -0.373374 1.665 
-1.08906 -0.370235 1.651 
-1.06605 -0.389969 1.739 
-0.966305 -0.382568 1.706 
-0.853478 -0.381896 1.703 
-0.701171 -0.394454 1.759 
-0.623407 -0.397145 1.771 
-0.540249 -0.396696 1.769 
-0.368183 -0.407011 1.815 
-0.258206 -0.407011 1.815 
-0.0278196 -0.296008 1.32 
0.157168 -0.300718 1.341 
0.253731 -0.304081 1.356 
0.317402 -0.30453 1.358 
0.372849 -0.298251 1.33 
0.486785 -0.313051 1.396 
0.557782 -0.316415 1.411 
0.716808 -0.326955 1.458 
0.833746 -0.347361 1.549 
0.942013 -0.346464 1.545 
1.0324 -0.352743 1.573 
1.18322 -0.370907 1.654 
1.27326 -0.37472 1.671 
1.35519 -0.375841 1.676 
1.47436 -0.386605 1.724 
1.60071 -0.398042 1.775 
1.70715 -0.403648 1.8 
1.86468 -0.420242 1.874 
-1.14486 -0.370787 1.665 
-1.06725 -0.370787 1.665 
-1.03066 -0.386153 1.734 
-0.927925 -0.377245 1.694 
-0.757268 -0.391053 1.756 
-0.65755 -0.390162 1.752 
-0.588379 -0.398624 1.79 
-0.516628 -0.421784 1.894 
-0.356903 -0.404192 1.815 
-0.223544 -0.392834 1.764 
0.0627766 -0.41978 1.885 
0.140709 -0.299079 1.343 
0.236155 -0.303756 1.364 
0.295556 -0.299525 1.345 
0.360112 -0.301084 1.352 
0.468427 -0.313109 1.406 
0.526366 -0.308655 1.386 
0.695108 -0.325135 1.46 
0.788495 -0.334933 1.504 
0.913856 -0.341614 1.534 
1.01759 -0.349409 1.569 
1.1074 -0.354753 1.593 
1.2591 -0.37101 1.666 
1.34718 -0.373905 1.679 
1.45686 -0.382145 1.716 
1.58431 -0.393948 1.769 
1.69126 -0.399738 1.795 
1.85007 -0.416662 1.871 
-1.15988 -0.368864 1.668 
-1.075 -0.366431 1.657 
-1.05557 -0.387661 1.753 
-0.943307 -0.375498 1.698 
-0.85383 -0.377931 1.709 
-0.710176 -0.38943 1.761 
-0.633088 -0.392526 1.775 
-0.549425 -0.391863 1.772 
-0.430127 -0.409333 1.851 
-0.337535 -0.401814 1.817 
-0.206395 -0.388767 1.758 
0.0926007 -0.419284 1.896 
0.172072 -0.300752 1.36 
0.263485 -0.298983 1.352 
0.327951 -0.30031 1.358 
0.441193 -0.321318 1.453 
0.498731 -0.306723 1.387 
0.625308 -0.315126 1.425 
0.736182 -0.323972 1.465 
0.845102 -0.340337 1.539 
1.00706 -0.345865 1.564 
1.09584 -0.350951 1.587 
1.24983 -0.367979 1.664 
1.33617 -0.370412 1.675 
1.44379 -0.378152 1.71 
1.56715 -0.388988 1.759 
1.67633 -0.395401 1.788 
1.8256 -0.410217 1.855 
-1.17754 -0.366931 1.671 
-1.08913 -0.363418 1.655 
-1.06274 -0.381643 1.738 
-0.960266 -0.373299 1.7 
-0.895021 -0.379228 1.727 
-0.758562 -0.386255 1.759 
-0.67619 -0.386035 1.758 
-0.600671 -0.390207 1.777 
-0.553004 -0.425781 1.939 
-0.404237 -0.400748 1.825 
-0.284679 -0.400089 1.822 
0.0391593 -0.411947 1.876 
0.130412 -0.414801 1.889 
0.230303 -0.300176 1.367 
0.288427 -0.294467 1.341 
0.36539 -0.289417 1.318 
0.490846 -0.30369 1.383 
0.684702 -0.321037 1.462 
0.757481 -0.323014 1.471 
0.908495 -0.334871 1.525 
1.02978 -0.344533 1.569 
1.18003 -0.365394 1.664 
1.25033 -0.362539 1.651 
1.34658 -0.367809 1.675 
1.44846 -0.373958 1.703 
1.57988 -0.386694 1.761 
1.68649 -0.392403 1.787 
1.88665 -0.418315 1.905 
-1.17825 -0.364553 1.672 
-1.09044 -0.361282 1.657 
-1.06029 -0.378071 1.734 
-0.955747 -0.368914 1.692 
-0.898131 -0.377853 1.733 
-0.800635 -0.390717 1.792 
-0.707905 -0.385702 1.769 
-0.630048 -0.388537 1.782 
-0.543612 -0.386138 1.771 
-0.470042 -0.413393 1.896 
-0.364356 -0.394642 1.81 
-0.258917 -0.396822 1.82 
0.0653916 -0.409032 1.876 
0.157281 -0.296526 1.36 
0.253109 -0.297398 1.364 
0.321865 -0.298271 1.368 
0.453701 -0.305466 1.401 
0.517162 -0.299361 1.373 
0.703864 -0.316149 1.45 
0.802515 -0.327923 1.504 
0.949265 -0.337735 1.549 
1.03531 -0.342313 1.57 
1.17267 -0.359756 1.65 
1.24682 -0.35823 1.643 
1.34676 -0.364553 1.672 
1.446 -0.370004 1.697 
1.58082 -0.383522 1.759 
1.68454 -0.388537 1.782 
1.90647 -0.419061 1.922 
-1.19124 -0.361955 1.672 
-1.10864 -0.36044 1.665 
-1.07129 -0.374511 1.73 
-0.963165 -0.36412 1.682 
-0.895438 -0.37516 1.733 
-0.848888 -0.396159 1.83 
-0.727491 -0.378841 1.75 
-0.648876 -0.380572 1.758 
-0.578867 -0.388582 1.795 
-0.523449 -0.417807 1.93 
-0.405123 -0.395943 1.829 
-0.258917 -0.393994 1.82 
0.0653219 -0.405684 1.874 
0.155054 -0.294197 1.359 
0.251541 -0.295929 1.367 
0.448274 -0.314762 1.454 
0.513643 -0.297661 1.375 
0.711602 -0.314329 1.452 
0.820117 -0.325154 1.502 
0.943842 -0.335112 1.548 
1.0265 -0.338575 1.564 
1.16144 -0.35611 1.645 
1.23511 -0.355244 1.641 
1.32598 -0.359141 1.659 
1.42868 -0.365635 1.689 
1.55917 -0.378191 1.747 
1.67065 -0.385119 1.779 
1.87974 -0.412828 1.907 
-1.2533 -0.36688 1.707 
-1.1538 -0.360647 1.678 
-1.08841 -0.364946 1.698 
-1.0372 -0.375047 1.745 
-0.932855 -0.36602 1.703 
-0.852298 -0.370104 1.722 
-0.815076 -0.390737 1.818 
-0.711859 -0.38085 1.772 
-0.632106 -0.38257 1.78 
-0.548831 -0.382355 1.779 
-0.483173 -0.411155 1.913 
-0.37039 -0.389447 1.812 
-0.20984 -0.379131 1.764 
0.141851 -0.405137 1.885 
0.234722 -0.29402 1.368 
0.449105 -0.30842 1.435 
0.518539 -0.294665 1.371 
0.717594 -0.312718 1.455 
0.801606 -0.319166 1.485 
0.890747 -0.323895 1.507 
0.976293 -0.329053 1.531 
1.07776 -0.33851 1.575 
1.18836 -0.347966 1.619 
1.27241 -0.350331 1.63 
1.37072 -0.356134 1.657 
1.51 -0.371393 1.728 
1.61908 -0.378056 1.759 
1.73104 -0.384719 1.79 
-1.33123 -0.370416 1.736 
-1.20666 -0.358253 1.679 
-1.1284 -0.358253 1.679 
-1.08266 -0.369349 1.731 
-0.969566 -0.3574 1.675 
-0.920767 -0.369135 1.73 
-0.852271 -0.37447 1.755 
-0.776617 -0.377457 1.769 
-0.694948 -0.377884 1.771 
-0.615513 -0.379804 1.78 
-0.564258 -0.410956 1.926 
-0.441599 -0.397514 1.863 
-0.34848 -0.390473 1.83 
0.053475 -0.398367 1.867 
0.157975 -0.291468 1.366 
0.352715 -0.284213 1.332 
0.499777 -0.294028 1.378 
0.712092 -0.310031 1.453 
0.786257 -0.312591 1.465 
0.874374 -0.319846 1.499 
0.96377 -0.326461 1.53 
1.06662 -0.335636 1.573 
1.17498 -0.343744 1.611 
1.26094 -0.346731 1.625 
1.36382 -0.353772 1.658 
1.4863 -0.364868 1.71 
1.60264 -0.373403 1.75 
1.71789 -0.380871 1.785 
-1.04091 -0.275789 1.302 
-1.23496 -0.360093 1.7 
-1.15028 -0.358398 1.692 
-1.09231 -0.365388 1.725 
-0.997243 -0.360093 1.7 
-0.926106 -0.36327 1.715 
-0.85357 -0.366447 1.73 
-0.814485 -0.386147 1.823 
-0.70715 -0.375767 1.774 
-0.626223 -0.376827 1.779 
-0.555214 -0.385088 1.818 
-0.4634 -0.398432 1.881 
-0.36494 -0.386994 1.827 
0.0477247 -0.39589 1.869 
0.150637 -0.399279 1.885 
0.439039 -0.411565 1.943 
0.521428 -0.290828 1.373 
0.73213 -0.310527 1.466 
0.802098 -0.311163 1.469 
0.892496 -0.319 1.506 
0.975476 -0.323236 1.526 
1.07404 -0.331709 1.566 
1.18352 -0.340817 1.609 
1.27025 -0.343995 1.624 
1.36335 -0.348443 1.645 
1.5013 -0.36327 1.715 
1.61812 -0.371743 1.755 
1.7406 -0.380639 1.797 
-1.03851 -0.273135 1.299 
-1.24946 -0.359344 1.709 
-1.16227 -0.357031 1.698 
-1.09844 -0.362077 1.722 
-1.01404 -0.360606 1.715 
-0.930831 -0.359344 1.709 
-0.857151 -0.361867 1.721 
-0.83156 -0.387309 1.842 
-0.712662 -0.373011 1.774 
-0.629976 -0.373011 1.774 
-0.560555 -0.382053 1.817 
-0.470742 -0.396771 1.887 
-0.371226 -0.384786 1.83 
-0.209213 -0.374693 1.782 
0.121801 -0.397823 1.892 
0.181192 -0.256945 1.222 
0.5062 -0.289746 1.378 
0.731345 -0.30888 1.469 
0.79546 -0.307198 1.461 
0.896024 -0.317081 1.508 
0.977847 -0.320865 1.526 
1.07441 -0.328645 1.563 
1.18058 -0.337476 1.605 
1.26869 -0.341051 1.622 
1.36004 -0.345046 1.641 
1.4943 -0.358923 1.707 
