# .PCD v.7 - Point Cloud Data file format
VERSION .7
FIELDS x y z
SIZE 4 4 4
TYPE F F F
COUNT 1 1 1
WIDTH 1847
HEIGHT 1
VIEWPOINT 0 0 0 1 0 0 0
POINTS 1847
DATA ascii
0.267326 0.0669446 1.086 
0.300965 0.0633693 1.028 
0.362455 0.065835 1.068 
0.387146 0.0618282 1.003 
0.414429 0.0590543 0.958 
0.444226 0.0571433 0.927 
0.464824 0.0544927 0.884 
0.488282 0.0525817 0.853 
0.510088 0.0507941 0.824 
0.536514 0.0496845 0.806 
0.560549 0.0485133 0.787 
0.5775 0.0469105 0.761 
0.593639 0.0454311 0.737 
0.609245 0.0440749 0.715 
0.624597 0.0428421 0.695 
0.639976 0.0417325 0.677 
0.651693 0.0404996 0.657 
-0.574332 0.0453122 0.717 
-0.556755 0.0466394 0.738 
-0.533682 0.0476505 0.754 
-0.513084 0.0490408 0.776 
-0.49781 0.0511895 0.81 
-0.476526 0.0530223 0.839 
-0.452018 0.0547918 0.867 
-0.423951 0.0564349 0.893 
-0.396028 0.0584572 0.925 
-0.361689 0.0599107 0.948 
-0.327364 0.0620594 0.982 
-0.269037 0.0606059 0.959 
-0.21276 0.0652825 1.033 
-0.165886 0.065788 1.041 
-0.114997 0.0644609 1.02 
-0.0667934 0.0638289 1.01 
-0.0198927 0.0643977 1.019 
0.0281179 0.0655985 1.038 
0.0791525 0.0678735 1.074 
0.13246 0.0695799 1.101 
0.19179 0.0726133 1.149 
0.240007 0.0710334 1.124 
0.277309 0.067368 1.066 
0.314112 0.0647137 1.024 
0.376682 0.067368 1.066 
0.397571 0.0628178 0.994 
0.422912 0.0598475 0.947 
0.449791 0.0576356 0.912 
0.471787 0.0552341 0.874 
0.494932 0.0533382 0.844 
0.516546 0.0515687 0.816 
0.546425 0.0508104 0.804 
0.565017 0.0491672 0.778 
0.57964 0.0473977 0.75 
0.599847 0.0462602 0.732 
0.61318 0.0447434 0.708 
0.629752 0.0436059 0.69 
0.642727 0.042342 0.67 
-0.587402 0.0454549 0.702 
-0.568114 0.0465557 0.719 
-0.550959 0.0479802 0.741 
-0.53036 0.0492752 0.761 
-0.504736 0.050376 0.778 
-0.491355 0.0528365 0.816 
-0.466654 0.0543905 0.84 
-0.445314 0.0566568 0.875 
-0.41655 0.0583403 0.901 
-0.38661 0.0602181 0.93 
-0.346215 0.0607361 0.938 
-0.318941 0.0640384 0.989 
-0.259531 0.0626786 0.968 
-0.199275 0.0672112 1.038 
-0.143608 0.0668227 1.032 
-0.0945805 0.0661752 1.022 
-0.0467611 0.0659161 1.018 
0.000688204 0.0659161 1.018 
0.0496034 0.0679234 1.049 
0.101502 0.0699954 1.081 
0.157649 0.0726502 1.122 
0.215559 0.0745927 1.152 
0.256867 0.0711609 1.099 
0.292392 0.0675349 1.043 
0.347219 0.0687652 1.062 
0.38103 0.0660457 1.02 
0.407564 0.0628081 0.97 
0.434571 0.0602828 0.931 
0.45743 0.0576928 0.891 
0.4844 0.0560093 0.865 
0.504699 0.0538725 0.832 
0.527802 0.0523185 0.808 
0.557065 0.0515415 0.796 
0.574013 0.0497932 0.769 
0.591616 0.048304 0.746 
0.607075 0.0468147 0.723 
0.62039 0.0453254 0.7 
0.636225 0.0441599 0.682 
0.645485 0.0426707 0.659 
-0.581389 0.0472087 0.712 
-0.555902 0.0478717 0.722 
-0.541056 0.0495956 0.748 
-0.52108 0.0510543 0.77 
-0.490908 0.0517837 0.781 
-0.481857 0.0549 0.828 
-0.457182 0.0566239 0.854 
-0.43155 0.0585467 0.883 
-0.404541 0.0606684 0.915 
-0.372176 0.0623924 0.941 
-0.33669 0.0639837 0.965 
-0.306825 0.0672989 1.015 
-0.228407 0.0678956 1.024 
-0.176697 0.0688239 1.038 
-0.126832 0.0680282 1.026 
-0.0781629 0.0672989 1.015 
-0.031127 0.0678956 1.024 
0.0166505 0.0680945 1.027 
0.0669694 0.0706804 1.066 
0.120048 0.0727358 1.097 
0.17789 0.0755869 1.14 
0.22981 0.0751891 1.134 
0.267211 0.0710782 1.072 
0.30268 0.0678293 1.023 
0.367433 0.070813 1.068 
0.391026 0.0661054 0.997 
0.416872 0.0629891 0.95 
0.446104 0.0609337 0.919 
0.467125 0.0582152 0.878 
0.489533 0.0560934 0.846 
0.514609 0.0544358 0.821 
0.544122 0.0535739 0.808 
0.562342 0.0517837 0.781 
0.576512 0.0498608 0.752 
0.596111 0.0486011 0.733 
0.61136 0.0471424 0.711 
0.627277 0.0458826 0.692 
0.64047 0.0445565 0.672 
-0.586312 0.0476363 0.702 
-0.566209 0.048722 0.718 
-0.549808 0.0502828 0.741 
-0.529177 0.0516399 0.761 
-0.504736 0.0527935 0.778 
-0.49015 0.0552364 0.814 
-0.466098 0.0569329 0.839 
-0.444296 0.05924 0.873 
-0.415625 0.0610043 0.899 
-0.386194 0.0630401 0.929 
-0.345846 0.0635829 0.937 
-0.318619 0.0670437 0.988 
-0.267306 0.0676544 0.997 
-0.207113 0.0709116 1.045 
-0.153682 0.0709795 1.046 
-0.10272 0.0694866 1.024 
-0.0547767 0.0692152 1.02 
-0.0072342 0.0692152 1.02 
0.0415334 0.0713187 1.051 
0.0928463 0.0731509 1.078 
0.147871 0.0755938 1.114 
0.206969 0.0783081 1.154 
0.250589 0.0752545 1.109 
0.287016 0.0714545 1.053 
0.329713 0.0700973 1.033 
0.380568 0.0703009 1.036 
0.404433 0.0662973 0.977 
0.429706 0.0633115 0.933 
0.452907 0.0605972 0.893 
0.480131 0.0588329 0.867 
0.50133 0.0566614 0.835 
0.526015 0.0551685 0.813 
0.553505 0.0541507 0.798 
0.571455 0.0523864 0.772 
0.587767 0.0506899 0.747 
0.605082 0.0492649 0.726 
0.61692 0.0475685 0.701 
0.631987 0.0462792 0.682 
0.643336 0.0448541 0.661 
-0.580283 0.0494211 0.712 
-0.55478 0.0501152 0.722 
-0.538451 0.0517811 0.746 
-0.520559 0.0535164 0.771 
-0.489022 0.0540023 0.778 
-0.481275 0.0574034 0.827 
-0.456647 0.0592082 0.853 
-0.431062 0.0612211 0.882 
-0.403657 0.0633729 0.913 
-0.371385 0.0651776 0.939 
-0.335294 0.0667046 0.961 
-0.306825 0.0704528 1.015 
-0.245748 0.071494 1.03 
-0.201387 0.0728128 1.049 
-0.1469 0.0724658 1.044 
-0.0966389 0.0712858 1.027 
-0.0487226 0.0712164 1.026 
-0.000897827 0.0710081 1.023 
0.0481565 0.0730905 1.053 
0.0999151 0.0751034 1.082 
0.155489 0.0776717 1.119 
0.213584 0.0798928 1.151 
0.25423 0.0760058 1.095 
0.291608 0.0726046 1.046 
0.340363 0.0726046 1.046 
0.379445 0.0707999 1.02 
0.407731 0.067607 0.974 
0.433125 0.0646223 0.931 
0.455534 0.0617764 0.89 
0.481939 0.0599023 0.863 
0.501592 0.0575423 0.829 
0.529153 0.0563623 0.812 
0.55513 0.0551823 0.795 
0.572818 0.0533776 0.769 
0.588874 0.0516423 0.744 
0.605952 0.0501846 0.723 
0.618418 0.0485188 0.699 
0.634235 0.0472693 0.681 
0.643484 0.0456729 0.658 
-0.579177 0.0505273 0.712 
-0.553706 0.0514499 0.725 
-0.534973 0.0529401 0.746 
-0.517635 0.0547852 0.772 
-0.486643 0.055353 0.78 
-0.479152 0.0589012 0.83 
-0.454794 0.0608173 0.857 
-0.427919 0.0627334 0.884 
-0.400277 0.0649333 0.915 
-0.367399 0.0667074 0.94 
-0.331159 0.0682687 0.962 
-0.303582 0.0723847 1.02 
-0.253954 0.0740878 1.044 
-0.20608 0.0743717 1.048 
-0.154269 0.0745136 1.05 
-0.103021 0.0728814 1.027 
-0.0547767 0.0723847 1.02 
-0.00725547 0.0725975 1.023 
0.0415729 0.0746555 1.052 
0.0929324 0.0765716 1.079 
0.147738 0.0789844 1.113 
0.206789 0.081823 1.153 
0.249911 0.0784877 1.106 
0.287016 0.0747265 1.053 
0.32684 0.0726685 1.024 
0.381153 0.0739459 1.042 
0.404433 0.0693331 0.977 
0.429706 0.0662107 0.933 
0.451893 0.0632301 0.891 
0.479024 0.061385 0.865 
0.498928 0.0589722 0.831 
0.527309 0.0578368 0.815 
0.552812 0.0565594 0.797 
0.570714 0.0547143 0.771 
0.58698 0.0529401 0.746 
0.604249 0.0514499 0.725 
0.61604 0.0496757 0.7 
0.63106 0.0483274 0.681 
0.643336 0.0469081 0.661 
-0.580602 0.0512709 0.707 
-0.556252 0.0522862 0.721 
-0.540044 0.0540267 0.745 
-0.522276 0.0558396 0.77 
-0.492071 0.0564923 0.779 
-0.481504 0.0596832 0.823 
-0.456605 0.0614961 0.848 
-0.432327 0.0637442 0.879 
-0.404713 0.0659198 0.909 
-0.372709 0.0678053 0.935 
-0.336872 0.0694007 0.957 
-0.309063 0.0733893 1.012 
-0.259316 0.0758549 1.046 
-0.21036 0.0757824 1.045 
-0.162426 0.076145 1.05 
-0.11154 0.0748396 1.032 
-0.0621472 0.0733167 1.011 
-0.0152917 0.0746221 1.029 
0.0333053 0.0760725 1.049 
0.0846286 0.0783205 1.08 
0.138342 0.0802786 1.107 
0.197318 0.0833969 1.15 
0.243065 0.0807862 1.114 
0.280424 0.0767976 1.059 
0.316394 0.0736793 1.016 
0.378787 0.0767251 1.058 
0.399177 0.0709961 0.979 
0.425726 0.0679503 0.937 
0.448359 0.0649045 0.895 
0.474196 0.0628015 0.866 
0.496141 0.0605534 0.835 
0.524808 0.0593931 0.819 
0.549921 0.0580152 0.8 
0.567391 0.0560572 0.773 
0.585466 0.0543893 0.75 
0.601398 0.0527213 0.727 
0.613437 0.0509084 0.702 
0.628669 0.0495305 0.683 
0.64213 0.0481526 0.664 
-0.582778 0.0520731 0.703 
-0.560964 0.0531101 0.717 
-0.545939 0.0549619 0.742 
-0.525826 0.0565175 0.763 
-0.502471 0.0579248 0.782 
-0.485688 0.0603692 0.815 
-0.461983 0.0622951 0.841 
-0.437865 0.0645173 0.871 
-0.41095 0.0667395 0.901 
-0.381239 0.0689617 0.931 
-0.34474 0.0703691 0.95 
-0.31406 0.0735542 0.993 
-0.278563 0.0765171 1.033 
-0.224428 0.0766652 1.035 
-0.177718 0.0773319 1.044 
-0.127697 0.0765171 1.033 
-0.0784709 0.0754801 1.019 
-0.0313702 0.076443 1.032 
0.0167316 0.076443 1.032 
0.0677861 0.0799244 1.079 
0.119611 0.0809615 1.093 
0.177578 0.0842947 1.138 
0.229202 0.0837762 1.131 
0.265716 0.0789615 1.066 
0.301496 0.0754801 1.019 
0.363376 0.0785911 1.061 
0.387539 0.0737764 0.996 
0.413485 0.070295 0.949 
0.444695 0.068295 0.922 
0.463868 0.0649618 0.877 
0.487479 0.0627396 0.847 
0.510782 0.0608137 0.821 
0.541693 0.0599989 0.81 
0.558702 0.0578508 0.781 
0.577579 0.0561471 0.758 
0.594312 0.0544434 0.735 
0.607191 0.0525916 0.71 
0.621346 0.0510361 0.689 
0.635441 0.0496287 0.67 
-0.591765 0.0530897 0.702 
-0.567008 0.053846 0.712 
-0.553315 0.0558123 0.738 
-0.528058 0.0567954 0.751 
-0.512093 0.0589886 0.78 
-0.483666 0.0599717 0.793 
-0.467546 0.0627699 0.83 
-0.44436 0.0650387 0.86 
-0.419318 0.0674587 0.892 
-0.389176 0.0695006 0.919 
-0.349356 0.0701056 0.927 
-0.32134 0.0735845 0.973 
-0.29244 0.0779708 1.031 
-0.247466 0.0789539 1.044 
-0.200138 0.0794833 1.051 
-0.151294 0.0795589 1.052 
-0.100511 0.0781977 1.034 
-0.0517084 0.0772902 1.022 
-0.00410056 0.0778195 1.029 
0.0449271 0.0797102 1.054 
0.0963744 0.0816765 1.08 
0.151061 0.0840965 1.112 
0.20946 0.0868191 1.148 
0.25037 0.0826596 1.093 
0.289185 0.0793321 1.049 
0.3297 0.0773658 1.023 
0.377668 0.0764583 1.011 
0.407564 0.0733576 0.97 
0.433638 0.0702569 0.929 
0.453836 0.0668537 0.884 
0.47992 0.0648118 0.857 
0.501666 0.062543 0.827 
0.531721 0.0615599 0.814 
0.554266 0.0598961 0.792 
0.571774 0.0579298 0.766 
0.587651 0.0560391 0.741 
0.605396 0.0545266 0.721 
0.616845 0.052636 0.696 
0.630628 0.0511234 0.676 
0.645485 0.0498378 0.659 
-0.57755 0.0547978 0.71 
-0.554425 0.0558012 0.723 
-0.536571 0.0574991 0.745 
-0.519361 0.0595058 0.771 
-0.492202 0.0605863 0.785 
-0.477088 0.063442 0.822 
-0.454788 0.0657574 0.852 
-0.42823 0.0678413 0.879 
-0.400476 0.0701567 0.909 
-0.367563 0.072009 0.933 
-0.330675 0.0734754 0.952 
-0.307053 0.0788008 1.021 
-0.265563 0.0806532 1.045 
-0.21561 0.0801901 1.039 
-0.168952 0.081039 1.05 
-0.118296 0.0798813 1.035 
-0.0686333 0.0782606 1.014 
-0.0218131 0.0798813 1.035 
0.0268882 0.0812706 1.053 
0.0779889 0.0834316 1.081 
0.13075 0.0849752 1.101 
0.189013 0.0882168 1.143 
0.236989 0.0862873 1.118 
0.276009 0.081888 1.061 
0.311045 0.0782606 1.014 
0.372795 0.081425 1.055 
0.39573 0.0754821 0.978 
0.423716 0.0724721 0.939 
0.448067 0.069462 0.9 
0.469871 0.0666064 0.863 
0.494137 0.0645225 0.836 
0.522263 0.0632105 0.819 
0.547435 0.061744 0.8 
0.564989 0.0596602 0.773 
0.583913 0.0579622 0.751 
0.599139 0.0561099 0.727 
0.611256 0.0541804 0.702 
0.626547 0.052714 0.683 
0.641994 0.0514019 0.666 
-0.58413 0.0552711 0.702 
-0.559265 0.0560584 0.712 
-0.547506 0.0583417 0.741 
-0.52612 0.0598376 0.76 
-0.506192 0.0617272 0.784 
-0.479234 0.062987 0.8 
-0.462386 0.0659001 0.837 
-0.438548 0.0682621 0.867 
-0.411454 0.0705454 0.896 
-0.382069 0.0729074 0.926 
-0.344764 0.0741672 0.942 
-0.313632 0.0773165 0.982 
-0.282591 0.0815681 1.036 
-0.235886 0.0821193 1.043 
-0.189246 0.0829853 1.054 
-0.139055 0.0823555 1.046 
-0.0892651 0.0814107 1.034 
-0.039578 0.0816469 1.037 
0.00871464 0.0812532 1.032 
0.0586333 0.0838514 1.065 
0.11051 0.0855836 1.087 
0.166958 0.0886542 1.126 
0.22139 0.0894415 1.136 
0.25982 0.0841663 1.069 
0.296322 0.0805446 1.023 
0.351739 0.0823555 1.046 
0.386766 0.0785763 0.998 
0.412444 0.074797 0.95 
0.444224 0.07275 0.924 
0.461451 0.068892 0.875 
0.486737 0.0667662 0.848 
0.511405 0.0647191 0.822 
0.541024 0.0636956 0.809 
0.558702 0.061491 0.781 
0.578341 0.0597589 0.759 
0.593503 0.0577906 0.734 
0.607191 0.0559009 0.71 
0.620444 0.0541688 0.688 
0.635441 0.0527516 0.67 
0.653734 0.0517281 0.657 
-0.569026 0.0569238 0.709 
-0.553366 0.0587704 0.732 
-0.530597 0.060055 0.748 
-0.514952 0.0623833 0.777 
-0.487362 0.0635073 0.791 
-0.468718 0.0660765 0.823 
-0.447091 0.0686457 0.855 
-0.421528 0.0710543 0.885 
-0.391879 0.0732221 0.912 
-0.354734 0.0743461 0.926 
-0.322003 0.076835 0.957 
-0.298267 0.0826157 1.029 
-0.255414 0.0843018 1.05 
-0.205293 0.08382 1.044 
-0.158132 0.0846229 1.054 
-0.107557 0.0834989 1.04 
-0.0560852 0.0814917 1.015 
-0.00897457 0.0833383 1.038 
0.0401282 0.0848638 1.057 
0.0914251 0.0867907 1.081 
0.14509 0.0887979 1.106 
0.207314 0.0920094 1.146 
0.248444 0.0876738 1.092 
0.288909 0.0841412 1.048 
0.328411 0.0818129 1.019 
0.378858 0.0824552 1.027 
0.402211 0.0777182 0.968 
0.430694 0.0748279 0.932 
0.451242 0.0712149 0.887 
0.475925 0.0688063 0.857 
0.500304 0.0665583 0.829 
0.529842 0.0654342 0.815 
0.551108 0.0635073 0.791 
0.56865 0.0614199 0.765 
0.585348 0.059493 0.741 
0.602319 0.0578069 0.72 
0.615566 0.0559603 0.697 
0.628528 0.0542743 0.676 
0.64539 0.05307 0.661 
-0.578684 0.0577798 0.706 
-0.55428 0.0586801 0.717 
-0.539748 0.0608079 0.743 
-0.523472 0.0630176 0.77 
-0.497714 0.0643271 0.786 
-0.468704 0.065391 0.799 
-0.456303 0.0691557 0.845 
-0.430732 0.0714473 0.873 
-0.402998 0.0738207 0.902 
-0.37176 0.0760304 0.929 
-0.336945 0.0779945 0.953 
-0.31217 0.0832324 1.017 
-0.271797 0.0854421 1.044 
-0.223136 0.0854421 1.044 
-0.176313 0.0863423 1.055 
-0.124608 0.0846237 1.034 
-0.0743001 0.0840508 1.027 
-0.0267917 0.0851966 1.041 
0.0219801 0.0861787 1.053 
0.0725454 0.0879792 1.075 
0.125047 0.0896978 1.096 
0.188352 0.093217 1.139 
0.236141 0.091171 1.114 
0.274102 0.0867515 1.06 
0.309469 0.0829869 1.014 
0.370101 0.0860968 1.052 
0.391572 0.0801224 0.979 
0.419786 0.0769306 0.94 
0.446831 0.074148 0.906 
0.465849 0.0706289 0.863 
0.492586 0.0687465 0.84 
0.520352 0.0671097 0.82 
0.544949 0.0654729 0.8 
0.563315 0.063345 0.774 
0.582354 0.0615445 0.752 
0.59688 0.0594985 0.727 
0.609075 0.0574524 0.702 
0.624424 0.0558975 0.683 
0.639925 0.0545062 0.666 
-0.585477 0.0584597 0.701 
-0.5599 0.0592103 0.71 
-0.547582 0.0615453 0.738 
-0.527787 0.0632966 0.759 
-0.509277 0.0654649 0.785 
-0.476903 0.0660486 0.792 
-0.461471 0.0694678 0.833 
-0.43888 0.0721365 0.865 
-0.411464 0.0744715 0.893 
-0.381851 0.07689 0.922 
-0.344757 0.0782243 0.938 
-0.314516 0.0817269 0.98 
-0.283926 0.0863136 1.035 
-0.238872 0.0874811 1.049 
-0.191065 0.0879815 1.055 
-0.141487 0.0877313 1.052 
-0.0918383 0.0871475 1.045 
-0.0431718 0.0872309 1.046 
0.00553987 0.0865638 1.038 
0.0551681 0.0885652 1.062 
0.107132 0.0906501 1.087 
0.173492 0.0936523 1.123 
0.225836 0.0936523 1.123 
0.264555 0.0890656 1.068 
0.299324 0.0848125 1.017 
0.355932 0.0870641 1.044 
0.387524 0.0827276 0.992 
0.413647 0.0788914 0.946 
0.44516 0.0767232 0.92 
0.461517 0.0725534 0.87 
0.487641 0.0704686 0.845 
0.513929 0.0687173 0.824 
0.540941 0.0672996 0.807 
0.558481 0.0649645 0.779 
0.578757 0.0632132 0.758 
0.593834 0.0611284 0.733 
0.60768 0.0590435 0.708 
0.620772 0.0572088 0.686 
0.636571 0.0557911 0.669 
-0.589478 0.059294 0.698 
-0.564125 0.0600585 0.707 
-0.550705 0.0622672 0.733 
-0.530634 0.0639662 0.753 
-0.514621 0.0664297 0.782 
-0.484898 0.0673641 0.793 
-0.462622 0.0695728 0.819 
-0.443105 0.0726309 0.855 
-0.417403 0.0751794 0.885 
-0.388054 0.0775579 0.913 
-0.348147 0.0781526 0.92 
-0.319866 0.0818903 0.964 
-0.293756 0.0874969 1.03 
-0.251235 0.0894507 1.053 
-0.201195 0.089026 1.048 
-0.154092 0.0900453 1.06 
-0.104092 0.0895356 1.054 
-0.053922 0.0878367 1.034 
-0.00578237 0.0886862 1.044 
0.043577 0.0901303 1.061 
0.0950472 0.0920841 1.084 
0.14799 0.0936132 1.102 
0.213314 0.0968412 1.14 
0.252659 0.0918293 1.081 
0.289309 0.0876668 1.032 
0.336714 0.0870721 1.025 
0.380364 0.0861377 1.014 
0.403167 0.0812107 0.956 
0.434613 0.0788321 0.928 
0.455034 0.0748396 0.881 
0.479767 0.0723761 0.852 
0.507894 0.070762 0.833 
0.532282 0.0688932 0.811 
0.552509 0.0667695 0.786 
0.570406 0.0646458 0.761 
0.588361 0.0627769 0.739 
0.602002 0.0605682 0.713 
0.615635 0.0586994 0.691 
0.629091 0.0570004 0.671 
0.650525 0.0561509 0.661 
-0.574011 0.061157 0.707 
-0.551772 0.062368 0.721 
-0.534695 0.0643576 0.744 
-0.520851 0.0670391 0.775 
-0.493484 0.0682502 0.789 
-0.459603 0.0686827 0.794 
-0.4524 0.0735268 0.85 
-0.426378 0.0759488 0.878 
-0.395552 0.0779384 0.901 
-0.364543 0.0803605 0.929 
-0.329887 0.082523 0.954 
-0.308159 0.0890972 1.03 
-0.264949 0.0907407 1.049 
-0.215437 0.0904812 1.046 
-0.169073 0.0917787 1.061 
-0.117703 0.0903082 1.044 
-0.0687112 0.0898757 1.039 
-0.0155295 0.0903947 1.045 
0.0337815 0.0920382 1.064 
0.0845503 0.0933358 1.079 
0.137842 0.0954118 1.103 
0.210139 0.0987854 1.142 
0.250223 0.0938548 1.085 
0.286934 0.0895297 1.035 
0.328051 0.0876266 1.013 
0.379445 0.0882322 1.02 
0.401033 0.082869 0.958 
0.432194 0.0803605 0.929 
0.453836 0.0764679 0.884 
0.47768 0.0737863 0.853 
0.506519 0.0722293 0.835 
0.529762 0.0701532 0.811 
0.551466 0.0681637 0.788 
0.569534 0.0660011 0.763 
0.586065 0.0639251 0.739 
0.602037 0.062022 0.717 
0.615072 0.0600325 0.694 
0.62783 0.0582159 0.673 
0.647444 0.0571779 0.661 
-0.575393 0.0621674 0.706 
-0.551707 0.0632241 0.718 
-0.535563 0.0653374 0.742 
-0.522584 0.0681552 0.774 
-0.49405 0.0692118 0.786 
-0.459743 0.0695641 0.79 
-0.453435 0.0745833 0.847 
-0.427641 0.0770488 0.875 
-0.39791 0.0792502 0.9 
-0.366639 0.0816277 0.927 
-0.332852 0.0840052 0.954 
-0.311057 0.0906094 1.029 
-0.267953 0.0922825 1.048 
-0.219524 0.0924586 1.05 
-0.17237 0.0934272 1.061 
-0.121179 0.0921063 1.046 
-0.0722859 0.0919302 1.044 
-0.0220238 0.0920183 1.045 
0.0271691 0.0936914 1.064 
0.0773396 0.0943958 1.072 
0.13075 0.0969494 1.101 
0.208547 0.100648 1.143 
0.248537 0.0955405 1.085 
0.286102 0.0908736 1.032 
0.327079 0.0889363 1.01 
0.378971 0.0900811 1.023 
0.400379 0.0845336 0.96 
0.430287 0.0817158 0.928 
0.452974 0.0779294 0.885 
0.476354 0.0751116 0.853 
0.505827 0.0736146 0.836 
0.528502 0.0714132 0.811 
0.550242 0.069388 0.788 
0.569094 0.0672746 0.764 
0.584917 0.0650732 0.739 
0.600923 0.063136 0.717 
0.613994 0.0611107 0.694 
0.626784 0.0592615 0.673 
0.646417 0.0582049 0.661 
-0.575673 0.0631747 0.705 
-0.551282 0.0641604 0.716 
-0.536716 0.0664902 0.742 
-0.52311 0.0692681 0.773 
-0.494642 0.0703434 0.785 
-0.460387 0.0707019 0.789 
-0.454214 0.0758096 0.846 
-0.42851 0.0783187 0.874 
-0.398421 0.0804693 0.898 
-0.367285 0.0828888 0.925 
-0.334334 0.0854874 0.954 
-0.312352 0.0921185 1.028 
-0.269582 0.0939107 1.048 
-0.221576 0.0942692 1.052 
-0.174183 0.0951652 1.062 
-0.123391 0.0941795 1.051 
-0.0742619 0.0940003 1.049 
-0.0236701 0.0937315 1.046 
0.025468 0.0951652 1.062 
0.0755329 0.0958821 1.07 
0.128922 0.0985704 1.1 
0.206952 0.102513 1.144 
0.247079 0.0973159 1.086 
0.282895 0.092477 1.032 
0.322337 0.0900575 1.005 
0.379099 0.092477 1.032 
0.398224 0.0862043 0.962 
0.426943 0.083068 0.927 
0.45262 0.0794836 0.887 
0.475029 0.0764369 0.853 
0.505735 0.0750927 0.838 
0.526591 0.0725837 0.81 
0.549018 0.0706123 0.788 
0.567907 0.0684616 0.764 
0.583768 0.0662214 0.739 
0.600646 0.0643396 0.718 
0.613799 0.0622786 0.695 
0.624809 0.0602176 0.672 
0.644414 0.0591422 0.66 
-0.574578 0.06427 0.705 
-0.551707 0.0654551 0.718 
-0.536285 0.0677342 0.743 
-0.522584 0.0705603 0.774 
-0.49405 0.0716542 0.786 
-0.459161 0.0719277 0.789 
-0.450803 0.0772152 0.847 
-0.426378 0.0800412 0.878 
-0.394674 0.0819557 0.899 
-0.363366 0.0844171 0.926 
-0.329887 0.0869696 0.954 
-0.308159 0.093898 1.03 
-0.264949 0.0956301 1.049 
-0.217291 0.0961771 1.055 
-0.16987 0.0971799 1.066 
-0.114999 0.0969976 1.064 
-0.0649749 0.0963594 1.057 
-0.0156038 0.0957213 1.05 
0.0338133 0.0970887 1.065 
0.0845503 0.098365 1.079 
0.137842 0.100553 1.103 
0.205175 0.104291 1.144 
0.245392 0.0990032 1.086 
0.281292 0.0940804 1.032 
0.320137 0.0914366 1.003 
0.379324 0.0945362 1.037 
0.396729 0.0876989 0.962 
0.425044 0.0844171 0.926 
0.450371 0.0809529 0.888 
0.472932 0.0778533 0.854 
0.504332 0.076577 0.84 
0.526015 0.0741156 0.813 
0.547263 0.0719277 0.789 
0.567013 0.069831 0.766 
0.582259 0.0674607 0.74 
0.599248 0.0655463 0.719 
0.61164 0.0633584 0.695 
0.623647 0.0613528 0.673 
0.64139 0.0600765 0.659 
-0.577317 0.0651799 0.703 
-0.553845 0.0662925 0.715 
-0.539447 0.0687032 0.741 
-0.522625 0.0711138 0.767 
-0.497031 0.0725973 0.783 
-0.465829 0.0734317 0.792 
-0.454452 0.078253 0.844 
-0.428392 0.0807564 0.871 
-0.399371 0.083167 0.897 
-0.367128 0.0853922 0.921 
-0.33476 0.0881737 0.951 
-0.312728 0.094942 1.024 
-0.27121 0.0971672 1.048 
-0.22406 0.097909 1.056 
-0.175998 0.098558 1.063 
-0.12657 0.0986507 1.064 
-0.0763258 0.0978162 1.055 
-0.0271005 0.0976308 1.053 
0.0220845 0.0980944 1.058 
0.072073 0.0990216 1.068 
0.125047 0.101618 1.096 
0.189954 0.105512 1.138 
0.234669 0.101896 1.099 
0.273927 0.0976308 1.053 
0.312004 0.0938294 1.012 
0.370176 0.0967036 1.043 
0.390986 0.0899353 0.97 
0.417761 0.0861339 0.929 
0.443691 0.0828888 0.894 
0.466359 0.0796437 0.859 
0.496375 0.0780676 0.842 
0.522263 0.0761205 0.821 
0.543461 0.0738026 0.796 
0.5616 0.0713919 0.77 
0.578867 0.0691667 0.746 
0.593896 0.0669415 0.722 
0.606688 0.0647163 0.698 
0.620907 0.062862 0.678 
0.634223 0.0611004 0.659 
-0.582466 0.0659893 0.7 
-0.56005 0.0672149 0.713 
-0.543072 0.0692888 0.735 
-0.523351 0.0712685 0.756 
-0.502318 0.0733424 0.778 
-0.475041 0.0747565 0.793 
-0.458137 0.0786216 0.834 
-0.43334 0.0812612 0.862 
-0.407302 0.0841835 0.893 
-0.375097 0.0863518 0.916 
-0.341837 0.0888028 0.942 
-0.317223 0.0945533 1.003 
-0.28072 0.0981356 1.041 
-0.235767 0.0996439 1.057 
-0.187206 0.100021 1.061 
-0.138791 0.100775 1.069 
-0.0884655 0.10021 1.063 
-0.038992 0.100398 1.065 
0.010498 0.098984 1.05 
0.0604578 0.100681 1.068 
0.112302 0.102566 1.088 
0.170305 0.106054 1.125 
0.220564 0.105017 1.114 
0.261236 0.100681 1.068 
0.294999 0.095496 1.013 
0.347283 0.0969101 1.028 
0.384444 0.0938934 0.996 
0.406642 0.0886143 0.94 
0.437517 0.086069 0.913 
0.45904 0.0822981 0.873 
0.484847 0.0798471 0.847 
0.513803 0.0782445 0.83 
0.536514 0.075982 0.806 
0.55485 0.0734367 0.779 
0.573706 0.0712685 0.756 
0.589612 0.069006 0.732 
0.604984 0.066932 0.71 
0.616509 0.0646696 0.686 
0.630523 0.0628784 0.667 
0.647725 0.0615586 0.653 
-0.565521 0.0676519 0.706 
-0.549211 0.06976 0.728 
-0.53085 0.0718681 0.75 
-0.514406 0.0745512 0.778 
-0.487362 0.0759886 0.793 
-0.4504 0.0759886 0.793 
-0.441551 0.0816422 0.852 
-0.415516 0.0844211 0.881 
-0.385078 0.0868167 0.906 
-0.345498 0.0874875 0.913 
-0.32252 0.0931411 0.972 
-0.295468 0.0992738 1.036 
-0.251474 0.100999 1.054 
-0.204267 0.101957 1.064 
-0.156418 0.103107 1.076 
-0.105672 0.102532 1.07 
-0.0557472 0.102436 1.069 
-0.00584884 0.10119 1.056 
0.0438645 0.10234 1.068 
0.0944334 0.103203 1.077 
0.147856 0.105502 1.101 
0.206229 0.10924 1.14 
0.245941 0.103586 1.081 
0.280702 0.0981239 1.024 
0.320733 0.0958242 1 
0.378731 0.0987947 1.031 
0.396394 0.0914163 0.954 
0.425149 0.0881582 0.92 
0.449207 0.0846127 0.883 
0.474814 0.0819297 0.855 
0.507443 0.0807798 0.843 
0.52663 0.0778092 0.812 
0.547794 0.0755094 0.788 
0.56672 0.0732097 0.764 
0.58262 0.0708141 0.739 
0.598695 0.0687059 0.717 
0.611838 0.066502 0.694 
0.622836 0.064298 0.671 
0.638514 0.0627648 0.655 
-0.576764 0.0682619 0.701 
-0.554956 0.0696252 0.715 
-0.539868 0.0720596 0.74 
-0.519719 0.0741045 0.761 
-0.496975 0.0760521 0.781 
-0.469418 0.0775128 0.796 
-0.452298 0.0817974 0.84 
-0.4279 0.0847187 0.87 
-0.398925 0.0872505 0.896 
-0.365932 0.0893929 0.918 
-0.333352 0.0922168 0.947 
-0.313339 0.0999097 1.026 
-0.271727 0.102247 1.05 
-0.225333 0.103415 1.062 
-0.176164 0.10361 1.064 
-0.128117 0.104876 1.077 
-0.076977 0.10361 1.064 
-0.0273064 0.103318 1.061 
0.0221471 0.103318 1.061 
0.0721405 0.104097 1.069 
0.124819 0.106531 1.094 
0.1824 0.110524 1.135 
0.228668 0.107408 1.103 
0.268907 0.103123 1.059 
0.303842 0.098449 1.011 
0.358255 0.100494 1.032 
0.386148 0.0947486 0.973 
0.411544 0.0903666 0.928 
0.439115 0.0872505 0.896 
0.463167 0.0840371 0.863 
0.493476 0.0823817 0.846 
0.51779 0.0800446 0.822 
0.540544 0.0778049 0.799 
0.558984 0.0752731 0.773 
0.575 0.0727412 0.747 
0.591042 0.0705016 0.724 
0.605802 0.0683592 0.702 
0.618512 0.0662169 0.68 
0.63204 0.0643668 0.661 
-0.588992 0.0692521 0.7 
-0.561928 0.0699446 0.707 
-0.546183 0.07222 0.73 
-0.526891 0.0742976 0.751 
-0.506951 0.076573 0.774 
-0.482434 0.0784527 0.793 
-0.449404 0.0791452 0.8 
-0.436153 0.0847843 0.857 
-0.408691 0.0874555 0.884 
-0.378295 0.0900277 0.91 
-0.342155 0.0917095 0.927 
-0.320231 0.098239 0.993 
-0.285846 0.103087 1.042 
-0.241377 0.104867 1.06 
-0.193057 0.105461 1.066 
-0.14485 0.106549 1.077 
-0.0940354 0.105857 1.07 
-0.0442036 0.105956 1.071 
0.00564128 0.104571 1.057 
0.0556876 0.106055 1.072 
0.106639 0.107044 1.082 
0.164768 0.1111 1.123 
0.216338 0.110704 1.119 
0.255538 0.105362 1.065 
0.289991 0.100119 1.012 
0.336494 0.0999208 1.01 
0.379435 0.0980411 0.991 
0.403292 0.0928967 0.939 
0.433252 0.0900277 0.91 
0.458418 0.0867629 0.877 
0.484493 0.0841907 0.851 
0.511839 0.0822121 0.831 
0.534672 0.0798377 0.807 
0.553139 0.0771666 0.78 
0.570601 0.0746933 0.755 
0.588001 0.07222 0.73 
0.604132 0.0701424 0.709 
0.615774 0.0676692 0.684 
0.630612 0.0658884 0.666 
0.642779 0.0640087 0.647 
-0.566106 0.0707416 0.704 
-0.549958 0.0729522 0.726 
-0.531759 0.0751629 0.748 
-0.512838 0.0775746 0.772 
-0.488591 0.0794838 0.791 
-0.454577 0.0799862 0.796 
-0.441315 0.0853119 0.849 
-0.415939 0.0883265 0.879 
-0.386059 0.0909391 0.905 
-0.344257 0.0910396 0.906 
-0.322697 0.0972697 0.968 
-0.298798 0.104706 1.042 
-0.253352 0.106012 1.055 
-0.206887 0.107419 1.069 
-0.158383 0.108323 1.078 
-0.107535 0.10772 1.072 
-0.0575155 0.10762 1.071 
-0.00754626 0.106916 1.064 
0.0422447 0.107419 1.069 
0.092674 0.108122 1.076 
0.146809 0.111137 1.106 
0.20727 0.114151 1.136 
0.246017 0.107921 1.074 
0.282775 0.102495 1.02 
0.323841 0.100485 1 
0.377585 0.101992 1.015 
0.397059 0.0949585 0.945 
0.426636 0.0918435 0.914 
0.451783 0.088427 0.88 
0.4788 0.0859148 0.855 
0.510159 0.084508 0.841 
0.529108 0.081393 0.81 
0.548667 0.0787804 0.784 
0.566549 0.0762683 0.759 
0.584035 0.0738566 0.735 
0.601469 0.0718469 0.715 
0.613487 0.0694353 0.691 
0.625137 0.0672246 0.669 
0.63768 0.0653154 0.65 
-0.572407 0.0715292 0.701 
-0.553592 0.0733659 0.719 
-0.538163 0.0759169 0.744 
-0.515666 0.0777536 0.762 
-0.495272 0.0802025 0.786 
-0.466222 0.0815291 0.799 
-0.445242 0.0856106 0.839 
-0.423562 0.089284 0.875 
-0.392402 0.0915289 0.897 
-0.355674 0.0928554 0.91 
-0.325995 0.0966308 0.947 
-0.308047 0.10561 1.035 
-0.264324 0.107447 1.053 
-0.218514 0.10908 1.069 
-0.168687 0.10908 1.069 
-0.119973 0.1101 1.079 
-0.0690989 0.109182 1.07 
-0.0192079 0.10908 1.069 
0.0305899 0.108978 1.068 
0.0807459 0.109488 1.073 
0.133805 0.112039 1.098 
0.192902 0.116835 1.145 
0.234656 0.111324 1.091 
0.272423 0.106222 1.041 
0.310154 0.102651 1.006 
0.365207 0.104998 1.029 
0.38707 0.0983655 0.964 
0.413628 0.0941819 0.923 
0.440818 0.0909166 0.891 
0.465566 0.0877534 0.86 
0.498595 0.086529 0.848 
0.520352 0.0836719 0.82 
0.542906 0.081325 0.797 
0.559676 0.0784679 0.769 
0.573836 0.0756108 0.741 
0.591953 0.07357 0.721 
0.605604 0.0712231 0.698 
0.618025 0.0689783 0.676 
0.630316 0.0669375 0.656 
-0.585477 0.0726184 0.701 
-0.5599 0.0735507 0.71 
-0.544614 0.0760369 0.734 
-0.523614 0.0780052 0.753 
-0.502141 0.0801806 0.774 
-0.478107 0.0822525 0.794 
-0.451654 0.0842207 0.813 
-0.435644 0.0886752 0.856 
-0.407766 0.0913686 0.882 
-0.37788 0.0941656 0.909 
-0.33994 0.0954087 0.921 
-0.320231 0.102867 0.993 
-0.289948 0.108876 1.051 
-0.243253 0.109912 1.061 
-0.195444 0.110844 1.07 
-0.147067 0.111984 1.081 
-0.096145 0.111362 1.075 
-0.0460389 0.111362 1.075 
0.00403687 0.110533 1.067 
0.0541228 0.111258 1.074 
0.104861 0.111984 1.081 
0.162428 0.117163 1.131 
0.213622 0.116334 1.123 
0.251992 0.110222 1.064 
0.28713 0.104939 1.013 
0.331376 0.104007 1.004 
0.37595 0.102971 0.994 
0.398915 0.0972734 0.939 
0.428068 0.094062 0.908 
0.45433 0.0908507 0.877 
0.482785 0.0885716 0.855 
0.509189 0.0862926 0.833 
0.531568 0.0837028 0.808 
0.549503 0.0808022 0.78 
0.567082 0.0782124 0.755 
0.583925 0.0758298 0.732 
0.601158 0.0737579 0.712 
0.613853 0.0713753 0.689 
0.625341 0.0690962 0.667 
0.636747 0.0670244 0.647 
-0.568861 0.0738126 0.702 
-0.550651 0.0758104 0.721 
-0.534973 0.0784391 0.746 
-0.511601 0.0802266 0.763 
-0.492259 0.0829604 0.789 
-0.462411 0.0842221 0.801 
-0.442588 0.087692 0.834 
-0.42211 0.0916875 0.872 
-0.391527 0.0941059 0.895 
-0.354501 0.0953676 0.907 
-0.324274 0.0990477 0.942 
-0.308642 0.109037 1.037 
-0.265077 0.111034 1.056 
-0.219331 0.112822 1.073 
-0.16916 0.112717 1.072 
-0.120306 0.113768 1.082 
-0.0693572 0.112927 1.074 
-0.0192798 0.112822 1.073 
0.0306758 0.112612 1.071 
0.0808964 0.113032 1.075 
0.133805 0.115451 1.098 
0.19307 0.120498 1.146 
0.234441 0.114609 1.09 
0.2719 0.109247 1.039 
0.308921 0.105357 1.002 
0.363787 0.107775 1.025 
0.388447 0.10094 0.96 
0.416045 0.0969448 0.922 
0.441595 0.0932647 0.887 
0.468238 0.0904258 0.86 
0.500048 0.0889537 0.846 
0.520987 0.0859045 0.817 
0.544014 0.0835912 0.795 
0.560603 0.0806472 0.767 
0.575361 0.0778082 0.74 
0.590897 0.0753898 0.717 
0.606031 0.0731818 0.696 
0.619208 0.0709737 0.675 
0.631391 0.0688708 0.655 
-0.582209 0.0747966 0.701 
-0.557375 0.0758636 0.711 
-0.543405 0.0786378 0.737 
-0.521486 0.0805584 0.755 
-0.500466 0.0829058 0.777 
-0.475004 0.0848264 0.795 
-0.450619 0.0872805 0.818 
-0.431832 0.0916552 0.859 
-0.403653 0.0944294 0.885 
-0.373459 0.0973103 0.912 
-0.336031 0.0988041 0.926 
-0.321015 0.108834 1.02 
-0.283392 0.112782 1.057 
-0.235897 0.113635 1.065 
-0.188006 0.114702 1.075 
-0.139311 0.115876 1.086 
-0.0881207 0.115129 1.079 
-0.0377931 0.115022 1.078 
0.0123719 0.114276 1.071 
0.0625824 0.114809 1.076 
0.113992 0.116089 1.088 
0.173333 0.122171 1.145 
0.220366 0.118757 1.113 
0.257812 0.112462 1.054 
0.292961 0.10734 1.006 
0.339851 0.10734 1.006 
0.37859 0.103819 0.973 
0.40477 0.0991242 0.929 
0.434566 0.0961366 0.901 
0.459637 0.0927222 0.869 
0.490357 0.0909083 0.852 
0.512649 0.0879207 0.824 
0.535674 0.0854666 0.801 
0.553694 0.0825857 0.774 
0.569594 0.0795981 0.746 
0.586542 0.0772507 0.724 
0.602296 0.07501 0.703 
0.61248 0.0723425 0.678 
0.628882 0.0706353 0.662 
-0.592608 0.0761023 0.703 
-0.563027 0.0765353 0.707 
-0.547317 0.0790251 0.73 
-0.525948 0.0809737 0.748 
-0.504871 0.083247 0.769 
-0.481836 0.0855203 0.79 
-0.455717 0.0875771 0.809 
-0.433752 0.0911495 0.842 
-0.411842 0.0951549 0.879 
-0.381841 0.0979695 0.905 
-0.338533 0.0976447 0.902 
-0.317199 0.104465 0.965 
-0.295689 0.114099 1.054 
-0.247731 0.114641 1.059 
-0.201368 0.116373 1.075 
-0.151824 0.116806 1.079 
-0.101814 0.11713 1.082 
-0.0514294 0.117239 1.083 
-0.000944342 0.116481 1.076 
0.0491169 0.116264 1.074 
0.0999151 0.11713 1.082 
0.158129 0.123193 1.138 
0.209501 0.122218 1.129 
0.247265 0.11529 1.065 
0.283523 0.110094 1.017 
0.325394 0.108254 1 
0.378701 0.110202 1.018 
0.394754 0.102083 0.943 
0.425681 0.099052 0.915 
0.449392 0.0950466 0.878 
0.478588 0.0927733 0.857 
0.505827 0.0905 0.836 
0.527198 0.0875771 0.809 
0.543958 0.0843295 0.779 
0.564624 0.0820562 0.758 
0.580168 0.0793499 0.733 
0.598409 0.0772931 0.714 
0.609571 0.0745867 0.689 
0.622127 0.0723134 0.668 
0.634682 0.0702566 0.649 
-0.570763 0.0771945 0.703 
-0.54836 0.0788416 0.718 
-0.532822 0.0815868 0.743 
-0.509589 0.0834535 0.76 
-0.491635 0.0865281 0.788 
-0.463565 0.0881752 0.803 
-0.438118 0.0909204 0.828 
-0.41979 0.0955323 0.87 
-0.389701 0.0981677 0.894 
-0.350756 0.0989363 0.901 
-0.320755 0.10278 0.936 
-0.307919 0.1142 1.04 
-0.264933 0.116615 1.062 
-0.218475 0.118262 1.077 
-0.168589 0.118482 1.079 
-0.119502 0.11969 1.09 
-0.0681927 0.118811 1.082 
-0.017744 0.118702 1.081 
0.0324908 0.118153 1.076 
0.0828739 0.118482 1.079 
0.135511 0.120568 1.098 
0.194681 0.125729 1.145 
0.234401 0.118811 1.082 
0.272461 0.113651 1.035 
0.308928 0.109478 0.997 
0.364667 0.112333 1.023 
0.387637 0.105195 0.958 
0.416497 0.101352 0.923 
0.442093 0.0975088 0.888 
0.469871 0.0947637 0.863 
0.498275 0.0925675 0.843 
0.519712 0.0894929 0.815 
0.543329 0.087187 0.794 
0.559872 0.0841124 0.766 
0.573806 0.0810378 0.738 
0.589249 0.0785122 0.715 
0.606031 0.0764259 0.696 
0.619208 0.0741199 0.675 
0.630427 0.0718139 0.654 
-0.580594 0.0782867 0.703 
-0.553404 0.0794004 0.713 
-0.53768 0.082073 0.737 
-0.516987 0.0843002 0.757 
-0.498884 0.087307 0.784 
-0.470597 0.088866 0.798 
-0.446437 0.0915387 0.822 
-0.424664 0.0955477 0.858 
-0.397674 0.0987771 0.887 
-0.367178 0.101784 0.914 
-0.327772 0.102786 0.923 
-0.314933 0.114256 1.026 
-0.275962 0.118043 1.06 
-0.22912 0.119379 1.072 
-0.181326 0.120827 1.085 
-0.131357 0.121383 1.09 
-0.0804037 0.121161 1.088 
-0.0297463 0.121383 1.09 
0.0208271 0.120047 1.078 
0.0710071 0.119936 1.077 
0.122669 0.121383 1.09 
0.182546 0.127731 1.147 
0.226132 0.122386 1.099 
0.263476 0.116261 1.044 
0.298384 0.111138 0.998 
0.348011 0.11214 1.007 
0.379975 0.107463 0.965 
0.406018 0.102675 0.922 
0.438279 0.100225 0.9 
0.46262 0.0965499 0.867 
0.493168 0.0946568 0.85 
0.515863 0.09165 0.823 
0.538061 0.0889774 0.799 
0.553702 0.0856366 0.769 
0.568846 0.0826298 0.742 
0.584726 0.0800685 0.719 
0.601042 0.0778413 0.699 
0.611867 0.0751686 0.675 
0.62808 0.0733869 0.659 
-0.589331 0.079379 0.703 
-0.562106 0.0801694 0.71 
-0.545405 0.0826535 0.732 
-0.523859 0.084686 0.75 
-0.501287 0.0868313 0.769 
-0.478154 0.0892025 0.79 
-0.455298 0.0920254 0.815 
-0.424479 0.0936062 0.829 
-0.40911 0.0992519 0.879 
-0.379867 0.102414 0.907 
-0.336102 0.101962 0.903 
-0.310619 0.107721 0.954 
-0.292691 0.119125 1.055 
-0.244902 0.119802 1.061 
-0.199317 0.122174 1.082 
-0.148884 0.122174 1.082 
-0.0992711 0.12319 1.091 
-0.048508 0.123416 1.093 
0.00241255 0.122174 1.082 
0.0527472 0.121948 1.08 
0.103754 0.122738 1.087 
0.162233 0.128948 1.142 
0.211877 0.126803 1.123 
0.249633 0.119802 1.061 
0.285274 0.11427 1.012 
0.328173 0.112802 0.999 
0.378113 0.113818 1.008 
0.396419 0.10614 0.94 
0.428056 0.103204 0.914 
0.450575 0.0988003 0.875 
0.481251 0.0967678 0.857 
0.504776 0.0937191 0.83 
0.528403 0.0911221 0.807 
0.542871 0.0873959 0.774 
0.564736 0.0852505 0.755 
0.580061 0.0824277 0.73 
0.597263 0.0801694 0.71 
0.609048 0.0774594 0.686 
0.622334 0.0752011 0.666 
0.633756 0.0729428 0.646 
-0.571292 0.0807001 0.705 
-0.546069 0.0818448 0.715 
-0.529954 0.0845921 0.739 
-0.508919 0.0868814 0.759 
-0.491011 0.0900865 0.787 
-0.463565 0.091918 0.803 
-0.43622 0.0940929 0.822 
-0.417378 0.0990151 0.865 
-0.388829 0.102106 0.892 
-0.349589 0.102793 0.898 
-0.318013 0.106227 0.928 
-0.306598 0.119161 1.041 
-0.264026 0.121909 1.065 
-0.217205 0.123511 1.079 
-0.16815 0.124427 1.087 
-0.118673 0.125686 1.098 
-0.0672493 0.125228 1.094 
-0.0161685 0.124541 1.088 
0.0344483 0.124198 1.085 
0.0850204 0.124198 1.085 
0.137092 0.125572 1.097 
0.195945 0.130723 1.142 
0.23521 0.123397 1.078 
0.272745 0.117902 1.03 
0.309543 0.113781 0.994 
0.364824 0.116643 1.019 
0.386423 0.109317 0.955 
0.416045 0.10554 0.922 
0.442093 0.101648 0.888 
0.47096 0.0990151 0.865 
0.496501 0.0961534 0.84 
0.519074 0.0931772 0.814 
0.542505 0.0905444 0.791 
0.558583 0.0871104 0.761 
0.574538 0.0842487 0.736 
0.589816 0.0816159 0.713 
0.604699 0.0792121 0.692 
0.619465 0.0770372 0.673 
0.629558 0.0745189 0.651 
-0.579232 0.0816795 0.704 
-0.553404 0.0827237 0.713 
-0.535491 0.0851601 0.734 
-0.516304 0.0877126 0.756 
-0.498247 0.0908452 0.783 
-0.470008 0.0924695 0.797 
-0.445894 0.095254 0.821 
-0.414944 0.0975745 0.841 
-0.395403 0.102679 0.885 
-0.364157 0.10558 0.91 
-0.323863 0.106276 0.916 
-0.313644 0.119155 1.027 
-0.274833 0.123215 1.062 
-0.228515 0.124956 1.077 
-0.180965 0.126812 1.093 
-0.13002 0.126812 1.093 
-0.0794367 0.127392 1.098 
-0.0282586 0.127392 1.098 
0.022669 0.126 1.086 
0.0728829 0.125304 1.08 
0.124477 0.12658 1.091 
0.183685 0.132613 1.143 
0.227667 0.126464 1.09 
0.265443 0.120547 1.039 
0.300277 0.115326 0.994 
0.35114 0.116834 1.007 
0.380288 0.111613 0.962 
0.404799 0.106276 0.916 
0.439189 0.104304 0.899 
0.463432 0.100475 0.866 
0.492743 0.0982706 0.847 
0.515885 0.095254 0.821 
0.537277 0.0923535 0.796 
0.553199 0.0887568 0.765 
0.569612 0.0858562 0.74 
0.584511 0.0830717 0.716 
0.600625 0.0807513 0.696 
0.613964 0.0783148 0.675 
0.628215 0.0762264 0.657 
-0.585795 0.0827733 0.704 
-0.56005 0.0838314 0.713 
-0.540856 0.0860654 0.732 
-0.520582 0.0884169 0.752 
-0.497799 0.0906508 0.771 
-0.47564 0.0933551 0.794 
-0.452442 0.0962944 0.819 
-0.415786 0.0966472 0.822 
-0.40274 0.103467 0.88 
-0.372821 0.106641 0.907 
-0.330181 0.106524 0.906 
-0.303525 0.112285 0.955 
-0.28366 0.124395 1.058 
-0.238334 0.126511 1.076 
-0.191329 0.128628 1.094 
-0.139439 0.127805 1.087 
-0.0898357 0.129333 1.1 
-0.0384943 0.129098 1.098 
0.0125914 0.128157 1.09 
0.0627569 0.126864 1.079 
0.114726 0.128745 1.095 
0.172425 0.133919 1.139 
0.219178 0.130156 1.107 
0.257567 0.123807 1.053 
0.292378 0.118046 1.004 
0.337486 0.117458 0.999 
0.376361 0.115107 0.979 
0.395268 0.107817 0.917 
0.433233 0.106641 0.907 
0.455062 0.102056 0.868 
0.488098 0.100527 0.855 
0.510748 0.0967647 0.823 
0.532428 0.0938254 0.798 
0.548923 0.0904157 0.769 
0.565755 0.0874763 0.744 
0.582679 0.0848896 0.722 
0.597551 0.082303 0.7 
0.611273 0.0798339 0.679 
0.623984 0.0774823 0.659 
0.637811 0.0754836 0.642 
-0.565902 0.0848201 0.712 
-0.54319 0.0864879 0.726 
-0.522681 0.0887513 0.745 
-0.498436 0.0906574 0.761 
-0.48 0.093993 0.789 
-0.45783 0.0970904 0.815 
-0.420873 0.0973286 0.817 
-0.406817 0.104476 0.877 
-0.377623 0.107812 0.905 
-0.333958 0.107336 0.901 
-0.303628 0.111624 0.937 
-0.290776 0.125562 1.054 
-0.245546 0.127587 1.071 
-0.199462 0.130089 1.092 
-0.147748 0.129374 1.086 
-0.0985598 0.13128 1.102 
-0.0470239 0.130804 1.098 
0.00413524 0.130208 1.093 
0.0563109 0.129136 1.084 
0.107921 0.130447 1.095 
0.16433 0.134854 1.132 
0.213641 0.13271 1.114 
0.252453 0.126158 1.059 
0.287849 0.120321 1.01 
0.330283 0.118653 0.996 
0.377085 0.118772 0.997 
0.394405 0.110195 0.925 
0.430424 0.108408 0.91 
0.452055 0.103643 0.87 
0.485812 0.102213 0.858 
0.506193 0.0984008 0.826 
0.528207 0.0954226 0.801 
0.546266 0.0919678 0.772 
0.564148 0.0891087 0.748 
0.581395 0.0864879 0.726 
0.596591 0.083867 0.704 
0.609735 0.0812462 0.682 
0.622711 0.0788636 0.662 
0.635796 0.0767193 0.644 
-0.570327 0.0859263 0.712 
-0.540913 0.0865297 0.717 
-0.52448 0.0894261 0.741 
-0.501843 0.0915984 0.759 
-0.482445 0.0947361 0.785 
-0.461191 0.0979946 0.812 
-0.426472 0.0987187 0.818 
-0.408977 0.104994 0.87 
-0.38113 0.108615 0.9 
-0.337673 0.108132 0.896 
-0.305818 0.111752 0.926 
-0.292136 0.127079 1.053 
-0.247672 0.129493 1.073 
-0.201343 0.131907 1.093 
-0.14971 0.131303 1.088 
-0.100454 0.133234 1.104 
-0.0487743 0.132631 1.099 
0.00244599 0.132389 1.097 
0.0532356 0.131544 1.09 
0.104423 0.132027 1.094 
0.160102 0.13601 1.127 
0.210745 0.134803 1.117 
0.249869 0.128165 1.062 
0.285556 0.122252 1.013 
0.326859 0.12008 0.995 
0.377363 0.121407 1.006 
0.39407 0.112356 0.931 
0.42901 0.109822 0.91 
0.451222 0.105115 0.871 
0.485043 0.103667 0.859 
0.505521 0.0998048 0.827 
0.527621 0.0967878 0.802 
0.544572 0.093288 0.773 
0.564077 0.0906329 0.751 
0.579937 0.0877365 0.727 
0.595986 0.0847195 0.702 
0.610957 0.0821851 0.681 
0.62288 0.0796508 0.66 
0.636807 0.0775992 0.643 
-0.569526 0.0869103 0.711 
-0.540913 0.0876437 0.717 
-0.52448 0.0905774 0.741 
-0.501843 0.0927776 0.759 
-0.481831 0.0958335 0.784 
-0.461191 0.0992562 0.812 
-0.426993 0.100112 0.819 
-0.407027 0.10549 0.863 
-0.381678 0.109769 0.898 
-0.338308 0.10928 0.894 
-0.306261 0.112824 0.923 
-0.2905 0.128715 1.053 
-0.246922 0.131649 1.077 
-0.200193 0.133971 1.096 
-0.148292 0.133238 1.09 
-0.099007 0.135316 1.107 
-0.0470239 0.134216 1.098 
0.00416551 0.134583 1.101 
0.0549795 0.13336 1.091 
0.106316 0.133971 1.096 
0.161566 0.137516 1.125 
0.21191 0.136172 1.114 
0.251282 0.129693 1.061 
0.288134 0.123581 1.011 
0.329951 0.121625 0.995 
0.377085 0.12187 0.997 
0.393552 0.112824 0.923 
0.429478 0.110991 0.908 
0.452055 0.106346 0.87 
0.485812 0.104879 0.858 
0.50558 0.100845 0.825 
0.528207 0.0979116 0.801 
0.545067 0.0943667 0.772 
0.563739 0.0915553 0.749 
0.580267 0.0887438 0.726 
0.594759 0.0853212 0.698 
0.610218 0.0829987 0.679 
0.62296 0.080554 0.659 
0.636814 0.0784759 0.642 
-0.568913 0.0882625 0.713 
-0.540938 0.089129 0.72 
-0.522882 0.0918524 0.742 
-0.500143 0.0940807 0.76 
-0.480617 0.0972992 0.786 
-0.459233 0.100642 0.813 
-0.42393 0.10126 0.818 
-0.404197 0.106088 0.857 
-0.381253 0.11104 0.897 
-0.33793 0.110545 0.893 
-0.30593 0.114135 0.922 
-0.2905 0.130351 1.053 
-0.24761 0.133694 1.08 
-0.200193 0.135674 1.096 
-0.148292 0.134931 1.09 
-0.0990964 0.13716 1.108 
-0.0470239 0.135922 1.098 
0.00417686 0.136665 1.104 
0.0551307 0.135427 1.094 
0.10651 0.135922 1.098 
0.161279 0.139017 1.123 
0.211339 0.137531 1.111 
0.251519 0.131465 1.062 
0.287849 0.125028 1.01 
0.329288 0.122924 0.993 
0.376707 0.123295 0.996 
0.393552 0.114258 0.923 
0.429005 0.112278 0.907 
0.452055 0.107698 0.87 
0.485812 0.106212 0.858 
0.504967 0.102003 0.824 
0.527548 0.0990323 0.8 
0.544361 0.0954424 0.771 
0.562986 0.0925952 0.748 
0.580267 0.0898718 0.726 
0.593805 0.0869008 0.702 
0.609735 0.084425 0.682 
0.62177 0.0818254 0.661 
0.635796 0.079721 0.644 
-0.570327 0.0892449 0.712 
-0.542421 0.0901223 0.719 
-0.52448 0.0928799 0.741 
-0.501843 0.0951361 0.759 
-0.481216 0.0981444 0.783 
-0.461191 0.101779 0.812 
-0.427515 0.102782 0.82 
-0.400688 0.10579 0.844 
-0.383184 0.112183 0.895 
-0.339179 0.111431 0.889 
-0.308125 0.115316 0.92 
-0.293493 0.131862 1.052 
-0.251198 0.135497 1.081 
-0.203599 0.137377 1.096 
-0.152096 0.137001 1.093 
-0.102539 0.138881 1.108 
-0.0504818 0.137753 1.099 
0.000748371 0.138756 1.107 
0.0520623 0.138004 1.101 
0.103005 0.137502 1.097 
0.157087 0.140135 1.118 
0.207887 0.139257 1.111 
0.24892 0.133491 1.065 
0.284992 0.126723 1.011 
0.32456 0.12384 0.988 
0.376237 0.12572 1.003 
0.393552 0.115693 0.923 
0.428532 0.113562 0.906 
0.452055 0.109049 0.87 
0.485812 0.107545 0.858 
0.504967 0.103283 0.824 
0.527548 0.100275 0.8 
0.543655 0.0965149 0.77 
0.562986 0.0937573 0.748 
0.580267 0.0909998 0.726 
0.592959 0.0878662 0.701 
0.608676 0.0854846 0.682 
0.620743 0.0828524 0.661 
0.635781 0.0808469 0.645 
-0.570327 0.0903512 0.712 
-0.543176 0.0913663 0.72 
-0.523772 0.0939043 0.74 
-0.501843 0.0963154 0.759 
-0.481216 0.0993609 0.783 
-0.461191 0.103041 0.812 
-0.428036 0.104183 0.821 
-0.398314 0.106467 0.839 
-0.381794 0.113573 0.895 
-0.337798 0.112812 0.889 
-0.306695 0.116746 0.92 
-0.289138 0.13375 1.054 
-0.24707 0.137684 1.085 
-0.199033 0.139461 1.099 
-0.147136 0.138826 1.094 
-0.0976386 0.140983 1.111 
-0.0452767 0.139207 1.097 
0.00591881 0.14073 1.109 
0.0570902 0.139461 1.099 
0.108611 0.139841 1.102 
0.163024 0.142506 1.123 
0.21134 0.139841 1.102 
0.252453 0.134385 1.059 
0.288558 0.127786 1.007 
0.329831 0.125629 0.99 
0.376355 0.125756 0.991 
0.39413 0.116873 0.921 
0.428991 0.114716 0.904 
0.453407 0.110401 0.87 
0.486009 0.108624 0.856 
0.505019 0.10431 0.822 
0.527469 0.101264 0.798 
0.542728 0.0973305 0.767 
0.56264 0.0946657 0.746 
0.580594 0.0920008 0.725 
0.592353 0.0887015 0.699 
0.608841 0.0864173 0.681 
0.620829 0.0837525 0.66 
0.635796 0.0817221 0.644 
-0.56971 0.0917143 0.714 
-0.542441 0.0927419 0.722 
-0.522882 0.0953109 0.742 
-0.500143 0.097623 0.76 
-0.479394 0.100706 0.784 
-0.459233 0.104431 0.813 
-0.426003 0.105587 0.822 
-0.396179 0.107899 0.84 
-0.380403 0.114964 0.895 
-0.336166 0.114579 0.892 
-0.303836 0.118175 0.92 
-0.287501 0.135388 1.054 
-0.245837 0.139627 1.087 
-0.197326 0.141168 1.099 
-0.145702 0.140783 1.096 
-0.0960851 0.142966 1.113 
-0.0436518 0.141168 1.099 
0.00764872 0.142581 1.11 
0.0590116 0.141682 1.103 
0.110523 0.14181 1.104 
0.165209 0.144636 1.126 
0.211698 0.140654 1.095 
0.253812 0.135002 1.051 
0.28966 0.128451 1 
0.337002 0.127552 0.993 
0.37514 0.124341 0.968 
0.397683 0.117661 0.916 
0.432686 0.115606 0.9 
0.457759 0.111496 0.868 
0.488459 0.109312 0.851 
0.508886 0.10533 0.82 
0.529759 0.10199 0.794 
0.545354 0.0981368 0.764 
0.564234 0.0953109 0.742 
0.582679 0.0927419 0.722 
0.594137 0.0894022 0.696 
0.607819 0.0865762 0.674 
0.622163 0.0842641 0.656 
0.638809 0.0824658 0.642 
-0.566065 0.0929536 0.715 
-0.540189 0.0942537 0.725 
-0.520366 0.0968538 0.745 
-0.498027 0.0993239 0.764 
-0.476943 0.102444 0.788 
-0.45418 0.105694 0.813 
-0.421919 0.107124 0.824 
-0.394682 0.110244 0.848 
-0.373868 0.116485 0.896 
-0.330713 0.116485 0.896 
-0.298947 0.120515 0.927 
-0.280108 0.137415 1.057 
-0.238048 0.141705 1.09 
-0.189476 0.143396 1.103 
-0.137689 0.143006 1.1 
-0.0877532 0.145216 1.117 
-0.0352421 0.143396 1.103 
0.0163303 0.144826 1.114 
0.0672738 0.142746 1.098 
0.119531 0.144046 1.108 
0.175655 0.147816 1.137 
0.216384 0.139885 1.076 
0.257619 0.135205 1.04 
0.295992 0.128705 0.99 
0.344555 0.129615 0.997 
0.376514 0.124805 0.96 
0.401514 0.118955 0.915 
0.436395 0.116875 0.899 
0.462337 0.112974 0.869 
0.490111 0.110114 0.847 
0.510832 0.106214 0.817 
0.530773 0.102704 0.79 
0.546759 0.0989338 0.761 
0.565398 0.0960737 0.739 
0.583609 0.0934736 0.719 
0.595664 0.0902235 0.694 
0.607198 0.0872334 0.671 
0.62325 0.0851533 0.655 
-0.583554 0.0920911 0.7 
-0.563519 0.094196 0.716 
-0.53755 0.0955116 0.726 
-0.517588 0.0981428 0.746 
-0.495113 0.100642 0.765 
-0.473871 0.1038 0.789 
-0.450391 0.106957 0.813 
-0.4196 0.108799 0.827 
-0.392626 0.112483 0.855 
-0.369279 0.117745 0.895 
-0.327265 0.11814 0.898 
-0.295262 0.122218 0.929 
-0.276222 0.139584 1.061 
-0.233395 0.143662 1.092 
-0.184502 0.145241 1.104 
-0.133164 0.145372 1.105 
-0.0827685 0.147346 1.12 
-0.0301829 0.145504 1.106 
0.0215999 0.147083 1.118 
0.0723916 0.144451 1.098 
0.12492 0.14603 1.11 
0.181273 0.149845 1.139 
0.221193 0.141426 1.075 
0.2607 0.1359 1.033 
0.295394 0.12998 0.988 
0.344555 0.131164 0.997 
0.376122 0.126165 0.959 
0.401953 0.120508 0.916 
0.436395 0.118271 0.899 
0.462869 0.114456 0.87 
0.490111 0.11143 0.847 
0.510207 0.107352 0.816 
0.531327 0.1038 0.789 
0.547942 0.100116 0.761 
0.565779 0.0970903 0.738 
0.583099 0.0943276 0.717 
0.596742 0.0913017 0.694 
0.607334 0.0881443 0.67 
0.623314 0.0860394 0.654 
-0.582466 0.0931787 0.7 
-0.559178 0.0957078 0.719 
-0.532245 0.0969058 0.728 
-0.511318 0.099435 0.747 
-0.489258 0.102097 0.767 
-0.468881 0.105558 0.793 
-0.443902 0.108487 0.815 
-0.413883 0.110616 0.831 
-0.387355 0.11461 0.861 
-0.358113 0.118204 0.888 
-0.32067 0.120201 0.903 
-0.287836 0.124194 0.933 
-0.269496 0.142031 1.067 
-0.225941 0.146024 1.097 
-0.176403 0.147355 1.107 
-0.12537 0.148021 1.112 
-0.0740679 0.149086 1.12 
-0.0216496 0.147622 1.109 
0.0303392 0.149086 1.12 
0.0806265 0.145625 1.094 
0.134024 0.148287 1.114 
0.188786 0.15055 1.131 
0.229758 0.143229 1.076 
0.265603 0.135908 1.021 
0.302456 0.131249 0.986 
0.353361 0.133112 1 
0.379572 0.126324 0.949 
0.408175 0.121665 0.914 
0.442886 0.119535 0.898 
0.468548 0.115542 0.868 
0.493759 0.112081 0.842 
0.513372 0.107688 0.809 
0.532007 0.103961 0.781 
0.553125 0.101165 0.76 
0.568415 0.0977045 0.734 
0.584564 0.094776 0.712 
0.598663 0.0918476 0.69 
0.610711 0.0889191 0.668 
0.625512 0.0866562 0.651 
-0.577853 0.0944009 0.701 
-0.551818 0.0974982 0.724 
-0.523796 0.0985756 0.732 
-0.503726 0.101404 0.753 
-0.48232 0.104366 0.775 
-0.462318 0.108137 0.803 
-0.434414 0.110561 0.821 
-0.402419 0.112312 0.834 
-0.385271 0.119449 0.887 
-0.338688 0.118102 0.877 
-0.309357 0.122681 0.911 
-0.297829 0.141399 1.05 
-0.256473 0.145709 1.082 
-0.210802 0.149075 1.107 
-0.159348 0.14921 1.108 
-0.108773 0.150691 1.119 
-0.0566667 0.150826 1.12 
-0.00270606 0.149883 1.113 
0.0493479 0.150422 1.117 
0.100413 0.148941 1.106 
0.153475 0.150422 1.117 
0.202779 0.148402 1.102 
0.244688 0.142881 1.061 
0.278062 0.13507 1.003 
0.315097 0.13103 0.973 
0.371562 0.13507 1.003 
0.390369 0.126047 0.936 
0.421478 0.122411 0.909 
0.450069 0.118775 0.882 
0.478927 0.115813 0.86 
