# .PCD v.7 - Point Cloud Data file format
VERSION .7
FIELDS x y z
SIZE 4 4 4
TYPE F F F
COUNT 1 1 1
WIDTH 1897
HEIGHT 1
VIEWPOINT 0 0 0 1 0 0 0
POINTS 1897
DATA ascii
0.146056 0.300098 1.063 
0.185192 0.281747 0.998 
0.220333 0.267914 0.949 
0.256203 0.259445 0.919 
0.291228 0.252669 0.895 
0.342988 0.260292 0.922 
0.370474 0.249846 0.885 
0.398233 0.241659 0.856 
0.423288 0.233472 0.827 
0.442289 0.223591 0.792 
0.465288 0.217098 0.769 
0.487447 0.211169 0.748 
0.505552 0.204394 0.724 
0.523656 0.198465 0.703 
0.535052 0.190843 0.676 
0.556504 0.187455 0.664 
0.570759 0.181809 0.644 
0.581185 0.17588 0.623 
0.59847 0.172493 0.611 
-0.559397 0.195583 0.689 
-0.542588 0.201261 0.709 
-0.516728 0.204099 0.719 
-0.502705 0.212332 0.748 
-0.477223 0.216589 0.763 
-0.452078 0.221699 0.781 
-0.43111 0.229931 0.81 
-0.405497 0.237028 0.835 
-0.372284 0.240718 0.848 
-0.347278 0.251221 0.885 
-0.316401 0.259737 0.915 
-0.281532 0.267118 0.941 
-0.248279 0.27904 0.983 
-0.207817 0.28642 1.009 
-0.167958 0.299194 1.054 
-0.123227 0.310265 1.093 
-0.0756551 0.324742 1.144 
-0.0236213 0.343477 1.21 
0.0317749 0.332974 1.173 
0.082469 0.317646 1.119 
0.146874 0.300046 1.057 
0.18562 0.281595 0.992 
0.221574 0.269105 0.948 
0.25735 0.260589 0.918 
0.292619 0.25406 0.895 
0.344353 0.260589 0.918 
0.371959 0.250369 0.882 
0.399956 0.242421 0.854 
0.424313 0.233905 0.824 
0.444189 0.224538 0.791 
0.466461 0.217725 0.767 
0.488461 0.211764 0.746 
0.506399 0.204951 0.722 
0.525092 0.199274 0.702 
0.537947 0.192177 0.677 
0.557726 0.188203 0.663 
0.570981 0.182242 0.642 
0.582185 0.176564 0.622 
0.599386 0.173158 0.61 
-0.557261 0.197796 0.693 
-0.534808 0.201506 0.706 
-0.516119 0.207214 0.726 
-0.499552 0.214635 0.752 
-0.475619 0.219773 0.77 
-0.448295 0.224054 0.785 
-0.42744 0.232617 0.815 
-0.401399 0.239752 0.84 
-0.370009 0.24489 0.858 
-0.341172 0.253167 0.887 
-0.311659 0.263157 0.922 
-0.276553 0.270863 0.949 
-0.242846 0.283136 0.992 
-0.200771 0.28913 1.013 
-0.160831 0.30283 1.061 
-0.115471 0.313961 1.1 
-0.0668848 0.327091 1.146 
-0.0142216 0.345357 1.21 
0.0405386 0.331943 1.163 
0.0902657 0.316245 1.108 
0.150104 0.295124 1.034 
0.190988 0.279711 0.98 
0.227489 0.268865 0.942 
0.263617 0.261159 0.915 
0.301245 0.256877 0.9 
0.348804 0.260017 0.911 
0.376234 0.250027 0.876 
0.402305 0.241179 0.845 
0.428101 0.233758 0.819 
0.449279 0.224625 0.787 
0.470524 0.217489 0.762 
0.492095 0.211496 0.741 
0.508155 0.204075 0.715 
0.525578 0.198081 0.694 
0.543455 0.192943 0.676 
0.558803 0.18752 0.657 
0.570586 0.181527 0.636 
0.58513 0.17696 0.62 
0.604124 0.174106 0.61 
-0.556656 0.200594 0.699 
-0.529323 0.202603 0.706 
-0.513995 0.209777 0.731 
-0.49371 0.215804 0.752 
-0.472077 0.222117 0.774 
-0.44614 0.227283 0.792 
-0.423176 0.235031 0.819 
-0.396284 0.241918 0.843 
-0.366308 0.248232 0.865 
-0.335035 0.255119 0.889 
-0.304827 0.264876 0.923 
-0.27145 0.274633 0.957 
-0.234903 0.28439 0.991 
-0.193854 0.292138 1.018 
-0.153595 0.306487 1.068 
-0.107704 0.317966 1.108 
-0.0582858 0.330593 1.152 
-0.00481387 0.346663 1.208 
0.0492748 0.331741 1.156 
0.0995958 0.314809 1.097 
0.155842 0.292425 1.019 
0.194957 0.280373 0.977 
0.230649 0.268894 0.937 
0.265833 0.260571 0.908 
0.306458 0.259137 0.903 
0.350863 0.260858 0.909 
0.377658 0.250527 0.873 
0.40384 0.241057 0.84 
0.428754 0.233309 0.813 
0.45115 0.225561 0.786 
0.471651 0.218099 0.76 
0.492396 0.211786 0.738 
0.509663 0.204899 0.714 
0.526213 0.198585 0.692 
0.544748 0.193707 0.675 
0.559991 0.188254 0.656 
0.569861 0.181654 0.633 
0.586109 0.177636 0.619 
0.60602 0.175054 0.61 
-0.553102 0.201969 0.7 
-0.52791 0.204854 0.71 
-0.510846 0.21149 0.733 
-0.489687 0.217261 0.753 
-0.467267 0.22332 0.774 
-0.444004 0.229956 0.797 
-0.419617 0.237169 0.822 
-0.391045 0.243228 0.843 
-0.360932 0.249576 0.865 
-0.330993 0.257654 0.893 
-0.298302 0.266887 0.925 
-0.264567 0.276697 0.959 
-0.226517 0.285064 0.988 
-0.186859 0.295163 1.023 
-0.146251 0.310166 1.075 
-0.0999014 0.322284 1.117 
-0.0500647 0.337288 1.169 
0.0045325 0.345655 1.198 
0.0576504 0.330075 1.144 
0.106837 0.312763 1.084 
0.149958 0.298048 1.033 
0.186984 0.281314 0.975 
0.225039 0.272369 0.944 
0.259349 0.262559 0.91 
0.296459 0.257943 0.894 
0.345314 0.263425 0.913 
0.372576 0.253038 0.877 
0.399781 0.244671 0.848 
0.424283 0.236303 0.819 
0.446082 0.227936 0.79 
0.467011 0.220434 0.764 
0.488806 0.214375 0.743 
0.506529 0.207451 0.719 
0.52502 0.20168 0.699 
0.539253 0.195044 0.676 
0.558097 0.190716 0.661 
0.569306 0.184369 0.639 
0.58224 0.178887 0.62 
0.603253 0.176578 0.612 
-0.555348 0.201896 0.696 
-0.53042 0.204797 0.706 
-0.514426 0.211759 0.73 
-0.49422 0.21785 0.751 
-0.472057 0.223942 0.772 
-0.446806 0.229454 0.791 
-0.424448 0.237576 0.819 
-0.396651 0.243958 0.841 
-0.366377 0.250049 0.862 
-0.335659 0.257301 0.887 
-0.304497 0.267454 0.922 
-0.272017 0.278187 0.959 
-0.234429 0.286889 0.989 
-0.193283 0.294432 1.015 
-0.153452 0.309516 1.067 
-0.107509 0.320829 1.106 
-0.0580834 0.333012 1.148 
-0.00478598 0.348387 1.201 
0.0491043 0.334173 1.152 
0.0978022 0.317928 1.096 
0.141416 0.301974 1.041 
0.180267 0.286599 0.988 
0.218628 0.274996 0.948 
0.251725 0.263393 0.908 
0.287894 0.257881 0.889 
0.340074 0.266294 0.918 
0.367848 0.255851 0.882 
0.395512 0.247439 0.853 
0.419962 0.238736 0.823 
0.442172 0.230324 0.794 
0.46349 0.222782 0.768 
0.484984 0.2164 0.746 
0.504428 0.210018 0.724 
0.523307 0.204217 0.704 
0.535582 0.196674 0.678 
0.556308 0.192903 0.665 
0.566108 0.185942 0.641 
0.57832 0.18043 0.622 
0.595595 0.176949 0.61 
-0.556993 0.201227 0.69 
-0.536241 0.205602 0.705 
-0.512565 0.210268 0.721 
-0.497559 0.218434 0.749 
-0.474384 0.223975 0.768 
-0.448295 0.228933 0.785 
-0.426916 0.23739 0.814 
-0.399488 0.243806 0.836 
-0.368284 0.249055 0.854 
-0.339633 0.257513 0.883 
-0.309969 0.267428 0.917 
-0.276844 0.277052 0.95 
-0.241622 0.287843 0.987 
-0.200176 0.29455 1.01 
-0.160225 0.308257 1.057 
-0.114842 0.319048 1.094 
-0.0667097 0.333338 1.143 
-0.0140805 0.349378 1.198 
0.0402597 0.336837 1.155 
0.0902657 0.32313 1.108 
0.132944 0.302716 1.038 
0.174688 0.291634 1 
0.214083 0.278219 0.954 
0.246624 0.265387 0.91 
0.281734 0.258679 0.887 
0.334733 0.268012 0.919 
0.364421 0.258679 0.887 
0.391126 0.249347 0.855 
0.416864 0.241181 0.827 
0.43889 0.232432 0.797 
0.462301 0.225725 0.774 
0.481636 0.218142 0.748 
0.501745 0.211435 0.725 
0.520764 0.205602 0.705 
0.533992 0.198311 0.68 
0.554041 0.194228 0.666 
0.563121 0.186937 0.641 
0.577314 0.181688 0.623 
0.592726 0.177605 0.609 
-0.558065 0.2023 0.69 
-0.536574 0.206404 0.704 
-0.511632 0.209629 0.715 
-0.499712 0.219011 0.747 
-0.476096 0.224289 0.765 
-0.449076 0.228686 0.78 
-0.429123 0.237775 0.811 
-0.401454 0.243932 0.832 
-0.369649 0.248623 0.848 
-0.34297 0.258298 0.881 
-0.311845 0.266801 0.91 
-0.277719 0.27501 0.938 
-0.244976 0.28791 0.982 
-0.204073 0.294947 1.006 
-0.163901 0.307554 1.049 
-0.118954 0.318109 1.085 
-0.0719742 0.33482 1.142 
-0.0196152 0.350359 1.195 
0.0349668 0.339511 1.158 
0.0857925 0.327491 1.117 
0.128477 0.305208 1.041 
0.170537 0.294067 1.003 
0.208405 0.282047 0.962 
0.241135 0.26856 0.916 
0.274844 0.260057 0.887 
0.327238 0.269146 0.918 
0.359143 0.26123 0.891 
0.386732 0.252141 0.86 
0.411928 0.243346 0.83 
0.433242 0.233964 0.798 
0.461004 0.229273 0.782 
0.477097 0.219891 0.75 
0.499053 0.212854 0.726 
0.518212 0.206991 0.706 
0.531603 0.199661 0.681 
0.550936 0.195263 0.666 
0.561007 0.188226 0.642 
0.576254 0.183242 0.625 
0.589887 0.178551 0.609 
-0.559908 0.202487 0.687 
-0.539412 0.206908 0.702 
-0.513188 0.209561 0.711 
-0.500303 0.218403 0.741 
-0.477708 0.224003 0.76 
-0.451595 0.228719 0.776 
-0.432021 0.237856 0.807 
-0.405159 0.244341 0.829 
-0.372709 0.248467 0.843 
-0.346073 0.257899 0.875 
-0.315407 0.266446 0.904 
-0.281131 0.274109 0.93 
-0.249289 0.287373 0.975 
-0.209279 0.295036 1.001 
-0.169121 0.306826 1.041 
-0.124886 0.317731 1.078 
-0.0787252 0.335121 1.137 
-0.0269286 0.350742 1.19 
0.0279141 0.343079 1.164 
0.0792742 0.330995 1.123 
0.122593 0.308299 1.046 
0.165123 0.297099 1.008 
0.203268 0.28472 0.966 
0.236984 0.271752 0.922 
0.269939 0.262025 0.889 
0.31838 0.26792 0.909 
0.35559 0.264088 0.896 
0.383605 0.254951 0.865 
0.40775 0.245225 0.832 
0.429356 0.235793 0.8 
0.457894 0.231372 0.785 
0.474326 0.22194 0.753 
0.495452 0.214866 0.729 
0.51418 0.208677 0.708 
0.528632 0.201603 0.684 
0.547402 0.196887 0.668 
0.56035 0.190698 0.647 
0.573166 0.185098 0.628 
0.58517 0.179792 0.61 
-0.564076 0.20237 0.683 
-0.545489 0.207407 0.7 
-0.521653 0.210962 0.712 
-0.503104 0.217777 0.735 
-0.482241 0.223999 0.756 
-0.456464 0.22874 0.772 
-0.434098 0.236147 0.797 
-0.412389 0.245332 0.828 
-0.380116 0.24948 0.842 
-0.350991 0.256888 0.867 
-0.321326 0.265777 0.897 
-0.289177 0.274962 0.928 
-0.253965 0.285628 0.964 
-0.215971 0.29511 0.996 
-0.176016 0.306369 1.034 
-0.132766 0.318221 1.074 
-0.0868648 0.334221 1.128 
-0.0359906 0.350813 1.184 
0.0189366 0.346073 1.168 
0.070676 0.333332 1.125 
0.115343 0.312295 1.054 
0.157916 0.299851 1.012 
0.196574 0.287406 0.97 
0.232065 0.275851 0.931 
0.263032 0.263406 0.889 
0.306866 0.26548 0.896 
0.351353 0.267554 0.903 
0.378628 0.25748 0.869 
0.403698 0.247999 0.837 
0.426314 0.238814 0.806 
0.452947 0.233184 0.787 
0.471587 0.224592 0.758 
0.491805 0.216888 0.732 
0.510117 0.210369 0.71 
0.526378 0.203851 0.688 
0.543836 0.198518 0.67 
0.557899 0.192592 0.65 
0.569192 0.18637 0.629 
0.585189 0.182221 0.615 
-0.569153 0.203729 0.684 
-0.548268 0.207898 0.698 
-0.526078 0.212068 0.712 
-0.50629 0.218323 0.733 
-0.485651 0.224578 0.754 
-0.460067 0.229344 0.77 
-0.436847 0.236194 0.793 
-0.416526 0.246023 0.826 
-0.386264 0.251384 0.844 
-0.355557 0.257639 0.865 
-0.325443 0.265979 0.893 
-0.293991 0.27551 0.925 
-0.258199 0.283552 0.952 
-0.22281 0.295466 0.992 
-0.182091 0.304699 1.023 
-0.140321 0.318102 1.068 
-0.0952036 0.334484 1.123 
-0.0446922 0.348781 1.171 
0.00996441 0.351461 1.18 
0.0621017 0.335973 1.128 
0.108273 0.317209 1.065 
0.151093 0.303508 1.019 
0.189429 0.289509 0.972 
0.227006 0.279978 0.94 
0.257279 0.265979 0.893 
0.297228 0.26449 0.888 
0.345482 0.269851 0.906 
0.373589 0.260022 0.873 
0.399094 0.250491 0.841 
0.423701 0.242151 0.813 
0.446266 0.234109 0.786 
0.469385 0.227556 0.764 
0.487149 0.219515 0.737 
0.507348 0.213558 0.717 
0.523421 0.206707 0.694 
0.538151 0.200154 0.672 
0.555066 0.195091 0.655 
0.565927 0.188538 0.633 
0.582263 0.184368 0.619 
0.597293 0.180198 0.605 
-0.550231 0.208085 0.695 
-0.528268 0.212276 0.709 
-0.510588 0.218863 0.731 
-0.488901 0.224552 0.75 
-0.463627 0.229342 0.766 
-0.441332 0.236528 0.79 
-0.419871 0.24551 0.82 
-0.391973 0.252995 0.845 
-0.359263 0.257785 0.861 
-0.32951 0.266169 0.889 
-0.297795 0.275151 0.919 
-0.263838 0.284732 0.951 
-0.228744 0.296708 0.991 
-0.18679 0.303594 1.014 
-0.146132 0.317965 1.062 
-0.101728 0.334732 1.118 
-0.0514371 0.347007 1.159 
0.00265113 0.355989 1.189 
0.0553846 0.339522 1.134 
0.102609 0.321858 1.075 
0.145186 0.305989 1.022 
0.184143 0.292217 0.976 
0.222576 0.283235 0.946 
0.253139 0.268863 0.898 
0.290396 0.264672 0.884 
0.340977 0.272157 0.909 
0.369429 0.262277 0.876 
0.395273 0.252696 0.844 
0.421223 0.244911 0.818 
0.443066 0.236228 0.789 
0.466461 0.229642 0.767 
0.483878 0.221258 0.739 
0.506399 0.216169 0.722 
0.521352 0.208683 0.697 
0.536358 0.202097 0.675 
0.554361 0.197306 0.659 
0.564657 0.19042 0.636 
0.580285 0.185929 0.621 
0.595495 0.181737 0.607 
-0.551596 0.208864 0.694 
-0.529723 0.213077 0.708 
-0.509889 0.219698 0.73 
-0.488901 0.225717 0.75 
-0.463022 0.230231 0.765 
-0.440773 0.237454 0.789 
-0.418846 0.246182 0.818 
-0.389808 0.254609 0.846 
-0.357416 0.259725 0.863 
-0.327115 0.267851 0.89 
-0.295902 0.277482 0.922 
-0.260334 0.285607 0.949 
-0.225893 0.298548 0.992 
-0.184183 0.306072 1.017 
-0.142967 0.319916 1.063 
-0.0984295 0.337071 1.12 
-0.048042 0.350313 1.164 
0.00632442 0.356633 1.185 
0.0587005 0.34008 1.13 
0.105358 0.321722 1.069 
0.147926 0.306674 1.019 
0.1866 0.29283 0.973 
0.2248 0.283802 0.943 
0.254789 0.269055 0.894 
0.293142 0.266045 0.884 
0.342667 0.272666 0.906 
0.371301 0.263036 0.874 
0.396953 0.253405 0.842 
0.422211 0.245279 0.815 
0.443823 0.236551 0.786 
0.467622 0.230231 0.765 
0.485516 0.222106 0.738 
0.506529 0.216387 0.719 
0.522016 0.209164 0.695 
0.536063 0.202242 0.672 
0.553876 0.197427 0.656 
0.564851 0.190806 0.634 
0.580339 0.186292 0.619 
0.595413 0.182078 0.605 
-0.549941 0.210547 0.696 
-0.527166 0.214479 0.709 
-0.507874 0.221437 0.732 
-0.4867 0.227487 0.752 
-0.460658 0.232025 0.767 
-0.437095 0.23868 0.789 
-0.416556 0.248361 0.821 
-0.387179 0.255923 0.846 
-0.355557 0.261671 0.865 
-0.324714 0.269536 0.891 
-0.293037 0.278914 0.922 
-0.257114 0.286779 0.948 
-0.220835 0.301602 0.997 
-0.179437 0.310375 1.026 
-0.137002 0.32308 1.068 
-0.0914691 0.338811 1.12 
-0.0410185 0.353936 1.17 
0.0135271 0.354239 1.171 
0.0654323 0.340323 1.125 
0.112493 0.320055 1.058 
0.154924 0.306442 1.013 
0.193361 0.293132 0.969 
0.229664 0.282242 0.933 
0.259392 0.268024 0.886 
0.302385 0.269536 0.891 
0.347389 0.272259 0.9 
0.37636 0.263184 0.87 
0.401097 0.253201 0.837 
0.424862 0.244428 0.808 
0.448212 0.236865 0.783 
0.469851 0.229605 0.759 
0.487921 0.22174 0.733 
0.507841 0.215689 0.713 
0.52362 0.208732 0.69 
0.539328 0.201774 0.667 
0.554168 0.196026 0.648 
0.568139 0.190581 0.63 
0.583278 0.186044 0.615 
-3.09722 1.01436 3.336 
-0.537876 0.212844 0.7 
-0.512466 0.215885 0.71 
-0.493968 0.223487 0.735 
-0.474721 0.230784 0.759 
-0.449184 0.235953 0.776 
-0.42632 0.243555 0.801 
-0.402097 0.251765 0.828 
-0.373162 0.258454 0.85 
-0.341784 0.264839 0.871 
-0.312598 0.274873 0.904 
-0.27854 0.283083 0.931 
-0.245225 0.298894 0.983 
-0.204276 0.306192 1.007 
-0.163276 0.317746 1.045 
-0.118954 0.329909 1.085 
-0.07147 0.344808 1.134 
-0.0195331 0.361835 1.19 
0.0346649 0.349065 1.148 
0.0862742 0.334774 1.101 
0.129594 0.315314 1.037 
0.170379 0.301935 0.993 
0.208809 0.290989 0.957 
0.241234 0.277002 0.911 
0.273731 0.267272 0.879 
0.326516 0.277306 0.912 
0.358099 0.269096 0.885 
0.386715 0.260582 0.857 
0.410728 0.250852 0.825 
0.432848 0.24173 0.795 
0.456308 0.234737 0.772 
0.477625 0.227743 0.749 
0.497482 0.221054 0.727 
0.513095 0.213453 0.702 
0.529262 0.206155 0.678 
0.547628 0.20129 0.662 
0.559259 0.194601 0.64 
0.575283 0.19004 0.625 
0.587923 0.184262 0.606 
-0.546697 0.21271 0.696 
-0.524601 0.216988 0.71 
-0.503325 0.223712 0.732 
-0.483308 0.230435 0.754 
-0.45708 0.23502 0.769 
-0.432192 0.241132 0.789 
-0.411955 0.251217 0.822 
-0.38455 0.258552 0.846 
-0.353685 0.26497 0.867 
-0.322668 0.272916 0.893 
-0.290172 0.281779 0.922 
-0.253632 0.289114 0.946 
-0.215931 0.306534 1.003 
-0.174241 0.315702 1.033 
-0.130853 0.327622 1.072 
-0.0842822 0.341374 1.117 
-0.0338338 0.358489 1.173 
0.0204847 0.352377 1.153 
0.0718445 0.341069 1.116 
0.116869 0.321815 1.053 
0.158858 0.308062 1.008 
0.19706 0.294921 0.965 
0.231756 0.28239 0.924 
0.261737 0.268943 0.88 
0.308603 0.274139 0.897 
0.349631 0.273527 0.895 
0.379978 0.265581 0.869 
0.403063 0.254579 0.833 
0.426506 0.245716 0.804 
0.449553 0.238076 0.779 
0.469646 0.23013 0.753 
0.489327 0.2231 0.73 
0.508297 0.216683 0.709 
0.52531 0.210265 0.688 
0.539554 0.203541 0.666 
0.554318 0.197734 0.647 
0.568215 0.192233 0.629 
0.583283 0.187649 0.614 
-3.1016 1.01766 3.313 
-0.531778 0.215634 0.702 
-0.50901 0.219934 0.716 
-0.48945 0.227921 0.742 
-0.465287 0.233143 0.759 
-0.441238 0.239286 0.779 
-0.418963 0.24758 0.806 
-0.394172 0.255873 0.833 
-0.366437 0.26386 0.859 
-0.334378 0.27031 0.88 
-0.302362 0.278604 0.907 
-0.269836 0.289048 0.941 
-0.234429 0.303792 0.989 
-0.192902 0.311164 1.013 
-0.151582 0.323758 1.054 
-0.107704 0.340345 1.108 
-0.0582352 0.353554 1.151 
-0.00474613 0.36584 1.191 
0.048124 0.346796 1.129 
0.0979616 0.331437 1.079 
0.140835 0.31485 1.025 
0.18033 0.301027 0.98 
0.218167 0.290584 0.946 
0.248953 0.275839 0.898 
0.283684 0.269082 0.876 
0.33637 0.278911 0.908 
0.364929 0.268774 0.875 
0.391339 0.259252 0.844 
0.4169 0.250959 0.817 
0.439945 0.242665 0.79 
0.461076 0.234678 0.764 
0.481083 0.227306 0.74 
0.503731 0.222084 0.723 
0.51736 0.213791 0.696 
0.533212 0.20734 0.675 
0.550453 0.202118 0.658 
0.560809 0.195053 0.635 
0.57646 0.190446 0.62 
0.591689 0.186145 0.606 
-0.542672 0.214564 0.695 
-0.522025 0.219503 0.711 
-0.501262 0.22506 0.729 
-0.483308 0.232778 0.754 
-0.455891 0.236792 0.767 
-0.431096 0.242966 0.787 
-0.410952 0.253154 0.82 
-0.38455 0.261181 0.846 
-0.353277 0.267355 0.866 
-0.321946 0.275073 0.891 
-0.289228 0.283718 0.919 
-0.253096 0.291436 0.944 
-0.220835 0.307798 0.997 
-0.179786 0.317369 1.028 
-0.136617 0.328792 1.065 
-0.0907341 0.342993 1.111 
-0.0408782 0.359973 1.166 
0.0133885 0.357812 1.159 
0.0665831 0.344228 1.115 
0.112493 0.32663 1.058 
0.155077 0.313047 1.014 
0.192762 0.298228 0.966 
0.228434 0.286496 0.928 
0.257928 0.271986 0.881 
0.303064 0.275691 0.893 
0.345845 0.276617 0.896 
0.375928 0.268282 0.869 
0.399181 0.257167 0.833 
0.424862 0.249449 0.808 
0.446495 0.240805 0.78 
0.467994 0.233396 0.756 
0.487256 0.225986 0.732 
0.507129 0.219812 0.712 
0.522862 0.212711 0.689 
0.537255 0.205919 0.667 
0.553007 0.200362 0.649 
0.56708 0.194805 0.631 
0.580421 0.189557 0.614 
0.598129 0.186161 0.603 
-0.539433 0.215643 0.695 
-0.518711 0.220608 0.711 
-0.497864 0.226193 0.729 
-0.481703 0.234881 0.757 
-0.453496 0.238604 0.769 
-0.428514 0.244809 0.789 
-0.407627 0.254738 0.821 
-0.381057 0.262806 0.847 
-0.34924 0.268701 0.866 
-0.318506 0.277078 0.893 
-0.285255 0.285456 0.92 
-0.248959 0.293213 0.945 
-0.216839 0.310278 1 
-0.175846 0.320517 1.033 
-0.132148 0.331687 1.069 
-0.0855557 0.344719 1.111 
-0.0355651 0.363025 1.17 
0.0221409 0.355579 1.146 
0.0729191 0.343168 1.106 
0.118055 0.325482 1.049 
0.159947 0.31183 1.005 
0.198354 0.299108 0.964 
0.23193 0.285146 0.919 
0.261908 0.271804 0.876 
0.310687 0.27894 0.899 
0.350237 0.277078 0.893 
0.380012 0.268701 0.866 
0.402901 0.257531 0.83 
0.427755 0.249464 0.804 
0.449028 0.240776 0.776 
0.469566 0.233019 0.751 
0.489789 0.226193 0.729 
0.507243 0.219056 0.706 
0.524083 0.212541 0.685 
0.538966 0.206025 0.664 
0.554465 0.20044 0.646 
0.569192 0.195165 0.629 
0.581382 0.18958 0.611 
-3.09692 1.03154 3.308 
-0.540513 0.216723 0.695 
-0.520547 0.222024 0.712 
-0.49605 0.227014 0.728 
-0.481161 0.236369 0.758 
-0.452301 0.239799 0.769 
-0.427289 0.246035 0.789 
-0.405361 0.25539 0.819 
-0.379741 0.264122 0.847 
-0.347895 0.270046 0.866 
-0.317829 0.279089 0.895 
-0.283825 0.286885 0.92 
-0.247491 0.294681 0.945 
-0.215285 0.311832 1 
-0.174578 0.322746 1.035 
-0.130609 0.33366 1.07 
-0.083905 0.346757 1.112 
-0.0338338 0.365779 1.173 
0.0221216 0.357047 1.145 
0.0727872 0.344262 1.104 
0.117943 0.3268 1.048 
0.159788 0.313079 1.004 
0.198354 0.300606 0.964 
0.231677 0.286262 0.918 
0.26131 0.272541 0.874 
0.310687 0.280337 0.899 
0.350237 0.278466 0.893 
0.380477 0.269423 0.864 
0.40579 0.258197 0.828 
0.429892 0.249777 0.801 
0.451478 0.241358 0.774 
0.471176 0.23325 0.748 
0.491157 0.22639 0.726 
0.508364 0.219218 0.703 
0.525736 0.212981 0.683 
0.540428 0.206433 0.662 
0.556613 0.201132 0.645 
0.570305 0.195519 0.627 
0.583274 0.190217 0.61 
-3.08101 1.03825 3.313 
-0.536653 0.21843 0.697 
-0.515739 0.223444 0.713 
-0.487873 0.229085 0.731 
-0.471804 0.238173 0.76 
-0.44327 0.241934 0.772 
-0.418894 0.248828 0.794 
-0.394871 0.257289 0.821 
-0.370938 0.267631 0.854 
-0.340051 0.274839 0.877 
-0.308725 0.283614 0.905 
-0.273611 0.291135 0.929 
-0.239979 0.303357 0.968 
-0.203114 0.316206 1.009 
-0.161807 0.327801 1.046 
-0.117052 0.339397 1.083 
-0.0688475 0.350992 1.12 
-0.0175802 0.370735 1.183 
0.0377326 0.355066 1.133 
0.0871857 0.341904 1.091 
0.130193 0.322474 1.029 
0.170537 0.308685 0.985 
0.208977 0.29803 0.951 
0.239719 0.282047 0.9 
0.272593 0.272959 0.871 
0.327214 0.285181 0.91 
0.358403 0.275466 0.879 
0.385238 0.264811 0.845 
0.411056 0.256349 0.818 
0.434357 0.247888 0.791 
0.455737 0.23974 0.765 
0.477634 0.231905 0.74 
0.498977 0.225951 0.721 
0.514116 0.218116 0.696 
0.530851 0.211849 0.676 
0.54943 0.206208 0.658 
0.559823 0.199 0.635 
0.575497 0.194299 0.62 
0.589773 0.189598 0.605 
-0.548699 0.215733 0.685 
-0.526324 0.221087 0.702 
-0.505557 0.226441 0.719 
-0.484027 0.23274 0.739 
-0.459356 0.238409 0.757 
-0.434156 0.244078 0.775 
-0.412413 0.252896 0.803 
-0.388995 0.262344 0.833 
-0.361098 0.270533 0.859 
-0.329283 0.277461 0.881 
-0.296725 0.28565 0.907 
-0.262585 0.294783 0.936 
-0.229718 0.30927 0.982 
-0.191253 0.321553 1.021 
-0.149151 0.333836 1.06 
-0.10332 0.345803 1.098 
-0.0538988 0.357456 1.135 
-0.00103562 0.371628 1.18 
0.0510376 0.351472 1.116 
0.099084 0.33793 1.073 
0.142149 0.322183 1.023 
0.180739 0.306751 0.974 
0.217779 0.295413 0.938 
0.248954 0.281241 0.893 
0.283093 0.273997 0.87 
0.33592 0.28439 0.903 
0.364286 0.273052 0.867 
0.393295 0.263604 0.837 
0.419395 0.255731 0.812 
0.441476 0.246912 0.784 
0.462166 0.238724 0.758 
0.484981 0.230535 0.732 
0.504917 0.224237 0.712 
0.520721 0.216993 0.689 
0.536902 0.20912 0.664 
0.553313 0.203766 0.647 
0.568139 0.198412 0.63 
0.579484 0.192428 0.611 
0.599007 0.189593 0.602 
-0.535114 0.219963 0.695 
-0.515016 0.225343 0.712 
-0.491304 0.229774 0.726 
-0.480149 0.241168 0.762 
-0.448716 0.243383 0.769 
-0.424148 0.250029 0.79 
-0.400073 0.258258 0.816 
-0.376237 0.268386 0.848 
-0.343858 0.274083 0.866 
-0.315409 0.284844 0.9 
-0.279233 0.290857 0.919 
-0.244373 0.300668 0.95 
-0.210835 0.316809 1.001 
-0.171394 0.330735 1.045 
-0.125856 0.33928 1.072 
-0.0788635 0.352573 1.114 
-0.0284148 0.371879 1.175 
0.0256346 0.361751 1.143 
0.0760106 0.348459 1.101 
0.120621 0.330102 1.043 
0.161609 0.315227 0.996 
0.201141 0.304783 0.963 
0.232358 0.28611 0.904 
0.264169 0.275349 0.87 
0.315228 0.284844 0.9 
0.352415 0.281046 0.888 
0.380053 0.270285 0.854 
0.406681 0.260157 0.822 
0.432543 0.252878 0.799 
0.452734 0.243699 0.77 
0.474826 0.234521 0.741 
0.495616 0.228191 0.721 
0.511606 0.220596 0.697 
0.530042 0.214899 0.679 
0.545146 0.208569 0.659 
0.558385 0.202239 0.639 
0.572521 0.196859 0.622 
0.58604 0.191795 0.606 
-0.551087 0.217544 0.684 
-0.525575 0.222951 0.701 
-0.504151 0.228039 0.717 
-0.482549 0.233764 0.735 
-0.460532 0.240761 0.757 
-0.434798 0.246168 0.774 
-0.411601 0.254119 0.799 
-0.387478 0.263024 0.827 
-0.360745 0.27193 0.855 
-0.331027 0.280517 0.882 
-0.297805 0.28815 0.906 
-0.262911 0.296419 0.932 
-0.229596 0.310095 0.975 
-0.192461 0.324089 1.019 
-0.15094 0.337447 1.061 
-0.104165 0.346353 1.089 
-0.0552699 0.358438 1.127 
-0.00286166 0.374341 1.177 
0.0492596 0.354622 1.115 
0.0972353 0.340628 1.071 
0.140422 0.325044 1.022 
0.180924 0.310095 0.975 
0.21685 0.297055 0.934 
0.248397 0.283379 0.891 
0.282442 0.276064 0.868 
0.335548 0.286878 0.902 
0.362521 0.275428 0.866 
0.390694 0.266205 0.837 
0.416872 0.258254 0.812 
0.43904 0.249348 0.784 
0.460417 0.241397 0.759 
0.479949 0.233128 0.733 
0.500788 0.227085 0.714 
0.51826 0.219452 0.69 
0.535265 0.213409 0.671 
0.551343 0.207684 0.653 
0.563069 0.201005 0.632 
0.576589 0.195599 0.615 
0.59246 0.191464 0.602 
-0.543843 0.220844 0.691 
-0.523482 0.225957 0.707 
-0.499548 0.230112 0.72 
-0.478933 0.236504 0.74 
-0.456471 0.243535 0.762 
-0.43145 0.249608 0.781 
-0.408199 0.257917 0.807 
-0.383442 0.266866 0.835 
-0.3536 0.273897 0.857 
-0.323171 0.282207 0.883 
-0.290637 0.290836 0.91 
-0.255859 0.299785 0.938 
-0.222768 0.314806 0.985 
-0.184219 0.32791 1.026 
-0.141581 0.340374 1.065 
-0.0949628 0.35156 1.1 
-0.0455186 0.366262 1.146 
0.0080346 0.372654 1.166 
0.0592256 0.353797 1.107 
0.105818 0.337817 1.057 
0.148629 0.323755 1.013 
0.188844 0.309693 0.969 
0.22435 0.296909 0.929 
0.254032 0.280289 0.877 
0.296927 0.282207 0.883 
0.342295 0.285723 0.894 
0.369792 0.275176 0.861 
0.396592 0.266227 0.833 
0.424442 0.259515 0.812 
0.443502 0.248969 0.779 
0.463797 0.240659 0.753 
0.482993 0.232989 0.729 
0.504207 0.227236 0.711 
0.519209 0.219565 0.687 
0.53438 0.212854 0.666 
0.551839 0.20774 0.65 
0.56512 0.201668 0.631 
0.576629 0.195595 0.612 
0.594277 0.19208 0.601 
-0.536029 0.222238 0.692 
-0.517607 0.22834 0.711 
-0.494006 0.232837 0.725 
-0.479519 0.244398 0.761 
-0.448133 0.246646 0.768 
-0.424148 0.253712 0.79 
-0.399093 0.261419 0.814 
-0.374462 0.271054 0.844 
-0.343858 0.278119 0.866 
-0.315409 0.289038 0.9 
-0.278625 0.294498 0.917 
-0.243858 0.304454 0.948 
-0.210624 0.321154 1 
-0.171886 0.336569 1.048 
-0.125504 0.343313 1.069 
-0.0786511 0.356802 1.111 
-0.0282213 0.374787 1.167 
0.0256122 0.366758 1.142 
0.0760106 0.35359 1.101 
0.120621 0.334964 1.043 
0.162993 0.319548 0.995 
0.201585 0.307665 0.958 
0.232825 0.287433 0.895 
0.265953 0.27844 0.867 
0.317671 0.288717 0.899 
0.352774 0.283258 0.882 
0.378701 0.272338 0.848 
0.406469 0.263025 0.819 
0.432156 0.255638 0.796 
0.45334 0.246967 0.769 
0.472008 0.238296 0.742 
0.491573 0.231231 0.72 
0.509087 0.224165 0.698 
0.527653 0.218385 0.68 
0.541252 0.211319 0.658 
0.556276 0.205538 0.64 
0.570538 0.200079 0.623 
0.583215 0.194619 0.606 
-0.553464 0.220409 0.683 
-0.530794 0.224282 0.695 
-0.511308 0.23009 0.713 
-0.488133 0.234931 0.728 
-0.469442 0.245258 0.76 
-0.439729 0.248485 0.77 
-0.415378 0.255584 0.792 
-0.389931 0.263329 0.816 
-0.365697 0.273656 0.848 
-0.338479 0.283983 0.88 
-0.304223 0.290437 0.9 
-0.269268 0.298182 0.924 
-0.234523 0.309154 0.958 
-0.200375 0.326257 1.011 
-0.161286 0.343361 1.064 
-0.112952 0.347233 1.076 
-0.0650755 0.359819 1.115 
-0.0137632 0.377891 1.171 
0.0390746 0.361755 1.121 
0.0881475 0.34917 1.082 
0.131792 0.332066 1.029 
0.172766 0.319158 0.989 
0.207578 0.3027 0.938 
0.242017 0.288178 0.893 
0.274747 0.279142 0.865 
0.328905 0.291405 0.903 
0.35908 0.282046 0.874 
0.386331 0.269783 0.836 
0.414105 0.262684 0.814 
0.43483 0.25268 0.783 
0.457481 0.245258 0.76 
0.476691 0.23719 0.735 
0.496351 0.230413 0.714 
0.513312 0.223314 0.692 
0.531375 0.217505 0.674 
0.54609 0.211051 0.654 
0.557178 0.203951 0.632 
0.575497 0.200079 0.62 
0.586848 0.19427 0.602 
-0.547635 0.222119 0.685 
-0.525494 0.226334 0.698 
-0.50426 0.231523 0.714 
-0.481535 0.236711 0.73 
-0.461141 0.24579 0.758 
-0.434798 0.250978 0.774 
-0.409332 0.258436 0.797 
-0.384792 0.267191 0.824 
-0.357315 0.275622 0.85 
-0.329283 0.285674 0.881 
-0.29607 0.293456 0.905 
-0.261182 0.301887 0.931 
-0.227379 0.315182 0.972 
-0.190503 0.329774 1.017 
-0.149855 0.345338 1.065 
-0.101814 0.350851 1.082 
-0.0535664 0.365767 1.128 
-0.00102947 0.380358 1.173 
0.0509004 0.360903 1.113 
0.0978835 0.343717 1.06 
0.142615 0.329125 1.015 
0.182065 0.315506 0.973 
0.216665 0.30059 0.927 
0.249192 0.286647 0.884 
0.285468 0.281783 0.869 
0.3361 0.290538 0.896 
0.364368 0.280162 0.864 
0.393531 0.269785 0.832 
0.422958 0.263949 0.814 
0.441081 0.2526 0.779 
0.462683 0.244817 0.755 
0.480069 0.236062 0.728 
0.501998 0.23055 0.711 
0.517074 0.222767 0.687 
0.53311 0.216282 0.667 
0.548974 0.210446 0.649 
0.563159 0.204609 0.631 
0.575666 0.198772 0.613 
0.591424 0.194557 0.6 
-0.5452 0.224812 0.69 
-0.524192 0.2297 0.705 
-0.500392 0.233935 0.718 
-0.477981 0.239474 0.735 
-0.456454 0.247619 0.76 
-0.432109 0.254136 0.78 
-0.406681 0.261955 0.804 
-0.382065 0.271078 0.832 
-0.351949 0.27792 0.853 
-0.323537 0.28802 0.884 
-0.290637 0.296492 0.91 
-0.255586 0.305289 0.937 
-0.221411 0.318973 0.979 
-0.184219 0.334286 1.026 
-0.14105 0.34569 1.061 
-0.0944449 0.356442 1.094 
-0.0452406 0.371103 1.139 
0.00802082 0.379249 1.164 
0.0591721 0.360351 1.106 
0.105217 0.342431 1.051 
0.148042 0.328747 1.009 
0.186759 0.314737 0.966 
0.220987 0.300076 0.921 
0.252957 0.286065 0.878 
0.292877 0.285088 0.875 
0.340143 0.290627 0.892 
0.368503 0.279549 0.858 
0.395164 0.270426 0.83 
0.425487 0.265213 0.814 
0.442363 0.253158 0.777 
0.463797 0.245339 0.753 
0.482134 0.236542 0.726 
0.50318 0.230677 0.708 
0.518762 0.223183 0.685 
0.533004 0.216015 0.663 
0.550297 0.210802 0.647 
0.564306 0.204938 0.629 
0.575692 0.198747 0.61 
0.59323 0.195163 0.599 
-0.540912 0.225884 0.69 
-0.522023 0.231777 0.708 
-0.500074 0.237015 0.724 
-0.474702 0.241271 0.737 
-0.451136 0.248473 0.759 
-0.428905 0.25633 0.783 
-0.404938 0.264514 0.808 
-0.379096 0.273025 0.834 
-0.350013 0.280882 0.858 
-0.321584 0.291358 0.89 
-0.287025 0.29856 0.912 
-0.252292 0.308054 0.941 
-0.217291 0.321149 0.981 
-0.180136 0.33719 1.03 
-0.135976 0.347011 1.06 
-0.089509 0.358796 1.096 
-0.0400368 0.373855 1.142 
0.0132961 0.376801 1.151 
0.0641528 0.361088 1.103 
0.109592 0.342428 1.046 
0.152442 0.32966 1.007 
0.190271 0.314601 0.961 
0.222834 0.298233 0.911 
0.254812 0.286447 0.875 
0.296272 0.287102 0.877 
0.342146 0.291358 0.89 
0.369405 0.280555 0.857 
0.395976 0.271389 0.829 
0.426439 0.265496 0.811 
0.445465 0.253383 0.774 
0.465366 0.244872 0.748 
0.48733 0.23636 0.722 
0.506551 0.229813 0.702 
0.522371 0.222611 0.68 
0.535325 0.215081 0.657 
0.553027 0.210171 0.642 
0.566606 0.204278 0.624 
0.579463 0.198713 0.607 
-0.555965 0.22268 0.677 
-0.528813 0.227285 0.691 
-0.51026 0.233535 0.71 
-0.489936 0.239784 0.729 
-0.471046 0.248336 0.755 
-0.443937 0.252941 0.769 
-0.418708 0.25952 0.789 
-0.394034 0.267743 0.814 
-0.367904 0.276624 0.841 
-0.341212 0.287149 0.873 
-0.308783 0.295043 0.897 
-0.273224 0.301951 0.918 
-0.237716 0.311489 0.947 
-0.204205 0.328593 0.999 
-0.166478 0.347013 1.055 
-0.11875 0.351289 1.068 
-0.0714883 0.364117 1.107 
-0.020825 0.381221 1.159 
0.0323943 0.372011 1.131 
0.0815737 0.356552 1.084 
0.125762 0.339448 1.032 
0.167462 0.326949 0.994 
0.203855 0.309516 0.941 
0.23508 0.293728 0.893 
0.268027 0.284518 0.865 
0.319395 0.294714 0.896 
0.354306 0.289123 0.879 
0.377738 0.276295 0.84 
0.406746 0.268729 0.817 
0.430938 0.258862 0.787 
0.454548 0.251626 0.765 
0.472263 0.242416 0.737 
0.494132 0.23485 0.714 
0.511161 0.227614 0.692 
0.528495 0.221365 0.673 
0.543226 0.214786 0.653 
0.555214 0.207879 0.632 
0.572645 0.203603 0.619 
0.583034 0.197353 0.6 
-0.553212 0.226046 0.684 
-0.524075 0.231003 0.699 
-0.501338 0.235629 0.713 
-0.479266 0.241247 0.73 
-0.457575 0.24984 0.756 
-0.434628 0.25711 0.778 
-0.408094 0.263389 0.797 
-0.383977 0.272643 0.825 
-0.355157 0.280244 0.848 
-0.327914 0.291149 0.881 
-0.29499 0.299411 0.906 
-0.260573 0.308665 0.934 
-0.224475 0.31924 0.966 
-0.18818 0.334772 1.013 
-0.147365 0.349974 1.059 
-0.100133 0.357575 1.082 
-0.0518138 0.372777 1.128 
0.000788257 0.385335 1.166 
0.0523933 0.366167 1.108 
0.100605 0.348322 1.054 
0.144334 0.335764 1.016 
0.181501 0.317918 0.962 
0.216929 0.304699 0.922 
0.248628 0.29148 0.882 
0.284483 0.286192 0.866 
0.33535 0.295446 0.894 
0.36479 0.285862 0.865 
0.389066 0.273634 0.828 
0.420428 0.269007 0.814 
0.439948 0.25678 0.777 
0.46207 0.249179 0.754 
0.479409 0.240256 0.727 
0.49988 0.233977 0.708 
0.516322 0.226707 0.686 
0.530712 0.219436 0.664 
0.546436 0.213487 0.646 
0.562351 0.207869 0.629 
0.573797 0.20159 0.61 
0.588407 0.196964 0.596 
-0.539058 0.228768 0.689 
-0.519451 0.234413 0.706 
-0.499638 0.240721 0.725 
-0.472914 0.244374 0.736 
-0.446412 0.250682 0.755 
-0.424713 0.259647 0.782 
-0.402165 0.268944 0.81 
-0.375208 0.276913 0.834 
-0.348434 0.286874 0.864 
-0.318506 0.296502 0.893 
-0.283704 0.303807 0.915 
-0.248696 0.313436 0.944 
-0.211201 0.323397 0.974 
-0.174144 0.339666 1.023 
-0.127621 0.351619 1.059 
-0.0809949 0.363904 1.096 
-0.0312199 0.379842 1.144 
0.0220057 0.378182 1.139 
0.0718642 0.361912 1.09 
0.116817 0.344647 1.038 
0.159628 0.333026 1.003 
0.195268 0.315096 0.949 
0.227134 0.298827 0.9 
0.259217 0.28787 0.867 
0.304812 0.29285 0.882 
0.346707 0.293514 0.884 
0.372113 0.281561 0.848 
0.398532 0.272596 0.821 
0.425627 0.265624 0.8 
0.446752 0.255663 0.77 
0.465718 0.246698 0.743 
0.486208 0.239725 0.722 
0.50546 0.233085 0.702 
0.521314 0.22578 0.68 
0.535118 0.218475 0.658 
0.55203 0.213163 0.642 
0.565637 0.207186 0.624 
0.579472 0.201874 0.608 
-16.6264 5.67025 16.998 
-0.533705 0.229839 0.689 
-0.515423 0.236177 0.708 
-0.495369 0.242515 0.727 
-0.47037 0.247185 0.741 
-0.44348 0.252189 0.756 
-0.421606 0.261196 0.783 
-0.398882 0.270536 0.811 
-0.371321 0.278208 0.834 
-0.346001 0.28955 0.868 
-0.314344 0.29789 0.893 
-0.28005 0.305896 0.917 
-0.244813 0.31557 0.946 
-0.206873 0.325244 0.975 
-0.16921 0.340922 1.022 
-0.124565 0.353932 1.061 
-0.0775892 0.365607 1.096 
-0.0277135 0.382286 1.146 
0.0254776 0.378951 1.136 
0.074906 0.361938 1.085 
0.119349 0.344258 1.032 
0.161772 0.332583 0.997 
0.197172 0.314903 0.944 
0.22942 0.299558 0.898 
0.261307 0.28855 0.865 
0.308599 0.295221 0.885 
0.348268 0.293887 0.881 
0.373423 0.281878 0.845 
0.400106 0.273205 0.819 
0.425062 0.264198 0.792 
0.447978 0.256192 0.768 
0.466137 0.246852 0.74 
0.485745 0.239513 0.718 
0.505472 0.233175 0.699 
0.521888 0.226169 0.678 
0.53553 0.218831 0.656 
0.552299 0.213493 0.64 
0.565757 0.207489 0.622 
0.578493 0.201818 0.605 
-16.0414 5.50496 16.426 
-0.534 0.230574 0.688 
-0.515064 0.236607 0.706 
-0.495816 0.243309 0.726 
-0.470885 0.248001 0.74 
-0.444066 0.253028 0.755 
-0.42039 0.262412 0.783 
-0.397131 0.271461 0.81 
-0.370025 0.279504 0.834 
-0.344653 0.290899 0.868 
-0.312956 0.299277 0.893 
-0.278625 0.307321 0.917 
-0.243344 0.31704 0.946 
-0.204937 0.326088 0.973 
-0.167458 0.342175 1.021 
-0.123032 0.355915 1.062 
-0.0758864 0.36731 1.096 
-0.0259556 0.384402 1.147 
0.0271707 0.37971 1.133 
0.0764506 0.362953 1.083 
0.120601 0.344856 1.029 
0.162502 0.332456 0.992 
0.198218 0.315699 0.942 
0.230558 0.300618 0.897 
0.262348 0.289558 0.864 
0.310324 0.296931 0.886 
0.349637 0.295256 0.881 
0.373848 0.28252 0.843 
0.400889 0.274142 0.818 
0.424525 0.265093 0.791 
0.447978 0.257385 0.768 
0.466137 0.248001 0.74 
0.485069 0.240293 0.717 
0.504749 0.233926 0.698 
0.521118 0.226888 0.677 
0.53553 0.21985 0.656 
0.551436 0.214153 0.639 
0.565757 0.208455 0.622 
0.578493 0.202758 0.605 
-16.6264 5.72307 16.998 
-0.533223 0.231306 0.687 
-0.515064 0.237704 0.706 
-0.495816 0.244437 0.726 
-0.470885 0.249151 0.74 
-0.44465 0.253865 0.754 
-0.422283 0.263292 0.782 
-0.399155 0.272383 0.809 
-0.37217 0.280463 0.833 
-0.346549 0.291574 0.866 
-0.315378 0.300328 0.892 
-0.281782 0.309082 0.918 
-0.246023 0.318173 0.945 
-0.206464 0.325243 0.966 
-0.169795 0.342078 1.016 
-0.125976 0.356555 1.059 
-0.079075 0.368003 1.093 
-0.0294425 0.385174 1.144 
0.0236709 0.381807 1.134 
0.0731528 0.364973 1.084 
0.117631 0.347128 1.031 
0.159901 0.335007 0.995 
0.195498 0.317499 0.943 
0.228533 0.303022 0.9 
0.259663 0.290901 0.864 
0.305836 0.296624 0.881 
0.347293 0.296961 0.882 
0.372981 0.284167 0.844 
0.399129 0.275076 0.817 
0.424367 0.266996 0.793 
0.446785 0.258578 0.768 
0.465616 0.249488 0.741 
0.483955 0.241407 0.717 
0.504026 0.234673 0.697 
0.520348 0.227603 0.676 
0.53553 0.220869 0.656 
0.551436 0.215145 0.639 
0.565757 0.209422 0.622 
0.578493 0.203698 0.605 
-17.0986 5.90338 17.453 
-0.534083 0.231359 0.684 
-0.516886 0.238124 0.704 
-0.497824 0.244889 0.724 
-0.47177 0.248948 0.736 
-0.448164 0.255036 0.754 
-0.426166 0.263154 0.778 
-0.402934 0.271948 0.804 
-0.377277 0.280743 0.83 
-0.350829 0.29089 0.86 
-0.321584 0.301037 0.89 
-0.288913 0.310508 0.918 
-0.25256 0.318626 0.942 
-0.21264 0.324715 0.96 
-0.176638 0.341627 1.01 
-0.133695 0.356848 1.055 
-0.0870852 0.367672 1.087 
-0.0380615 0.384246 1.136 
0.0148878 0.384246 1.136 
0.0650902 0.368686 1.09 
0.110473 0.351436 1.039 
0.152936 0.338244 1 
0.188971 0.320317 0.947 
0.226489 0.305435 0.903 
0.257275 0.292581 0.865 
0.30241 0.297317 0.879 
0.345334 0.299008 0.884 
0.370359 0.286493 0.847 
0.396289 0.277022 0.819 
0.422792 0.269581 0.797 
0.444359 0.260448 0.77 
0.46528 0.25233 0.746 
0.481283 0.242859 0.718 
0.501845 0.236771 0.7 
0.518438 0.229668 0.679 
0.533073 0.222565 0.658 
0.548321 0.216476 0.64 
0.563698 0.211064 0.624 
0.577583 0.205653 0.608 
-18.7106 6.44869 18.978 
-0.539669 0.232082 0.683 
-0.520474 0.237859 0.7 
-0.499695 0.243635 0.717 
-0.47473 0.248053 0.73 
-0.455193 0.256208 0.754 
-0.429988 0.263004 0.774 
-0.404599 0.270139 0.795 
-0.381876 0.280673 0.826 
-0.353769 0.289168 0.851 
-0.325545 0.299702 0.882 
-0.29411 0.309896 0.912 
-0.258774 0.318731 0.938 
-0.21918 0.324847 0.956 
-0.183571 0.341497 1.005 
-0.141756 0.358147 1.054 
-0.0951779 0.368001 1.083 
-0.0463911 0.381933 1.124 
0.00786923 0.388049 1.142 
0.0584766 0.371399 1.093 
0.104316 0.35407 1.042 
0.147162 0.340817 1.003 
0.183472 0.322468 0.949 
0.218587 0.309556 0.911 
0.250447 0.296983 0.874 
0.290185 0.295964 0.871 
0.339137 0.30344 0.893 
0.364131 0.290187 0.854 
0.388328 0.278974 0.821 
0.41932 0.274217 0.807 
0.43825 0.263004 0.774 
0.46207 0.256208 0.754 
0.47875 0.246693 0.726 
0.497762 0.239558 0.705 
0.514816 0.232422 0.684 
0.529114 0.224946 0.662 
0.543052 0.21815 0.642 
0.559589 0.213053 0.627 
0.57191 0.206937 0.609 
0.584524 0.2015 0.593 
-0.550281 0.233143 0.683 
-0.526037 0.236557 0.693 
-0.505135 0.242018 0.709 
-0.482742 0.24748 0.725 
-0.463192 0.255331 0.748 
-0.440926 0.262841 0.77 
-0.413452 0.268302 0.786 
-0.388322 0.276495 0.81 
-0.362686 0.286053 0.838 
-0.33444 0.295611 0.866 
-0.303923 0.30551 0.895 
-0.269531 0.314044 0.92 
-0.233794 0.323943 0.949 
-0.195953 0.334866 0.981 
-0.160831 0.362174 1.061 
-0.113582 0.369343 1.082 
-0.0642584 0.375828 1.101 
-0.0135399 0.393237 1.152 
0.0387958 0.379924 1.113 
0.0869255 0.364222 1.067 
0.129743 0.345789 1.013 
0.168399 0.329063 0.964 
0.206471 0.318481 0.933 
0.239242 0.304827 0.893 
0.270172 0.293221 0.859 
0.321044 0.303462 0.889 
0.35351 0.295952 0.867 
0.378856 0.283663 0.831 
0.408041 0.277178 0.812 
0.430513 0.26762 0.784 
0.452162 0.259086 0.759 
0.469554 0.249528 0.731 
0.488469 0.242018 0.709 
0.506069 0.23485 0.688 
0.52484 0.229047 0.671 
0.539539 0.22222 0.651 
0.55325 0.215734 0.632 
0.567034 0.209931 0.615 
0.580201 0.20447 0.599 
-14.657 5.19604 15.153 
-0.530021 0.235576 0.687 
-0.512498 0.242434 0.707 
-0.491753 0.248606 0.725 
-0.467436 0.25375 0.74 
-0.443475 0.259922 0.758 
-0.421606 0.268495 0.783 
-0.395439 0.275696 0.804 
-0.369985 0.284954 0.831 
-0.344407 0.29627 0.864 
-0.31364 0.305529 0.891 
-0.279745 0.314101 0.916 
-0.244037 0.32336 0.943 
-0.202842 0.327818 0.956 
-0.168713 0.349421 1.019 
-0.126451 0.364508 1.063 
-0.078858 0.373767 1.09 
-0.029391 0.391598 1.142 
0.0235874 0.387483 1.13 
0.0731528 0.371709 1.084 
0.116947 0.351478 1.025 
0.159175 0.33639 0.981 
0.196128 0.321988 0.939 
0.229676 0.308272 0.899 
0.260401 0.295584 0.862 
0.305461 0.300385 0.876 
0.345896 0.300042 0.875 
0.372097 0.288726 0.842 
0.399129 0.280154 0.817 
0.422761 0.270895 0.79 
0.44504 0.262323 0.765 
0.463731 0.253064 0.738 
0.479905 0.243806 0.711 
0.500056 0.237633 0.693 
0.51853 0.231461 0.675 
0.533696 0.224603 0.655 
0.549581 0.218774 0.638 
0.56479 0.213287 0.622 
0.576599 0.207115 0.604 
-16.7988 5.90644 17.147 
-0.53118 0.235266 0.683 
-0.515429 0.242844 0.705 
-0.49489 0.249044 0.723 
-0.470121 0.253866 0.737 
-0.447004 0.260411 0.756 
-0.424838 0.268678 0.78 
-0.397945 0.275223 0.799 
-0.374247 0.285557 0.829 
-0.348562 0.296579 0.861 
-0.317386 0.305191 0.886 
-0.285126 0.31518 0.915 
-0.248838 0.323447 0.939 
-0.208346 0.328614 0.954 
-0.173672 0.348248 1.011 
-0.131159 0.365471 1.061 
-0.0835534 0.373738 1.085 
-0.0345923 0.391994 1.138 
0.0183367 0.389583 1.131 
0.0681631 0.373738 1.085 
0.112716 0.354793 1.03 
0.154015 0.339981 0.987 
0.191305 0.325169 0.944 
0.225086 0.311046 0.903 
0.255932 0.297957 0.865 
0.298989 0.300713 0.873 
0.343182 0.303813 0.882 
0.367735 0.290723 0.844 
0.395017 0.282112 0.819 
0.419967 0.2735 0.794 
0.442012 0.264545 0.768 
0.462877 0.256278 0.744 
0.476824 0.245599 0.713 
0.497896 0.239743 0.696 
0.515859 0.233199 0.677 
0.531242 0.22631 0.657 
0.546472 0.220109 0.639 
0.561827 0.214598 0.623 
0.574742 0.208742 0.606 
0.589057 0.20392 0.592 
-0.537031 0.235635 0.681 
-0.520129 0.242555 0.701 
-0.497886 0.247745 0.716 
-0.473595 0.252589 0.73 
-0.452817 0.260202 0.752 
-0.428877 0.267122 0.772 
-0.402564 0.273696 0.791 
-0.380489 0.284768 0.823 
-0.354184 0.294803 0.852 
-0.322223 0.302069 0.873 
-0.29282 0.31418 0.908 
-0.257119 0.322484 0.932 
-0.218493 0.32975 0.953 
-0.183206 0.347051 1.003 
-0.143938 0.366081 1.058 
-0.0963239 0.372656 1.077 
-0.0479661 0.387534 1.12 
0.00431685 0.3948 1.141 
0.0550803 0.378192 1.093 
0.100884 0.359853 1.04 
0.14304 0.344629 0.996 
0.181094 0.329404 0.952 
0.21552 0.314872 0.91 
0.248581 0.303453 0.877 
0.287174 0.299647 0.866 
0.33775 0.308989 0.893 
0.362426 0.294111 0.85 
0.388801 0.284422 0.822 
0.416722 0.277502 0.802 
0.436551 0.266776 0.771 
0.458393 0.258817 0.748 
0.476771 0.250167 0.723 
0.495644 0.242901 0.702 
0.513311 0.235981 0.682 
0.527515 0.228368 0.66 
0.541361 0.221448 0.64 
0.558697 0.216604 0.626 
0.57191 0.210722 0.609 
0.583539 0.20484 0.592 
-0.543118 0.23704 0.682 
-0.522576 0.242254 0.697 
-0.499932 0.24712 0.711 
-0.47664 0.252333 0.726 
-0.456219 0.25998 0.748 
-0.432621 0.266931 0.768 
-0.407158 0.273882 0.788 
-0.384062 0.283962 0.817 
-0.358686 0.294389 0.847 
-0.325613 0.300297 0.864 
-0.297892 0.313505 0.902 
-0.261806 0.320804 0.923 
-0.225422 0.330536 0.951 
-0.189664 0.346176 0.996 
-0.152157 0.367725 1.058 
-0.104496 0.373634 1.075 
-0.0560596 0.385104 1.108 
-0.00455883 0.397616 1.144 
0.0470583 0.383713 1.104 
0.0935189 0.36425 1.048 
0.136118 0.348262 1.002 
0.174975 0.333316 0.959 
0.210054 0.318718 0.917 
0.245628 0.309682 0.891 
0.275878 0.297517 0.856 
0.330072 0.309682 0.891 
0.358256 0.29856 0.859 
0.383456 0.287437 0.827 
0.412308 0.280834 0.808 
0.43344 0.269016 0.774 
0.454957 0.260675 0.75 
0.476675 0.253028 0.728 
0.493774 0.244687 0.704 
0.51088 0.237388 0.683 
0.526028 0.230089 0.662 
0.54006 0.223138 0.642 
0.557554 0.218272 0.628 
0.570006 0.212015 0.61 
0.58176 0.206107 0.593 
-0.547356 0.2381 0.682 
-0.523236 0.242638 0.695 
-0.501435 0.247875 0.71 
-0.478236 0.253112 0.725 
-0.457318 0.260444 0.746 
-0.434441 0.267775 0.767 
-0.409607 0.275107 0.788 
-0.385181 0.284184 0.814 
-0.360038 0.294657 0.844 
-0.327538 0.300941 0.862 
-0.300028 0.314208 0.9 
-0.263814 0.32119 0.92 
-0.227656 0.330966 0.948 
-0.191792 0.345978 0.991 
-0.155151 0.368671 1.056 
-0.107535 0.374257 1.072 
-0.0591803 0.38473 1.102 
-0.00811365 0.399393 1.144 
0.0438254 0.387174 1.109 
0.0904347 0.366576 1.05 
0.133269 0.350517 1.004 
0.172534 0.335853 0.962 
0.207882 0.32119 0.92 
0.243132 0.311415 0.892 
0.272579 0.298149 0.854 
0.325467 0.30932 0.886 
0.356414 0.300592 0.861 
0.381347 0.289071 0.828 
0.409797 0.282089 0.808 
0.430845 0.271615 0.778 
0.452666 0.262538 0.752 
0.474097 0.255207 0.731 
0.49079 0.246479 0.706 
0.508119 0.239147 0.685 
0.525068 0.232514 0.666 
0.540245 0.225881 0.647 
0.555415 0.219946 0.63 
0.567143 0.213312 0.611 
0.580025 0.207726 0.595 
-0.548416 0.239159 0.682 
-0.52496 0.243017 0.693 
-0.504034 0.248628 0.709 
-0.481616 0.254238 0.725 
-0.458942 0.260551 0.743 
-0.436874 0.268265 0.765 
-0.413804 0.276682 0.789 
-0.387064 0.284046 0.81 
-0.362247 0.294566 0.84 
-0.331171 0.30193 0.861 
-0.303209 0.314554 0.897 
-0.267519 0.321918 0.918 
-0.231096 0.331036 0.944 
-0.192511 0.34331 0.979 
-0.157682 0.368558 1.051 
-0.110246 0.373818 1.066 
-0.0623206 0.384689 1.097 
-0.0116685 0.401171 1.144 
0.0405614 0.390651 1.114 
0.087504 0.36961 1.054 
0.130539 0.353128 1.007 
0.169544 0.337348 0.962 
0.205692 0.323672 0.923 
0.24063 0.313152 0.893 
0.269926 0.299475 0.854 
0.319161 0.308593 0.88 
0.352401 0.30193 0.861 
0.378856 0.29141 0.831 
0.407539 0.284396 0.811 
0.428317 0.273526 0.78 
0.449779 0.264759 0.755 
0.470196 0.256693 0.732 
0.488189 0.247926 0.707 
0.506401 0.240913 0.687 
0.523531 0.23425 0.668 
0.539721 0.227938 0.65 
0.553355 0.221275 0.631 
0.565219 0.214612 0.612 
0.579192 0.209352 0.597 
-0.549654 0.238458 0.677 
-0.527282 0.242685 0.689 
-0.507385 0.248673 0.706 
-0.486576 0.255013 0.724 
-0.462837 0.260648 0.74 
-0.440501 0.268045 0.761 
-0.419401 0.277555 0.788 
-0.389957 0.282839 0.803 
-0.366577 0.29411 0.835 
-0.336683 0.302211 0.858 
-0.30914 0.314891 0.894 
-0.273155 0.321584 0.913 
-0.236661 0.330037 0.937 
-0.197518 0.337786 0.959 
-0.164584 0.367373 1.043 
-0.117638 0.372657 1.058 
-0.0702613 0.383223 1.088 
-0.0205555 0.402948 1.144 
0.0321652 0.395551 1.123 
0.0801439 0.375122 1.065 
0.123203 0.356102 1.011 
0.16325 0.341308 0.969 
0.199597 0.326867 0.928 
0.233169 0.313835 0.891 
0.264928 0.301154 0.855 
0.311553 0.307847 0.874 
0.347453 0.30362 0.862 
0.374591 0.293405 0.833 
0.403987 0.286713 0.814 
0.425098 0.275794 0.783 
0.445677 0.266284 0.756 
0.465647 0.25783 0.732 
0.483796 0.249025 0.707 
0.503593 0.242685 0.689 
0.520157 0.23564 0.669 
0.536505 0.2293 0.651 
0.551175 0.22296 0.633 
0.56325 0.216268 0.614 
0.579337 0.211689 0.601 
-0.553123 0.237387 0.671 
-0.53118 0.241632 0.683 
-0.515429 0.249416 0.705 
-0.493521 0.255076 0.721 
-0.46757 0.259322 0.733 
-0.445821 0.266751 0.754 
-0.427017 0.277364 0.784 
-0.396451 0.28161 0.796 
-0.372441 0.291869 0.825 
-0.346133 0.302483 0.855 
-0.315595 0.311681 0.881 
-0.28201 0.320172 0.905 
-0.247247 0.330078 0.933 
-0.208783 0.338215 0.956 
-0.175389 0.36121 1.021 
-0.132932 0.375716 1.062 
-0.0845321 0.380668 1.076 
-0.0361687 0.40048 1.132 
0.0165208 0.398711 1.127 
0.0658646 0.380315 1.075 
0.110685 0.362979 1.026 
0.152018 0.348121 0.984 
0.188833 0.3322 0.939 
0.222196 0.317342 0.897 
0.255193 0.303544 0.858 
0.297937 0.306374 0.866 
0.341036 0.308851 0.873 
0.36686 0.296822 0.839 
0.396773 0.2901 0.82 
0.418549 0.279133 0.789 
0.439166 0.269227 0.761 
0.459043 0.260383 0.736 
0.47525 0.250831 0.709 
0.494675 0.244109 0.69 
0.513857 0.238095 0.673 
0.529833 0.231373 0.654 
0.544894 0.225005 0.636 
0.560084 0.219344 0.62 
0.573783 0.213684 0.604 
-0.559789 0.237719 0.669 
-0.538089 0.241983 0.681 
-0.520474 0.248734 0.7 
-0.49621 0.252998 0.712 
-0.473429 0.258684 0.728 
-0.452778 0.266501 0.75 
-0.430634 0.274674 0.773 
-0.404303 0.281425 0.792 
-0.379912 0.291019 0.819 
-0.355091 0.30239 0.851 
-0.322097 0.308786 0.869 
-0.29261 0.320867 0.903 
-0.256347 0.328329 0.924 
-0.219281 0.337568 0.95 
-0.184948 0.356756 1.004 
-0.143258 0.374168 1.053 
-0.0952506 0.378431 1.065 
-0.0476663 0.395488 1.113 
0.0043055 0.404371 1.138 
0.0546771 0.385538 1.085 
0.100787 0.369193 1.039 
0.142178 0.351781 0.99 
0.180713 0.337568 0.95 
0.212204 0.31838 0.896 
0.247949 0.309141 0.87 
0.282199 0.30239 0.851 
0.333968 0.313761 0.883 
0.360256 0.301324 0.848 
0.387052 0.29173 0.821 
0.412368 0.282846 0.796 
0.433659 0.272897 0.768 
0.452952 0.263303 0.741 
0.471946 0.253709 0.714 
0.491074 0.246602 0.694 
0.511354 0.240917 0.678 
0.526939 0.23381 0.658 
0.541508 0.227059 0.639 
0.556093 0.221018 0.622 
0.570034 0.215333 0.606 
0.582484 0.209648 0.59 
-0.547097 0.243755 0.683 
-0.522807 0.247324 0.693 
-0.500415 0.25232 0.707 
-0.478702 0.258387 0.724 
-0.457247 0.265525 0.744 
-0.433929 0.272663 0.764 
-0.411352 0.281585 0.789 
-0.385971 0.29015 0.813 
-0.360493 0.3005 0.842 
-0.327351 0.30621 0.858 
-0.301426 0.3212 0.9 
-0.264667 0.327624 0.918 
-0.227196 0.335475 0.94 
-0.192746 0.352606 0.988 
-0.153377 0.368666 1.033 
-0.107877 0.377945 1.059 
-0.0602846 0.389365 1.091 
-0.00989105 0.40828 1.144 
0.0421403 0.396146 1.11 
0.0885496 0.373662 1.047 
0.131316 0.357245 1.001 
0.170861 0.34297 0.961 
0.204209 0.324768 0.91 
0.239307 0.315132 0.883 
0.2703 0.303712 0.851 
0.3198 0.313348 0.878 
0.352096 0.305853 0.857 
0.378774 0.295504 0.828 
0.405774 0.287295 0.805 
0.427326 0.276945 0.776 
0.446771 0.266953 0.748 
0.47069 0.260885 0.731 
0.489288 0.25232 0.707 
0.505991 0.244469 0.685 
0.523784 0.238045 0.667 
0.537403 0.23055 0.646 
0.552579 0.224483 0.629 
0.565244 0.218059 0.611 
0.579147 0.212705 0.596 
-0.549893 0.242307 0.676 
-0.526819 0.24625 0.687 
-0.507042 0.252343 0.704 
-0.487027 0.259154 0.723 
-0.458942 0.266322 0.743 
-0.43459 0.272774 0.761 
-0.41328 0.282452 0.788 
-0.387542 0.290697 0.811 
-0.361815 0.300733 0.839 
