# .PCD v.7 - Point Cloud Data file format
VERSION .7
FIELDS x y z
SIZE 4 4 4
TYPE F F F
COUNT 1 1 1
WIDTH 1943
HEIGHT 1
VIEWPOINT 0 0 0 1 0 0 0
POINTS 1943
DATA ascii
-0.375622 0.126249 0.586 
-0.36079 0.130773 0.607 
-0.342357 0.134651 0.625 
-0.322247 0.138529 0.643 
-0.300913 0.142622 0.662 
-0.279032 0.147362 0.684 
-0.251847 0.150163 0.697 
-0.223766 0.153179 0.711 
-0.197597 0.158781 0.737 
-0.16834 0.163736 0.76 
-0.137113 0.168906 0.784 
-0.105317 0.176878 0.821 
-0.0692552 0.182695 0.848 
-0.0312371 0.191959 0.891 
0.0107316 0.200145 0.929 
0.0568243 0.210487 0.977 
0.107182 0.220397 1.023 
0.167883 0.238925 1.109 
0.230464 0.250774 1.164 
0.299884 0.264132 1.226 
0.380034 0.281151 1.305 
0.468899 0.299033 1.388 
2.10749 1.17631 5.46 
2.29147 1.14119 5.297 
2.56616 1.15369 5.355 
2.86308 1.17308 5.445 
3.21533 1.21014 5.617 
3.50748 1.22069 5.666 
3.707 1.19979 5.569 
3.80418 1.15067 5.341 
4.66477 1.32432 6.147 
4.44786 1.18967 5.522 
4.32286 1.091 5.064 
4.74344 1.13516 5.269 
5.96131 1.34974 6.265 
-0.436715 0.117394 0.541 
-0.420626 0.119998 0.553 
-0.404847 0.123036 0.567 
-0.386427 0.12564 0.579 
-0.370614 0.129546 0.597 
-0.351975 0.133018 0.613 
-0.331393 0.136707 0.63 
-0.312096 0.141264 0.651 
-0.290409 0.145604 0.671 
-0.268402 0.150812 0.695 
-0.235668 0.150595 0.694 
-0.210059 0.155586 0.717 
-0.183044 0.161228 0.743 
-0.153806 0.167086 0.77 
-0.122204 0.173162 0.798 
-0.088631 0.18054 0.832 
-0.0521281 0.188786 0.87 
-0.0121626 0.198334 0.914 
0.0315049 0.205278 0.946 
0.0795939 0.216127 0.996 
0.133356 0.228713 1.054 
0.194776 0.24412 1.125 
0.264353 0.261045 1.203 
0.337471 0.274933 1.267 
0.420312 0.291425 1.343 
0.508439 0.306831 1.414 
2.20791 1.17503 5.415 
2.34944 1.12208 5.171 
2.70518 1.17177 5.4 
3.04942 1.20845 5.569 
3.34702 1.22233 5.633 
3.57882 1.21192 5.585 
3.78483 1.19478 5.506 
4.44224 1.31326 6.052 
4.55493 1.26617 5.835 
4.87074 1.27767 5.888 
4.34649 1.07934 4.974 
5.47025 1.28526 5.923 
5.80897 1.2972 5.978 
-0.426261 0.119546 0.547 
-0.411022 0.122606 0.561 
-0.393792 0.125447 0.574 
-0.375351 0.128288 0.587 
-0.356661 0.132878 0.608 
-0.336634 0.13703 0.627 
-0.317705 0.14162 0.648 
-0.294157 0.144898 0.663 
-0.273181 0.150362 0.688 
-0.242865 0.151455 0.693 
-0.216641 0.155825 0.713 
-0.190096 0.161508 0.739 
-0.160706 0.166753 0.763 
-0.129735 0.172872 0.791 
-0.0967404 0.180084 0.824 
-0.0605989 0.187078 0.856 
-0.0218371 0.19735 0.903 
0.0210146 0.20478 0.937 
0.0684855 0.216801 0.992 
0.119811 0.226417 1.036 
0.180756 0.243464 1.114 
0.245838 0.257232 1.177 
0.319093 0.272968 1.249 
0.397247 0.287392 1.315 
0.489923 0.307061 1.405 
2.18771 1.20005 5.491 
2.27142 1.11547 5.104 
2.61158 1.16093 5.312 
2.96359 1.20333 5.506 
3.31381 1.2383 5.666 
3.55706 1.23109 5.633 
3.72333 1.20005 5.491 
4.25393 1.28288 5.87 
4.58229 1.2984 5.941 
4.71607 1.26015 5.766 
4.38325 1.09821 5.025 
5.43954 1.28288 5.87 
-0.440077 0.119076 0.541 
-0.421762 0.121057 0.55 
-0.40621 0.124138 0.564 
-0.389352 0.127219 0.578 
-0.369687 0.131401 0.597 
-0.351023 0.134923 0.613 
-0.331393 0.138665 0.63 
-0.311617 0.143067 0.65 
-0.289976 0.147469 0.67 
-0.267629 0.152531 0.693 
-0.235328 0.152531 0.693 
-0.209473 0.157373 0.715 
-0.18189 0.163536 0.743 
-0.152412 0.169259 0.769 
-0.120813 0.175422 0.797 
-0.0874433 0.183346 0.833 
-0.0506597 0.191049 0.868 
-0.0107073 0.200514 0.911 
0.0329398 0.207997 0.945 
0.0810599 0.219002 0.995 
0.134225 0.230668 1.048 
0.196349 0.247395 1.124 
0.265115 0.263683 1.198 
0.33944 0.27887 1.267 
0.42177 0.295158 1.341 
0.510636 0.311225 1.414 
2.25596 1.20858 5.491 
2.37832 1.14431 5.199 
2.7144 1.18525 5.385 
3.08434 1.2328 5.601 
3.4141 1.25811 5.716 
3.65863 1.25062 5.682 
3.85649 1.22927 5.585 
4.53107 1.35297 6.147 
4.55974 1.28056 5.818 
5.07254 1.34461 6.109 
4.48383 1.11746 5.077 
5.67401 1.33206 6.052 
-0.435874 0.119916 0.541 
-0.419665 0.122798 0.554 
-0.403796 0.125901 0.568 
-0.385293 0.128561 0.58 
-0.364411 0.132772 0.599 
-0.346603 0.136762 0.617 
-0.327632 0.140973 0.636 
-0.306421 0.144963 0.654 
-0.285221 0.14984 0.676 
-0.261218 0.154273 0.696 
-0.228449 0.154051 0.695 
-0.203953 0.160258 0.723 
-0.176377 0.166021 0.749 
-0.14581 0.171119 0.772 
-0.114237 0.17799 0.803 
-0.0802519 0.18597 0.839 
-0.0426662 0.192841 0.87 
-0.00221979 0.202372 0.913 
0.0419259 0.210352 0.949 
0.0906077 0.221213 0.998 
0.145231 0.234291 1.057 
0.211914 0.253132 1.142 
0.281627 0.268869 1.213 
0.35768 0.284385 1.283 
0.441235 0.300566 1.356 
0.530107 0.31586 1.425 
2.33992 1.2344 5.569 
2.43985 1.1586 5.227 
2.80311 1.21024 5.46 
3.19144 1.26322 5.699 
3.52926 1.2896 5.818 
3.74426 1.27053 5.732 
3.88616 1.23086 5.553 
4.70706 1.39777 6.306 
4.48074 1.25236 5.65 
5.45276 1.43944 6.494 
5.20345 1.28561 5.8 
6.14953 1.44431 6.516 
-0.430785 0.12098 0.542 
-0.414893 0.124551 0.558 
-0.397944 0.127453 0.571 
-0.378483 0.129908 0.582 
-0.358068 0.134819 0.604 
-0.341386 0.139506 0.625 
-0.319749 0.142854 0.64 
-0.299884 0.147765 0.662 
-0.277562 0.152452 0.683 
-0.248966 0.154461 0.692 
-0.221409 0.15781 0.707 
-0.194586 0.162943 0.73 
-0.166279 0.168747 0.756 
-0.135722 0.174773 0.783 
-0.104042 0.183255 0.821 
-0.0680979 0.189729 0.85 
-0.0296183 0.197318 0.884 
0.0121356 0.206693 0.926 
0.0578646 0.216291 0.969 
0.107708 0.226112 1.013 
0.170402 0.246201 1.103 
0.23388 0.259593 1.163 
0.304436 0.274325 1.229 
0.3835 0.290843 1.303 
0.472531 0.309369 1.386 
2.1303 1.22208 5.475 
2.28353 1.16984 5.241 
2.52106 1.16672 5.227 
2.9969 1.26471 5.666 
3.32833 1.29082 5.783 
3.60845 1.29462 5.8 
3.72431 1.24306 5.569 
4.10048 1.27944 5.732 
4.68388 1.37207 6.147 
4.60814 1.27207 5.699 
4.85924 1.26828 5.682 
6.10951 1.49417 6.694 
6.62585 1.54171 6.907 
-0.423711 0.122946 0.547 
-0.409135 0.126317 0.562 
-0.392479 0.129464 0.576 
-0.371846 0.133959 0.596 
-0.352148 0.137106 0.61 
-0.333268 0.141152 0.628 
-0.313194 0.145422 0.647 
-0.290911 0.149468 0.665 
-0.268905 0.154637 0.688 
-0.237526 0.155087 0.69 
-0.211912 0.160032 0.712 
-0.18475 0.165426 0.736 
-0.156373 0.171944 0.765 
-0.124819 0.177788 0.791 
-0.0920642 0.186104 0.828 
-0.0555374 0.193297 0.86 
-0.0148058 0.202737 0.902 
0.0283539 0.211053 0.939 
0.0759613 0.222291 0.989 
0.127859 0.232855 1.036 
0.191827 0.251286 1.118 
0.258556 0.266345 1.185 
0.333385 0.282978 1.259 
0.415423 0.299835 1.334 
0.503736 0.316243 1.407 
2.24905 1.24452 5.537 
2.32918 1.15618 5.144 
2.70428 1.2171 5.415 
2.99818 1.23418 5.491 
3.42716 1.29981 5.783 
3.70758 1.30363 5.8 
3.94294 1.29217 5.749 
4.41892 1.356 6.033 
4.67129 1.34768 5.996 
5.17287 1.40814 6.265 
5.00987 1.26609 5.633 
5.71796 1.37308 6.109 
8.97507 2.05299 9.134 
-0.423785 0.123569 0.546 
-0.409279 0.126964 0.561 
-0.392691 0.130133 0.575 
-0.372146 0.134659 0.595 
-0.351938 0.137601 0.608 
-0.333268 0.142127 0.628 
-0.313194 0.146427 0.647 
-0.290911 0.150501 0.665 
-0.268514 0.15548 0.687 
-0.237526 0.156159 0.69 
-0.211615 0.160912 0.711 
-0.184248 0.166117 0.734 
-0.156373 0.173133 0.765 
-0.124661 0.178791 0.79 
-0.0920642 0.187391 0.828 
-0.0554728 0.194407 0.859 
-0.014773 0.203686 0.9 
0.0283237 0.212286 0.938 
0.0758077 0.223375 0.987 
0.127736 0.234239 1.035 
0.18992 0.252797 1.117 
0.256065 0.267507 1.182 
0.330375 0.284028 1.255 
0.412421 0.301229 1.331 
0.500481 0.31775 1.404 
2.23438 1.24972 5.522 
2.31532 1.16123 5.131 
2.71081 1.2323 5.445 
2.98965 1.24271 5.491 
3.43886 1.31671 5.818 
3.72088 1.32056 5.835 
3.95727 1.30879 5.783 
4.39639 1.3613 6.015 
4.70552 1.36967 6.052 
5.17962 1.42241 6.285 
5.39634 1.3613 6.015 
6.23258 1.4946 6.604 
8.7598 2.00178 8.845 
-0.419961 0.125557 0.551 
-0.404296 0.128747 0.565 
-0.386658 0.13171 0.578 
-0.365675 0.135583 0.595 
-0.348165 0.139685 0.613 
-0.329499 0.144015 0.632 
-0.307637 0.14766 0.648 
-0.286853 0.152674 0.67 
-0.264399 0.157915 0.693 
-0.231763 0.157687 0.692 
-0.20614 0.162928 0.715 
-0.179581 0.169308 0.743 
-0.149632 0.174777 0.767 
-0.118336 0.181613 0.797 
-0.0848549 0.189817 0.833 
-0.0477967 0.197109 0.865 
-0.00780736 0.205768 0.903 
0.0358762 0.215338 0.945 
0.0839825 0.226276 0.993 
0.136301 0.236758 1.039 
0.199842 0.256127 1.124 
0.266145 0.270255 1.186 
0.342835 0.288257 1.265 
0.425937 0.305575 1.341 
0.513573 0.321298 1.41 
2.33006 1.28747 5.65 
2.39925 1.19108 5.227 
2.73794 1.23392 5.415 
3.06654 1.26537 5.553 
3.47328 1.32165 5.8 
3.81204 1.34581 5.906 
4.0624 1.3376 5.87 
4.45641 1.37475 6.033 
4.65123 1.34968 5.923 
5.58783 1.53061 6.717 
5.65956 1.42761 6.265 
6.56146 1.57391 6.907 
-0.435068 0.123889 0.54 
-0.419008 0.126642 0.552 
-0.403253 0.129854 0.566 
-0.385528 0.132837 0.579 
-0.368448 0.136508 0.595 
-0.349877 0.140179 0.611 
-0.331393 0.144538 0.63 
-0.310178 0.148438 0.647 
-0.288245 0.152797 0.666 
-0.266084 0.158074 0.689 
-0.23431 0.158303 0.69 
-0.208887 0.16358 0.713 
-0.181566 0.169086 0.737 
-0.153007 0.175739 0.766 
-0.121438 0.181934 0.793 
-0.0884179 0.190423 0.83 
-0.0515888 0.197535 0.861 
-0.0119763 0.206482 0.9 
0.0313384 0.215889 0.941 
0.0786349 0.225754 0.984 
0.130952 0.237455 1.035 
0.19565 0.256956 1.12 
0.261574 0.27118 1.182 
0.337029 0.288616 1.258 
0.419882 0.306282 1.335 
0.508108 0.322801 1.407 
2.299 1.28868 5.617 
2.38301 1.1992 5.227 
2.74372 1.25266 5.46 
3.01524 1.25977 5.491 
3.46598 1.33479 5.818 
3.81617 1.36301 5.941 
4.09308 1.36301 5.941 
4.38397 1.36737 5.96 
4.68992 1.37563 5.996 
5.49153 1.52017 6.626 
5.60627 1.42381 6.206 
6.65551 1.60735 7.006 
-0.435907 0.124728 0.54 
-0.41633 0.127731 0.553 
-0.400442 0.130965 0.567 
-0.383249 0.134198 0.581 
-0.364751 0.137432 0.595 
-0.347213 0.14159 0.613 
-0.327997 0.145747 0.631 
-0.306631 0.149674 0.648 
-0.285385 0.154525 0.669 
-0.262942 0.159837 0.692 
-0.230688 0.159837 0.692 
-0.205029 0.16515 0.715 
-0.178427 0.171617 0.743 
-0.14844 0.17716 0.767 
-0.117392 0.184552 0.799 
-0.083661 0.192636 0.834 
-0.0463991 0.199565 0.864 
-0.00640439 0.208574 0.903 
0.037384 0.218506 0.946 
0.085267 0.228669 0.99 
0.137384 0.239063 1.035 
0.212004 0.261699 1.133 
0.280473 0.277174 1.2 
0.357991 0.29496 1.277 
0.441053 0.31159 1.349 
0.528959 0.327065 1.416 
2.364 1.29001 5.585 
2.52329 1.24035 5.37 
2.8929 1.29371 5.601 
3.24687 1.33182 5.766 
3.65586 1.38495 5.996 
3.91171 1.37663 5.96 
4.24082 1.39349 6.033 
4.71091 1.4517 6.285 
4.57711 1.3279 5.749 
5.84207 1.60114 6.932 
6.10925 1.54086 6.671 
7.55485 1.81318 7.85 
-0.42999 0.1258 0.541 
-0.410687 0.12952 0.557 
-0.394395 0.132776 0.571 
-0.376154 0.135799 0.584 
-0.358494 0.139519 0.6 
-0.341545 0.14417 0.62 
-0.320211 0.147658 0.635 
-0.300682 0.152774 0.657 
-0.279513 0.158122 0.68 
-0.250733 0.159982 0.688 
-0.222162 0.16254 0.699 
-0.195819 0.167888 0.722 
-0.168455 0.174399 0.75 
-0.137769 0.17998 0.774 
-0.107737 0.190676 0.82 
-0.0716359 0.19649 0.845 
-0.0332806 0.202768 0.872 
0.00774353 0.213232 0.917 
0.0524121 0.221371 0.952 
0.102072 0.233462 1.004 
0.155541 0.243926 1.049 
0.232673 0.26904 1.157 
0.302702 0.284154 1.222 
0.382323 0.302059 1.299 
0.468439 0.319499 1.374 
2.10695 1.25916 5.415 
2.32057 1.23847 5.326 
2.69373 1.29869 5.585 
3.02334 1.32915 5.716 
3.4302 1.38589 5.96 
3.80069 1.42054 6.109 
3.97309 1.38147 5.941 
4.43957 1.44309 6.206 
4.82027 1.471 6.326 
4.83374 1.39008 5.978 
5.67473 1.51006 6.494 
5.97742 1.51006 6.494 
7.87673 1.89397 8.145 
-0.428259 0.126875 0.542 
-0.408824 0.13062 0.558 
-0.393106 0.134131 0.573 
-0.374711 0.137174 0.586 
-0.35629 0.140686 0.601 
-0.338655 0.145133 0.62 
-0.317751 0.148879 0.636 
-0.298525 0.154263 0.659 
-0.276343 0.159178 0.68 
-0.247167 0.160817 0.687 
-0.219843 0.164328 0.702 
-0.192454 0.16901 0.722 
-0.166059 0.176735 0.755 
-0.134509 0.181651 0.776 
-0.104168 0.192419 0.822 
-0.0678575 0.198271 0.847 
-0.0293167 0.204825 0.875 
0.012057 0.215359 0.92 
0.0570285 0.223552 0.955 
0.107177 0.235959 1.008 
0.161348 0.246961 1.055 
0.232472 0.270603 1.156 
0.301959 0.285351 1.219 
0.382323 0.304077 1.299 
0.467758 0.321166 1.372 
2.10111 1.26406 5.4 
2.3271 1.25025 5.341 
2.71688 1.31861 5.633 
3.01435 1.33406 5.699 
3.4302 1.39515 5.96 
3.82434 1.43893 6.147 
4.00987 1.40358 5.996 
4.46747 1.46187 6.245 
4.82027 1.48083 6.326 
4.84829 1.40358 5.996 
5.63879 1.50517 6.43 
5.9782 1.51524 6.473 
7.90204 1.90663 8.145 
-0.426518 0.127952 0.543 
-0.408957 0.131251 0.557 
-0.392008 0.135257 0.574 
-0.373526 0.13832 0.587 
-0.354422 0.141619 0.601 
-0.336729 0.146096 0.62 
-0.316271 0.150102 0.637 
-0.296928 0.155522 0.66 
-0.27423 0.160235 0.68 
-0.244675 0.161649 0.686 
-0.218282 0.16589 0.704 
-0.19021 0.170132 0.722 
-0.164581 0.17885 0.759 
-0.132438 0.183328 0.778 
-0.101738 0.193931 0.823 
-0.0653796 0.200058 0.849 
-0.0266586 0.206656 0.877 
0.014932 0.217024 0.921 
0.0601845 0.225743 0.958 
0.110747 0.238467 1.012 
0.165094 0.249307 1.058 
0.234471 0.272635 1.157 
0.304102 0.28748 1.22 
0.384933 0.306567 1.301 
0.469204 0.322826 1.37 
2.12378 1.27599 5.415 
2.32439 1.24818 5.297 
2.76643 1.34291 5.699 
3.02301 1.3389 5.682 
3.42731 1.39569 5.923 
3.84344 1.44848 6.147 
4.06612 1.42609 6.052 
4.50124 1.47628 6.265 
4.80856 1.48099 6.285 
4.95865 1.43952 6.109 
5.64878 1.51516 6.43 
6.06875 1.5458 6.56 
7.78448 1.88771 8.011 
-0.423987 0.128796 0.543 
-0.406223 0.132354 0.558 
-0.388005 0.136623 0.576 
-0.369935 0.139944 0.59 
-0.351141 0.143502 0.605 
-0.33255 0.147771 0.623 
-0.312769 0.152278 0.642 
-0.291216 0.156785 0.661 
-0.268285 0.161529 0.681 
-0.23828 0.162715 0.686 
-0.213824 0.168644 0.711 
-0.184242 0.171965 0.725 
-0.15958 0.182402 0.769 
-0.126151 0.185959 0.784 
-0.0941799 0.195447 0.824 
-0.0577359 0.202326 0.853 
-0.0186307 0.209679 0.884 
0.0236453 0.219641 0.926 
0.0695479 0.228654 0.964 
0.121487 0.242649 1.023 
0.17843 0.255931 1.079 
0.24674 0.276093 1.164 
0.31832 0.291985 1.231 
0.401639 0.312146 1.316 
0.485845 0.327564 1.381 
2.1863 1.29152 5.445 
2.3675 1.25309 5.283 
2.84429 1.36362 5.749 
2.96392 1.29863 5.475 
3.45136 1.39232 5.87 
3.92549 1.46728 6.186 
4.24039 1.47653 6.225 
4.40463 1.43549 6.052 
4.74557 1.45352 6.128 
5.211 1.50547 6.347 
5.67875 1.52515 6.43 
6.26668 1.59868 6.74 
7.48497 1.81832 7.666 
-0.423143 0.12964 0.543 
-0.408091 0.132982 0.557 
-0.389118 0.137279 0.575 
-0.371139 0.140622 0.589 
-0.352438 0.144203 0.604 
-0.333412 0.148262 0.621 
-0.313293 0.152559 0.639 
-0.293269 0.157812 0.661 
-0.270401 0.162587 0.681 
-0.240062 0.163542 0.685 
-0.215122 0.169033 0.708 
-0.18598 0.172614 0.723 
-0.161759 0.183358 0.768 
-0.128423 0.186939 0.783 
-0.0965056 0.19625 0.822 
-0.0602449 0.203174 0.851 
-0.0213292 0.210575 0.882 
0.0206782 0.220125 0.922 
0.0664834 0.229913 0.963 
0.117845 0.243283 1.019 
0.172805 0.254265 1.065 
0.241452 0.275991 1.156 
0.313217 0.292704 1.226 
0.398076 0.312997 1.311 
0.481948 0.328516 1.376 
2.15497 1.2964 5.43 
2.34908 1.26464 5.297 
2.85131 1.38903 5.818 
3.0232 1.34486 5.633 
3.45491 1.4141 5.923 
3.94642 1.49575 6.265 
4.23843 1.49575 6.265 
4.50152 1.4862 6.225 
4.79167 1.4862 6.225 
5.08182 1.4862 6.225 
5.80276 1.57143 6.582 
6.32211 1.6261 6.811 
7.44381 1.82307 7.636 
-0.425788 0.130003 0.541 
-0.410197 0.133126 0.554 
-0.389333 0.137932 0.574 
-0.371422 0.141297 0.588 
-0.352791 0.144901 0.603 
-0.333839 0.148986 0.62 
-0.313794 0.153312 0.638 
-0.293851 0.158598 0.66 
-0.271459 0.163645 0.681 
-0.241126 0.164606 0.685 
-0.215611 0.169652 0.706 
-0.187104 0.173737 0.723 
-0.16197 0.184791 0.769 
-0.128423 0.188155 0.783 
-0.0962708 0.197046 0.82 
-0.0601741 0.204255 0.85 
-0.021305 0.211705 0.881 
0.0235942 0.222038 0.924 
0.0694758 0.231409 0.963 
0.121131 0.245107 1.02 
0.176776 0.256881 1.069 
0.244832 0.277547 1.155 
0.320753 0.296291 1.233 
0.401843 0.314794 1.31 
0.487284 0.331374 1.379 
2.18028 1.30483 5.43 
2.37377 1.27287 5.297 
2.91306 1.41489 5.888 
2.99749 1.33054 5.537 
3.48252 1.4233 5.923 
4.02765 1.52519 6.347 
4.30919 1.52014 6.326 
4.47377 1.47713 6.147 
4.77499 1.48169 6.166 
5.16009 1.51029 6.285 
5.96321 1.62539 6.764 
6.43443 1.66576 6.932 
7.35705 1.81355 7.547 
-0.425788 0.130843 0.541 
-0.410197 0.133987 0.554 
-0.391734 0.138099 0.571 
-0.374072 0.141485 0.585 
-0.355104 0.144871 0.599 
-0.334802 0.14995 0.62 
-0.314291 0.154061 0.637 
-0.29443 0.159382 0.659 
-0.272117 0.164461 0.68 
-0.24219 0.16567 0.685 
-0.215787 0.170024 0.703 
-0.188227 0.174861 0.723 
-0.16197 0.185986 0.769 
-0.128423 0.189372 0.783 
-0.096036 0.197837 0.818 
-0.0601033 0.205334 0.849 
-0.0212809 0.212832 0.88 
0.0206333 0.222506 0.92 
0.0664144 0.232664 0.962 
0.117383 0.245482 1.015 
0.171994 0.256365 1.06 
0.238946 0.276681 1.144 
0.313217 0.296513 1.226 
0.391206 0.313201 1.295 
0.476672 0.330615 1.367 
2.14653 1.31327 5.43 
2.34748 1.28473 5.312 
2.87647 1.42404 5.888 
3.09472 1.39864 5.783 
3.47771 1.4458 5.978 
4.00078 1.53989 6.367 
4.31172 1.54496 6.388 
4.59431 1.53989 6.367 
4.84422 1.52513 6.306 
5.02407 1.49127 6.166 
6.50814 1.80447 7.461 
6.25862 1.64727 6.811 
7.54932 1.89106 7.819 
-0.429238 0.131197 0.539 
-0.413112 0.134118 0.551 
-0.394459 0.137769 0.566 
-0.378483 0.141663 0.582 
-0.359808 0.145071 0.596 
-0.340941 0.148966 0.612 
-0.318219 0.154077 0.633 
-0.298749 0.159432 0.655 
-0.276818 0.164544 0.676 
-0.249301 0.167221 0.687 
-0.220443 0.169655 0.697 
-0.194967 0.175984 0.723 
-0.166621 0.181826 0.747 
-0.133475 0.189128 0.777 
-0.101514 0.197404 0.811 
-0.0663059 0.205436 0.844 
-0.0279573 0.212982 0.875 
0.0148834 0.223448 0.918 
0.0599961 0.232455 0.955 
0.110309 0.245355 1.008 
0.163846 0.255578 1.05 
0.235924 0.276998 1.138 
0.311058 0.298175 1.225 
0.386489 0.313023 1.286 
0.47316 0.331765 1.363 
2.14653 1.3217 5.43 
2.34748 1.29298 5.312 
2.90236 1.44609 5.941 
3.12255 1.42029 5.835 
3.49923 1.4641 6.015 
4.02717 1.56 6.409 
4.32589 1.56 6.409 
4.63977 1.56511 6.43 
4.89108 1.54978 6.367 
5.04037 1.50572 6.186 
6.3138 1.74937 7.187 
6.66626 1.73647 7.134 
6.89773 1.7114 7.031 
-0.422425 0.132524 0.541 
-0.406754 0.135709 0.554 
-0.389754 0.140118 0.572 
-0.37198 0.143547 0.586 
-0.353489 0.147222 0.601 
-0.33105 0.152366 0.622 
-0.311771 0.157265 0.642 
-0.288871 0.161185 0.658 
-0.26762 0.167064 0.682 
-0.236523 0.167554 0.684 
-0.211822 0.173433 0.708 
-0.183368 0.177842 0.726 
-0.155002 0.18862 0.77 
-0.121897 0.19303 0.788 
-0.0885186 0.200624 0.819 
-0.0523733 0.208707 0.852 
-0.0131072 0.216056 0.882 
0.0309387 0.227569 0.929 
0.0772764 0.236878 0.967 
0.12956 0.250841 1.024 
0.1856 0.262599 1.072 
0.255834 0.281216 1.148 
0.341802 0.307182 1.254 
0.423871 0.325309 1.328 
0.510277 0.341721 1.395 
2.21299 1.30467 5.326 
2.44784 1.29756 5.297 
2.99539 1.44233 5.888 
3.09268 1.36419 5.569 
3.57618 1.45532 5.941 
4.15662 1.56996 6.409 
4.45534 1.56996 6.409 
4.61758 1.52489 6.225 
4.6988 1.45997 5.96 
7.27136 2.06405 8.426 
6.72888 1.76691 7.213 
6.88681 1.72232 7.031 
-0.422484 0.133118 0.54 
-0.405764 0.136816 0.555 
-0.389754 0.141007 0.572 
-0.37198 0.144458 0.586 
-0.353489 0.148156 0.601 
-0.332017 0.153332 0.622 
-0.311794 0.15777 0.64 
-0.289453 0.161961 0.657 
-0.268679 0.168123 0.682 
-0.237586 0.168616 0.684 
-0.21232 0.17404 0.706 
-0.184496 0.17897 0.726 
-0.153606 0.18957 0.769 
-0.120826 0.194501 0.789 
-0.0873527 0.202143 0.82 
-0.0510496 0.210031 0.852 
-0.0117634 0.217919 0.884 
0.0324169 0.229259 0.93 
0.0787788 0.23838 0.967 
0.131408 0.252925 1.026 
0.187265 0.264264 1.072 
0.27234 0.289162 1.173 
0.350153 0.309623 1.256 
0.435703 0.330084 1.339 
0.521179 0.345368 1.401 
2.26465 1.32379 5.37 
2.56412 1.34967 5.475 
3.03198 1.45148 5.888 
3.23792 1.42141 5.766 
3.62466 1.46923 5.96 
4.2102 1.58509 6.43 
4.58565 1.61172 6.538 
4.73181 1.55946 6.326 
4.75015 1.47367 5.978 
7.29754 2.07714 8.426 
6.63922 1.77811 7.213 
7.32647 1.8676 7.576 
-0.42677 0.133461 0.538 
-0.410431 0.136934 0.552 
-0.394459 0.140407 0.566 
-0.377182 0.14388 0.58 
-0.359808 0.147849 0.596 
-0.340941 0.151818 0.612 
-0.318219 0.157028 0.633 
-0.298293 0.162237 0.654 
-0.275999 0.167198 0.674 
-0.248939 0.170175 0.686 
-0.220443 0.172904 0.697 
-0.195506 0.17985 0.725 
-0.166398 0.185059 0.746 
-0.131735 0.193742 0.781 
-0.0987501 0.200688 0.809 
-0.0636078 0.209122 0.843 
-0.0253249 0.217804 0.878 
0.0163274 0.227975 0.919 
0.0615442 0.237154 0.956 
0.111542 0.249309 1.005 
0.165792 0.260969 1.052 
0.231481 0.279078 1.125 
0.321273 0.306365 1.235 
0.392027 0.317032 1.278 
0.483751 0.339606 1.369 
2.20929 1.35446 5.46 
2.35864 1.29666 5.227 
2.99458 1.49213 6.015 
3.03211 1.3815 5.569 
3.5553 1.49213 6.015 
4.21126 1.63825 6.604 
4.40001 1.59508 6.43 
4.68436 1.58987 6.409 
4.98309 1.58987 6.409 
5.17962 1.55911 6.285 
6.31807 1.73797 7.006 
7.26761 1.87937 7.576 
-0.429347 0.133798 0.536 
-0.412466 0.137043 0.549 
-0.397447 0.140787 0.564 
-0.379056 0.143783 0.576 
-0.361992 0.147777 0.592 
-0.343436 0.151771 0.608 
-0.325462 0.156763 0.628 
-0.30468 0.161256 0.646 
-0.280946 0.165001 0.661 
-0.260732 0.17199 0.689 
-0.228286 0.17174 0.688 
-0.203063 0.177731 0.712 
-0.176795 0.18497 0.741 
-0.14581 0.192709 0.772 
-0.114094 0.200197 0.802 
-0.0791998 0.206688 0.828 
-0.0419306 0.213427 0.855 
-0.00218575 0.224411 0.899 
0.0412632 0.233148 0.934 
0.0882472 0.242633 0.972 
0.142621 0.259108 1.038 
0.197811 0.268344 1.075 
0.284811 0.296302 1.187 
0.360483 0.314025 1.258 
0.449524 0.335243 1.343 
0.536527 0.351219 1.407 
2.3535 1.36294 5.46 
2.81243 1.46978 5.888 
3.15345 1.50148 6.015 
3.49832 1.52969 6.128 
3.79568 1.53443 6.147 
4.34186 1.63203 6.538 
4.70914 1.654 6.626 
5.00132 1.64851 6.604 
5.08564 1.57911 6.326 
7.52445 2.16872 8.688 
6.48736 1.77432 7.108 
7.48945 1.93632 7.757 
-0.425098 0.135133 0.538 
-0.409688 0.138398 0.551 
-0.394459 0.142166 0.566 
-0.376532 0.145431 0.579 
-0.359204 0.14945 0.595 
-0.340384 0.153469 0.611 
-0.321605 0.158241 0.63 
-0.301054 0.163013 0.649 
-0.278732 0.167786 0.668 
-0.25538 0.17306 0.689 
-0.224237 0.173814 0.692 
-0.200306 0.181349 0.722 
-0.171501 0.186624 0.743 
-0.14258 0.19441 0.774 
-0.110356 0.201443 0.802 
-0.0756134 0.208727 0.831 
-0.0380785 0.215509 0.858 
0.00201789 0.227315 0.905 
0.0457142 0.235101 0.936 
0.0929686 0.244646 0.974 
0.147885 0.261474 1.041 
0.204142 0.271773 1.082 
0.295634 0.301663 1.201 
0.369179 0.316733 1.261 
0.465484 0.339842 1.353 
2.15358 1.37921 5.491 
2.33097 1.33425 5.312 
2.91982 1.51083 6.015 
3.20018 1.51083 6.015 
3.60206 1.56357 6.225 
3.99412 1.60451 6.388 
4.39265 1.64219 6.538 
4.76061 1.66429 6.626 
5.12148 1.68137 6.694 
5.15183 1.59422 6.347 
7.62578 2.21161 8.805 
6.51109 1.79189 7.134 
7.54971 1.94837 7.757 
-0.423426 0.135969 0.538 
-0.408716 0.139507 0.552 
-0.392701 0.143045 0.566 
-0.37538 0.146583 0.58 
-0.357956 0.150627 0.596 
-0.33904 0.154671 0.612 
-0.319647 0.15922 0.63 
-0.299498 0.164274 0.65 
-0.27707 0.169076 0.669 
-0.252871 0.173878 0.688 
-0.222729 0.175395 0.694 
-0.198611 0.182976 0.724 
-0.16942 0.188031 0.744 
-0.140537 0.196118 0.776 
-0.10773 0.202437 0.801 
-0.073207 0.210524 0.833 
-0.0355363 0.2176 0.861 
0.00485139 0.229732 0.909 
0.0487266 0.237061 0.938 
0.0961923 0.246664 0.976 
0.151265 0.263345 1.042 
0.208655 0.27497 1.088 
0.290589 0.300243 1.188 
0.366347 0.317934 1.258 
0.462355 0.341185 1.35 
0.548235 0.356096 1.409 
2.34152 1.35337 5.355 
2.91047 1.52017 6.015 
3.19084 1.52017 6.015 
3.59239 1.57324 6.225 
3.91996 1.58841 6.285 
4.39724 1.65791 6.56 
4.78258 1.68596 6.671 
5.16453 1.70947 6.764 
5.22622 1.63036 6.451 
7.94223 2.33017 9.22 
6.3725 1.77063 7.006 
7.72859 2.01653 7.979 
-0.419128 0.137313 0.54 
-0.404172 0.140873 0.554 
-0.388594 0.144687 0.569 
-0.371618 0.148502 0.584 
-0.351968 0.15257 0.6 
-0.334262 0.157402 0.619 
-0.313305 0.16147 0.635 
-0.292643 0.166556 0.655 
-0.270517 0.171896 0.676 
-0.240422 0.172913 0.68 
-0.214866 0.177999 0.7 
-0.188227 0.183847 0.723 
-0.160298 0.190713 0.75 
-0.130856 0.199104 0.783 
-0.0973727 0.205461 0.808 
-0.0620764 0.213598 0.84 
-0.0239607 0.223261 0.878 
0.0177166 0.233178 0.917 
0.0629636 0.242841 0.955 
0.112541 0.254284 1 
0.184215 0.270558 1.064 
0.244576 0.283018 1.113 
0.330063 0.313277 1.232 
0.4051 0.327517 1.288 
0.497636 0.350403 1.378 
2.29245 1.42424 5.601 
2.33286 1.30117 5.117 
3.03166 1.53409 6.033 
2.98174 1.38076 5.43 
3.58334 1.52952 6.015 
4.27095 1.69073 6.649 
4.5347 1.67369 6.582 
4.92387 1.70217 6.694 
5.20068 1.69073 6.649 
5.66602 1.73193 6.811 
6.68869 1.91908 7.547 
7.01341 1.9117 7.518 
7.81537 2.02893 7.979 
-0.417312 0.138664 0.542 
-0.402176 0.142246 0.556 
-0.387088 0.146339 0.572 
-0.368618 0.149665 0.585 
-0.34717 0.15427 0.603 
-0.328588 0.158875 0.621 
-0.307846 0.163224 0.638 
-0.285955 0.167829 0.656 
-0.2655 0.174481 0.682 
-0.232994 0.174737 0.683 
-0.207344 0.180109 0.704 
-0.181472 0.187273 0.732 
-0.152587 0.193925 0.758 
-0.121742 0.201344 0.787 
-0.0880863 0.208507 0.815 
-0.0521274 0.21695 0.848 
-0.0131517 0.226416 0.885 
0.0292414 0.235626 0.921 
0.0756173 0.246883 0.965 
0.149502 0.266327 1.041 
0.206013 0.277072 1.083 
0.268571 0.290119 1.134 
0.352606 0.318262 1.244 
0.436003 0.337961 1.321 
0.525825 0.357149 1.396 
2.41388 1.45367 5.682 
2.75934 1.49742 5.853 
3.10623 1.534 5.996 
3.25583 1.47516 5.766 
3.63156 1.51993 5.941 
4.34465 1.68955 6.604 
4.78138 1.73637 6.787 
5.281 1.79879 7.031 
5.54889 1.7796 6.956 
8.14985 2.45143 9.582 
6.3536 1.81184 7.082 
7.4689 2.0247 7.914 
7.9992 2.0664 8.077 
-0.415388 0.140278 0.545 
-0.400003 0.143882 0.559 
-0.383982 0.147742 0.574 
-0.364696 0.150831 0.586 
-0.343622 0.155722 0.605 
-0.325328 0.160612 0.624 
-0.303365 0.164473 0.639 
-0.281287 0.169106 0.657 
-0.258531 0.17657 0.686 
-0.225733 0.1776 0.69 
-0.200025 0.18352 0.713 
-0.173575 0.190984 0.742 
-0.143861 0.197676 0.768 
-0.112145 0.205141 0.797 
-0.0778192 0.212862 0.827 
-0.0405547 0.219812 0.854 
-0.000786367 0.230622 0.896 
0.0425314 0.239374 0.93 
0.0890186 0.248125 0.964 
0.167109 0.270261 1.05 
0.228395 0.285704 1.11 
0.306127 0.312215 1.213 
0.377913 0.325342 1.264 
0.467241 0.347993 1.352 
2.19283 1.43341 5.569 
2.352 1.37473 5.341 
2.97494 1.5724 6.109 
3.19939 1.54332 5.996 
3.62333 1.60741 6.245 
3.92695 1.61255 6.265 
4.43244 1.69415 6.582 
4.83643 1.7289 6.717 
5.27677 1.77162 6.883 
5.28124 1.6715 6.494 
7.88847 2.3402 9.092 
6.4984 1.82954 7.108 
8.1307 2.17804 8.462 
-0.424351 0.138794 0.536 
-0.409799 0.14242 0.55 
-0.393942 0.146045 0.564 
-0.376128 0.149411 0.577 
-0.354846 0.15459 0.597 
-0.33688 0.159251 0.615 
-0.315732 0.163135 0.63 
-0.295458 0.168314 0.65 
-0.271643 0.173752 0.671 
-0.239715 0.175564 0.678 
-0.213945 0.180484 0.697 
-0.186845 0.186958 0.722 
-0.159345 0.194467 0.751 
-0.129308 0.202236 0.781 
-0.0961173 0.209227 0.808 
-0.0607713 0.217514 0.84 
-0.0225194 0.226577 0.875 
0.0190369 0.236158 0.912 
0.0642449 0.246515 0.952 
0.113866 0.258427 0.998 
0.197075 0.27733 1.071 
0.257603 0.289241 1.117 
0.344298 0.319797 1.235 
0.425291 0.338441 1.307 
0.515599 0.358897 1.386 
2.43882 1.49748 5.783 
2.64608 1.46304 5.65 
3.15557 1.58681 6.128 
3.12729 1.44206 5.569 
3.59181 1.52933 5.906 
4.32413 1.71007 6.604 
4.77713 1.76367 6.811 
5.37584 1.86104 7.187 
5.73148 1.86777 7.213 
8.16913 2.46904 9.535 
6.28365 1.795 6.932 
8.06496 2.19119 8.462 
-0.43104 0.139367 0.535 
-0.413417 0.142753 0.548 
-0.397076 0.14614 0.561 
-0.379523 0.149526 0.574 
-0.361373 0.153173 0.588 
-0.339827 0.158904 0.61 
-0.320073 0.163332 0.627 
-0.296651 0.168282 0.646 
-0.275402 0.174534 0.67 
-0.247818 0.177139 0.68 
-0.220255 0.180525 0.693 
-0.194463 0.186777 0.717 
-0.166883 0.19355 0.743 
-0.135714 0.202147 0.776 
-0.102495 0.208138 0.799 
-0.0680301 0.216995 0.833 
-0.0303256 0.225331 0.865 
0.0104659 0.236011 0.906 
0.054556 0.244347 0.938 
0.104518 0.25607 0.983 
0.185169 0.276128 1.06 
0.246305 0.289935 1.113 
0.329822 0.31885 1.224 
0.408049 0.336303 1.291 
0.498326 0.357925 1.374 
2.38491 1.50646 5.783 
2.34876 1.33297 5.117 
3.14749 1.6216 6.225 
2.99862 1.41451 5.43 
3.60203 1.5669 6.015 
4.26256 1.72033 6.604 
4.68111 1.76201 6.764 
5.19361 1.83156 7.031 
5.4051 1.79301 6.883 
8.14899 2.45989 9.443 
6.38338 1.82505 7.006 
8.17527 2.22361 8.536 
-0.428546 0.140198 0.535 
-0.413417 0.143605 0.548 
-0.397076 0.147011 0.561 
-0.379523 0.150418 0.574 
-0.361373 0.154087 0.588 
-0.340602 0.159328 0.608 
-0.321508 0.164045 0.626 
-0.296272 0.168499 0.643 
-0.27332 0.175575 0.67 
-0.244259 0.177147 0.676 
-0.218416 0.181864 0.694 
-0.192235 0.187891 0.717 
-0.164796 0.194967 0.744 
-0.134335 0.20309 0.775 
-0.10138 0.209642 0.8 
-0.0667359 0.218289 0.833 
-0.0289817 0.226675 0.865 
0.0118473 0.236895 0.904 
0.0559537 0.245543 0.937 
0.106369 0.258383 0.986 
0.194681 0.27961 1.067 
0.255409 0.292188 1.115 
0.341548 0.322848 1.232 
0.421317 0.34093 1.301 
0.510852 0.36137 1.379 
2.45015 1.53379 5.853 
2.51222 1.41508 5.4 
3.21689 1.647 6.285 
3.04911 1.4308 5.46 
3.57346 1.54768 5.906 
4.31794 1.73636 6.626 
4.75596 1.78484 6.811 
5.43321 1.91141 7.294 
5.68849 1.88337 7.187 
7.91672 2.38258 9.092 
6.71378 1.91141 7.294 
8.32738 2.25653 8.611 
-0.423559 0.141029 0.535 
-0.409054 0.14472 0.549 
-0.393243 0.14841 0.563 
-0.375476 0.151837 0.576 
-0.356497 0.155264 0.589 
-0.337138 0.161327 0.612 
-0.316177 0.165281 0.627 
-0.287993 0.172925 0.656 
-0.26605 0.178725 0.678 
-0.234794 0.178988 0.679 
-0.209129 0.18426 0.699 
-0.183116 0.191114 0.725 
-0.145137 0.199286 0.756 
-0.114334 0.209567 0.795 
-0.0797086 0.216157 0.82 
-0.0431072 0.224592 0.852 
-0.00354266 0.234345 0.889 
0.0394284 0.243835 0.925 
0.0859339 0.253852 0.963 
0.161193 0.272305 1.033 
0.221703 0.288385 1.094 
0.293883 0.310791 1.179 
0.373394 0.33267 1.262 
0.46167 0.35534 1.348 
0.546679 0.370366 1.405 
2.42971 1.45958 5.537 
2.97467 1.61538 6.128 
3.25019 1.61037 6.109 
3.59106 1.63594 6.206 
3.8078 1.60536 6.09 
4.40743 1.72925 6.56 
4.87629 1.78909 6.787 
5.26608 1.8144 6.883 
8.30904 2.5894 9.823 
6.33159 1.86686 7.082 
8.06419 2.25989 8.573 
8.5013 2.26991 8.611 
-0.416611 0.143186 0.54 
-0.40159 0.146898 0.554 
-0.385942 0.150876 0.569 
-0.368264 0.154588 0.583 
-0.349866 0.158565 0.598 
-0.331685 0.163338 0.616 
-0.310843 0.167581 0.632 
-0.286391 0.17421 0.657 
-0.263943 0.179778 0.678 
-0.232311 0.180574 0.681 
-0.20646 0.185877 0.701 
-0.180232 0.192771 0.727 
-0.141182 0.201521 0.76 
-0.110767 0.211067 0.796 
-0.0760716 0.217961 0.822 
-0.0392738 0.226711 0.855 
0.000602347 0.236257 0.891 
0.043929 0.246333 0.929 
0.0902347 0.254818 0.961 
0.15547 0.272319 1.027 
0.213832 0.286372 1.08 
0.280805 0.304403 1.148 
0.366055 0.333305 1.257 
0.450995 0.353988 1.335 
0.536286 0.369897 1.395 
2.50171 1.53342 5.783 
2.82158 1.56126 5.888 
3.27322 1.65062 6.225 
3.46434 1.60474 6.052 
3.68947 1.58035 5.96 
4.44055 1.76888 6.671 
4.81773 1.79354 6.764 
5.37432 1.87786 7.082 
8.14044 2.56595 9.677 
6.28731 1.87123 7.057 
8.07318 2.28329 8.611 
8.58871 2.31405 8.727 
-0.417575 0.143492 0.538 
-0.402713 0.147226 0.552 
-0.387228 0.151226 0.567 
-0.369709 0.15496 0.581 
-0.352063 0.159228 0.597 
-0.334013 0.164029 0.615 
-0.311802 0.167496 0.628 
-0.289013 0.174964 0.656 
-0.265922 0.180031 0.675 
-0.234102 0.180565 0.677 
-0.20883 0.186166 0.698 
-0.18261 0.192834 0.723 
-0.142599 0.201368 0.755 
-0.113098 0.212037 0.795 
-0.0782433 0.218171 0.818 
-0.0418325 0.227506 0.853 
-0.00215901 0.236841 0.888 
0.0409097 0.246976 0.926 
0.0873393 0.256578 0.962 
0.139186 0.27018 1.013 
0.195971 0.284049 1.065 
0.256911 0.297118 1.114 
0.340716 0.32779 1.229 
0.419374 0.345393 1.295 
0.507518 0.365397 1.37 
2.51468 1.58454 5.941 
2.58719 1.46852 5.506 
3.31023 1.70936 6.409 
3.16297 1.49813 5.617 
3.57904 1.56561 5.87 
4.4394 1.80405 6.764 
4.75467 1.80405 6.764 
5.54965 1.97474 7.404 
5.85097 1.96007 7.349 
6.40536 1.931 7.24 
7.71419 2.20918 8.283 
8.57261 2.33801 8.766 
-0.419302 0.144059 0.537 
-0.404551 0.147815 0.551 
-0.389183 0.151839 0.566 
-0.371135 0.155326 0.579 
-0.353063 0.15935 0.594 
-0.335784 0.164448 0.613 
-0.314228 0.168203 0.627 
-0.292731 0.172764 0.644 
-0.272912 0.17947 0.669 
-0.242453 0.180007 0.671 
-0.217786 0.185641 0.692 
-0.191162 0.191274 0.713 
-0.154678 0.201468 0.751 
-0.123658 0.208175 0.776 
-0.0908703 0.216223 0.806 
-0.0554848 0.225076 0.839 
-0.0170035 0.23366 0.871 
0.0245422 0.24305 0.906 
0.0704561 0.256463 0.956 
0.119587 0.266657 0.994 
0.174765 0.280875 1.047 
0.236591 0.29724 1.108 
0.313469 0.323261 1.205 
0.3908 0.341772 1.274 
0.479864 0.364306 1.358 
2.41315 1.59377 5.941 
2.3233 1.37648 5.131 
3.23266 1.73649 6.473 
3.18601 1.56534 5.835 
3.58658 1.62355 6.052 
4.12372 1.73059 6.451 
4.54442 1.77754 6.626 
5.28322 1.93501 7.213 
5.18002 1.78371 6.649 
8.18394 2.55792 9.535 
6.47632 1.90684 7.108 
8.00097 2.2411 8.354 
-0.425288 0.143814 0.533 
-0.406606 0.147862 0.548 
-0.392189 0.152179 0.564 
-0.373686 0.155417 0.576 
-0.355269 0.159194 0.59 
-0.338324 0.164321 0.609 
-0.317618 0.168908 0.626 
-0.294429 0.172415 0.639 
-0.276242 0.17997 0.667 
-0.248093 0.182129 0.675 
-0.221766 0.186446 0.691 
-0.194496 0.191303 0.709 
-0.16391 0.199667 0.74 
-0.13414 0.206952 0.767 
-0.102238 0.215047 0.797 
-0.0676218 0.223411 0.828 
-0.0301854 0.232315 0.861 
0.0102926 0.24041 0.891 
0.0542652 0.251742 0.933 
0.101734 0.261996 0.971 
0.154562 0.275487 1.021 
0.213238 0.290597 1.077 
0.278358 0.307056 1.138 
0.365473 0.338625 1.255 
0.454373 0.362908 1.345 
0.531672 0.373162 1.383 
2.4839 1.51126 5.601 
3.08018 1.69582 6.285 
3.29906 1.65859 6.147 
3.55233 1.64321 6.09 
3.87209 1.65859 6.147 
4.36426 1.74061 6.451 
4.90792 1.83127 6.787 
5.13497 1.79997 6.671 
7.71983 2.47614 9.177 
6.33159 1.91087 7.082 
8.20905 2.35472 8.727 
8.61582 2.35472 8.727 
-0.412001 0.147899 0.545 
-0.39582 0.151427 0.558 
-0.379089 0.155226 0.572 
-0.361054 0.159025 0.586 
-0.343423 0.163639 0.603 
-0.323683 0.167981 0.619 
-0.303881 0.173137 0.638 
-0.283167 0.178836 0.659 
-0.259347 0.18372 0.677 
-0.228464 0.184263 0.679 
-0.203483 0.190505 0.702 
-0.176114 0.196475 0.724 
-0.14515 0.203531 0.75 
-0.116069 0.214386 0.79 
-0.0813538 0.220084 0.811 
-0.0454861 0.229854 0.847 
-0.00625545 0.239352 0.882 
0.0364751 0.250478 0.923 
0.082597 0.260248 0.959 
0.133137 0.272188 1.003 
0.190827 0.288742 1.064 
0.251493 0.302039 1.113 
0.331963 0.328634 1.211 
0.413746 0.350073 1.29 
0.500689 0.369883 1.363 
2.62749 1.64236 6.052 
2.80525 1.58347 5.835 
3.30399 1.70016 6.265 
3.41003 1.61223 5.941 
3.73287 1.63232 6.015 
4.40621 1.79215 6.604 
4.77827 1.81658 6.694 
5.161 1.84182 6.787 
5.20496 1.73354 6.388 
8.13936 2.55037 9.398 
6.9232 2.04806 7.547 
8.19266 2.30641 8.499 
-0.421976 0.14547 0.533 
-0.402839 0.150383 0.551 
-0.387424 0.154477 0.566 
-0.368698 0.157752 0.578 
-0.351217 0.162119 0.594 
-0.333335 0.167032 0.612 
-0.31228 0.171126 0.627 
-0.291633 0.176311 0.646 
-0.270834 0.182589 0.669 
-0.24001 0.182862 0.67 
-0.215325 0.188593 0.691 
-0.188947 0.194597 0.713 
-0.161111 0.202785 0.743 
-0.130565 0.209336 0.767 
-0.0984 0.21725 0.796 
-0.0637624 0.225984 0.828 
-0.026233 0.235537 0.863 
0.0144294 0.242906 0.89 
0.0588652 0.255733 0.937 
0.106916 0.26665 0.977 
0.159477 0.278932 1.022 
0.219677 0.295854 1.084 
0.288648 0.31605 1.158 
0.371027 0.342251 1.254 
0.46304 0.368998 1.352 
0.540453 0.379097 1.389 
2.47272 1.5112 5.537 
3.13029 1.73227 6.347 
3.32842 1.68287 6.166 
3.53782 1.64657 6.033 
3.96589 1.70989 6.265 
4.38431 1.76066 6.451 
4.87817 1.83326 6.717 
5.17348 1.82698 6.694 
6.10182 2.02076 7.404 
7.99587 2.49292 9.134 
7.66272 2.26066 8.283 
8.36751 2.35018 8.611 
-0.417633 0.147397 0.537 
-0.400865 0.151788 0.553 
-0.384585 0.155631 0.567 
-0.366369 0.159199 0.58 
-0.349281 0.163865 0.597 
-0.33007 0.168257 0.613 
-0.309859 0.172923 0.63 
-0.289399 0.178413 0.65 
-0.267872 0.184452 0.672 
-0.236198 0.184177 0.671 
-0.211641 0.190216 0.693 
-0.185292 0.196529 0.716 
-0.158285 0.204763 0.746 
-0.127156 0.210802 0.768 
-0.0948088 0.218762 0.797 
-0.0601202 0.228094 0.831 
-0.022262 0.237426 0.865 
0.0186403 0.245112 0.893 
0.0636375 0.258836 0.943 
0.111927 0.269266 0.981 
0.165526 0.282716 1.03 
0.226181 0.299459 1.091 
0.311127 0.32828 1.196 
0.38988 0.348866 1.271 
0.485119 0.371922 1.355 
2.6817 1.76492 6.43 
2.34201 1.38641 5.051 
3.3699 1.81268 6.604 
3.01557 1.48632 5.415 
3.55342 1.61615 5.888 
4.41232 1.86291 6.787 
4.66386 1.83738 6.694 
5.28361 1.95101 7.108 
5.67733 1.9727 7.187 
7.80538 2.51892 9.177 
6.55344 1.99466 7.267 
8.16683 2.36356 8.611 
8.38411 2.31278 8.426 
-0.41302 0.149887 0.543 
-0.395976 0.153752 0.557 
-0.379314 0.157616 0.571 
-0.360729 0.161205 0.584 
-0.343217 0.165897 0.601 
-0.323596 0.170314 0.617 
-0.303917 0.175558 0.636 
-0.283329 0.181355 0.657 
-0.25858 0.186324 0.675 
-0.227455 0.1866 0.676 
-0.203193 0.193501 0.701 
-0.175384 0.199021 0.721 
-0.147087 0.206474 0.748 
-0.117024 0.215307 0.78 
-0.0834602 0.22276 0.807 
-0.0477772 0.232146 0.841 
-0.00894514 0.242083 0.877 
0.0334613 0.253676 0.919 
0.0791189 0.263061 0.953 
0.128594 0.273827 0.992 
0.18664 0.292321 1.059 
0.260372 0.307503 1.114 
0.343626 0.336487 1.219 
0.441108 0.36547 1.324 
0.51801 0.376512 1.364 
2.69292 1.71832 6.225 
2.66871 1.53724 5.569 
3.30477 1.73488 6.285 
3.25254 1.56843 5.682 
3.71176 1.65511 5.996 
4.4259 1.83536 6.649 
4.70376 1.82294 6.604 
5.15045 1.87345 6.787 
5.91948 2.02858 7.349 
8.16366 2.6066 9.443 
7.0514 2.13265 7.726 
8.08302 2.32587 8.426 
-0.423692 0.1474 0.531 
-0.408709 0.151008 0.544 
-0.393923 0.155172 0.559 
-0.377081 0.159058 0.573 
-0.358323 0.162667 0.586 
-0.340047 0.167108 0.602 
-0.320798 0.171827 0.619 
-0.300907 0.177102 0.638 
-0.280096 0.182931 0.659 
-0.254385 0.187372 0.675 
-0.225896 0.189871 0.684 
-0.198553 0.194312 0.7 
-0.17114 0.200419 0.722 
-0.142629 0.207914 0.749 
-0.112895 0.217907 0.785 
-0.0786393 0.224569 0.809 
-0.042753 0.234563 0.845 
-0.00351078 0.244556 0.881 
0.039471 0.257047 0.926 
0.08522 0.265097 0.955 
0.13571 0.277311 0.999 
0.195786 0.295354 1.064 
0.270234 0.310622 1.119 
0.35802 0.3431 1.236 
0.454426 0.371691 1.339 
0.531119 0.381962 1.376 
2.67952 1.70106 6.128 
2.78177 1.59586 5.749 
3.30224 1.72799 6.225 
3.35751 1.61501 5.818 
3.77463 1.67997 6.052 
4.39724 1.82098 6.56 
4.703 1.82098 6.56 
5.09352 1.85179 6.671 
5.83365 1.99503 7.187 
8.13432 2.62127 9.443 
6.90642 2.11134 7.606 
8.07811 2.34896 8.462 
-0.425342 0.148225 0.531 
-0.410399 0.151854 0.544 
-0.393219 0.155761 0.558 
-0.377081 0.159949 0.573 
-0.358323 0.163577 0.586 
-0.340047 0.168044 0.602 
-0.320798 0.172789 0.619 
-0.300907 0.178093 0.638 
-0.280096 0.183955 0.659 
-0.254385 0.188421 0.675 
-0.225566 0.190654 0.683 
-0.198269 0.195121 0.699 
-0.17114 0.201541 0.722 
-0.141654 0.209357 0.75 
-0.111534 0.218848 0.784 
-0.0773824 0.225826 0.809 
-0.0414402 0.235875 0.845 
-0.00214199 0.245925 0.881 
0.0408214 0.257928 0.924 
0.0867945 0.26686 0.956 
0.137262 0.278863 0.999 
0.195418 0.296449 1.062 
0.270234 0.31236 1.119 
0.359358 0.344462 1.234 
0.452051 0.371818 1.332 
0.54183 0.387171 1.387 
2.61117 1.64359 5.888 
2.98461 1.69998 6.09 
3.31999 1.72678 6.186 
3.4975 1.67374 5.996 
3.89665 1.72678 6.186 
4.37915 1.80689 6.473 
4.72786 1.82503 6.538 
5.17038 1.875 6.717 
6.48523 2.20913 7.914 
8.33943 2.68786 9.629 
7.57263 2.31214 8.283 
8.06055 2.34173 8.389 
-0.422042 0.14905 0.531 
-0.407767 0.152979 0.545 
-0.392186 0.156909 0.559 
-0.375301 0.160839 0.573 
-0.35711 0.164769 0.587 
-0.338176 0.168979 0.602 
-0.31939 0.174032 0.62 
-0.297408 0.179365 0.639 
-0.276419 0.185259 0.66 
-0.250867 0.189189 0.674 
-0.223359 0.192558 0.686 
-0.194453 0.195645 0.697 
-0.16824 0.203224 0.724 
-0.13951 0.210803 0.751 
-0.109237 0.220346 0.785 
-0.0749611 0.227364 0.81 
-0.0377235 0.238592 0.85 
0.00196438 0.247293 0.881 
0.045177 0.259644 0.925 
0.0915368 0.269188 0.959 
0.142487 0.281538 1.003 
0.201501 0.299783 1.068 
0.272459 0.31466 1.121 
0.360982 0.346098 1.233 
0.46969 0.376414 1.341 
2.6708 1.85989 6.626 
2.48318 1.55 5.522 
3.1912 1.80488 6.43 
3.31663 1.71477 6.109 
3.60137 1.71477 6.109 
4.0636 1.79309 6.388 
4.50882 1.85372 6.604 
4.78454 1.84137 6.56 
5.34094 1.93203 6.883 
6.92661 2.35476 8.389 
8.61123 2.77103 9.872 
7.94756 2.42774 8.649 
7.99731 2.32501 8.283 
-0.421184 0.150157 0.532 
-0.406073 0.153826 0.545 
-0.391148 0.15806 0.56 
-0.37352 0.161729 0.573 
-0.355892 0.165963 0.588 
-0.336864 0.170197 0.603 
-0.317975 0.175277 0.621 
-0.293437 0.180358 0.639 
-0.27273 0.186567 0.661 
-0.245946 0.189672 0.672 
-0.219096 0.193623 0.686 
-0.190121 0.196728 0.697 
-0.165097 0.206042 0.73 
-0.135381 0.212816 0.754 
-0.104757 0.222413 0.788 
-0.0702725 0.229751 0.814 
-0.0339205 0.241041 0.854 
0.00608452 0.249227 0.883 
0.0494885 0.261081 0.925 
0.0966074 0.272371 0.965 
0.147895 0.284508 1.008 
0.208412 0.304265 1.078 
0.278157 0.318942 1.13 
0.360396 0.347449 1.231 
0.461366 0.376803 1.335 
0.544377 0.391763 1.388 
2.70918 1.72426 6.109 
2.93854 1.69237 5.996 
3.29906 1.73499 6.147 
3.53956 1.70818 6.052 
3.91889 1.75164 6.206 
4.41836 1.83914 6.516 
4.75396 1.85156 6.56 
5.25332 1.9224 6.811 
6.87176 2.35791 8.354 
8.53797 2.77254 9.823 
7.9564 2.45219 8.688 
7.83876 2.29892 8.145 
-0.422867 0.1507 0.531 
-0.407864 0.154389 0.544 
-0.392352 0.158362 0.558 
-0.375535 0.162336 0.572 
-0.356803 0.166025 0.585 
-0.337985 0.170282 0.6 
-0.320353 0.175958 0.62 
-0.299916 0.181067 0.638 
-0.278225 0.186459 0.657 
-0.254385 0.191567 0.675 
-0.224245 0.192703 0.679 
-0.197418 0.197527 0.696 
-0.170192 0.203771 0.718 
-0.14282 0.212853 0.75 
-0.111889 0.220799 0.778 
-0.0782505 0.228462 0.805 
-0.0424494 0.238111 0.839 
-0.00349086 0.248612 0.876 
0.0390874 0.260248 0.917 
0.0849523 0.270181 0.952 
0.134352 0.280682 0.989 
0.192309 0.299129 1.054 
0.259803 0.317576 1.119 
0.332311 0.338294 1.192 
0.416179 0.362985 1.279 
0.513395 0.386824 1.363 
2.8261 1.87424 6.604 
2.40311 1.43718 5.064 
3.30779 1.8013 6.347 
3.02393 1.51154 5.326 
3.59596 1.6611 5.853 
4.39491 1.88701 6.649 
4.72039 1.89325 6.671 
5.28399 1.98833 7.006 
5.6714 2.0099 7.082 
8.10023 2.69301 9.489 
7.61796 2.40155 8.462 
8.08244 2.42255 8.536 
8.09186 2.31158 8.145 
-0.414094 0.154093 0.54 
-0.397567 0.157517 0.552 
-0.382616 0.162083 0.568 
-0.363038 0.165222 0.579 
-0.345337 0.169788 0.595 
-0.326679 0.174639 0.612 
-0.308384 0.180631 0.633 
-0.286369 0.185482 0.65 
-0.26474 0.19176 0.672 
-0.23307 0.191475 0.671 
-0.208712 0.198038 0.694 
-0.180938 0.203174 0.712 
-0.154185 0.21202 0.743 
-0.123415 0.218869 0.767 
-0.0908653 0.226859 0.795 
-0.0561115 0.236561 0.829 
-0.018167 0.245978 0.862 
0.0229303 0.256251 0.898 
0.0676721 0.267665 0.938 
0.116024 0.278794 0.977 
0.170161 0.293633 1.029 
0.23169 0.311895 1.093 
0.316429 0.339004 1.188 
0.39684 0.361833 1.268 
0.487163 0.384947 1.349 
2.79998 1.93016 6.764 
2.32214 1.43392 5.025 
3.40543 1.91018 6.694 
3.13697 1.60742 5.633 
3.5323 1.6702 5.853 
4.26474 1.87194 6.56 
4.77882 1.95726 6.859 
4.97587 1.91018 6.694 
5.656 2.04316 7.16 
7.31598 2.46805 8.649 
7.94355 2.5354 8.885 
8.13568 2.46805 8.649 
8.14293 2.35363 8.248 
-0.41513 0.154071 0.537 
-0.399545 0.157801 0.55 
-0.384106 0.162105 0.565 
-0.36537 0.165548 0.577 
-0.347862 0.170138 0.593 
-0.326145 0.175303 0.611 
-0.307897 0.181328 0.632 
-0.286369 0.186492 0.65 
-0.264346 0.192517 0.671 
-0.23307 0.192517 0.671 
-0.208712 0.199116 0.694 
-0.180684 0.203994 0.711 
-0.154185 0.213175 0.743 
-0.123254 0.219774 0.766 
-0.0907511 0.227807 0.794 
-0.0561115 0.237849 0.829 
-0.0181249 0.246743 0.86 
0.0229048 0.257359 0.897 
0.0675279 0.268549 0.936 
0.116024 0.280312 0.977 
0.169831 0.294657 1.027 
0.231478 0.313307 1.092 
0.311948 0.339989 1.185 
0.390111 0.361221 1.259 
0.484348 0.386469 1.347 
2.76846 1.94066 6.764 
2.32631 1.44919 5.051 
3.3722 1.90767 6.649 
3.25072 1.68417 5.87 
3.55614 1.69937 5.923 
4.20165 1.8632 6.494 
4.7908 1.98169 6.907 
4.88845 1.89476 6.604 
5.59283 2.03936 7.108 
6.75685 2.31738 8.077 
8.46248 2.74918 9.582 
8.04162 2.48149 8.649 
7.95266 2.33689 8.145 
-0.418619 0.15404 0.534 
-0.402577 0.157502 0.546 
-0.387488 0.161829 0.561 
-0.369713 0.165579 0.574 
-0.351324 0.169617 0.588 
-0.330211 0.175386 0.608 
-0.310313 0.18029 0.625 
-0.288829 0.185194 0.642 
-0.268181 0.191829 0.665 
-0.238969 0.193271 0.67 
-0.213321 0.198464 0.688 
-0.184414 0.201925 0.7 
-0.15981 0.212598 0.737 
-0.129203 0.218945 0.759 
-0.0976583 0.227887 0.79 
-0.0632234 0.236829 0.821 
-0.0259291 0.24606 0.853 
0.0143808 0.255868 0.887 
0.0581114 0.26683 0.925 
0.106588 0.280964 0.974 
0.15776 0.291638 1.011 
0.222586 0.314426 1.09 
0.300471 0.337215 1.169 
0.379857 0.360869 1.251 
0.47665 0.387408 1.343 
2.73693 1.95117 6.764 
2.39753 1.51184 5.241 
3.29559 1.88598 6.538 
3.3327 1.74579 6.052 
3.54694 1.70858 5.923 
4.17801 1.86723 6.473 
4.78007 1.99242 6.907 
4.84569 1.89233 6.56 
6.75046 2.34954 8.145 
8.51323 2.80532 9.725 
7.97443 2.49493 8.649 
7.75959 2.31089 8.011 
-0.420392 0.154 0.531 
-0.404583 0.15748 0.543 
-0.388538 0.16241 0.56 
-0.370202 0.16589 0.572 
-0.35255 0.170241 0.587 
-0.332891 0.175751 0.606 
-0.312186 0.180101 0.621 
-0.290539 0.184742 0.637 
-0.269857 0.191122 0.659 
-0.243132 0.194312 0.67 
-0.215699 0.197792 0.682 
-0.187416 0.201563 0.695 
-0.163275 0.212293 0.732 
-0.133215 0.218964 0.755 
-0.102438 0.228824 0.789 
-0.0678263 0.236365 0.815 
-0.0310471 0.245935 0.848 
0.00878833 0.254926 0.879 
0.0519665 0.266237 0.918 
0.100019 0.281028 0.969 
0.151327 0.292918 1.01 
0.214624 0.31438 1.084 
0.276157 0.327431 1.129 
0.357319 0.355852 1.227 
0.459291 0.387174 1.335 
0.536752 0.398485 1.374 
2.98901 1.95472 6.74 
3.0224 1.77172 6.109 
3.22648 1.72851 5.96 
3.48252 1.71778 5.923 
3.87663 1.77172 6.109 
4.48357 1.9089 6.582 
4.77435 1.90252 6.56 
6.70425 2.33291 8.044 
8.39134 2.76532 9.535 
7.94432 2.48633 8.573 
7.82904 2.33291 8.044 
-0.418619 0.155699 0.534 
-0.400765 0.15949 0.547 
-0.383229 0.164738 0.565 
-0.364474 0.168237 0.577 
-0.346356 0.172611 0.592 
-0.327377 0.177276 0.608 
-0.308383 0.182816 0.627 
-0.287173 0.188064 0.645 
-0.265879 0.194478 0.667 
-0.235494 0.195062 0.669 
-0.210725 0.201185 0.69 
-0.182187 0.205267 0.704 
-0.157011 0.215763 0.74 
-0.126162 0.222178 0.762 
-0.094095 0.230633 0.791 
-0.0595414 0.239964 0.823 
-0.0219532 0.248711 0.853 
0.0185568 0.259207 0.889 
0.0626928 0.27087 0.929 
0.111356 0.284574 0.976 
0.163437 0.296529 1.017 
0.226623 0.316355 1.085 
0.296867 0.338807 1.162 
0.379122 0.365923 1.255 
0.470014 0.38954 1.336 
0.547824 0.400911 1.375 
2.46341 1.57011 5.385 
3.18873 1.84448 6.326 
3.32224 1.75905 6.033 
3.48517 1.70132 5.835 
4.0997 1.85644 6.367 
4.70305 1.9859 6.811 
4.80307 1.89988 6.516 
6.56861 2.35503 8.077 
8.23917 2.79384 9.582 
8.20355 2.63873 9.05 
8.17075 2.49965 8.573 
-0.425365 0.155357 0.53 
-0.406455 0.158581 0.541 
-0.388712 0.163857 0.559 
-0.370442 0.167375 0.571 
-0.35286 0.171772 0.586 
-0.334435 0.176462 0.602 
-0.315536 0.181738 0.62 
-0.294035 0.186428 0.636 
-0.272705 0.19229 0.656 
-0.247665 0.196687 0.671 
-0.218647 0.198739 0.678 
-0.191184 0.203136 0.693 
-0.166219 0.212516 0.725 
-0.136993 0.219844 0.75 
-0.106389 0.229224 0.782 
-0.0722653 0.236845 0.808 
-0.0361459 0.247398 0.844 
0.0033029 0.255899 0.873 
0.0460598 0.267917 0.914 
0.0925418 0.279642 0.954 
0.143471 0.292832 0.999 
0.204819 0.313058 1.068 
0.267234 0.328594 1.121 
0.344849 0.354682 1.21 
0.436066 0.38546 1.315 
0.513244 0.397771 1.357 
2.88489 1.96892 6.717 
2.43917 1.49201 5.09 
3.26323 1.81914 6.206 
3.15174 1.60955 5.491 
3.63233 1.71566 5.853 
4.52831 1.98944 6.787 
4.84465 1.98944 6.787 
5.40509 2.08354 7.108 
6.82947 2.39747 8.179 
8.28538 2.75479 9.398 
7.99291 2.5241 8.611 
7.90686 2.37754 8.111 
-0.416909 0.157653 0.535 
-0.399794 0.161484 0.548 
-0.38255 0.166199 0.564 
-0.363842 0.169735 0.576 
-0.34577 0.174155 0.591 
-0.327377 0.179165 0.608 
-0.304972 0.185059 0.628 
-0.284481 0.190952 0.648 
-0.262518 0.19714 0.669 
-0.231336 0.19714 0.669 
-0.206736 0.203623 0.691 
-0.178569 0.208338 0.707 
-0.150775 0.220715 0.749 
-0.118648 0.226019 0.767 
-0.0859246 0.23427 0.795 
-0.0497913 0.244878 0.831 
-0.0114574 0.253719 0.861 
0.0300728 0.266095 0.903 
0.0746392 0.27523 0.934 
0.12374 0.288196 0.978 
0.178328 0.30352 1.03 
0.242764 0.323263 1.097 
0.320121 0.350079 1.188 
0.405521 0.378073 1.283 
