# .PCD v.7 - Point Cloud Data file format
VERSION .7
FIELDS x y z
SIZE 4 4 4
TYPE F F F
COUNT 1 1 1
WIDTH 1842
HEIGHT 1
VIEWPOINT 0 0 0 1 0 0 0
POINTS 1842
DATA ascii
0.337155 -0.717133 1.787 
0.42233 -0.720344 1.795 
0.507968 -0.723153 1.802 
0.595574 -0.727567 1.813 
0.688331 -0.736396 1.835 
0.776391 -0.738804 1.841 
0.8622 -0.738804 1.841 
0.953159 -0.742817 1.851 
1.05067 -0.750843 1.871 
1.13666 -0.75004 1.869 
1.23294 -0.755659 1.883 
1.32982 -0.760876 1.896 
1.42119 -0.762481 1.9 
1.52246 -0.768902 1.916 
1.62775 -0.776527 1.935 
1.7135 -0.77452 1.93 
1.79599 -0.77131 1.922 
1.91402 -0.782947 1.951 
-0.636074 -0.305011 0.763 
-0.623097 -0.319002 0.798 
-0.602055 -0.327797 0.82 
-0.584462 -0.339789 0.85 
-0.564714 -0.352182 0.881 
-0.542076 -0.364574 0.912 
-0.518907 -0.379764 0.95 
-0.494612 -0.395755 0.99 
-0.467946 -0.412944 1.033 
-0.436054 -0.428934 1.073 
-0.40367 -0.448522 1.122 
-0.369223 -0.471308 1.179 
-0.328397 -0.492495 1.232 
-0.28659 -0.520877 1.303 
-0.239897 -0.553257 1.384 
-0.173558 -0.583238 1.459 
-0.11315 -0.625212 1.564 
-0.042774 -0.664388 1.662 
0.0366336 -0.701565 1.755 
0.119379 -0.707161 1.769 
0.201833 -0.707161 1.769 
0.287661 -0.715556 1.79 
0.370057 -0.713557 1.785 
0.457066 -0.719554 1.8 
0.543368 -0.722752 1.808 
0.631806 -0.727549 1.82 
0.717818 -0.728748 1.823 
0.812917 -0.737942 1.846 
0.903829 -0.74194 1.856 
0.994073 -0.744738 1.863 
1.08613 -0.748336 1.872 
1.17903 -0.751934 1.881 
1.26468 -0.750734 1.878 
1.36373 -0.75713 1.894 
1.45355 -0.75793 1.896 
1.57852 -0.775919 1.941 
1.66555 -0.77432 1.937 
1.75764 -0.775119 1.939 
1.84421 -0.77352 1.935 
-0.65655 -0.303427 0.762 
-0.629998 -0.307807 0.773 
-0.613554 -0.32055 0.805 
-0.592491 -0.329708 0.828 
-0.577311 -0.343645 0.863 
-0.55389 -0.354397 0.89 
-0.532558 -0.368333 0.925 
-0.511666 -0.385058 0.967 
-0.485412 -0.400588 1.006 
-0.45901 -0.419303 1.053 
-0.423555 -0.43324 1.088 
-0.392376 -0.455937 1.145 
-0.360325 -0.484607 1.217 
-0.314576 -0.502128 1.261 
-0.270407 -0.530798 1.333 
-0.214212 -0.54593 1.371 
-0.148764 -0.590528 1.483 
-0.0868372 -0.643887 1.617 
-0.0121279 -0.680919 1.71 
0.0697097 -0.702422 1.764 
0.152619 -0.705607 1.772 
0.235213 -0.705607 1.772 
0.320676 -0.711979 1.788 
0.407856 -0.718748 1.805 
0.493351 -0.720739 1.81 
0.580269 -0.723925 1.818 
0.673419 -0.733083 1.841 
0.759229 -0.733083 1.841 
0.850547 -0.737862 1.853 
0.936916 -0.737862 1.853 
1.03599 -0.74702 1.876 
1.12582 -0.748613 1.88 
1.22636 -0.756577 1.9 
1.31215 -0.754984 1.896 
1.40865 -0.759364 1.907 
1.4991 -0.760161 1.909 
1.62302 -0.776885 1.951 
1.70342 -0.772107 1.939 
1.79194 -0.77131 1.937 
1.90555 -0.780867 1.961 
-0.640657 -0.30145 0.76 
-0.625143 -0.311366 0.785 
-0.605757 -0.322472 0.813 
-0.58742 -0.333578 0.841 
-0.565822 -0.344288 0.868 
-0.545943 -0.357774 0.902 
-0.523453 -0.371656 0.937 
-0.499748 -0.387125 0.976 
-0.471012 -0.401404 1.012 
-0.443527 -0.420047 1.059 
-0.411288 -0.438292 1.105 
-0.377366 -0.459711 1.159 
-0.341479 -0.485493 1.224 
-0.29837 -0.509292 1.284 
-0.252826 -0.539833 1.361 
-0.190225 -0.542213 1.367 
-0.123377 -0.610833 1.54 
-0.0549815 -0.650894 1.641 
0.0230132 -0.696508 1.756 
0.105518 -0.700871 1.767 
0.189154 -0.705631 1.779 
0.272991 -0.708011 1.785 
0.358186 -0.711977 1.795 
0.444313 -0.715944 1.805 
0.531958 -0.720703 1.817 
0.618685 -0.723083 1.823 
0.705972 -0.725463 1.829 
0.801604 -0.734983 1.853 
0.891328 -0.737759 1.86 
0.981704 -0.740536 1.867 
1.07388 -0.744105 1.876 
1.16565 -0.746882 1.883 
1.25209 -0.746089 1.881 
1.35686 -0.755608 1.905 
1.4502 -0.757988 1.911 
1.56022 -0.768301 1.937 
1.65902 -0.772267 1.947 
1.74258 -0.769094 1.939 
1.82256 -0.764731 1.928 
1.93722 -0.774647 1.953 
-0.630696 -0.30343 0.768 
-0.615352 -0.314492 0.796 
-0.596411 -0.32437 0.821 
-0.579899 -0.337013 0.853 
-0.558504 -0.34847 0.882 
-0.537925 -0.362298 0.917 
-0.514623 -0.376522 0.953 
-0.490433 -0.39272 0.994 
-0.46242 -0.408919 1.035 
-0.431386 -0.425908 1.078 
-0.397757 -0.444477 1.125 
-0.365887 -0.470948 1.192 
-0.324646 -0.492679 1.247 
-0.280629 -0.518755 1.313 
-0.232632 -0.549967 1.392 
-0.162335 -0.576833 1.46 
-0.101711 -0.622268 1.575 
-0.0300965 -0.661777 1.675 
0.0506681 -0.698916 1.769 
0.133573 -0.701287 1.775 
0.215941 -0.700101 1.772 
0.302409 -0.709188 1.795 
0.388226 -0.713139 1.805 
0.474451 -0.7163 1.813 
0.56173 -0.719856 1.822 
0.649138 -0.722622 1.829 
0.736396 -0.724597 1.834 
0.831738 -0.733289 1.856 
0.921216 -0.735659 1.862 
1.0145 -0.740401 1.874 
1.10714 -0.743956 1.883 
1.20633 -0.751068 1.901 
1.29153 -0.749093 1.896 
1.39227 -0.755809 1.913 
1.47525 -0.752648 1.905 
1.60673 -0.773193 1.957 
1.69101 -0.770032 1.949 
1.78002 -0.769242 1.947 
1.87461 -0.770823 1.951 
-0.646038 -0.298301 0.758 
-0.624404 -0.304991 0.775 
-0.608287 -0.31601 0.803 
-0.590764 -0.32703 0.831 
-0.574617 -0.34041 0.865 
-0.550359 -0.350642 0.891 
-0.528817 -0.364416 0.926 
-0.505061 -0.378976 0.963 
-0.478812 -0.394324 1.002 
-0.452377 -0.412821 1.049 
-0.418099 -0.427775 1.087 
-0.388053 -0.451781 1.148 
-0.353487 -0.477361 1.213 
-0.308454 -0.495857 1.26 
-0.264986 -0.526159 1.337 
-0.210096 -0.545443 1.386 
-0.143961 -0.582829 1.481 
-0.0814078 -0.633202 1.609 
-0.00685818 -0.677278 1.721 
0.075532 -0.697348 1.772 
0.159464 -0.703251 1.787 
0.24167 -0.700103 1.779 
0.328056 -0.70758 1.798 
0.417588 -0.717419 1.823 
0.502559 -0.717419 1.823 
0.589785 -0.720173 1.83 
0.680985 -0.72647 1.846 
0.770767 -0.730012 1.855 
0.860926 -0.73316 1.863 
0.948778 -0.733947 1.865 
1.04459 -0.740244 1.881 
1.13588 -0.742605 1.887 
1.23291 -0.748114 1.901 
1.32986 -0.752837 1.913 
1.4257 -0.756379 1.922 
1.51213 -0.754805 1.918 
1.63744 -0.771727 1.961 
1.70944 -0.763069 1.939 
1.79611 -0.761495 1.935 
1.92139 -0.775662 1.971 
-0.636424 -0.298692 0.762 
-0.62141 -0.308883 0.788 
-0.601005 -0.317507 0.81 
-0.584112 -0.329266 0.84 
-0.565719 -0.34181 0.872 
-0.540936 -0.353961 0.903 
-0.518014 -0.369641 0.943 
-0.494672 -0.385712 0.984 
-0.464315 -0.399039 1.018 
-0.436521 -0.417855 1.066 
-0.403164 -0.435494 1.111 
-0.370989 -0.459797 1.173 
-0.332226 -0.482924 1.232 
-0.288185 -0.506443 1.292 
-0.243315 -0.540545 1.379 
-0.178875 -0.5672 1.447 
-0.118592 -0.603655 1.54 
-0.0500951 -0.645989 1.648 
0.028648 -0.692635 1.767 
0.111448 -0.695379 1.774 
0.195557 -0.700475 1.787 
0.280567 -0.704787 1.798 
0.366398 -0.708706 1.808 
0.453162 -0.712626 1.818 
0.540563 -0.716154 1.827 
0.627432 -0.718114 1.832 
0.712044 -0.71733 1.83 
0.810412 -0.72909 1.86 
0.902895 -0.733793 1.872 
0.99015 -0.733793 1.872 
1.08258 -0.737321 1.881 
1.17959 -0.743201 1.896 
1.26395 -0.740849 1.89 
1.36993 -0.750649 1.915 
1.46757 -0.754961 1.926 
1.57594 -0.763976 1.949 
1.67875 -0.769464 1.963 
1.75582 -0.763192 1.947 
1.83519 -0.758488 1.935 
1.93533 -0.762408 1.945 
-0.627553 -0.300631 0.77 
-0.610873 -0.310392 0.795 
-0.59475 -0.321714 0.824 
-0.577948 -0.334208 0.856 
-0.554393 -0.344359 0.882 
-0.53083 -0.359976 0.922 
-0.506904 -0.374032 0.958 
-0.481552 -0.389649 0.998 
-0.450652 -0.407999 1.045 
-0.41733 -0.423617 1.085 
-0.387715 -0.447823 1.147 
-0.351155 -0.470468 1.205 
-0.30772 -0.490771 1.257 
-0.264986 -0.522005 1.337 
-0.21237 -0.546992 1.401 
-0.147661 -0.574713 1.472 
-0.0855483 -0.621955 1.593 
-0.0120854 -0.665293 1.704 
0.0702234 -0.693794 1.777 
0.15417 -0.69887 1.79 
0.23654 -0.695746 1.782 
0.323366 -0.703945 1.803 
0.413505 -0.714487 1.83 
0.498529 -0.714096 1.829 
0.586972 -0.718001 1.839 
0.677077 -0.722686 1.851 
0.765415 -0.724638 1.856 
0.858809 -0.730494 1.871 
0.945005 -0.729714 1.869 
1.03985 -0.73518 1.883 
1.13301 -0.738694 1.892 
1.22959 -0.743769 1.905 
1.32876 -0.749626 1.92 
1.42564 -0.75353 1.93 
1.50931 -0.750406 1.922 
1.63633 -0.767976 1.967 
1.70869 -0.759386 1.945 
1.7938 -0.757044 1.939 
1.90944 -0.767195 1.965 
-0.636277 -0.295157 0.759 
-0.618684 -0.30449 0.783 
-0.600033 -0.313823 0.807 
-0.584023 -0.325878 0.838 
-0.566424 -0.338711 0.871 
-0.54273 -0.3496 0.899 
-0.518377 -0.365933 0.941 
-0.493175 -0.380321 0.978 
-0.462946 -0.394709 1.015 
-0.435293 -0.413376 1.063 
-0.402439 -0.431264 1.109 
-0.370357 -0.455374 1.171 
-0.331686 -0.478318 1.23 
-0.288185 -0.502428 1.292 
-0.242609 -0.534705 1.375 
-0.184233 -0.551815 1.419 
-0.125749 -0.587592 1.511 
-0.0597877 -0.635035 1.633 
0.0176266 -0.685589 1.763 
0.100706 -0.691811 1.779 
0.186103 -0.701144 1.803 
0.269392 -0.6992 1.798 
0.356537 -0.70581 1.815 
0.444052 -0.710477 1.827 
0.531526 -0.713588 1.835 
0.620082 -0.717088 1.844 
0.702203 -0.713199 1.834 
0.802718 -0.72681 1.869 
0.893166 -0.729532 1.876 
0.979561 -0.728754 1.874 
1.07203 -0.732254 1.883 
1.17027 -0.738865 1.9 
1.25353 -0.735754 1.892 
1.36015 -0.745865 1.918 
1.46542 -0.754031 1.939 
1.5558 -0.754031 1.939 
1.67929 -0.769197 1.978 
1.74014 -0.755587 1.943 
1.82034 -0.751309 1.932 
1.92127 -0.755587 1.943 
-0.628683 -0.297076 0.767 
-0.611029 -0.30676 0.792 
-0.596585 -0.318767 0.823 
-0.575945 -0.331161 0.855 
-0.553022 -0.341619 0.882 
-0.530531 -0.355949 0.919 
-0.506801 -0.369893 0.955 
-0.481651 -0.385386 0.995 
-0.454084 -0.402041 1.038 
-0.419773 -0.415984 1.074 
-0.391057 -0.439999 1.136 
-0.355072 -0.462076 1.193 
-0.314025 -0.484541 1.251 
-0.270842 -0.513202 1.325 
-0.223286 -0.548061 1.415 
-0.161224 -0.561618 1.45 
-0.101323 -0.607709 1.569 
-0.0299887 -0.646441 1.669 
0.0509545 -0.689047 1.779 
0.134702 -0.693308 1.79 
0.217525 -0.691371 1.785 
0.304431 -0.699892 1.807 
0.394033 -0.709575 1.832 
0.477591 -0.706864 1.825 
0.566971 -0.712286 1.839 
0.653752 -0.713448 1.842 
0.744025 -0.717709 1.853 
0.835772 -0.722357 1.865 
0.928142 -0.726617 1.876 
1.01937 -0.729329 1.883 
1.11478 -0.734364 1.896 
1.21394 -0.740948 1.913 
1.30652 -0.742885 1.918 
1.4061 -0.748307 1.932 
1.49848 -0.749469 1.935 
1.6133 -0.761089 1.965 
1.70315 -0.760314 1.963 
1.78185 -0.754892 1.949 
1.87654 -0.756441 1.953 
-0.639635 -0.291641 0.756 
-0.618359 -0.300128 0.778 
-0.600801 -0.309772 0.803 
-0.584421 -0.321346 0.833 
-0.565071 -0.336005 0.871 
-0.540129 -0.346035 0.897 
-0.520541 -0.361465 0.937 
-0.491626 -0.372653 0.966 
-0.465093 -0.388084 1.006 
-0.437742 -0.406215 1.053 
-0.406747 -0.425117 1.102 
-0.374732 -0.448263 1.162 
-0.335468 -0.469095 1.216 
-0.295297 -0.49687 1.288 
-0.248415 -0.524646 1.36 
-0.191555 -0.543163 1.408 
-0.132725 -0.572481 1.484 
-0.0691226 -0.622631 1.614 
0.00660201 -0.673167 1.745 
0.0902047 -0.690526 1.79 
0.175771 -0.699013 1.812 
0.258506 -0.694384 1.8 
0.34716 -0.704028 1.825 
0.435066 -0.708658 1.837 
0.522673 -0.711358 1.844 
0.612253 -0.715601 1.855 
0.695325 -0.712129 1.846 
0.794912 -0.724474 1.878 
0.882447 -0.724474 1.878 
0.967915 -0.722931 1.874 
1.06371 -0.728718 1.889 
1.16273 -0.735661 1.907 
1.24768 -0.733347 1.901 
1.35245 -0.742219 1.924 
1.45637 -0.749549 1.943 
1.53897 -0.745691 1.933 
1.67458 -0.766523 1.987 
1.72984 -0.750321 1.945 
1.81114 -0.746463 1.935 
1.91116 -0.750321 1.945 
-0.63061 -0.293925 0.765 
-0.613618 -0.303146 0.789 
-0.598044 -0.314288 0.818 
-0.574598 -0.327736 0.853 
-0.552395 -0.338494 0.881 
-0.531065 -0.351557 0.915 
-0.507099 -0.365005 0.95 
-0.483768 -0.381526 0.993 
-0.454666 -0.39651 1.032 
-0.421535 -0.41111 1.07 
-0.392155 -0.433779 1.129 
-0.357276 -0.456448 1.188 
-0.316896 -0.479116 1.247 
-0.273714 -0.50678 1.319 
-0.226073 -0.539822 1.405 
-0.164586 -0.55327 1.44 
-0.106131 -0.60245 1.568 
-0.0351538 -0.640871 1.668 
0.0454265 -0.683519 1.779 
0.129645 -0.690435 1.797 
0.21281 -0.688514 1.792 
0.299808 -0.696582 1.813 
0.388976 -0.705035 1.835 
0.473213 -0.703114 1.83 
0.562783 -0.708493 1.844 
0.649436 -0.709261 1.846 
0.739462 -0.713104 1.856 
0.830866 -0.71733 1.867 
0.926737 -0.724246 1.885 
1.01675 -0.725783 1.889 
1.11006 -0.729241 1.898 
1.21242 -0.737693 1.92 
1.30327 -0.738462 1.922 
1.40372 -0.744225 1.937 
1.50018 -0.747299 1.945 
1.60556 -0.754215 1.963 
1.70656 -0.758441 1.974 
1.77762 -0.749604 1.951 
1.85897 -0.745762 1.941 
-0.640809 -0.289292 0.756 
-0.619587 -0.296563 0.775 
-0.602286 -0.306129 0.8 
-0.583018 -0.317992 0.831 
-0.564422 -0.332916 0.87 
-0.538925 -0.342482 0.895 
-0.51943 -0.357789 0.935 
-0.491117 -0.369268 0.965 
-0.465093 -0.384958 1.006 
-0.43691 -0.402177 1.051 
-0.404532 -0.419397 1.096 
-0.374732 -0.444653 1.162 
-0.334089 -0.463403 1.211 
-0.295297 -0.492868 1.288 
-0.247867 -0.519272 1.357 
-0.192371 -0.541084 1.414 
-0.132188 -0.565574 1.478 
-0.0692511 -0.618764 1.617 
0.00656796 -0.664301 1.736 
0.0906078 -0.688026 1.798 
0.176256 -0.695296 1.817 
0.259224 -0.690704 1.805 
0.347921 -0.699888 1.829 
0.43625 -0.704863 1.842 
0.524657 -0.708307 1.851 
0.614563 -0.712516 1.862 
0.698715 -0.709837 1.855 
0.798722 -0.722082 1.887 
0.883856 -0.719786 1.881 
0.969981 -0.718638 1.878 
1.06652 -0.724761 1.894 
1.16944 -0.733945 1.918 
1.25293 -0.730501 1.909 
1.35526 -0.737772 1.928 
1.45937 -0.745042 1.947 
1.54375 -0.741981 1.939 
1.67627 -0.761114 1.989 
1.73518 -0.746573 1.951 
1.81114 -0.74045 1.935 
1.90526 -0.741981 1.939 
-0.629054 -0.291929 0.766 
-0.611166 -0.300694 0.789 
-0.596231 -0.312127 0.819 
-0.575218 -0.323942 0.85 
-0.553873 -0.334994 0.879 
-0.530991 -0.346808 0.91 
-0.507367 -0.360147 0.945 
-0.484333 -0.377678 0.991 
-0.454943 -0.39216 1.029 
-0.422011 -0.406642 1.067 
-0.392514 -0.428746 1.125 
-0.35761 -0.450851 1.183 
-0.317555 -0.473336 1.242 
-0.274927 -0.501157 1.315 
-0.225007 -0.527834 1.385 
-0.166244 -0.54689 1.435 
-0.10739 -0.591098 1.551 
-0.037768 -0.636069 1.669 
0.0426146 -0.677229 1.777 
0.127276 -0.687138 1.803 
0.210963 -0.685994 1.8 
0.298466 -0.694379 1.822 
0.386967 -0.700857 1.839 
0.471655 -0.699333 1.835 
0.561436 -0.704669 1.849 
0.649019 -0.706193 1.853 
0.739357 -0.710004 1.863 
0.83107 -0.714196 1.874 
0.927239 -0.721056 1.892 
1.01865 -0.723343 1.898 
1.11003 -0.725248 1.903 
1.21322 -0.734014 1.926 
1.30434 -0.734776 1.928 
1.40795 -0.742017 1.947 
1.50639 -0.745828 1.957 
1.60251 -0.748115 1.963 
1.70867 -0.754594 1.98 
1.7764 -0.744304 1.953 
1.85022 -0.737444 1.935 
-0.641984 -0.286943 0.756 
-0.621193 -0.293775 0.774 
-0.604016 -0.303264 0.799 
-0.585927 -0.313512 0.826 
-0.565983 -0.324139 0.854 
-0.54651 -0.336665 0.887 
-0.524531 -0.349569 0.921 
-0.497813 -0.361336 0.952 
-0.470829 -0.377656 0.995 
-0.444502 -0.395496 1.042 
-0.411133 -0.410678 1.082 
-0.380702 -0.433451 1.142 
-0.342671 -0.453567 1.195 
-0.302581 -0.478238 1.26 
-0.258948 -0.507844 1.338 
-0.209219 -0.540485 1.424 
-0.145053 -0.548835 1.446 
-0.0842595 -0.595521 1.569 
-0.0120357 -0.644104 1.697 
0.0709347 -0.6813 1.795 
0.156151 -0.688132 1.813 
0.238929 -0.683198 1.8 
0.328926 -0.696102 1.834 
0.417121 -0.700657 1.846 
0.506434 -0.705212 1.858 
0.596547 -0.709387 1.869 
0.684393 -0.710146 1.871 
0.779024 -0.716978 1.889 
0.86294 -0.713562 1.88 
0.955118 -0.716978 1.889 
1.05421 -0.724569 1.909 
1.14858 -0.727985 1.918 
1.24056 -0.729503 1.922 
1.34052 -0.735197 1.937 
1.44263 -0.741269 1.953 
1.52895 -0.738992 1.947 
1.64216 -0.74924 1.974 
1.73417 -0.74924 1.974 
1.7975 -0.737474 1.943 
1.89 -0.738233 1.945 
-0.631905 -0.286524 0.758 
-0.613103 -0.294462 0.779 
-0.595304 -0.303912 0.804 
-0.57795 -0.314875 0.833 
-0.561776 -0.328104 0.868 
-0.535132 -0.336799 0.891 
-0.516869 -0.352675 0.933 
-0.489142 -0.367795 0.973 
-0.462034 -0.382915 1.013 
-0.432836 -0.399547 1.057 
-0.399536 -0.416179 1.101 
-0.368775 -0.440749 1.166 
-0.326832 -0.458137 1.212 
-0.287516 -0.487243 1.289 
-0.239433 -0.512947 1.357 
-0.184492 -0.537139 1.421 
-0.12242 -0.556039 1.471 
-0.048025 -0.629371 1.665 
0.0312868 -0.665659 1.761 
0.116393 -0.683425 1.808 
0.200887 -0.684181 1.81 
0.288246 -0.691363 1.829 
0.375538 -0.695143 1.839 
0.46301 -0.697789 1.846 
0.551135 -0.700435 1.853 
0.639912 -0.703081 1.86 
0.727388 -0.703837 1.862 
0.825108 -0.713287 1.887 
0.918384 -0.717445 1.898 
1.0095 -0.719335 1.903 
1.09647 -0.718201 1.9 
1.20561 -0.730675 1.933 
1.29236 -0.728785 1.928 
1.39871 -0.737479 1.951 
1.50187 -0.743527 1.967 
1.59031 -0.742015 1.963 
1.69808 -0.749197 1.982 
1.76788 -0.739747 1.957 
1.83155 -0.728785 1.928 
-0.6356 -0.283841 0.754 
-0.617975 -0.292123 0.776 
-0.59905 -0.300781 0.799 
-0.581496 -0.311322 0.827 
-0.562645 -0.322615 0.857 
-0.539778 -0.333156 0.885 
-0.52106 -0.348213 0.925 
-0.49202 -0.360636 0.958 
-0.46558 -0.375318 0.997 
-0.438543 -0.395646 1.051 
-0.402899 -0.409198 1.087 
-0.374917 -0.435549 1.157 
-0.334028 -0.453242 1.204 
-0.294759 -0.480723 1.277 
-0.24604 -0.507074 1.347 
-0.193187 -0.534555 1.42 
-0.129237 -0.543966 1.445 
-0.0554505 -0.62302 1.655 
0.0228297 -0.65577 1.742 
0.107966 -0.680616 1.808 
0.192982 -0.683251 1.815 
0.279721 -0.688521 1.829 
0.366567 -0.691533 1.837 
0.456129 -0.697556 1.853 
0.543083 -0.698309 1.855 
0.632939 -0.702073 1.865 
0.719095 -0.701321 1.863 
0.820206 -0.713743 1.896 
0.909538 -0.714496 1.898 
1.00063 -0.716378 1.903 
1.08762 -0.715249 1.9 
1.19784 -0.728425 1.935 
1.2847 -0.726542 1.93 
1.38962 -0.734448 1.951 
1.49422 -0.741224 1.969 
1.57955 -0.738212 1.961 
1.68884 -0.746118 1.982 
1.76235 -0.738212 1.961 
1.82445 -0.726542 1.93 
1.91639 -0.727295 1.932 
-0.62039 -0.289792 0.773 
-0.60326 -0.299165 0.798 
-0.584508 -0.308912 0.824 
-0.564658 -0.319409 0.852 
-0.544662 -0.331406 0.884 
-0.523392 -0.344527 0.919 
-0.496244 -0.355774 0.949 
-0.469883 -0.372269 0.993 
-0.443222 -0.389514 1.039 
-0.409993 -0.40451 1.079 
-0.380035 -0.427378 1.14 
-0.342098 -0.447248 1.193 
-0.299614 -0.473865 1.264 
-0.253838 -0.499733 1.333 
-0.203643 -0.530849 1.416 
-0.13949 -0.537972 1.435 
-0.0778781 -0.59533 1.588 
-0.00414783 -0.639568 1.706 
0.0796105 -0.675558 1.802 
0.165055 -0.681556 1.818 
0.249655 -0.681181 1.817 
0.338394 -0.689429 1.839 
0.427339 -0.694677 1.853 
0.51648 -0.698426 1.863 
0.608173 -0.704049 1.878 
0.694966 -0.7033 1.876 
0.794502 -0.714172 1.905 
0.873094 -0.705924 1.883 
0.969536 -0.712297 1.9 
1.06701 -0.718295 1.916 
1.16476 -0.723544 1.93 
1.25667 -0.724669 1.933 
1.35513 -0.729167 1.945 
1.45768 -0.735166 1.961 
1.5475 -0.734416 1.959 
1.65136 -0.740039 1.974 
1.75043 -0.743038 1.982 
1.80655 -0.728418 1.943 
1.89321 -0.726918 1.939 
-0.626843 -0.283365 0.759 
-0.610168 -0.292325 0.783 
-0.591989 -0.301658 0.808 
-0.575595 -0.313232 0.839 
-0.558869 -0.326299 0.874 
-0.53236 -0.335259 0.898 
-0.508352 -0.349446 0.936 
-0.485081 -0.364753 0.977 
-0.457988 -0.38006 1.018 
-0.428283 -0.396487 1.062 
-0.395547 -0.414034 1.109 
-0.363079 -0.437181 1.171 
-0.322725 -0.457341 1.225 
-0.280806 -0.483475 1.295 
-0.229468 -0.503262 1.348 
-0.176156 -0.532009 1.425 
-0.112893 -0.547316 1.466 
-0.0503079 -0.617877 1.655 
0.0283238 -0.652224 1.747 
0.11371 -0.675745 1.81 
0.19884 -0.678358 1.817 
0.287432 -0.687691 1.842 
0.373694 -0.688438 1.844 
0.463133 -0.693665 1.858 
0.550327 -0.694412 1.86 
0.641132 -0.698892 1.872 
0.729164 -0.699638 1.874 
0.826969 -0.708598 1.898 
0.919776 -0.711959 1.907 
1.01448 -0.716065 1.918 
1.09985 -0.713452 1.911 
1.20634 -0.723905 1.939 
1.29538 -0.723159 1.937 
1.4057 -0.733612 1.965 
1.50567 -0.737719 1.976 
1.59373 -0.735852 1.971 
1.695 -0.739959 1.982 
1.77205 -0.733612 1.965 
1.83519 -0.722412 1.935 
1.92339 -0.721665 1.933 
-0.621533 -0.28516 0.767 
-0.604221 -0.295942 0.796 
-0.584931 -0.305236 0.821 
-0.565974 -0.316018 0.85 
-0.539319 -0.327915 0.882 
-0.517626 -0.34353 0.924 
-0.490479 -0.355056 0.955 
-0.464646 -0.369927 0.995 
-0.440968 -0.390003 1.049 
-0.404408 -0.402272 1.082 
-0.375895 -0.427182 1.149 
-0.335062 -0.446515 1.201 
-0.292451 -0.471053 1.267 
-0.246107 -0.496706 1.336 
-0.19443 -0.525333 1.413 
-0.130299 -0.532397 1.432 
-0.0691655 -0.600434 1.615 
0.00648094 -0.636869 1.713 
0.0908094 -0.669958 1.802 
0.176547 -0.67665 1.82 
0.262814 -0.680368 1.83 
0.350394 -0.68483 1.842 
0.440513 -0.691522 1.86 
0.528058 -0.692637 1.863 
0.620504 -0.698957 1.88 
0.707378 -0.698214 1.878 
0.810574 -0.71197 1.915 
0.887615 -0.702303 1.889 
0.988058 -0.711226 1.913 
1.08004 -0.713085 1.918 
1.1798 -0.719406 1.935 
1.27262 -0.720893 1.939 
1.37424 -0.726841 1.955 
1.47286 -0.730559 1.965 
1.56604 -0.731303 1.967 
1.66868 -0.736136 1.98 
1.76097 -0.736136 1.98 
1.81863 -0.72238 1.943 
1.90133 -0.719406 1.935 
-0.622713 -0.279155 0.754 
-0.605628 -0.290632 0.785 
-0.586437 -0.299518 0.809 
-0.570481 -0.312106 0.843 
-0.547666 -0.325804 0.88 
-0.526527 -0.339503 0.917 
-0.49803 -0.349499 0.944 
-0.473749 -0.364679 0.985 
-0.447384 -0.381339 1.03 
-0.415273 -0.396519 1.071 
-0.38548 -0.418362 1.13 
-0.345769 -0.434653 1.174 
-0.303514 -0.456126 1.232 
-0.261617 -0.488706 1.32 
-0.21146 -0.516474 1.395 
-0.150638 -0.531283 1.435 
-0.0883626 -0.560531 1.514 
-0.0196164 -0.617917 1.669 
0.0622196 -0.660864 1.785 
0.14827 -0.673823 1.82 
0.234254 -0.677155 1.829 
0.324046 -0.686781 1.855 
0.40918 -0.684559 1.849 
0.498845 -0.689372 1.862 
0.591295 -0.696037 1.88 
0.680728 -0.697888 1.885 
0.775928 -0.704552 1.903 
0.857358 -0.698628 1.887 
0.964849 -0.713067 1.926 
1.05353 -0.712327 1.924 
1.14855 -0.715659 1.933 
1.24506 -0.719361 1.943 
1.34249 -0.723063 1.953 
1.44674 -0.729728 1.971 
1.54407 -0.732319 1.978 
1.63626 -0.732319 1.978 
1.74157 -0.737873 1.993 
1.79396 -0.721583 1.949 
1.88287 -0.720842 1.947 
-0.62349 -0.273191 0.741 
-0.612316 -0.286832 0.778 
-0.593823 -0.29568 0.802 
-0.57795 -0.307109 0.833 
-0.556951 -0.321119 0.871 
-0.531174 -0.330336 0.896 
-0.509075 -0.343608 0.932 
-0.48412 -0.357249 0.969 
-0.456621 -0.371628 1.008 
-0.431583 -0.391537 1.062 
-0.395035 -0.404809 1.098 
-0.365779 -0.430616 1.168 
-0.324098 -0.450894 1.223 
-0.279105 -0.471171 1.278 
-0.23036 -0.494398 1.341 
-0.178119 -0.52463 1.423 
-0.114857 -0.539008 1.462 
-0.0522082 -0.602421 1.634 
0.0254922 -0.641132 1.739 
0.110898 -0.667308 1.81 
0.196665 -0.672101 1.823 
0.286579 -0.683899 1.855 
0.372237 -0.682424 1.851 
0.46198 -0.687585 1.865 
0.548908 -0.687585 1.865 
0.641973 -0.694222 1.883 
0.730516 -0.694959 1.885 
0.827927 -0.70307 1.907 
0.920659 -0.706019 1.915 
1.02047 -0.713393 1.935 
1.10434 -0.709337 1.924 
1.20829 -0.717817 1.947 
1.29771 -0.71708 1.945 
1.40907 -0.727771 1.974 
1.50412 -0.729246 1.978 
1.59954 -0.730721 1.982 
1.69961 -0.734039 1.991 
1.7771 -0.727771 1.974 
1.84165 -0.71708 1.945 
1.92039 -0.712656 1.933 
-0.616143 -0.277546 0.756 
-0.601533 -0.293333 0.799 
-0.581241 -0.302144 0.823 
-0.56267 -0.313157 0.853 
-0.533837 -0.323804 0.882 
-0.515073 -0.338489 0.922 
-0.488996 -0.350604 0.955 
-0.462634 -0.364922 0.994 
-0.441014 -0.386582 1.053 
-0.399889 -0.399432 1.088 
-0.372285 -0.425865 1.16 
-0.330287 -0.442018 1.204 
-0.287376 -0.463312 1.262 
-0.241774 -0.490112 1.335 
-0.189905 -0.51838 1.412 
-0.126377 -0.527926 1.438 
-0.0664086 -0.590704 1.609 
0.00911037 -0.626682 1.707 
0.0934014 -0.66009 1.798 
0.180262 -0.671471 1.829 
0.26798 -0.677712 1.846 
0.355749 -0.681017 1.855 
0.445548 -0.686156 1.869 
0.532093 -0.685422 1.867 
0.627405 -0.6946 1.892 
0.712187 -0.691296 1.883 
0.815673 -0.70488 1.92 
0.89385 -0.696069 1.896 
1.00139 -0.709652 1.933 
1.08867 -0.707817 1.928 
1.19014 -0.714792 1.947 
1.28221 -0.715526 1.949 
1.38714 -0.722869 1.969 
1.47892 -0.722869 1.969 
1.58346 -0.728743 1.985 
1.68105 -0.730946 1.991 
1.77207 -0.730211 1.989 
1.82915 -0.716261 1.951 
1.9063 -0.711121 1.937 
-0.612803 -0.271254 0.742 
-0.60463 -0.28478 0.779 
-0.582846 -0.296478 0.811 
-0.567896 -0.308908 0.845 
-0.547666 -0.321703 0.88 
-0.526224 -0.334132 0.914 
-0.49738 -0.343637 0.94 
-0.47335 -0.358625 0.981 
-0.448548 -0.376173 1.029 
-0.416937 -0.391527 1.071 
-0.381293 -0.412364 1.128 
-0.340664 -0.427353 1.169 
-0.301355 -0.450018 1.231 
-0.260229 -0.479995 1.313 
-0.210702 -0.508144 1.39 
-0.151163 -0.526422 1.44 
-0.0878373 -0.550185 1.505 
-0.0194871 -0.606117 1.658 
0.0619407 -0.64962 1.777 
0.148515 -0.666436 1.823 
0.235791 -0.673016 1.841 
0.325443 -0.681059 1.863 
0.410729 -0.6785 1.856 
0.500185 -0.682521 1.867 
0.593497 -0.689833 1.887 
0.682534 -0.690929 1.89 
0.777559 -0.697144 1.907 
0.862356 -0.693854 1.898 
0.968355 -0.706649 1.933 
1.05681 -0.705552 1.93 
1.15449 -0.710305 1.943 
1.25403 -0.715423 1.957 
1.34937 -0.717616 1.963 
1.44894 -0.721637 1.974 
1.55266 -0.727121 1.989 
1.64702 -0.727852 1.991 
1.74332 -0.729314 1.995 
1.7958 -0.713229 1.951 
1.88867 -0.71396 1.953 
-0.614481 -0.266825 0.733 
-0.611159 -0.282114 0.775 
-0.588105 -0.291578 0.801 
-0.574148 -0.303955 0.835 
-0.557663 -0.316695 0.87 
-0.531972 -0.325796 0.895 
-0.50888 -0.338172 0.929 
-0.484122 -0.351641 0.966 
-0.454097 -0.363653 0.999 
-0.431601 -0.38513 1.058 
-0.393687 -0.400055 1.099 
-0.362406 -0.423352 1.163 
-0.323303 -0.444101 1.22 
-0.276485 -0.460846 1.266 
-0.229673 -0.486691 1.337 
-0.178119 -0.517997 1.423 
-0.115721 -0.536198 1.473 
-0.0515692 -0.587524 1.614 
0.0254776 -0.632662 1.738 
0.11102 -0.6596 1.812 
0.197959 -0.667972 1.835 
0.287815 -0.678165 1.863 
0.374047 -0.677073 1.86 
0.46421 -0.682169 1.874 
0.551557 -0.682169 1.874 
0.645724 -0.689449 1.894 
0.734779 -0.690177 1.896 
0.829664 -0.695637 1.911 
0.922102 -0.698186 1.918 
1.03101 -0.711654 1.955 
1.1118 -0.705102 1.937 
1.21574 -0.71311 1.959 
1.30572 -0.712382 1.957 
1.41478 -0.721483 1.982 
1.50564 -0.720755 1.98 
1.61003 -0.726215 1.995 
1.71326 -0.730583 2.007 
1.7825 -0.720755 1.98 
1.85112 -0.711654 1.955 
1.92436 -0.705102 1.937 
-0.608568 -0.27221 0.751 
-0.603742 -0.288884 0.797 
-0.581523 -0.296495 0.818 
-0.564653 -0.308094 0.85 
-0.542947 -0.318606 0.879 
-0.522535 -0.331654 0.915 
-0.495621 -0.342528 0.945 
-0.470211 -0.356664 0.984 
-0.444615 -0.3737 1.031 
-0.415407 -0.391461 1.08 
-0.379603 -0.407047 1.123 
-0.33979 -0.422633 1.166 
-0.3016 -0.446555 1.232 
-0.259238 -0.474103 1.308 
-0.210399 -0.5031 1.388 
-0.151477 -0.523035 1.443 
-0.087779 -0.545146 1.504 
-0.0194166 -0.59879 1.652 
0.0619407 -0.644098 1.777 
0.148678 -0.661496 1.825 
0.236431 -0.669108 1.846 
0.326492 -0.677445 1.869 
0.412278 -0.67527 1.863 
0.501525 -0.678532 1.872 
0.595069 -0.685782 1.892 
0.683978 -0.686506 1.894 
0.77919 -0.692668 1.911 
0.865536 -0.690494 1.905 
0.970359 -0.702092 1.937 
1.05955 -0.701367 1.935 
1.16043 -0.707892 1.953 
1.25915 -0.712241 1.965 
1.35349 -0.713691 1.969 
1.45187 -0.716953 1.978 
1.55578 -0.72239 1.993 
1.65364 -0.724565 1.999 
1.74506 -0.72384 1.997 
1.7958 -0.707167 1.951 
1.89254 -0.709342 1.957 
-0.6131 -0.263464 0.73 
-0.608412 -0.277901 0.77 
-0.591099 -0.288728 0.8 
-0.575271 -0.299916 0.831 
-0.559136 -0.312548 0.866 
-0.533747 -0.321571 0.891 
-0.509343 -0.332759 0.922 
-0.484617 -0.347917 0.964 
-0.454737 -0.359827 0.997 
-0.431198 -0.380038 1.053 
-0.39627 -0.394114 1.092 
-0.364664 -0.416129 1.153 
-0.323866 -0.433453 1.201 
-0.280378 -0.453664 1.257 
-0.234846 -0.480371 1.331 
-0.184492 -0.512853 1.421 
-0.122171 -0.529816 1.468 
-0.0578473 -0.570238 1.58 
0.0171467 -0.618961 1.715 
0.102291 -0.652165 1.807 
0.190748 -0.666962 1.848 
0.279131 -0.672376 1.863 
0.367538 -0.675263 1.871 
0.456933 -0.678511 1.88 
0.54485 -0.678872 1.881 
0.641267 -0.688256 1.907 
0.727473 -0.685729 1.9 
0.822904 -0.691504 1.916 
0.909829 -0.689699 1.911 
1.02713 -0.709188 1.965 
1.10505 -0.700527 1.941 
1.21154 -0.70991 1.967 
1.30455 -0.710632 1.969 
1.40909 -0.717128 1.987 
1.49641 -0.714602 1.98 
1.60555 -0.722181 2.001 
1.7158 -0.729399 2.021 
1.78313 -0.718572 1.991 
1.84578 -0.707023 1.959 
1.92127 -0.701248 1.943 
-0.606221 -0.266283 0.741 
-0.597042 -0.27922 0.777 
-0.580494 -0.292157 0.813 
-0.566627 -0.305094 0.849 
-0.545058 -0.315515 0.878 
-0.520785 -0.325936 0.907 
-0.49592 -0.337795 0.94 
-0.468206 -0.353247 0.983 
-0.439907 -0.371934 1.035 
-0.410208 -0.389542 1.084 
-0.372623 -0.403557 1.123 
-0.33397 -0.420806 1.171 
-0.296806 -0.447039 1.244 
-0.251686 -0.471116 1.311 
-0.202791 -0.501302 1.395 
-0.142707 -0.51927 1.445 
-0.0790057 -0.544425 1.515 
-0.00917758 -0.595454 1.657 
0.0732718 -0.641092 1.784 
0.161247 -0.660857 1.839 
0.248843 -0.665887 1.853 
0.33865 -0.672715 1.872 
0.427269 -0.674871 1.878 
0.515351 -0.67559 1.88 
0.611639 -0.685293 1.907 
0.696484 -0.68134 1.896 
0.796448 -0.691402 1.924 
0.879217 -0.686011 1.909 
0.986455 -0.698948 1.945 
1.07379 -0.696792 1.939 
1.18098 -0.706854 1.967 
1.27589 -0.708651 1.972 
1.37336 -0.711526 1.98 
1.46417 -0.710807 1.978 
1.57289 -0.718354 1.999 
1.67273 -0.721228 2.007 
1.76099 -0.719072 2.001 
1.80978 -0.701823 1.953 
1.89886 -0.701104 1.951 
-0.606597 -0.260838 0.729 
-0.605608 -0.275866 0.771 
-0.585616 -0.2866 0.801 
-0.571554 -0.298765 0.835 
-0.553046 -0.310215 0.867 
-0.529191 -0.320233 0.895 
-0.504359 -0.331325 0.926 
-0.48112 -0.345637 0.966 
-0.45009 -0.356729 0.997 
-0.423821 -0.377482 1.055 
-0.392048 -0.395014 1.104 
-0.354164 -0.410758 1.148 
-0.318465 -0.435088 1.216 
-0.272336 -0.452621 1.265 
-0.22653 -0.480529 1.343 
-0.173942 -0.509869 1.425 
-0.112276 -0.532411 1.488 
-0.0462655 -0.573916 1.604 
0.0310025 -0.624366 1.745 
0.116844 -0.649412 1.815 
0.205881 -0.663724 1.855 
0.294549 -0.668733 1.869 
0.382685 -0.670522 1.874 
0.47229 -0.673743 1.883 
0.562139 -0.676247 1.89 
0.656082 -0.68233 1.907 
0.747311 -0.684477 1.913 
0.834728 -0.683045 1.909 
0.933868 -0.690559 1.93 
1.04611 -0.705587 1.972 
1.12359 -0.696642 1.947 
1.23118 -0.706303 1.974 
1.32453 -0.707018 1.976 
1.42739 -0.712385 1.991 
1.52172 -0.713101 1.993 
1.63244 -0.720973 2.015 
1.73578 -0.724908 2.026 
1.79046 -0.709165 1.982 
1.8667 -0.703082 1.965 
-0.62102 -0.258637 0.726 
-0.603357 -0.265762 0.746 
-0.597091 -0.279656 0.785 
-0.57978 -0.289274 0.812 
-0.565959 -0.302099 0.848 
-0.544437 -0.31243 0.877 
-0.520211 -0.322762 0.906 
-0.49592 -0.334874 0.94 
-0.470863 -0.348768 0.979 
-0.440555 -0.36658 1.029 
-0.412814 -0.385462 1.082 
-0.374104 -0.39793 1.117 
-0.331299 -0.416099 1.168 
-0.294636 -0.442818 1.243 
-0.249077 -0.465974 1.308 
-0.200479 -0.496611 1.394 
-0.140754 -0.515849 1.448 
-0.0762977 -0.537224 1.508 
-0.00657923 -0.588167 1.651 
0.076214 -0.636973 1.788 
0.164907 -0.658348 1.848 
0.25213 -0.661198 1.856 
0.342653 -0.669036 1.878 
0.432248 -0.672242 1.887 
0.521029 -0.673311 1.89 
0.617502 -0.682573 1.916 
0.701274 -0.67723 1.901 
0.800268 -0.686136 1.926 
0.885418 -0.682573 1.916 
0.991511 -0.69433 1.949 
1.07902 -0.692192 1.943 
1.18825 -0.703236 1.974 
1.28285 -0.704661 1.978 
1.37991 -0.707155 1.985 
1.4754 -0.708579 1.989 
1.5823 -0.714992 2.007 
1.6842 -0.718554 2.017 
1.76587 -0.713567 2.003 
1.81467 -0.696467 1.955 
1.90385 -0.695755 1.953 
-0.604634 -0.258218 0.728 
-0.601275 -0.272051 0.767 
-0.589119 -0.283402 0.799 
-0.572599 -0.294043 0.829 
-0.555858 -0.306102 0.863 
-0.533558 -0.316743 0.893 
-0.506809 -0.32632 0.92 
-0.485611 -0.341572 0.963 
-0.45354 -0.351503 0.991 
-0.427901 -0.369238 1.041 
-0.396144 -0.385554 1.087 
-0.35851 -0.400096 1.128 
-0.321393 -0.420314 1.185 
-0.279932 -0.445143 1.255 
-0.233434 -0.469262 1.323 
-0.184492 -0.504022 1.421 
-0.122587 -0.522466 1.473 
-0.0563462 -0.545876 1.539 
0.0169968 -0.602982 1.7 
0.102178 -0.640225 1.805 
0.192296 -0.660798 1.863 
0.28003 -0.662926 1.869 
0.370288 -0.668601 1.885 
0.45985 -0.671084 1.892 
0.550354 -0.673921 1.9 
0.645639 -0.681015 1.92 
0.733216 -0.679242 1.915 
0.822475 -0.679242 1.915 
0.915066 -0.681725 1.922 
1.03026 -0.699105 1.971 
1.10961 -0.691301 1.949 
1.21831 -0.701588 1.978 
1.31647 -0.70478 1.987 
1.41192 -0.706199 1.991 
1.51228 -0.709746 2.001 
1.61839 -0.715421 2.017 
1.73023 -0.722869 2.038 
1.7885 -0.708327 1.997 
1.85143 -0.696977 1.965 
1.92324 -0.689883 1.945 
-0.602288 -0.260972 0.739 
-0.593968 -0.272979 0.773 
-0.581758 -0.284632 0.806 
-0.568496 -0.297345 0.842 
-0.547478 -0.307586 0.871 
-0.522593 -0.317121 0.898 
-0.50001 -0.329834 0.934 
-0.476025 -0.34396 0.974 
-0.44389 -0.354554 1.004 
-0.419638 -0.374683 1.061 
-0.385536 -0.390222 1.105 
-0.34703 -0.405407 1.148 
-0.310543 -0.431539 1.222 
-0.263339 -0.448137 1.269 
-0.218833 -0.480273 1.36 
-0.163786 -0.506052 1.433 
-0.100716 -0.525475 1.488 
-0.0341211 -0.571736 1.619 
0.0451201 -0.624001 1.767 
0.131953 -0.645896 1.829 
0.221241 -0.657903 1.863 
0.310226 -0.662494 1.876 
0.399151 -0.664966 1.883 
0.489245 -0.668144 1.892 
0.580789 -0.672029 1.903 
0.673007 -0.67556 1.913 
0.767352 -0.680151 1.926 
0.859793 -0.68227 1.932 
0.957219 -0.687567 1.947 
1.05873 -0.69463 1.967 
1.15159 -0.695336 1.969 
1.24778 -0.697808 1.976 
1.34734 -0.701693 1.987 
1.44576 -0.704518 1.995 
1.55108 -0.710168 2.011 
1.65545 -0.714759 2.024 
1.74547 -0.712993 2.019 
1.79219 -0.69463 1.967 
1.88866 -0.696396 1.972 
-0.611435 -0.25455 0.724 
-0.594515 -0.262988 0.748 
-0.594068 -0.279161 0.794 
-0.5753 -0.288302 0.82 
-0.559349 -0.300256 0.854 
-0.534882 -0.311507 0.886 
-0.510298 -0.322055 0.916 
-0.487512 -0.335767 0.955 
-0.455697 -0.347721 0.989 
-0.429479 -0.364597 1.037 
-0.397684 -0.380418 1.082 
-0.359447 -0.393779 1.12 
-0.322332 -0.413116 1.175 
-0.28396 -0.43843 1.247 
-0.238152 -0.462338 1.315 
-0.190443 -0.497849 1.416 
-0.128749 -0.515077 1.465 
-0.0625702 -0.533008 1.516 
0.00891824 -0.587504 1.671 
0.0932455 -0.631101 1.795 
0.183613 -0.655009 1.863 
0.271319 -0.657118 1.869 
0.362461 -0.664501 1.89 
0.453177 -0.668369 1.901 
0.543493 -0.670478 1.907 
0.638016 -0.676455 1.924 
0.725425 -0.674346 1.918 
0.818222 -0.677159 1.926 
0.907994 -0.677159 1.926 
1.02108 -0.69298 1.971 
1.10278 -0.686651 1.953 
1.20909 -0.695441 1.978 
1.30984 -0.700012 1.991 
1.40264 -0.700012 1.991 
1.51197 -0.707747 2.013 
1.61218 -0.710559 2.021 
1.72242 -0.71724 2.04 
1.78454 -0.704231 2.003 
1.84415 -0.691574 1.967 
1.91418 -0.683839 1.945 
-0.600658 -0.257975 0.737 
-0.591663 -0.269526 0.77 
-0.581758 -0.282128 0.806 
-0.566552 -0.295079 0.843 
-0.544772 -0.30488 0.871 
-0.515438 -0.318531 0.91 
-0.48983 -0.331833 0.948 
-0.460686 -0.343034 0.98 
-0.432638 -0.361586 1.033 
-0.401611 -0.377687 1.079 
-0.363365 -0.390638 1.116 
-0.325297 -0.40814 1.166 
-0.287681 -0.433343 1.238 
-0.243352 -0.458545 1.31 
-0.195373 -0.491448 1.404 
-0.13493 -0.51035 1.458 
-0.0692689 -0.527852 1.508 
0.00111681 -0.578257 1.652 
0.0845007 -0.625511 1.787 
0.174836 -0.651764 1.862 
0.262326 -0.653514 1.867 
0.353652 -0.661565 1.89 
0.445251 -0.666816 1.905 
0.535726 -0.668916 1.911 
0.629702 -0.674166 1.926 
0.716485 -0.671366 1.918 
0.813026 -0.677317 1.935 
0.900883 -0.675566 1.93 
1.01086 -0.689218 1.969 
1.09704 -0.685717 1.959 
1.20109 -0.693068 1.98 
1.29795 -0.695518 1.987 
1.39196 -0.696218 1.989 
1.50706 -0.706719 2.019 
1.60514 -0.70847 2.024 
1.71543 -0.71512 2.043 
1.78229 -0.703919 2.011 
1.83684 -0.689218 1.969 
1.90903 -0.682217 1.949 
-0.600311 -0.254739 0.731 
-0.591801 -0.266239 0.764 
-0.583855 -0.279482 0.802 
-0.567596 -0.290284 0.833 
-0.547813 -0.300739 0.863 
-0.525234 -0.311193 0.893 
-0.494337 -0.326526 0.937 
-0.469421 -0.340117 0.976 
-0.439146 -0.356147 1.022 
-0.410664 -0.373571 1.072 
-0.373147 -0.386465 1.109 
-0.336529 -0.404586 1.161 
-0.297739 -0.42654 1.224 
-0.253077 -0.448495 1.287 
-0.205992 -0.478464 1.373 
-0.149132 -0.502509 1.442 
-0.0848741 -0.52063 1.494 
-0.0166663 -0.569417 1.634 
0.0644103 -0.616462 1.769 
0.153506 -0.644341 1.849 
0.241503 -0.64922 1.863 
0.33292 -0.65828 1.889 
0.423641 -0.662462 1.901 
0.513864 -0.664553 1.907 
0.607491 -0.66978 1.922 
0.697076 -0.66978 1.922 
0.7928 -0.675007 1.937 
0.889467 -0.679886 1.951 
0.985429 -0.683371 1.961 
1.08232 -0.686855 1.971 
1.18075 -0.690689 1.982 
1.26927 -0.688598 1.976 
1.37309 -0.694522 1.993 
1.48511 -0.703583 2.019 
1.58469 -0.706022 2.026 
1.68907 -0.710204 2.038 
1.7753 -0.706719 2.028 
1.81359 -0.685462 1.967 
1.90527 -0.685462 1.967 
-0.602973 -0.251869 0.726 
-0.591084 -0.261583 0.754 
-0.587142 -0.276848 0.798 
-0.568554 -0.286215 0.825 
-0.550019 -0.29697 0.856 
-0.531575 -0.309459 0.892 
-0.50022 -0.322295 0.929 
-0.476101 -0.335825 0.968 
-0.444774 -0.349009 1.006 
-0.416869 -0.365661 1.054 
-0.38414 -0.381967 1.101 
-0.34256 -0.401395 1.157 
-0.304598 -0.423598 1.221 
-0.257221 -0.439903 1.268 
-0.212337 -0.471474 1.359 
-0.155529 -0.499228 1.439 
-0.0915304 -0.516574 1.489 
-0.0240001 -0.560287 1.615 
0.0557522 -0.609204 1.756 
0.144496 -0.639733 1.844 
0.233069 -0.647019 1.865 
0.324287 -0.655692 1.89 
0.415217 -0.660202 1.903 
0.504446 -0.660896 1.905 
0.598533 -0.666794 1.922 
0.690266 -0.668875 1.928 
0.785391 -0.673385 1.941 
0.883081 -0.678936 1.957 
0.97828 -0.681712 1.965 
1.07586 -0.685528 1.976 
1.17328 -0.68865 1.985 
1.26261 -0.686916 1.98 
1.3679 -0.693507 1.999 
1.4757 -0.700446 2.019 
1.5768 -0.703568 2.028 
1.68121 -0.707731 2.04 
1.77107 -0.70565 2.034 
1.80809 -0.683793 1.971 
1.90478 -0.685528 1.976 
-0.603851 -0.249705 0.723 
-0.589867 -0.258339 0.748 
-0.589133 -0.274226 0.794 
-0.5709 -0.283552 0.821 
-0.552744 -0.294258 0.852 
-0.532903 -0.305655 0.885 
-0.505476 -0.316017 0.915 
-0.484578 -0.330868 0.958 
-0.452324 -0.340193 0.985 
-0.424567 -0.355389 1.029 
-0.395271 -0.373003 1.08 
-0.351696 -0.393726 1.14 
-0.318465 -0.419974 1.216 
-0.269967 -0.433098 1.254 
-0.224843 -0.460383 1.333 
-0.174186 -0.492848 1.427 
-0.111597 -0.510807 1.479 
-0.0445925 -0.533947 1.546 
0.0304162 -0.591279 1.712 
0.116393 -0.624435 1.808 
0.207768 -0.646539 1.872 
0.297701 -0.65241 1.889 
0.387586 -0.655519 1.898 
0.477808 -0.657936 1.905 
0.571657 -0.663808 1.922 
0.663994 -0.666571 1.93 
0.759031 -0.67106 1.943 
0.847846 -0.669679 1.939 
0.948868 -0.677277 1.961 
1.05141 -0.68453 1.982 
1.14033 -0.682458 1.976 
1.24303 -0.688329 1.993 
1.34665 -0.693855 2.009 
1.43886 -0.693164 2.007 
1.54844 -0.700417 2.028 
1.65512 -0.705598 2.043 
1.73749 -0.700417 2.028 
1.81124 -0.692474 2.005 
1.89139 -0.687638 1.991 
-0.612262 -0.247894 0.721 
-0.5923 -0.253739 0.738 
-0.585117 -0.266116 0.774 
-0.575996 -0.279182 0.812 
-0.559356 -0.290184 0.844 
-0.538501 -0.300498 0.874 
-0.515419 -0.311157 0.905 
-0.490492 -0.322503 0.938 
-0.464871 -0.335568 0.976 
-0.438286 -0.350696 1.02 
-0.404532 -0.367543 1.069 
-0.356893 -0.389892 1.134 
-0.322 -0.412927 1.201 
-0.27466 -0.426336 1.24 
-0.231204 -0.45453 1.322 
-0.182541 -0.489255 1.423 
-0.120217 -0.506103 1.472 
-0.0534643 -0.524325 1.525 
0.0194301 -0.578305 1.682 
0.10411 -0.615437 1.79 
0.196029 -0.643287 1.871 
0.286416 -0.650507 1.892 
0.376781 -0.654289 1.903 
0.467926 -0.657727 1.913 
0.560877 -0.662197 1.926 
0.653014 -0.664603 1.933 
0.748493 -0.669417 1.947 
0.836657 -0.667354 1.941 
0.941935 -0.678012 1.972 
1.04276 -0.683857 1.989 
1.12919 -0.680075 1.978 
1.23312 -0.686608 1.997 
1.3355 -0.691421 2.011 
1.42497 -0.689358 2.005 
1.54038 -0.699329 2.034 
1.64564 -0.703799 2.047 
1.73339 -0.700705 2.038 
1.81941 -0.697266 2.028 
1.88657 -0.687296 1.999 
1.93419 -0.67148 1.953 
-0.595602 -0.251566 0.735 
-0.582728 -0.261149 0.763 
-0.580152 -0.276893 0.809 
-0.561889 -0.286819 0.838 
-0.540299 -0.296402 0.866 
-0.518985 -0.307697 0.899 
-0.494595 -0.318992 0.932 
-0.470033 -0.33234 0.971 
-0.443585 -0.347058 1.014 
-0.411566 -0.360406 1.053 
-0.379008 -0.376835 1.101 
-0.330547 -0.396686 1.159 
-0.29037 -0.419276 1.225 
-0.247935 -0.44563 1.302 
-0.199904 -0.47575 1.39 
-0.140851 -0.495943 1.449 
-0.0762471 -0.515795 1.507 
-0.00400438 -0.563712 1.647 
0.0778875 -0.603415 1.763 
0.168686 -0.63593 1.858 
0.258449 -0.643802 1.881 
0.349803 -0.650648 1.901 
0.442329 -0.656466 1.918 
0.5345 -0.659889 1.928 
0.625984 -0.6616 1.933 
0.721268 -0.666392 1.947 
0.817023 -0.670499 1.959 
0.911115 -0.672553 1.965 
1.01699 -0.682136 1.993 
1.10877 -0.681452 1.991 
1.20519 -0.683505 1.997 
1.30088 -0.684874 2.001 
1.39832 -0.686928 2.007 
1.51863 -0.699249 2.043 
1.61149 -0.698223 2.04 
1.7233 -0.705068 2.06 
1.8096 -0.701303 2.049 
1.8735 -0.689666 2.015 
1.92055 -0.673237 1.967 
-0.598461 -0.247357 0.726 
-0.584842 -0.256216 0.752 
-0.583422 -0.271888 0.798 
-0.565393 -0.281428 0.826 
-0.545392 -0.291309 0.855 
-0.527417 -0.303915 0.892 
-0.502181 -0.314137 0.922 
-0.477634 -0.326743 0.959 
-0.446478 -0.336964 0.989 
-0.418598 -0.352297 1.034 
-0.388056 -0.370695 1.088 
-0.349725 -0.39216 1.151 
-0.308139 -0.415669 1.22 
-0.262191 -0.433727 1.273 
-0.215285 -0.460302 1.351 
-0.160996 -0.486537 1.428 
-0.0992642 -0.511409 1.501 
-0.0305125 -0.532533 1.563 
0.0517256 -0.58364 1.713 
0.141093 -0.625889 1.837 
0.231529 -0.639176 1.876 
0.323221 -0.647694 1.901 
0.415077 -0.652805 1.916 
0.504119 -0.652464 1.915 
0.598645 -0.658256 1.932 
0.695469 -0.66473 1.951 
0.791243 -0.668818 1.963 
0.884537 -0.670181 1.967 
0.985153 -0.676314 1.985 
1.07876 -0.676995 1.987 
1.17491 -0.67904 1.993 
1.27417 -0.682447 2.003 
1.37845 -0.687898 2.019 
1.48787 -0.695053 2.04 
1.5783 -0.693009 2.034 
1.69285 -0.701186 2.058 
1.78617 -0.700164 2.055 
1.86272 -0.693009 2.034 
1.91422 -0.677677 1.989 
-0.603301 -0.244533 0.721 
-0.586343 -0.252673 0.745 
-0.581236 -0.26624 0.785 
-0.569624 -0.278449 0.821 
-0.548832 -0.287607 0.848 
-0.530928 -0.299816 0.884 
-0.50579 -0.309652 0.913 
-0.484037 -0.323557 0.954 
-0.450168 -0.331358 0.977 
-0.423267 -0.34662 1.022 
-0.395111 -0.364596 1.075 
-0.357636 -0.387319 1.142 
-0.320918 -0.410721 1.211 
-0.271898 -0.422253 1.245 
-0.228814 -0.451759 1.332 
-0.176868 -0.479231 1.413 
-0.116664 -0.503651 1.485 
-0.0488853 -0.518913 1.53 
0.0246127 -0.569447 1.679 
0.109979 -0.60879 1.795 
0.201951 -0.634905 1.872 
0.294303 -0.646097 1.905 
0.384705 -0.648811 1.913 
0.474366 -0.649489 1.915 
0.5701 -0.65695 1.937 
0.663793 -0.660342 1.947 
0.760744 -0.665768 1.963 
0.853108 -0.666447 1.965 
0.950947 -0.670856 1.978 
1.05105 -0.675943 1.993 
1.13936 -0.67323 1.985 
1.25298 -0.684761 2.019 
1.35042 -0.686457 2.024 
1.44262 -0.68544 2.021 
1.55126 -0.691884 2.04 
1.66088 -0.697989 2.058 
1.74912 -0.694936 2.049 
1.85633 -0.699345 2.062 
1.91645 -0.686457 2.024 
1.96311 -0.670178 1.976 
-0.590353 -0.248815 0.737 
-0.578633 -0.258943 0.767 
-0.572356 -0.27481 0.814 
-0.554111 -0.284939 0.844 
-0.533679 -0.295404 0.875 
-0.509231 -0.305195 0.904 
-0.485696 -0.317349 0.94 
-0.458336 -0.329165 0.975 
-0.431524 -0.344019 1.019 
-0.401741 -0.359887 1.066 
-0.365925 -0.374066 1.108 
-0.328463 -0.390947 1.158 
-0.288947 -0.41154 1.219 
-0.247744 -0.439224 1.301 
-0.199616 -0.468596 1.388 
-0.140754 -0.488852 1.448 
-0.0764495 -0.510121 1.511 
-0.00395819 -0.549621 1.628 
0.0774458 -0.591822 1.753 
0.168686 -0.62727 1.858 
0.260235 -0.639424 1.894 
0.351275 -0.644488 1.909 
0.443713 -0.649552 1.924 
0.536441 -0.653266 1.935 
0.630518 -0.657317 1.947 
0.727195 -0.662719 1.963 
0.822028 -0.665419 1.971 
0.922243 -0.671496 1.989 
1.02312 -0.676898 2.005 
1.11657 -0.676898 2.005 
1.21606 -0.680274 2.015 
1.31258 -0.681624 2.019 
1.41017 -0.683313 2.024 
1.52458 -0.692428 2.051 
1.61859 -0.691753 2.049 
1.73083 -0.698505 2.069 
1.8308 -0.699855 2.073 
1.91348 -0.694791 2.058 
1.93519 -0.669133 1.982 
-0.597847 -0.244645 0.728 
-0.581337 -0.252711 0.752 
-0.581758 -0.270857 0.806 
-0.559719 -0.278587 0.829 
-0.539307 -0.288332 0.858 
-0.519102 -0.299758 0.892 
-0.495192 -0.310847 0.925 
-0.47016 -0.323281 0.962 
-0.443652 -0.338404 1.007 
-0.411686 -0.351174 1.045 
-0.381388 -0.368984 1.098 
-0.345246 -0.385787 1.148 
-0.309272 -0.408974 1.217 
-0.265829 -0.430482 1.281 
-0.216902 -0.452997 1.348 
-0.161843 -0.475849 1.416 
-0.102612 -0.509454 1.516 
-0.0324983 -0.518191 1.542 
0.042873 -0.56423 1.679 
0.131448 -0.612285 1.822 
0.224329 -0.634801 1.889 
0.316014 -0.642194 1.911 
0.408266 -0.647235 1.926 
0.496486 -0.645218 1.92 
0.593607 -0.65362 1.945 
0.691301 -0.660341 1.965 
0.788866 -0.665382 1.98 
0.877594 -0.662693 1.972 
0.975901 -0.667062 1.985 
1.07058 -0.668406 1.989 
1.16445 -0.669078 1.991 
1.28188 -0.682184 2.03 
1.3765 -0.682184 2.03 
1.48489 -0.688569 2.049 
1.57191 -0.684873 2.038 
1.6898 -0.694282 2.066 
1.78869 -0.69529 2.069 
1.91337 -0.705708 2.1 
1.93559 -0.67916 2.021 
-0.599675 -0.240169 0.718 
-0.581731 -0.250204 0.748 
-0.579036 -0.264922 0.792 
-0.561464 -0.275626 0.824 
-0.5421 -0.285661 0.854 
-0.520703 -0.297703 0.89 
-0.496451 -0.308407 0.922 
-0.472166 -0.321118 0.96 
-0.443003 -0.332825 0.995 
-0.410847 -0.350219 1.047 
-0.379682 -0.367278 1.098 
-0.343463 -0.384003 1.148 
-0.307129 -0.406749 1.216 
-0.264868 -0.430164 1.286 
-0.214648 -0.450568 1.347 
-0.159643 -0.473649 1.416 
-0.100587 -0.508771 1.521 
-0.0300635 -0.515126 1.54 
0.0452649 -0.558946 1.671 
0.1345 -0.610458 1.825 
0.228106 -0.634207 1.896 
0.319651 -0.640563 1.915 
0.412539 -0.646249 1.932 
0.50155 -0.644911 1.928 
0.59847 -0.652605 1.951 
0.696474 -0.659295 1.971 
0.793942 -0.663978 1.985 
0.882444 -0.660967 1.976 
0.983917 -0.667323 1.995 
1.07582 -0.666654 1.993 
1.17106 -0.667992 1.997 
1.28757 -0.680368 2.034 
1.38237 -0.680368 2.034 
1.49243 -0.687393 2.055 
1.57894 -0.683379 2.043 
1.69711 -0.692745 2.071 
1.7971 -0.694083 2.075 
1.9285 -0.706793 2.113 
1.94929 -0.679699 2.032 
-0.598559 -0.239054 0.718 
-0.579018 -0.249375 0.749 
-0.578976 -0.265356 0.797 
-0.5583 -0.274679 0.825 
-0.54001 -0.285333 0.857 
-0.515751 -0.296653 0.891 
-0.49103 -0.308972 0.928 
-0.465629 -0.321291 0.965 
-0.436138 -0.337938 1.015 
-0.40645 -0.353254 1.061 
-0.370455 -0.366571 1.101 
-0.333631 -0.383218 1.151 
-0.295064 -0.403861 1.213 
-0.254847 -0.431495 1.296 
-0.204792 -0.454468 1.365 
-0.148408 -0.477775 1.435 
-0.0864648 -0.506741 1.522 
-0.0160033 -0.522389 1.569 
0.0611334 -0.559013 1.679 
0.152924 -0.613283 1.842 
0.246429 -0.632926 1.901 
0.338031 -0.638587 1.918 
0.431218 -0.644247 1.935 
0.524643 -0.648242 1.947 
0.619186 -0.652237 1.959 
0.716661 -0.657897 1.976 
0.811219 -0.659895 1.982 
0.90588 -0.66156 1.987 
1.01156 -0.670216 2.013 
1.10209 -0.668219 2.007 
1.2004 -0.670882 2.015 
1.30524 -0.676542 2.032 
1.40547 -0.679206 2.04 
1.51379 -0.685199 2.058 
1.60581 -0.683534 2.053 
1.72139 -0.691525 2.077 
1.83045 -0.696186 2.091 
1.95097 -0.704509 2.116 
1.95757 -0.67288 2.021 
-0.594953 -0.241915 0.73 
-0.577064 -0.248874 0.751 
-0.579592 -0.266106 0.803 
-0.557018 -0.273397 0.825 
-0.539307 -0.284333 0.858 
-0.512256 -0.297257 0.897 
-0.486705 -0.30753 0.928 
-0.462087 -0.320454 0.967 
-0.432257 -0.337024 1.017 
-0.401126 -0.351274 1.06 
-0.366651 -0.366186 1.105 
-0.329407 -0.382756 1.155 
-0.287762 -0.402308 1.214 
-0.246792 -0.429482 1.296 
-0.197747 -0.455662 1.375 
-0.140851 -0.480185 1.449 
-0.0768037 -0.50305 1.518 
-0.0063481 -0.527905 1.593 
0.0730171 -0.567672 1.713 
0.165354 -0.614066 1.853 
0.259058 -0.631961 1.907 
0.350316 -0.636269 1.92 
0.442556 -0.640246 1.932 
0.538948 -0.647868 1.955 
0.634583 -0.652507 1.969 
0.729679 -0.65549 1.978 
0.825614 -0.658472 1.987 
0.924698 -0.663112 2.001 
1.02814 -0.66974 2.021 
1.11901 -0.667751 2.015 
1.22557 -0.674711 2.036 
1.32176 -0.675373 2.038 
1.42023 -0.67703 2.043 
1.52955 -0.683327 2.062 
1.62724 -0.68399 2.064 
1.73847 -0.689955 2.082 
1.84874 -0.694925 2.097 
1.95483 -0.697908 2.106 
2.01138 -0.678356 2.047 
-0.58909 -0.2421 0.734 
-0.574533 -0.250676 0.76 
-0.575286 -0.267497 0.811 
-0.553391 -0.275414 0.835 
-0.532339 -0.284979 0.864 
-0.507265 -0.297842 0.903 
-0.481145 -0.308067 0.934 
-0.453438 -0.320271 0.971 
-0.424855 -0.337093 1.022 
-0.391803 -0.351606 1.066 
-0.359768 -0.369747 1.121 
-0.317053 -0.385579 1.169 
-0.274802 -0.406359 1.232 
-0.229552 -0.429117 1.301 
-0.180208 -0.457813 1.388 
-0.122753 -0.486509 1.475 
-0.0556139 -0.501022 1.519 
0.0161269 -0.532026 1.613 
0.101046 -0.588758 1.785 
0.194361 -0.621082 1.883 
0.287971 -0.633946 1.922 
0.378342 -0.635265 1.926 
0.467141 -0.633946 1.922 
0.568023 -0.64681 1.961 
0.66447 -0.651757 1.976 
0.760018 -0.654726 1.985 
0.856834 -0.658024 1.995 
0.954583 -0.661322 2.005 
1.05326 -0.664621 2.015 
1.14832 -0.66528 2.017 
1.26759 -0.678804 2.058 
1.35622 -0.675176 2.047 
1.45731 -0.677814 2.055 
1.56141 -0.681442 2.066 
1.66492 -0.684411 2.075 
1.76589 -0.68606 2.08 
1.89866 -0.699254 2.12 
1.97203 -0.690348 2.093 
2.04289 -0.681442 2.066 
-0.583558 -0.242929 0.74 
-0.569842 -0.252121 0.768 
-0.564641 -0.266566 0.812 
-0.547554 -0.277071 0.844 
-0.526882 -0.287248 0.875 
-0.50443 -0.298081 0.908 
-0.478903 -0.308914 0.941 
-0.449375 -0.319091 0.972 
-0.424855 -0.335505 1.022 
-0.391436 -0.349621 1.065 
-0.358805 -0.36702 1.118 
-0.316511 -0.383106 1.167 
