# .PCD v.7 - Point Cloud Data file format
VERSION .7
FIELDS x y z
SIZE 4 4 4
TYPE F F F
COUNT 1 1 1
WIDTH 1892
HEIGHT 1
VIEWPOINT 0 0 0 1 0 0 0
POINTS 1892
DATA ascii
-0.00571183 0.126746 0.56 
0.0204263 0.126973 0.561 
0.0465747 0.126973 0.561 
0.0725935 0.126746 0.56 
0.0988715 0.126973 0.561 
0.124574 0.12652 0.559 
0.15036 0.126294 0.558 
0.176052 0.126067 0.557 
0.201289 0.125615 0.555 
0.227158 0.125615 0.555 
0.253938 0.126067 0.557 
0.278392 0.125388 0.554 
0.304764 0.125615 0.555 
0.330037 0.125388 0.554 
0.355216 0.125162 0.553 
0.380992 0.125162 0.553 
0.406767 0.125162 0.553 
0.433325 0.125388 0.554 
0.459147 0.125388 0.554 
0.484094 0.125162 0.553 
0.508947 0.124936 0.552 
0.533708 0.124709 0.551 
-0.546407 0.153368 0.673 
-0.508578 0.152684 0.67 
-0.475977 0.152912 0.671 
-0.445364 0.15314 0.672 
-0.414042 0.15314 0.672 
-0.381581 0.152684 0.67 
-0.348789 0.152456 0.669 
-0.319981 0.153596 0.674 
-0.286425 0.152456 0.669 
-0.256387 0.15314 0.672 
-0.216687 0.148126 0.65 
-0.192125 0.152684 0.67 
-0.158255 0.150177 0.659 
-0.128051 0.152 0.667 
-0.097543 0.152912 0.671 
-0.0592351 0.148354 0.651 
0.00385882 0.127617 0.56 
0.0300141 0.127844 0.561 
0.0561625 0.127844 0.561 
0.0821641 0.127617 0.56 
0.107493 0.126705 0.556 
0.133888 0.127161 0.558 
0.159896 0.127161 0.558 
0.185572 0.126933 0.557 
0.213361 0.126477 0.555 
0.240092 0.126933 0.557 
0.264143 0.126021 0.553 
0.289919 0.126021 0.553 
0.316265 0.126249 0.554 
0.342087 0.126249 0.554 
0.367245 0.126021 0.553 
0.393731 0.126249 0.554 
0.418796 0.126021 0.553 
0.445375 0.126249 0.554 
0.470347 0.126021 0.553 
0.495225 0.125793 0.552 
0.520954 0.125793 0.552 
0.544702 0.125338 0.55 
-0.527845 0.154184 0.672 
-0.503912 0.156478 0.682 
-0.463124 0.153496 0.669 
-0.433233 0.153954 0.671 
-0.401958 0.153954 0.671 
-0.369578 0.153496 0.669 
-0.338901 0.153725 0.67 
-0.304095 0.153496 0.669 
-0.27332 0.153725 0.67 
-0.242453 0.153954 0.671 
-0.203624 0.148448 0.647 
-0.168661 0.14776 0.644 
-0.136553 0.152119 0.663 
-0.106607 0.153496 0.669 
-0.0684973 0.14753 0.643 
-0.00571183 0.128487 0.56 
0.02126 0.128487 0.56 
0.0473618 0.128487 0.56 
0.0733323 0.128257 0.559 
0.0993875 0.128257 0.559 
0.125218 0.128028 0.558 
0.150956 0.127798 0.557 
0.1766 0.127569 0.556 
0.204738 0.127339 0.555 
0.230191 0.12711 0.554 
0.256013 0.12711 0.554 
0.281327 0.126881 0.553 
0.307658 0.12711 0.554 
0.332878 0.126881 0.553 
0.358005 0.126651 0.552 
0.384429 0.126881 0.553 
0.410204 0.126881 0.553 
0.43598 0.126881 0.553 
0.461755 0.126881 0.553 
0.486649 0.126651 0.552 
0.51145 0.126422 0.551 
0.536157 0.126192 0.55 
-0.538286 0.155228 0.672 
-0.505455 0.154766 0.67 
-0.469361 0.154535 0.669 
-0.439489 0.154997 0.671 
-0.408213 0.154997 0.671 
-0.375814 0.154535 0.669 
-0.344632 0.154535 0.669 
-0.312877 0.154766 0.67 
-0.281228 0.154535 0.669 
-0.250793 0.154997 0.671 
-0.209331 0.149222 0.646 
-0.176563 0.150377 0.651 
-0.13429 0.152918 0.662 
-0.104528 0.154535 0.669 
-0.0656021 0.14876 0.644 
-0.00483313 0.129126 0.559 
0.02213 0.129357 0.56 
0.0481457 0.129126 0.559 
0.0742008 0.129126 0.559 
0.100077 0.128895 0.558 
0.125859 0.128664 0.557 
0.151821 0.128664 0.557 
0.177464 0.128433 0.556 
0.203013 0.128202 0.555 
0.228057 0.12774 0.553 
0.254292 0.127971 0.554 
0.279608 0.12774 0.553 
0.305936 0.127971 0.554 
0.331159 0.12774 0.553 
0.355644 0.127278 0.551 
0.382018 0.127509 0.552 
0.407747 0.127509 0.552 
0.434261 0.12774 0.553 
0.460037 0.12774 0.553 
0.484934 0.127509 0.552 
0.508812 0.127047 0.55 
0.533476 0.126816 0.549 
-0.53933 0.156272 0.672 
-0.506496 0.155807 0.67 
-0.4704 0.155574 0.669 
-0.440531 0.156039 0.671 
-0.409256 0.156039 0.671 
-0.376853 0.155574 0.669 
-0.345154 0.155342 0.668 
-0.313918 0.155807 0.67 
-0.281845 0.155342 0.668 
-0.25146 0.155807 0.67 
-0.209007 0.149993 0.645 
-0.168137 0.149296 0.642 
-0.132233 0.153947 0.662 
-0.102143 0.155109 0.667 
-0.0647018 0.149993 0.645 
-0.00829229 0.129762 0.558 
0.02126 0.130227 0.56 
0.0472772 0.129994 0.559 
0.0732012 0.129762 0.558 
0.0992097 0.129762 0.558 
0.124994 0.129529 0.557 
0.150685 0.129297 0.556 
0.176282 0.129064 0.555 
0.206091 0.128831 0.554 
0.231494 0.128599 0.553 
0.256804 0.128366 0.552 
0.283045 0.128599 0.553 
0.308821 0.128599 0.553 
0.333991 0.128366 0.552 
0.35972 0.128366 0.552 
0.386147 0.128599 0.553 
0.411178 0.128366 0.552 
0.436907 0.128366 0.552 
0.463474 0.128599 0.553 
0.48748 0.128134 0.551 
0.512231 0.127901 0.55 
0.536888 0.127669 0.549 
-0.536198 0.157316 0.672 
-0.504125 0.157082 0.671 
-0.468321 0.156614 0.669 
-0.438446 0.157082 0.671 
-0.407171 0.157082 0.671 
-0.374214 0.15638 0.668 
-0.343079 0.15638 0.668 
-0.31241 0.156614 0.669 
-0.280387 0.156146 0.667 
-0.250045 0.156614 0.669 
-0.207683 0.150761 0.644 
-0.166142 0.150293 0.642 
-0.13429 0.154975 0.662 
-0.104216 0.156146 0.667 
-0.0664992 0.150527 0.643 
-0.012627 0.130629 0.558 
0.0168795 0.130863 0.559 
0.0428579 0.130629 0.558 
0.0689898 0.130863 0.559 
0.0948749 0.130629 0.558 
0.12045 0.13016 0.556 
0.146629 0.130394 0.557 
0.171971 0.129926 0.555 
0.197483 0.129692 0.554 
0.228057 0.129458 0.553 
0.253374 0.129224 0.552 
0.279103 0.129224 0.552 
0.304832 0.129224 0.552 
0.330561 0.129224 0.552 
0.355644 0.12899 0.551 
0.382018 0.129224 0.552 
0.407008 0.12899 0.551 
0.433476 0.129224 0.552 
0.459205 0.129224 0.552 
0.484055 0.12899 0.551 
0.507887 0.128522 0.549 
0.532505 0.128288 0.548 
-0.540613 0.158125 0.671 
-0.508578 0.157889 0.67 
-0.473519 0.157653 0.669 
-0.442997 0.157889 0.67 
-0.411769 0.157889 0.67 
-0.379404 0.157418 0.668 
-0.347225 0.156946 0.666 
-0.317607 0.157653 0.669 
-0.284712 0.156711 0.665 
-0.254479 0.157182 0.667 
-0.213686 0.151762 0.644 
-0.189373 0.156475 0.664 
-0.144198 0.156711 0.665 
-0.113372 0.156946 0.666 
-0.0764894 0.151526 0.643 
-0.0229892 0.13126 0.557 
0.00815047 0.131024 0.556 
0.0341883 0.131496 0.558 
0.0603048 0.131731 0.559 
0.0862054 0.131496 0.558 
0.11141 0.130553 0.554 
0.137727 0.131024 0.556 
0.163642 0.131024 0.556 
0.189217 0.130789 0.555 
0.216029 0.130317 0.553 
0.241804 0.130317 0.553 
0.266128 0.12961 0.55 
0.291764 0.12961 0.55 
0.318554 0.130082 0.552 
0.343659 0.129846 0.551 
0.368671 0.12961 0.55 
0.395023 0.129846 0.551 
0.419942 0.12961 0.55 
0.446388 0.129846 0.551 
0.471213 0.12961 0.55 
0.495946 0.129375 0.549 
0.521535 0.129375 0.549 
-0.561256 0.159404 0.672 
-0.529145 0.159167 0.671 
-0.493391 0.159404 0.672 
-0.456568 0.157507 0.664 
-0.428183 0.158455 0.668 
-0.397642 0.158693 0.669 
-0.365364 0.158218 0.667 
-0.334776 0.158455 0.668 
-0.302277 0.157744 0.665 
-0.272097 0.158218 0.667 
-0.241008 0.158218 0.667 
-0.202548 0.154186 0.65 
-0.163404 0.152525 0.643 
-0.137584 0.157269 0.663 
-0.107164 0.157981 0.666 
-0.0723806 0.152288 0.642 
-0.0194925 0.131888 0.556 
0.0116059 0.131888 0.556 
0.0375887 0.132125 0.557 
0.0636647 0.132362 0.558 
0.0896732 0.132362 0.558 
0.114853 0.131414 0.554 
0.141182 0.131888 0.556 
0.166797 0.131651 0.555 
0.192319 0.131414 0.554 
0.217747 0.131176 0.553 
0.243082 0.130939 0.552 
0.267837 0.130465 0.55 
0.293473 0.130465 0.55 
0.319689 0.130702 0.551 
0.345371 0.130702 0.551 
0.37038 0.130465 0.55 
0.396016 0.130465 0.55 
0.421651 0.130465 0.55 
0.447287 0.130465 0.55 
0.472923 0.130465 0.55 
0.497652 0.130228 0.549 
0.523241 0.130228 0.549 
-0.557293 0.16021 0.671 
-0.526017 0.16021 0.671 
-0.494742 0.16021 0.671 
-0.458631 0.158538 0.664 
-0.430903 0.159732 0.669 
-0.39972 0.159732 0.669 
-0.367436 0.159255 0.667 
-0.337356 0.159732 0.669 
-0.304343 0.158777 0.665 
-0.273758 0.159016 0.666 
-0.242351 0.158777 0.665 
-0.20368 0.153763 0.644 
-0.170596 0.152808 0.64 
-0.143981 0.158538 0.664 
-0.113202 0.158777 0.665 
-0.0783653 0.153285 0.642 
-0.0255854 0.132991 0.557 
0.00383125 0.132752 0.556 
0.0298536 0.133229 0.558 
0.055762 0.132991 0.557 
0.0815772 0.132752 0.556 
0.107106 0.132274 0.554 
0.133168 0.132513 0.555 
0.161624 0.132513 0.555 
0.191113 0.132036 0.553 
0.219926 0.131797 0.552 
0.24521 0.131558 0.551 
0.269909 0.131081 0.549 
0.295498 0.131081 0.549 
0.322257 0.131558 0.551 
0.347308 0.131319 0.55 
0.372943 0.131319 0.55 
0.397854 0.131081 0.549 
0.424215 0.131319 0.55 
0.449033 0.131081 0.549 
0.474622 0.131081 0.549 
0.500211 0.131081 0.549 
0.524842 0.130842 0.548 
-0.554165 0.161252 0.671 
-0.522111 0.161012 0.67 
-0.490882 0.161012 0.67 
-0.45485 0.15933 0.663 
-0.426506 0.160291 0.667 
-0.396602 0.160771 0.669 
-0.364327 0.160291 0.667 
-0.334238 0.160771 0.669 
-0.30079 0.15957 0.664 
-0.270654 0.160051 0.666 
-0.239252 0.15981 0.665 
-0.201849 0.156446 0.651 
-0.167613 0.153802 0.64 
-0.139854 0.15957 0.664 
-0.109069 0.15981 0.665 
-0.0751382 0.153802 0.64 
-0.0238546 0.133856 0.557 
0.00468665 0.133375 0.555 
0.0306655 0.133856 0.557 
0.0565257 0.133616 0.556 
0.0824411 0.133616 0.556 
0.107967 0.133135 0.554 
0.13403 0.133375 0.555 
0.165935 0.133375 0.555 
0.19369 0.132895 0.553 
0.22124 0.132414 0.551 
0.246922 0.132414 0.551 
0.271615 0.131934 0.549 
0.297204 0.131934 0.549 
0.323381 0.132174 0.55 
0.348382 0.131934 0.549 
0.374652 0.132174 0.55 
0.39956 0.131934 0.549 
0.425924 0.132174 0.55 
0.450738 0.131934 0.549 
0.476328 0.131934 0.549 
0.501002 0.131693 0.548 
0.525584 0.131453 0.547 
-0.55208 0.162295 0.671 
-0.519253 0.161811 0.669 
-0.48807 0.161811 0.669 
-0.45279 0.16036 0.663 
-0.424433 0.161327 0.667 
-0.394523 0.161811 0.669 
-0.360135 0.160843 0.665 
-0.331614 0.162053 0.67 
-0.297695 0.160602 0.664 
-0.266115 0.160843 0.665 
-0.23303 0.160118 0.662 
-0.199626 0.158908 0.657 
-0.162405 0.155522 0.643 
-0.13429 0.160118 0.662 
-0.103747 0.160602 0.664 
-0.070276 0.155039 0.641 
-0.0203564 0.13448 0.556 
0.00554894 0.134238 0.555 
0.0323381 0.13448 0.556 
0.0582534 0.13448 0.556 
0.0840174 0.134238 0.555 
0.10949 0.133754 0.553 
0.135755 0.134238 0.555 
0.17307 0.133754 0.553 
0.198486 0.133512 0.552 
0.223402 0.133028 0.55 
0.249038 0.133028 0.55 
0.274673 0.133028 0.55 
0.299763 0.132786 0.549 
0.325945 0.133028 0.55 
0.350941 0.132786 0.549 
0.377216 0.133028 0.55 
0.401387 0.132545 0.548 
0.428487 0.133028 0.55 
0.453297 0.132786 0.549 
0.478886 0.132786 0.549 
0.503557 0.132545 0.548 
0.527168 0.132061 0.546 
-0.548953 0.163337 0.671 
-0.515363 0.162607 0.668 
-0.480076 0.162607 0.668 
-0.446252 0.161633 0.664 
-0.417179 0.162363 0.667 
-0.38609 0.162363 0.667 
-0.353434 0.16212 0.666 
-0.323844 0.16285 0.669 
-0.290474 0.161633 0.664 
-0.259134 0.16139 0.663 
-0.219029 0.157008 0.645 
-0.193066 0.160416 0.659 
-0.151202 0.161633 0.664 
-0.119891 0.161146 0.662 
-0.0861452 0.157738 0.648 
-0.0548502 0.157495 0.647 
-0.00565063 0.134857 0.554 
0.0202807 0.135587 0.557 
0.0461596 0.135343 0.556 
0.0719453 0.1351 0.555 
0.0979903 0.135343 0.556 
0.123237 0.134613 0.553 
0.152449 0.134613 0.553 
0.181861 0.134126 0.551 
0.207166 0.133883 0.55 
0.232802 0.133883 0.55 
0.257968 0.133639 0.549 
0.284073 0.133883 0.55 
0.309146 0.133639 0.549 
0.334735 0.133639 0.549 
0.360324 0.133639 0.549 
0.386616 0.133883 0.55 
0.411502 0.133639 0.549 
0.436295 0.133396 0.548 
0.46268 0.133639 0.549 
0.48738 0.133396 0.548 
0.511986 0.133153 0.547 
0.535517 0.132666 0.545 
-0.535883 0.16389 0.669 
-0.503946 0.163645 0.668 
-0.471395 0.163155 0.666 
-0.43903 0.162665 0.664 
-0.411154 0.16389 0.669 
-0.3777 0.16291 0.665 
-0.347747 0.1634 0.667 
-0.316658 0.1634 0.667 
-0.283856 0.16242 0.663 
-0.252572 0.162175 0.662 
-0.212691 0.15703 0.641 
-0.17385 0.15703 0.641 
-0.143764 0.16242 0.663 
-0.112861 0.16242 0.663 
-0.0779992 0.15654 0.639 
-0.0272181 0.135962 0.555 
-0.00134695 0.135717 0.554 
0.0245635 0.136207 0.556 
0.050388 0.135962 0.555 
0.0761194 0.135717 0.554 
0.101941 0.135717 0.554 
0.127533 0.135472 0.553 
0.153031 0.135227 0.552 
0.178436 0.134982 0.551 
0.203748 0.134737 0.55 
0.228967 0.134492 0.549 
0.254556 0.134492 0.549 
0.280145 0.134492 0.549 
0.305734 0.134492 0.549 
0.331323 0.134492 0.549 
0.356912 0.134492 0.549 
0.382501 0.134492 0.549 
0.407347 0.134247 0.548 
0.432889 0.134247 0.548 
0.458432 0.134247 0.548 
0.483974 0.134247 0.548 
0.507657 0.133758 0.546 
0.531153 0.133268 0.544 
-0.541889 0.165176 0.67 
-0.507611 0.16419 0.666 
-0.477284 0.164436 0.667 
-0.44352 0.16345 0.663 
-0.415106 0.164436 0.667 
-0.382866 0.163943 0.665 
-0.349819 0.164436 0.667 
-0.319208 0.164683 0.668 
-0.285916 0.16345 0.663 
-0.254629 0.163203 0.662 
-0.216351 0.158519 0.643 
-0.190439 0.161971 0.657 
-0.151202 0.163696 0.664 
-0.11971 0.162957 0.661 
-0.0864111 0.160245 0.65 
-0.0558554 0.159505 0.647 
-0.00738541 0.136825 0.555 
0.0184833 0.136825 0.555 
0.044352 0.136825 0.555 
0.0702207 0.136825 0.555 
0.0960894 0.136825 0.555 
0.121519 0.136332 0.553 
0.147028 0.136085 0.552 
0.17307 0.136332 0.553 
0.198126 0.135838 0.551 
0.222996 0.135345 0.549 
0.248132 0.135099 0.548 
0.273675 0.135099 0.548 
0.299763 0.135345 0.549 
0.325352 0.135345 0.549 
0.350302 0.135099 0.548 
0.377216 0.135592 0.55 
0.400654 0.134852 0.547 
0.426929 0.135099 0.548 
0.45082 0.134606 0.546 
0.478014 0.135099 0.548 
0.502638 0.134852 0.547 
0.526202 0.134359 0.545 
-0.548135 0.166217 0.67 
-0.512277 0.164728 0.664 
-0.482777 0.165224 0.666 
-0.450378 0.164728 0.664 
-0.420692 0.165224 0.666 
-0.38965 0.165224 0.666 
-0.359146 0.165472 0.667 
-0.329041 0.165969 0.669 
-0.295632 0.164728 0.664 
-0.263886 0.164232 0.662 
-0.232678 0.163984 0.661 
-0.193207 0.162743 0.656 
-0.155563 0.164976 0.665 
-0.123443 0.163488 0.659 
-0.0927269 0.163488 0.659 
-0.0595061 0.159518 0.643 
-0.00824771 0.137687 0.555 
0.0175893 0.137439 0.554 
0.0434114 0.137439 0.554 
0.0692335 0.137439 0.554 
0.0950556 0.137439 0.554 
0.120441 0.136943 0.552 
0.14617 0.136943 0.552 
0.17221 0.137191 0.553 
0.196912 0.136446 0.55 
0.221738 0.13595 0.548 
0.24683 0.135702 0.547 
0.272823 0.13595 0.548 
0.298366 0.13595 0.548 
0.323908 0.13595 0.548 
0.349451 0.13595 0.548 
0.375677 0.136198 0.549 
0.399074 0.135454 0.546 
0.4253 0.135702 0.547 
0.449972 0.135454 0.546 
0.477163 0.13595 0.548 
0.501788 0.135702 0.547 
0.524392 0.134958 0.544 
-0.549176 0.167258 0.67 
-0.513308 0.16576 0.664 
-0.483812 0.166259 0.666 
-0.45141 0.16576 0.664 
-0.421727 0.166259 0.666 
-0.390685 0.166259 0.666 
-0.360722 0.166758 0.668 
-0.329587 0.166758 0.668 
-0.296664 0.16576 0.664 
-0.264514 0.165011 0.661 
-0.233705 0.165011 0.661 
-0.190877 0.163513 0.655 
-0.152234 0.16576 0.664 
-0.120371 0.164512 0.659 
-0.0892472 0.163763 0.656 
-0.057687 0.161017 0.645 
-0.00824771 0.138549 0.555 
0.0175575 0.13805 0.553 
0.043333 0.13805 0.553 
0.0692335 0.1383 0.554 
0.0950556 0.1383 0.554 
0.120441 0.1378 0.552 
0.145905 0.137551 0.551 
0.171899 0.1378 0.552 
0.196554 0.137051 0.549 
0.221738 0.136802 0.548 
0.246378 0.136302 0.546 
0.272325 0.136552 0.547 
0.298366 0.136802 0.548 
0.323908 0.136802 0.548 
0.349451 0.136802 0.548 
0.375677 0.137051 0.549 
0.399074 0.136302 0.546 
0.424523 0.136302 0.546 
0.449148 0.136053 0.545 
0.476292 0.136552 0.547 
0.50087 0.136302 0.546 
0.524392 0.135803 0.544 
-0.548135 0.168299 0.67 
-0.511505 0.16654 0.663 
-0.482777 0.167294 0.666 
-0.450378 0.166791 0.664 
-0.420692 0.167294 0.666 
-0.387448 0.166791 0.664 
-0.358647 0.167796 0.668 
-0.327021 0.167545 0.667 
-0.2946 0.166791 0.664 
-0.262063 0.165787 0.66 
-0.23095 0.165535 0.659 
-0.191602 0.164279 0.654 
-0.155095 0.16654 0.663 
-0.123256 0.165284 0.658 
-0.0905416 0.165284 0.658 
-0.0585071 0.161516 0.643 
-0.00565063 0.13916 0.554 
0.0201351 0.138909 0.553 
0.0459106 0.138909 0.553 
0.0748511 0.138407 0.551 
0.100898 0.138909 0.553 
0.126216 0.138407 0.551 
0.152174 0.138658 0.552 
0.177258 0.138155 0.55 
0.202156 0.137653 0.548 
0.227283 0.137402 0.547 
0.252316 0.137151 0.546 
0.278783 0.137653 0.548 
0.304326 0.137653 0.548 
0.329266 0.137402 0.547 
0.354762 0.137402 0.547 
0.380258 0.137402 0.547 
0.405012 0.137151 0.546 
0.429673 0.1369 0.545 
0.455075 0.1369 0.545 
0.481359 0.137151 0.546 
0.504952 0.136648 0.544 
0.528359 0.136146 0.542 
-0.53739 0.168581 0.667 
-0.504783 0.168076 0.665 
-0.473787 0.168076 0.665 
-0.440794 0.167318 0.662 
-0.411997 0.168581 0.667 
-0.378053 0.167318 0.662 
-0.349295 0.168328 0.666 
-0.317774 0.168076 0.665 
-0.285054 0.167065 0.661 
-0.25386 0.166812 0.66 
-0.210704 0.161252 0.638 
-0.185505 0.165296 0.654 
-0.153833 0.167318 0.662 
-0.121211 0.166307 0.658 
-0.0905416 0.166307 0.658 
-0.0547654 0.163274 0.646 
-0.00392207 0.139768 0.553 
0.0218139 0.139516 0.552 
0.0476289 0.139768 0.553 
0.0774193 0.139263 0.551 
0.103289 0.139516 0.552 
0.128784 0.139263 0.551 
0.154746 0.139516 0.552 
0.179821 0.13901 0.55 
0.204336 0.138252 0.547 
0.229412 0.137999 0.546 
0.254861 0.137999 0.546 
0.280824 0.138252 0.547 
0.30632 0.138252 0.547 
0.331816 0.138252 0.547 
0.357311 0.138252 0.547 
0.382807 0.138252 0.547 
0.407557 0.137999 0.546 
0.43142 0.137494 0.544 
0.457615 0.137746 0.545 
0.483018 0.137746 0.545 
0.507488 0.137494 0.544 
0.529905 0.136735 0.541 
-0.528783 0.168855 0.664 
-0.497834 0.168855 0.664 
-0.466181 0.1686 0.663 
-0.434622 0.168346 0.662 
-0.403102 0.169363 0.666 
-0.369353 0.1686 0.663 
-0.338451 0.1686 0.663 
-0.307084 0.168346 0.662 
-0.275394 0.167837 0.66 
-0.244631 0.167837 0.66 
-0.204757 0.162243 0.638 
-0.172765 0.161989 0.637 
-0.148016 0.167583 0.659 
-0.116276 0.167583 0.659 
-0.0845212 0.165549 0.651 
-0.0228241 0.140627 0.553 
0.00294072 0.140119 0.551 
0.0287269 0.140627 0.553 
0.0544038 0.140373 0.552 
0.0835632 0.140373 0.552 
0.109094 0.140119 0.551 
0.134532 0.139865 0.55 
0.16075 0.140373 0.552 
0.185465 0.13961 0.549 
0.21067 0.139356 0.548 
0.235781 0.139102 0.547 
0.260322 0.138593 0.545 
0.286249 0.138847 0.546 
0.311127 0.138593 0.545 
0.337147 0.138847 0.546 
0.36326 0.139102 0.547 
0.388046 0.138847 0.546 
0.412737 0.138593 0.545 
0.437336 0.138339 0.544 
0.463543 0.138593 0.545 
0.488048 0.138339 0.544 
0.513404 0.138339 0.544 
0.535789 0.137576 0.541 
-0.521019 0.169375 0.662 
-0.491644 0.169886 0.664 
-0.460695 0.169886 0.664 
-0.428451 0.169375 0.662 
-0.385253 0.169375 0.662 
-0.357073 0.170654 0.667 
-0.324518 0.169886 0.664 
-0.292685 0.169375 0.662 
-0.260247 0.168351 0.658 
-0.228181 0.167328 0.654 
-0.195367 0.167072 0.653 
-0.160656 0.164769 0.644 
-0.13145 0.167072 0.653 
-0.101942 0.168607 0.659 
-0.064889 0.162978 0.637 
-0.00909358 0.141742 0.554 
0.0183501 0.140975 0.551 
0.0440324 0.140975 0.551 
0.0712971 0.140719 0.55 
0.0972853 0.141231 0.552 
0.122568 0.140719 0.55 
0.148474 0.140975 0.551 
0.17384 0.140719 0.55 
0.198387 0.139952 0.547 
0.223065 0.13944 0.545 
0.248467 0.13944 0.545 
0.274372 0.139696 0.546 
0.299822 0.139696 0.546 
0.325271 0.139696 0.546 
0.35072 0.139696 0.546 
0.376169 0.139696 0.546 
0.400883 0.13944 0.545 
0.425503 0.139184 0.544 
0.450031 0.138928 0.543 
0.476215 0.139184 0.544 
0.500649 0.138928 0.543 
0.52499 0.138672 0.542 
-0.547144 0.171175 0.665 
-0.513819 0.170403 0.662 
-0.483693 0.170661 0.663 
-0.453473 0.170918 0.664 
-0.421888 0.170661 0.663 
-0.381139 0.170403 0.662 
-0.350309 0.170918 0.664 
-0.318398 0.170403 0.662 
-0.28537 0.169116 0.657 
-0.254885 0.169888 0.66 
-0.217331 0.16474 0.64 
-0.191602 0.168344 0.654 
-0.158878 0.167057 0.649 
-0.128407 0.168086 0.653 
-0.0988702 0.169631 0.659 
-0.0657753 0.163711 0.636 
-0.00907717 0.142346 0.553 
0.0192062 0.141831 0.551 
0.044807 0.141574 0.55 
0.0703146 0.141316 0.549 
0.0964277 0.142088 0.552 
0.121493 0.141316 0.549 
0.14735 0.141574 0.55 
0.172985 0.141574 0.55 
0.198025 0.140544 0.546 
0.223065 0.140287 0.545 
0.248011 0.140029 0.544 
0.27387 0.140287 0.545 
0.299822 0.140544 0.546 
0.324675 0.140287 0.545 
0.350078 0.140287 0.545 
0.37548 0.140287 0.545 
0.400147 0.140029 0.544 
0.424721 0.139772 0.543 
0.449202 0.139514 0.542 
0.476215 0.140029 0.544 
0.500649 0.139772 0.543 
0.52499 0.139514 0.542 
-0.547353 0.17195 0.664 
-0.514848 0.171432 0.662 
-0.484723 0.171691 0.663 
-0.454505 0.17195 0.664 
-0.42228 0.171432 0.662 
-0.380563 0.171173 0.661 
-0.347197 0.171432 0.662 
-0.315385 0.170914 0.66 
-0.282897 0.169878 0.656 
-0.25386 0.170914 0.66 
-0.213343 0.164958 0.637 
-0.188553 0.16936 0.654 
-0.157054 0.16936 0.654 
-0.126571 0.16936 0.654 
-0.0968224 0.170655 0.659 
-0.0635984 0.164181 0.634 
-0.0107955 0.143205 0.553 
0.0174623 0.142428 0.55 
0.0430979 0.142428 0.55 
0.0686086 0.142169 0.549 
0.0947124 0.142946 0.552 
0.119569 0.14191 0.548 
0.145376 0.142169 0.549 
0.171276 0.142428 0.55 
0.198025 0.141392 0.546 
0.222655 0.140874 0.544 
0.248011 0.140874 0.544 
0.27387 0.141133 0.545 
0.299273 0.141133 0.545 
0.324675 0.141133 0.545 
0.350078 0.141133 0.545 
0.37548 0.141133 0.545 
0.400147 0.140874 0.544 
0.424721 0.140615 0.543 
0.449202 0.140356 0.542 
0.47534 0.140615 0.543 
0.499727 0.140356 0.542 
0.524022 0.140097 0.541 
-0.547558 0.172721 0.663 
-0.515097 0.1722 0.661 
-0.48502 0.17246 0.662 
-0.45485 0.172721 0.663 
-0.423308 0.17246 0.662 
-0.382038 0.171939 0.66 
-0.349254 0.17246 0.662 
-0.31436 0.171939 0.66 
-0.281019 0.170376 0.654 
-0.251809 0.171939 0.66 
-0.213008 0.165687 0.636 
-0.18207 0.169074 0.649 
-0.151188 0.170637 0.655 
-0.121027 0.171158 0.657 
-0.0902664 0.170897 0.656 
-0.0575062 0.164645 0.632 
-0.00562003 0.143543 0.551 
0.0217349 0.143283 0.55 
0.0472844 0.143022 0.549 
0.0727407 0.142762 0.548 
0.0988212 0.143543 0.551 
0.123826 0.142762 0.548 
0.149913 0.143283 0.55 
0.17523 0.143022 0.549 
0.202266 0.142241 0.546 
0.226881 0.14172 0.544 
0.252237 0.14172 0.544 
0.277593 0.14172 0.544 
0.303506 0.14198 0.545 
0.328305 0.14172 0.544 
0.354311 0.14198 0.545 
0.378321 0.141459 0.543 
0.404373 0.14172 0.544 
0.428939 0.141459 0.543 
0.452576 0.140938 0.541 
0.479558 0.141459 0.543 
0.503938 0.141199 0.542 
0.527248 0.140677 0.54 
-0.542408 0.173751 0.663 
-0.510734 0.173489 0.662 
-0.479878 0.173489 0.662 
-0.4497 0.173751 0.663 
-0.417534 0.173227 0.661 
-0.37132 0.173227 0.661 
-0.340511 0.173227 0.661 
-0.307548 0.173751 0.663 
-0.273121 0.172178 0.657 
-0.238415 0.172178 0.657 
-0.202099 0.167461 0.639 
-0.163601 0.166675 0.636 
-0.137116 0.170606 0.651 
-0.107757 0.172178 0.657 
-0.075373 0.168247 0.642 
-0.021806 0.143875 0.549 
0.00378302 0.143875 0.549 
0.0294256 0.144137 0.55 
0.0549611 0.143875 0.549 
0.0802567 0.143351 0.547 
0.106333 0.144137 0.55 
0.131488 0.143613 0.548 
0.157317 0.143875 0.549 
0.18224 0.143351 0.547 
0.207356 0.143089 0.546 
0.231953 0.142565 0.544 
0.256363 0.142041 0.542 
0.282145 0.142303 0.543 
0.308021 0.142565 0.544 
0.333377 0.142565 0.544 
0.358733 0.142565 0.544 
0.383383 0.142303 0.543 
0.409445 0.142565 0.544 
0.434001 0.142303 0.543 
0.457619 0.141779 0.541 
0.483728 0.142041 0.542 
0.50899 0.142041 0.542 
0.531296 0.141254 0.539 
-0.535419 0.174517 0.662 
-0.505325 0.174781 0.663 
-0.473707 0.174517 0.662 
-0.442182 0.174254 0.661 
-0.409505 0.173463 0.658 
-0.37132 0.174254 0.661 
-0.339995 0.17399 0.66 
-0.308012 0.175044 0.664 
-0.273121 0.173199 0.657 
-0.242867 0.173463 0.658 
-0.204458 0.167136 0.634 
-0.161647 0.168718 0.64 
-0.134082 0.171617 0.651 
-0.104376 0.172672 0.655 
-0.0720424 0.168454 0.639 
-0.0201001 0.144728 0.549 
0.00548895 0.144728 0.549 
0.031078 0.144728 0.549 
0.0565638 0.144464 0.548 
0.0818066 0.143937 0.546 
0.108042 0.144992 0.55 
0.133191 0.144464 0.548 
0.159023 0.144728 0.549 
0.183604 0.143937 0.546 
0.20867 0.143674 0.545 
0.233643 0.14341 0.544 
0.257571 0.142619 0.541 
0.283832 0.143146 0.543 
0.309711 0.14341 0.544 
0.335067 0.14341 0.544 
0.360423 0.14341 0.544 
0.38507 0.143146 0.543 
0.410379 0.143146 0.543 
0.434886 0.142883 0.542 
0.4593 0.142619 0.541 
0.485412 0.142883 0.542 
0.510675 0.142883 0.542 
0.53396 0.142355 0.54 
-0.532556 0.175281 0.661 
-0.502506 0.175546 0.662 
-0.47165 0.175546 0.662 
-0.439462 0.175015 0.66 
-0.406841 0.17422 0.657 
-0.376218 0.17422 0.657 
-0.346647 0.17475 0.659 
-0.315452 0.174485 0.658 
-0.282185 0.172894 0.652 
-0.254113 0.174485 0.658 
-0.215293 0.168121 0.634 
-0.180783 0.171833 0.648 
-0.147909 0.173424 0.654 
-0.118324 0.17475 0.659 
-0.0864111 0.172364 0.65 
-0.053409 0.16706 0.63 
-0.00475531 0.145846 0.55 
0.0208424 0.145581 0.549 
0.0463469 0.145316 0.548 
0.0716269 0.144785 0.546 
0.0976095 0.145581 0.549 
0.123826 0.145316 0.548 
0.149641 0.145581 0.549 
0.174911 0.145316 0.548 
0.199356 0.14452 0.545 
0.223933 0.14399 0.543 
0.248784 0.143725 0.542 
0.274552 0.14399 0.543 
0.299862 0.14399 0.543 
0.325171 0.14399 0.543 
0.35048 0.14399 0.543 
0.375098 0.143725 0.542 
0.401099 0.14399 0.543 
0.424838 0.14346 0.541 
0.450054 0.14346 0.541 
0.476149 0.143725 0.542 
0.500486 0.14346 0.541 
0.523759 0.142929 0.539 
-0.54488 0.176308 0.661 
-0.511762 0.176574 0.662 
-0.48018 0.176308 0.661 
-0.448691 0.176041 0.66 
-0.417295 0.175774 0.659 
-0.385405 0.175241 0.657 
-0.356402 0.176041 0.66 
-0.324159 0.175241 0.657 
-0.29443 0.175774 0.659 
-0.262113 0.174707 0.655 
-0.222948 0.17044 0.639 
-0.187688 0.17364 0.651 
-0.144639 0.174174 0.653 
-0.115427 0.176041 0.66 
-0.0831249 0.17284 0.648 
-0.0504725 0.168039 0.63 
-0.00133479 0.146434 0.549 
0.0242543 0.146434 0.549 
0.0496617 0.145901 0.547 
0.0748828 0.145367 0.545 
0.101021 0.146434 0.549 
0.126149 0.145901 0.547 
0.1522 0.146434 0.549 
0.178841 0.145901 0.547 
0.203216 0.1451 0.544 
0.227731 0.144567 0.542 
0.252994 0.144567 0.542 
0.278257 0.144567 0.542 
0.30408 0.144834 0.543 
0.329389 0.144834 0.543 
0.354699 0.144834 0.543 
0.378608 0.1443 0.541 
0.407939 0.144567 0.542 
0.433202 0.144567 0.542 
0.456773 0.144033 0.54 
0.483728 0.144567 0.542 
0.508051 0.1443 0.541 
0.531296 0.143767 0.539 
-0.534826 0.177066 0.66 
-0.501746 0.177335 0.661 
-0.470937 0.177335 0.661 
-0.438796 0.176798 0.659 
-0.406222 0.175993 0.656 
-0.375646 0.175993 0.656 
-0.345595 0.176261 0.657 
-0.314972 0.176261 0.657 
-0.282185 0.17492 0.652 
-0.253726 0.176261 0.657 
-0.213632 0.169554 0.632 
-0.18538 0.174383 0.65 
-0.141379 0.17492 0.652 
-0.11184 0.176261 0.657 
-0.0798573 0.17331 0.646 
-0.025126 0.14675 0.547 
0.0020733 0.147019 0.548 
0.0276157 0.147019 0.548 
0.0530612 0.14675 0.547 
0.0782698 0.146214 0.545 
0.104433 0.147287 0.549 
0.129549 0.14675 0.547 
0.155045 0.14675 0.547 
0.182755 0.146482 0.546 
0.209132 0.145946 0.544 
0.233626 0.145409 0.542 
0.257934 0.144872 0.54 
0.284152 0.145409 0.542 
0.309985 0.145677 0.543 
0.335295 0.145677 0.543 
0.35994 0.145409 0.542 
0.385203 0.145409 0.542 
0.41307 0.145141 0.541 
0.439097 0.145409 0.542 
0.462646 0.144872 0.54 
0.487816 0.144872 0.54 
0.512985 0.144872 0.54 
-0.558889 0.178901 0.663 
-0.519682 0.177822 0.659 
-0.488224 0.177552 0.658 
-0.458945 0.178092 0.66 
-0.427533 0.177822 0.659 
-0.395011 0.177012 0.656 
-0.367768 0.178631 0.662 
-0.334876 0.177552 0.658 
-0.308829 0.18025 0.668 
-0.27229 0.176743 0.655 
-0.242498 0.177282 0.657 
-0.202831 0.170536 0.632 
-0.165317 0.171346 0.635 
-0.131856 0.175393 0.65 
-0.102028 0.176203 0.653 
-0.0659237 0.169457 0.628 
-0.0166578 0.14787 0.548 
0.00885219 0.14733 0.546 
0.0343642 0.1476 0.547 
0.0597506 0.14733 0.546 
0.0851998 0.14733 0.546 
0.111257 0.14814 0.549 
0.135849 0.147061 0.545 
0.164941 0.14733 0.546 
0.189693 0.146791 0.544 
0.214653 0.146521 0.543 
0.239079 0.145981 0.541 
0.264295 0.145981 0.541 
0.290046 0.146251 0.542 
0.315309 0.146251 0.542 
0.339943 0.145981 0.541 
0.36516 0.145981 0.541 
0.390376 0.145981 0.541 
0.418954 0.145981 0.541 
0.44417 0.145981 0.541 
0.468519 0.145711 0.54 
0.493688 0.145711 0.54 
0.518858 0.145711 0.54 
-0.547132 0.179117 0.66 
-0.512267 0.179117 0.66 
-0.481504 0.179117 0.66 
-0.449376 0.178574 0.658 
-0.41807 0.178303 0.657 
-0.386267 0.17776 0.655 
-0.357367 0.178574 0.658 
-0.325208 0.17776 0.655 
-0.297827 0.17966 0.662 
-0.264148 0.17776 0.655 
-0.22905 0.175046 0.645 
-0.200529 0.176403 0.65 
-0.165317 0.172332 0.635 
-0.131856 0.176403 0.65 
-0.102028 0.177217 0.653 
-0.0648445 0.170161 0.627 
-0.0115493 0.148722 0.548 
0.0147903 0.148179 0.546 
0.0403133 0.14845 0.547 
0.0656888 0.148179 0.546 
0.0914718 0.148722 0.548 
0.116801 0.14845 0.547 
0.141776 0.147907 0.545 
0.169719 0.147907 0.545 
0.194764 0.147636 0.544 
0.219311 0.147093 0.542 
0.243671 0.14655 0.54 
0.269338 0.146822 0.541 
0.294554 0.146822 0.541 
0.319771 0.146822 0.541 
0.344987 0.146822 0.541 
0.370203 0.146822 0.541 
0.394688 0.14655 0.54 
0.423214 0.14655 0.54 
0.448383 0.14655 0.54 
0.473553 0.14655 0.54 
0.497799 0.146279 0.539 
0.521952 0.146008 0.538 
-0.536273 0.179597 0.658 
-0.502276 0.17987 0.659 
-0.47156 0.17987 0.659 
-0.438837 0.179051 0.656 
-0.406222 0.179051 0.656 
-0.375073 0.178778 0.655 
-0.344543 0.178778 0.655 
-0.314493 0.179051 0.656 
-0.282185 0.177959 0.652 
-0.252954 0.178778 0.655 
-0.211977 0.171954 0.63 
-0.1874 0.177413 0.65 
-0.149712 0.178232 0.653 
-0.119824 0.179051 0.656 
-0.0884309 0.177413 0.65 
-0.0546468 0.172773 0.633 
-0.00048007 0.1493 0.547 
0.0250615 0.149573 0.548 
0.0504193 0.149027 0.546 
0.0755906 0.148481 0.544 
0.101874 0.149846 0.549 
0.126535 0.148754 0.545 
0.151937 0.148754 0.545 
0.17734 0.148754 0.545 
0.201627 0.147935 0.542 
0.226052 0.147389 0.54 
0.251222 0.147389 0.54 
0.276391 0.147389 0.54 
0.302119 0.147662 0.541 
0.327335 0.147662 0.541 
0.353203 0.147935 0.542 
0.377069 0.147389 0.54 
0.402984 0.147662 0.541 
0.427409 0.147389 0.54 
0.45174 0.147116 0.539 
0.478632 0.147662 0.541 
0.501986 0.147116 0.539 
0.526131 0.146844 0.538 
-0.532604 0.18007 0.656 
-0.500492 0.180619 0.658 
-0.470536 0.180893 0.659 
-0.43715 0.179796 0.655 
-0.403567 0.179796 0.655 
-0.374177 0.180344 0.657 
-0.342012 0.18007 0.656 
-0.313334 0.181168 0.66 
-0.279575 0.179247 0.653 
-0.249901 0.179796 0.655 
-0.209041 0.172933 0.63 
-0.183236 0.177325 0.646 
-0.149483 0.178972 0.652 
-0.119824 0.18007 0.656 
-0.0884309 0.178423 0.65 
-0.0566138 0.173757 0.633 
-0.00217581 0.149875 0.546 
0.023316 0.15015 0.547 
0.0487226 0.149875 0.546 
0.0739002 0.149326 0.544 
0.100168 0.150699 0.549 
0.124841 0.149601 0.545 
0.150244 0.149601 0.545 
0.175646 0.149601 0.545 
0.204153 0.148777 0.542 
0.228569 0.148228 0.54 
0.253269 0.147954 0.539 
0.278908 0.148228 0.54 
0.304641 0.148503 0.541 
0.329857 0.148503 0.541 
0.35573 0.148777 0.542 
0.378883 0.147954 0.539 
0.404756 0.148228 0.54 
0.429926 0.148228 0.54 
0.45341 0.147679 0.538 
0.480265 0.148228 0.54 
0.503562 0.147679 0.538 
0.527656 0.147405 0.537 
-0.529547 0.181089 0.656 
-0.500492 0.181641 0.658 
-0.469108 0.181365 0.657 
-0.43715 0.180813 0.655 
-0.403567 0.180813 0.655 
-0.373607 0.181089 0.656 
-0.34149 0.180813 0.655 
-0.313334 0.182193 0.66 
-0.279575 0.180261 0.653 
-0.249901 0.180813 0.655 
-0.208062 0.173912 0.63 
-0.181668 0.177777 0.644 
-0.152522 0.179985 0.652 
-0.122694 0.180813 0.655 
-0.0916013 0.179709 0.651 
-0.0566138 0.17474 0.633 
-0.0013275 0.150724 0.546 
0.0241217 0.150724 0.546 
0.0495709 0.150724 0.546 
0.0747454 0.150172 0.544 
0.100837 0.151276 0.548 
0.125457 0.150172 0.544 
0.150813 0.150172 0.544 
0.176169 0.150172 0.544 
0.205837 0.149619 0.542 
0.229821 0.148791 0.539 
0.254471 0.148515 0.538 
0.280586 0.149067 0.54 
0.306322 0.149343 0.541 
0.330925 0.149067 0.54 
0.356934 0.149067 0.54 
0.381396 0.148791 0.539 
0.407273 0.149067 0.54 
0.431642 0.148791 0.539 
0.455917 0.148515 0.538 
0.481888 0.148791 0.539 
0.50607 0.148515 0.538 
0.530159 0.148239 0.537 
-0.526704 0.181831 0.655 
-0.498447 0.182664 0.658 
-0.466356 0.182108 0.656 
-0.434451 0.181553 0.654 
-0.404585 0.181831 0.655 
-0.374055 0.181831 0.655 
-0.342477 0.181276 0.653 
-0.313952 0.182386 0.657 
-0.281604 0.181276 0.653 
-0.250919 0.181831 0.655 
-0.208062 0.174891 0.63 
-0.182952 0.179055 0.645 
-0.154311 0.18072 0.651 
-0.124539 0.181553 0.654 
-0.0937679 0.180998 0.652 
-0.0242762 0.15185 0.547 
0.00121742 0.151572 0.546 
0.0266178 0.151294 0.545 
0.0520204 0.151294 0.545 
0.077281 0.151017 0.544 
0.103392 0.152127 0.548 
0.127993 0.151017 0.544 
0.153349 0.151017 0.544 
0.178376 0.150739 0.543 
0.207138 0.150184 0.541 
0.231496 0.149629 0.539 
0.256142 0.149351 0.538 
0.282264 0.149906 0.54 
0.307434 0.149906 0.54 
0.332603 0.149906 0.54 
0.357773 0.149906 0.54 
0.382233 0.149629 0.539 
0.407356 0.149629 0.539 
0.431677 0.149351 0.538 
0.456753 0.149351 0.538 
0.481829 0.149351 0.538 
0.506906 0.149351 0.538 
0.530993 0.149074 0.537 
-0.523067 0.18229 0.653 
-0.496402 0.183686 0.658 
-0.463609 0.182848 0.655 
-0.432418 0.182569 0.654 
-0.401935 0.182569 0.654 
-0.37055 0.183128 0.656 
-0.338419 0.18229 0.653 
-0.311755 0.184523 0.661 
-0.276954 0.182569 0.654 
-0.246471 0.182569 0.654 
-0.204471 0.176149 0.631 
-0.173648 0.176707 0.633 
-0.148242 0.181732 0.651 
-0.118623 0.182848 0.655 
-0.087152 0.180894 0.648 
-0.0199903 0.15242 0.546 
0.00712936 0.151862 0.544 
0.0325451 0.152141 0.545 
0.057735 0.151583 0.543 
0.0831974 0.151862 0.544 
0.109352 0.152979 0.548 
0.133663 0.151583 0.543 
0.158973 0.151583 0.543 
0.185284 0.151024 0.541 
0.2105 0.151024 0.541 
0.235281 0.150745 0.54 
0.259968 0.150466 0.539 
0.28562 0.150745 0.54 
0.31079 0.150745 0.54 
0.335337 0.150466 0.539 
0.361463 0.150187 0.538 
0.387258 0.150466 0.539 
0.411616 0.150187 0.538 
0.436692 0.150187 0.538 
0.46091 0.149908 0.537 
0.486845 0.150187 0.538 
0.511921 0.150187 0.538 
-0.554494 0.184989 0.659 
-0.518214 0.183024 0.652 
-0.493061 0.184989 0.659 
-0.458837 0.183585 0.654 
-0.428354 0.183585 0.654 
-0.397871 0.183585 0.654 
-0.365454 0.184147 0.656 
-0.332835 0.183024 0.652 
-0.307548 0.186112 0.663 
-0.272705 0.184147 0.656 
-0.240653 0.183024 0.652 
-0.202774 0.179094 0.638 
-0.168197 0.177129 0.631 
-0.143185 0.182743 0.651 
-0.113188 0.183305 0.653 
-0.0772668 0.17769 0.633 
-0.016597 0.153269 0.546 
0.00881976 0.152707 0.544 
0.0341758 0.152707 0.544 
0.0593129 0.152146 0.542 
0.0848878 0.152707 0.544 
0.110852 0.153549 0.547 
0.135101 0.152146 0.542 
0.160364 0.152146 0.542 
0.185284 0.151865 0.541 
0.210111 0.151584 0.54 
0.234845 0.151304 0.539 
0.259486 0.151023 0.538 
0.285091 0.151304 0.539 
0.310214 0.151304 0.539 
0.334715 0.151023 0.538 
0.36246 0.150742 0.537 
0.388211 0.151023 0.538 
0.413287 0.151023 0.538 
0.437549 0.150742 0.537 
0.461717 0.150461 0.536 
0.487608 0.150742 0.537 
0.512638 0.150742 0.537 
-0.550769 0.185448 0.657 
-0.516188 0.184037 0.652 
-0.490268 0.185731 0.658 
-0.456805 0.184602 0.654 
-0.426974 0.184884 0.655 
-0.395233 0.184319 0.653 
-0.360739 0.184319 0.653 
-0.329796 0.184037 0.652 
-0.303539 0.186577 0.661 
-0.270667 0.185166 0.656 
-0.237895 0.183472 0.65 
-0.202365 0.181497 0.643 
-0.166236 0.178109 0.631 
-0.140945 0.183472 0.65 
-0.110989 0.184037 0.652 
-0.0783739 0.178956 0.634 
-0.0233407 0.153835 0.545 
0.00206195 0.153835 0.545 
0.0273638 0.15327 0.543 
0.0526732 0.15327 0.543 
0.0779826 0.15327 0.543 
0.103863 0.154117 0.546 
0.128601 0.15327 0.543 
0.153627 0.152988 0.542 
0.17856 0.152706 0.541 
0.204153 0.152988 0.542 
0.227299 0.151576 0.537 
0.252329 0.151576 0.537 
0.277875 0.151859 0.538 
0.303515 0.152141 0.539 
0.328638 0.152141 0.539 
0.353104 0.151859 0.538 
0.377478 0.151576 0.537 
0.403257 0.151859 0.538 
0.426741 0.151294 0.536 
0.451724 0.151294 0.536 
0.476707 0.151294 0.536 
0.50169 0.151294 0.536 
0.525691 0.151012 0.535 
-0.529964 0.185618 0.654 
-0.501009 0.186185 0.656 
-0.468281 0.185334 0.653 
-0.438515 0.185618 0.654 
-0.408656 0.185901 0.655 
-0.375817 0.184766 0.651 
-0.340939 0.18505 0.652 
-0.312455 0.186185 0.656 
-0.279575 0.185334 0.653 
-0.249138 0.185334 0.653 
-0.207732 0.178522 0.629 
-0.175337 0.179374 0.632 
-0.147004 0.184482 0.65 
-0.117426 0.185618 0.654 
-0.0857464 0.183063 0.645 
-0.0544741 0.17909 0.631 
-0.00301304 0.154398 0.544 
0.0222608 0.15383 0.542 
0.047699 0.154398 0.544 
0.0729207 0.154114 0.543 
0.0987728 0.154965 0.546 
0.123539 0.154114 0.543 
0.148575 0.15383 0.542 
0.173838 0.15383 0.542 
0.1991 0.15383 0.542 
0.221879 0.152127 0.536 
0.247323 0.152411 0.537 
0.272353 0.152411 0.537 
0.297382 0.152411 0.537 
0.324213 0.153262 0.54 
0.347442 0.152411 0.537 
0.371778 0.152127 0.536 
0.398242 0.152695 0.538 
0.422531 0.152411 0.537 
0.446727 0.152127 0.536 
0.471711 0.152127 0.536 
0.496694 0.152127 0.536 
0.520703 0.151843 0.535 
-0.532591 0.185778 0.651 
-0.505333 0.186919 0.655 
-0.473354 0.186348 0.653 
-0.442917 0.186348 0.653 
-0.413112 0.186634 0.654 
-0.380874 0.185778 0.651 
-0.349454 0.185207 0.649 
-0.320679 0.186063 0.652 
-0.289844 0.185778 0.651 
-0.261095 0.186919 0.655 
-0.218482 0.179499 0.629 
-0.195068 0.186063 0.652 
-0.157103 0.185492 0.65 
-0.127197 0.186063 0.652 
-0.0968069 0.186063 0.652 
-0.0638704 0.178929 0.627 
-0.0148731 0.155528 0.545 
0.0104908 0.154957 0.543 
0.0358002 0.154957 0.543 
0.0608845 0.154387 0.541 
0.086419 0.154957 0.543 
0.111934 0.155243 0.544 
0.136281 0.154101 0.54 
0.16343 0.154387 0.541 
0.188298 0.154101 0.54 
0.212677 0.153531 0.538 
0.237753 0.153531 0.538 
0.262341 0.153245 0.537 
0.288205 0.153245 0.537 
0.313818 0.153531 0.538 
0.337634 0.15296 0.536 
0.362618 0.15296 0.536 
0.387601 0.15296 0.536 
0.413354 0.153245 0.537 
0.437567 0.15296 0.536 
0.46255 0.15296 0.536 
0.486624 0.152674 0.535 
0.512516 0.15296 0.536 
-0.540682 0.186789 0.651 
-0.511123 0.187076 0.652 
-0.482945 0.187937 0.655 
-0.451034 0.187363 0.653 
-0.420597 0.187363 0.653 
-0.389563 0.187076 0.652 
-0.358071 0.186502 0.65 
-0.328783 0.187076 0.652 
-0.299309 0.18765 0.654 
-0.269648 0.188224 0.656 
-0.236156 0.185928 0.648 
-0.201992 0.185068 0.645 
-0.165446 0.18019 0.628 
-0.136484 0.185928 0.648 
-0.106609 0.186502 0.65 
-0.071435 0.179329 0.625 
-0.019917 0.156088 0.544 
0.00542897 0.155801 0.543 
0.0306817 0.155514 0.542 
0.0575224 0.155227 0.541 
0.0828915 0.155514 0.542 
0.108354 0.155801 0.543 
0.132925 0.15494 0.54 
0.159228 0.155227 0.541 
0.184103 0.15494 0.54 
0.209272 0.15494 0.54 
0.23314 0.154079 0.537 
0.257688 0.153793 0.536 
0.282672 0.153793 0.536 
0.308229 0.154079 0.537 
0.332638 0.153793 0.536 
0.356954 0.153506 0.535 
0.38189 0.153506 0.535 
0.407587 0.153793 0.536 
0.430956 0.153219 0.534 
0.457553 0.153793 0.536 
0.481636 0.153506 0.535 
0.506573 0.153506 0.535 
0.530516 0.153219 0.534 
-0.518214 0.188089 0.652 
-0.490817 0.189243 0.656 
-0.457434 0.188089 0.652 
-0.429009 0.188954 0.655 
-0.397262 0.188377 0.653 
-0.365141 0.187512 0.65 
-0.335874 0.188089 0.652 
-0.30689 0.188954 0.655 
-0.275938 0.188666 0.654 
-0.243954 0.187512 0.65 
-0.204795 0.182319 0.632 
-0.170053 0.180877 0.627 
-0.143753 0.187224 0.649 
-0.113678 0.187512 0.65 
-0.0817138 0.183762 0.637 
-0.0504725 0.181742 0.63 
-0.00216385 0.156645 0.543 
0.0230603 0.156068 0.541 
0.0483657 0.156356 0.542 
0.0737643 0.156645 0.543 
0.0992562 0.156933 0.544 
0.123925 0.156068 0.541 
0.148865 0.155779 0.54 
0.174357 0.156068 0.541 
0.199573 0.156068 0.541 
0.222297 0.154337 0.535 
0.247695 0.154625 0.536 
0.27217 0.154337 0.535 
0.297661 0.154625 0.536 
0.32445 0.155491 0.539 
0.346979 0.154337 0.535 
0.371916 0.154337 0.535 
0.398336 0.154914 0.537 
0.422577 0.154625 0.536 
0.44589 0.154048 0.534 
0.471662 0.154337 0.535 
0.496598 0.154337 0.535 
0.52056 0.154048 0.534 
-0.529556 0.188812 0.651 
-0.500747 0.189392 0.653 
-0.46959 0.189102 0.652 
-0.439874 0.189392 0.653 
-0.409437 0.189392 0.653 
-0.376679 0.188232 0.649 
-0.346429 0.188232 0.649 
-0.318128 0.189392 0.653 
-0.285798 0.188812 0.651 
-0.255847 0.189102 0.652 
-0.214522 0.181561 0.626 
-0.192153 0.188232 0.649 
-0.156574 0.189102 0.652 
-0.125797 0.188522 0.65 
-0.0941995 0.187942 0.648 
-0.0621196 0.182431 0.629 
-0.0106198 0.157778 0.544 
0.014682 0.157198 0.542 
0.0399448 0.157198 0.542 
0.0650872 0.156908 0.541 
0.0906372 0.157488 0.543 
0.11552 0.156908 0.541 
0.140215 0.156328 0.539 
0.165952 0.156908 0.541 
0.190461 0.156328 0.539 
0.214784 0.155748 0.537 
0.239368 0.155458 0.536 
0.263857 0.155168 0.535 
0.288794 0.155168 0.535 
0.314903 0.155748 0.537 
0.338034 0.154878 0.534 
0.363604 0.155168 0.535 
0.38854 0.155168 0.535 
0.414249 0.155458 0.536 
0.438413 0.155168 0.535 
0.46335 0.155168 0.535 
0.487373 0.154878 0.534 
0.513223 0.155168 0.535 
-0.536177 0.188949 0.648 
-0.508316 0.189823 0.651 
-0.479441 0.190407 0.653 
-0.448317 0.190115 0.652 
-0.417286 0.189823 0.651 
-0.386348 0.189532 0.65 
-0.352398 0.188657 0.647 
-0.325229 0.190407 0.653 
-0.293438 0.189532 0.65 
-0.263142 0.189532 0.65 
-0.222469 0.184283 0.632 
-0.198203 0.18924 0.649 
-0.160823 0.183408 0.629 
-0.132253 0.188657 0.647 
-0.102254 0.188949 0.648 
-0.0657137 0.182534 0.626 
-0.0139749 0.158332 0.543 
0.0113136 0.15804 0.542 
0.0365089 0.157749 0.541 
0.061611 0.157457 0.54 
0.0869412 0.157749 0.541 
0.112157 0.157749 0.541 
0.136866 0.157166 0.539 
0.162289 0.157457 0.54 
0.186765 0.156874 0.538 
0.211841 0.156874 0.538 
0.235596 0.155999 0.535 
0.260533 0.155999 0.535 
0.284936 0.155708 0.534 
0.310406 0.155999 0.535 
0.334715 0.155708 0.534 
0.359605 0.155708 0.534 
0.384495 0.155708 0.534 
0.410152 0.155999 0.535 
0.434275 0.155708 0.534 
0.460025 0.155999 0.535 
0.483148 0.155416 0.533 
0.508945 0.155708 0.534 
-0.541211 0.189955 0.648 
-0.513373 0.190835 0.651 
-0.485256 0.191714 0.654 
-0.44933 0.191128 0.652 
-0.418297 0.190835 0.651 
-0.387358 0.190542 0.65 
-0.353403 0.189662 0.647 
-0.326244 0.191421 0.653 
-0.293438 0.190542 0.65 
-0.262332 0.189955 0.648 
-0.226842 0.186438 0.636 
-0.199295 0.189369 0.646 
-0.161286 0.183799 0.627 
-0.136274 0.189662 0.647 
-0.105953 0.189369 0.646 
-0.0702385 0.182627 0.623 
-0.0164754 0.158882 0.542 
0.00878734 0.158882 0.542 
0.0339245 0.158296 0.54 
0.059094 0.158296 0.54 
0.0842636 0.158296 0.54 
0.109433 0.158296 0.54 
0.134104 0.15771 0.538 
0.159772 0.158296 0.54 
0.189272 0.15771 0.538 
0.213552 0.157124 0.536 
0.23809 0.15683 0.535 
0.262535 0.156537 0.534 
0.288254 0.156537 0.534 
0.31373 0.15683 0.535 
0.340901 0.155951 0.532 
0.367902 0.156537 0.534 
0.394263 0.157124 0.536 
0.418464 0.15683 0.535 
0.442572 0.156537 0.534 
0.467461 0.156537 0.534 
0.491429 0.156244 0.533 
0.516273 0.156244 0.533 
-0.530954 0.191257 0.649 
-0.501476 0.191552 0.65 
-0.47103 0.19273 0.654 
-0.439874 0.192436 0.653 
-0.407797 0.192141 0.652 
-0.371065 0.190962 0.648 
-0.341913 0.191552 0.65 
-0.312575 0.192141 0.652 
-0.28132 0.191552 0.65 
-0.249244 0.190962 0.648 
-0.210631 0.184479 0.626 
-0.186961 0.190078 0.645 
-0.157103 0.191552 0.65 
-0.126221 0.190668 0.647 
-0.0959161 0.190373 0.646 
-0.0603564 0.185952 0.631 
-0.00553844 0.160019 0.543 
0.0196981 0.15943 0.541 
0.0449143 0.15943 0.541 
0.0702601 0.159725 0.542 
0.0955229 0.159725 0.542 
0.119894 0.158546 0.538 
0.144971 0.158546 0.538 
0.170363 0.15884 0.539 
0.199673 0.15884 0.539 
0.222711 0.157367 0.534 
0.247601 0.157367 0.534 
0.27198 0.157072 0.533 
0.297937 0.157662 0.535 
0.322874 0.157662 0.535 
0.349166 0.156778 0.532 
0.376199 0.157367 0.534 
0.401839 0.157662 0.535 
0.425181 0.157072 0.533 
0.450024 0.157072 0.533 
0.473976 0.156778 0.532 
0.49971 0.157072 0.533 
0.52357 0.156778 0.532 
-0.523279 0.193154 0.652 
-0.492889 0.193154 0.652 
-0.461885 0.193746 0.654 
-0.431402 0.193746 0.654 
-0.387771 0.192265 0.649 
-0.356419 0.191673 0.647 
-0.328783 0.193154 0.652 
-0.29702 0.192265 0.649 
-0.265948 0.191673 0.647 
-0.235062 0.19108 0.645 
-0.200792 0.189007 0.638 
-0.165798 0.184267 0.622 
-0.141645 0.190784 0.644 
-0.111802 0.19108 0.645 
-0.0786079 0.186044 0.628 
-0.0156045 0.16027 0.541 
0.00961166 0.16027 0.541 
0.0346991 0.159678 0.539 
0.059822 0.159678 0.539 
0.0851026 0.159974 0.54 
0.110272 0.159974 0.54 
0.13494 0.159382 0.538 
0.160314 0.159678 0.539 
0.185929 0.159382 0.538 
0.210613 0.159085 0.537 
0.233887 0.1579 0.533 
0.258731 0.1579 0.533 
0.283574 0.1579 0.533 
0.308417 0.1579 0.533 
0.336768 0.157604 0.532 
0.362924 0.158197 0.534 
0.391865 0.158493 0.535 
0.416801 0.158493 0.535 
0.440087 0.1579 0.533 
0.46493 0.1579 0.533 
0.488854 0.157604 0.532 
0.514616 0.1579 0.533 
-0.526723 0.193571 0.65 
-0.496426 0.193571 0.65 
-0.469715 0.19506 0.655 
-0.437174 0.194167 0.652 
-0.40335 0.194465 0.653 
-0.367476 0.192678 0.647 
-0.338884 0.193571 0.65 
-0.305087 0.193274 0.649 
-0.274414 0.192976 0.648 
-0.243833 0.192678 0.647 
-0.20545 0.18702 0.628 
-0.172148 0.185829 0.624 
-0.148107 0.19238 0.646 
-0.117814 0.192082 0.645 
-0.0874785 0.191487 0.643 
-0.014764 0.161111 0.541 
0.0104522 0.161111 0.541 
0.0354706 0.160218 0.538 
0.0606595 0.160515 0.539 
0.0857824 0.160515 0.539 
0.110905 0.160515 0.539 
0.135776 0.160218 0.538 
0.161151 0.160515 0.539 
0.185929 0.160218 0.538 
0.210221 0.159622 0.536 
0.233887 0.158729 0.533 
0.258731 0.158729 0.533 
0.283042 0.158431 0.532 
0.307838 0.158431 0.532 
0.335115 0.158431 0.532 
0.360588 0.158729 0.533 
0.391034 0.159324 0.535 
0.415193 0.159026 0.534 
0.439258 0.158729 0.533 
0.463231 0.158431 0.532 
0.48711 0.158133 0.531 
0.513788 0.158729 0.533 
-0.527929 0.194282 0.649 
-0.497679 0.194282 0.649 
-0.47103 0.195779 0.654 
-0.438526 0.194881 0.651 
-0.405149 0.194881 0.651 
-0.371497 0.193683 0.647 
-0.341868 0.193983 0.648 
-0.307104 0.194282 0.649 
-0.276427 0.193983 0.648 
-0.241823 0.193683 0.647 
-0.203168 0.188594 0.63 
-0.17063 0.186199 0.622 
-0.146648 0.192785 0.644 
-0.116631 0.192785 0.644 
-0.086345 0.192186 0.642 
-0.0139234 0.161951 0.541 
0.0112927 0.161951 0.541 
0.0363065 0.161053 0.538 
0.0614969 0.161353 0.539 
0.0866198 0.161353 0.539 
0.111743 0.161353 0.539 
0.136358 0.160754 0.537 
0.161688 0.161053 0.538 
0.186417 0.160754 0.537 
0.21066 0.160155 0.535 
0.235543 0.159557 0.533 
0.259898 0.159257 0.532 
0.284695 0.159257 0.532 
0.309492 0.159257 0.532 
0.334288 0.159257 0.532 
0.35976 0.159557 0.533 
0.384603 0.159557 0.533 
0.410215 0.159856 0.534 
0.43429 0.159557 0.533 
0.458272 0.159257 0.532 
0.48216 0.158958 0.531 
0.507865 0.159257 0.532 
-0.532334 0.194688 0.647 
-0.503729 0.19529 0.649 
-0.475668 0.196193 0.652 
-0.443229 0.19529 0.649 
-0.409954 0.19529 0.649 
-0.374513 0.194688 0.647 
-0.343824 0.194388 0.646 
-0.313055 0.196494 0.653 
-0.280021 0.194688 0.647 
-0.245464 0.194388 0.646 
-0.206097 0.18867 0.627 
-0.176459 0.189272 0.629 
-0.150884 0.194087 0.645 
-0.120633 0.193786 0.644 
-0.0906163 0.193786 0.644 
-0.0164146 0.162491 0.54 
0.00877113 0.162792 0.541 
0.033736 0.161588 0.537 
0.0588752 0.161889 0.538 
0.0837955 0.161588 0.537 
0.109028 0.161889 0.538 
0.133855 0.161588 0.537 
0.159181 0.161889 0.538 
0.183914 0.161588 0.537 
0.208555 0.161287 0.536 
0.231795 0.160084 0.532 
0.257074 0.160385 0.533 
0.28086 0.159783 0.531 
0.306185 0.160084 0.532 
0.33036 0.159783 0.531 
0.355779 0.160084 0.532 
0.37986 0.159783 0.531 
0.406134 0.160385 0.533 
0.430169 0.160084 0.532 
0.45411 0.159783 0.531 
0.477958 0.159482 0.53 
0.50361 0.159783 0.531 
0.529355 0.160084 0.532 
-0.508771 0.196299 0.649 
-0.479996 0.196904 0.651 
-0.44758 0.195996 0.648 
-0.419309 0.196904 0.651 
-0.381963 0.195391 0.646 
-0.349304 0.195089 0.645 
-0.324685 0.198416 0.656 
-0.290074 0.195694 0.647 
-0.253315 0.194484 0.643 
-0.215839 0.189644 0.627 
-0.188494 0.193576 0.64 
-0.157165 0.194181 0.642 
-0.127637 0.194786 0.644 
-0.0974687 0.194484 0.643 
-0.0628962 0.189644 0.627 
0.000364383 0.163028 0.539 
0.0253928 0.162423 0.537 
0.0503286 0.16212 0.536 
0.0779552 0.162423 0.537 
0.103368 0.163028 0.539 
0.127776 0.16212 0.536 
0.153044 0.162423 0.537 
0.178074 0.162423 0.537 
0.202726 0.16212 0.536 
0.226009 0.16091 0.532 
0.251278 0.161213 0.533 
0.275085 0.160608 0.531 
0.300399 0.16091 0.532 
0.323974 0.160305 0.53 
0.349335 0.160608 0.531 
0.372676 0.160003 0.529 
0.398835 0.160608 0.531 
0.424383 0.16091 0.532 
0.448335 0.160608 0.531 
0.471303 0.160003 0.529 
0.498773 0.16091 0.532 
0.521601 0.160305 0.53 
-0.512014 0.197003 0.648 
-0.482554 0.197307 0.649 
-0.448587 0.197003 0.648 
-0.419309 0.197915 0.651 
-0.381963 0.196395 0.646 
-0.348302 0.196091 0.645 
-0.323172 0.199131 0.655 
-0.288622 0.196395 0.646 
-0.252316 0.195483 0.643 
-0.214231 0.190923 0.628 
-0.185923 0.193963 0.638 
-0.151415 0.195483 0.643 
-0.121445 0.195483 0.643 
-0.0914746 0.195483 0.643 
-0.0188615 0.163561 0.538 
0.0062264 0.163865 0.539 
0.0311749 0.162953 0.536 
0.056158 0.162953 0.536 
