# .PCD v.7 - Point Cloud Data file format
VERSION .7
FIELDS x y z
SIZE 4 4 4
TYPE F F F
COUNT 1 1 1
WIDTH 1852
HEIGHT 1
VIEWPOINT 0 0 0 1 0 0 0
POINTS 1852
DATA ascii
-0.414573 -0.370543 0.879 
-0.391454 -0.388248 0.921 
-0.367068 -0.408904 0.97 
-0.339222 -0.43504 1.032 
-0.306635 -0.458225 1.087 
-0.566617 -27.6263 65.535 
0.629973 -0.748251 1.775 
0.716721 -0.752467 1.785 
0.805298 -0.757526 1.797 
0.892026 -0.760055 1.803 
0.972816 -0.757526 1.797 
1.07127 -0.768064 1.822 
1.15176 -0.765113 1.815 
1.24793 -0.77228 1.832 
1.33332 -0.77228 1.832 
1.42413 -0.775231 1.839 
1.51396 -0.777338 1.844 
1.62593 -0.789985 1.874 
1.71511 -0.790828 1.876 
1.79006 -0.785348 1.863 
-0.521307 -0.267118 0.636 
-0.505086 -0.275518 0.656 
-0.494039 -0.286858 0.683 
-0.480476 -0.298197 0.71 
-0.472099 -0.326757 0.778 
-0.456004 -0.341877 0.814 
-0.43259 -0.356997 0.85 
-0.410077 -0.372537 0.887 
-0.389935 -0.393957 0.938 
-0.361348 -0.411177 0.979 
-0.330879 -0.435116 1.036 
-0.298139 -0.459056 1.093 
-0.362977 -27.5245 65.535 
0.637278 -0.747594 1.78 
0.723482 -0.750954 1.788 
0.812236 -0.755994 1.8 
0.901113 -0.760194 1.81 
0.980033 -0.755994 1.8 
1.07989 -0.767334 1.827 
1.15867 -0.763133 1.817 
1.25705 -0.771533 1.837 
1.34559 -0.773213 1.841 
1.43374 -0.774473 1.844 
1.52298 -0.776153 1.848 
1.63524 -0.788753 1.878 
1.72094 -0.787913 1.876 
1.80838 -0.787913 1.876 
-0.517178 -0.266548 0.637 
-0.504324 -0.275754 0.659 
-0.491574 -0.286215 0.684 
-0.477167 -0.297094 0.71 
-0.476299 -0.324293 0.775 
-0.459487 -0.33852 0.809 
-0.438463 -0.35191 0.841 
-0.41588 -0.366556 0.876 
-0.392603 -0.383712 0.917 
-0.367412 -0.40296 0.963 
-0.339835 -0.430578 1.029 
-0.307757 -0.45401 1.085 
-0.0315715 -0.261108 0.624 
0.618593 -0.742317 1.774 
0.708395 -0.749849 1.792 
0.793247 -0.751105 1.795 
0.880332 -0.754034 1.802 
0.966999 -0.756126 1.807 
1.06286 -0.764495 1.827 
1.14236 -0.760729 1.818 
1.24262 -0.770353 1.841 
1.32555 -0.768679 1.837 
1.41962 -0.773282 1.848 
1.50657 -0.773701 1.849 
1.61256 -0.783325 1.872 
1.70708 -0.786672 1.88 
1.77371 -0.777467 1.858 
-0.520487 -0.264725 0.635 
-0.504805 -0.272229 0.653 
-0.493982 -0.283485 0.68 
-0.479283 -0.293907 0.705 
-0.479724 -0.319754 0.767 
-0.462497 -0.333094 0.799 
-0.444416 -0.348102 0.835 
-0.421142 -0.362694 0.87 
-0.399402 -0.38062 0.913 
-0.372946 -0.39938 0.958 
-0.34749 -0.428562 1.028 
-0.314437 -0.449823 1.079 
-0.0344799 -0.260139 0.624 
0.6224 -0.740812 1.777 
0.713164 -0.74915 1.797 
0.797366 -0.749567 1.798 
0.885582 -0.753319 1.807 
0.971417 -0.754569 1.81 
1.06861 -0.763741 1.832 
1.14771 -0.759572 1.822 
1.24887 -0.769577 1.846 
1.33202 -0.76791 1.842 
1.42634 -0.772495 1.853 
1.51271 -0.772495 1.853 
1.61893 -0.782084 1.876 
1.71 -0.783751 1.88 
1.78329 -0.777498 1.865 
-0.516366 -0.264153 0.636 
-0.502793 -0.272875 0.657 
-0.490137 -0.283259 0.682 
-0.476495 -0.294473 0.709 
-0.479157 -0.318978 0.768 
-0.461833 -0.332268 0.8 
-0.44365 -0.34722 0.836 
-0.421142 -0.361342 0.87 
-0.398964 -0.378786 0.912 
-0.37107 -0.397476 0.957 
-0.347152 -0.426549 1.027 
-0.314437 -0.448147 1.079 
-0.0353926 -0.258754 0.623 
0.619639 -0.738051 1.777 
0.711558 -0.747604 1.8 
0.795456 -0.747604 1.8 
0.883263 -0.750926 1.808 
0.97021 -0.753003 1.813 
1.06693 -0.761725 1.834 
1.14676 -0.757987 1.825 
1.24937 -0.768786 1.851 
1.33204 -0.766709 1.846 
1.4273 -0.771693 1.858 
1.51227 -0.770863 1.856 
1.61946 -0.780831 1.88 
1.70799 -0.781246 1.881 
1.78612 -0.777093 1.871 
-0.516541 -0.262751 0.635 
-0.503047 -0.271441 0.656 
-0.490477 -0.281785 0.681 
-0.474752 -0.295026 0.713 
-0.476237 -0.319026 0.771 
-0.459717 -0.333094 0.805 
-0.440552 -0.347577 0.84 
-0.417169 -0.361231 0.873 
-0.393728 -0.377783 0.913 
-0.368866 -0.396817 0.959 
-0.343626 -0.42454 1.026 
-0.311661 -0.447298 1.081 
-0.0363606 -0.257786 0.623 
0.610324 -0.734049 1.774 
0.702387 -0.74398 1.798 
0.787066 -0.744807 1.8 
0.874352 -0.747704 1.807 
0.962821 -0.751014 1.815 
1.05723 -0.758048 1.832 
1.14387 -0.758876 1.834 
1.24343 -0.767565 1.855 
1.32559 -0.765082 1.849 
1.42399 -0.771703 1.865 
1.50686 -0.769634 1.86 
1.61155 -0.778323 1.881 
1.69922 -0.778323 1.881 
1.78405 -0.777082 1.878 
-0.516713 -0.261353 0.634 
-0.50253 -0.269597 0.654 
-0.490813 -0.280315 0.68 
-0.476734 -0.293094 0.711 
-0.477909 -0.315767 0.766 
-0.461256 -0.32937 0.799 
-0.44365 -0.344623 0.836 
-0.420174 -0.357814 0.868 
-0.397652 -0.374715 0.909 
-0.372871 -0.393266 0.954 
-0.349661 -0.422534 1.025 
-0.316906 -0.443557 1.076 
-0.0479224 -0.203228 0.493 
0.593787 -0.731293 1.774 
0.684482 -0.739949 1.795 
0.769003 -0.740774 1.797 
0.857982 -0.745308 1.808 
0.947465 -0.749431 1.818 
1.03731 -0.753141 1.827 
1.13168 -0.759324 1.842 
1.22481 -0.763859 1.853 
1.3133 -0.765095 1.856 
1.41113 -0.771279 1.871 
1.48792 -0.76592 1.858 
1.59741 -0.77705 1.885 
1.68348 -0.776225 1.883 
1.77783 -0.779111 1.89 
1.87876 -0.78447 1.903 
-0.507203 -0.265706 0.647 
-0.496217 -0.276384 0.673 
-0.479353 -0.285008 0.694 
-0.482431 -0.307595 0.749 
-0.467237 -0.321147 0.782 
-0.448799 -0.335521 0.817 
-0.428313 -0.349895 0.852 
-0.405477 -0.36509 0.889 
-0.384925 -0.386034 0.94 
-0.355989 -0.402872 0.981 
-0.324754 -0.425869 1.037 
-0.294278 -0.453385 1.104 
-0.0235102 -0.252975 0.616 
0.634989 -0.737982 1.797 
0.723147 -0.742499 1.808 
0.808312 -0.743321 1.81 
0.899088 -0.748659 1.823 
0.984059 -0.748659 1.823 
1.07958 -0.756052 1.841 
1.16096 -0.753177 1.834 
1.26887 -0.766729 1.867 
1.35299 -0.765086 1.863 
1.44601 -0.768372 1.871 
1.53158 -0.76755 1.869 
1.63428 -0.774943 1.887 
1.72497 -0.776175 1.89 
1.82746 -0.782335 1.905 
-0.51475 -0.256928 0.628 
-0.503259 -0.266338 0.651 
-0.491803 -0.276975 0.677 
-0.477923 -0.287612 0.703 
-0.479984 -0.310113 0.758 
-0.462252 -0.322387 0.788 
-0.447452 -0.339979 0.831 
-0.421998 -0.351026 0.858 
-0.400706 -0.368209 0.9 
-0.377891 -0.387846 0.948 
-0.356228 -0.417712 1.021 
-0.321033 -0.434486 1.062 
-0.284317 -0.454942 1.112 
0.451585 -26.8117 65.535 
0.655368 -0.739281 1.807 
0.739592 -0.739281 1.807 
0.826553 -0.741736 1.813 
0.92161 -0.750327 1.834 
1.0049 -0.748691 1.83 
1.09973 -0.755237 1.846 
1.18127 -0.752373 1.839 
1.28903 -0.765465 1.871 
1.37845 -0.766692 1.874 
1.4658 -0.766692 1.874 
1.55812 -0.769147 1.88 
1.65012 -0.771193 1.885 
1.75273 -0.777738 1.901 
1.85781 -0.784693 1.918 
-0.515554 -0.258805 0.635 
-0.502028 -0.267364 0.656 
-0.4887 -0.277146 0.68 
-0.477167 -0.289373 0.71 
-0.475972 -0.310159 0.761 
-0.460182 -0.324016 0.795 
-0.444416 -0.340318 0.835 
-0.420065 -0.352545 0.865 
-0.39643 -0.368033 0.903 
-0.372784 -0.387189 0.95 
-0.34954 -0.415718 1.02 
-0.31455 -0.435282 1.068 
-0.0487871 -0.201338 0.494 
0.594696 -0.727507 1.785 
0.684351 -0.734436 1.802 
0.773886 -0.739734 1.815 
0.858484 -0.739734 1.815 
0.949317 -0.744625 1.827 
1.03844 -0.747478 1.834 
1.1374 -0.756444 1.856 
1.22391 -0.756444 1.856 
1.31819 -0.760928 1.867 
1.41499 -0.766226 1.88 
1.49223 -0.760928 1.867 
1.60209 -0.771932 1.894 
1.68055 -0.767449 1.883 
1.79274 -0.778045 1.909 
1.89256 -0.782529 1.92 
-0.508063 -0.261067 0.643 
-0.495194 -0.270405 0.666 
-0.480878 -0.280149 0.69 
-0.47668 -0.297608 0.733 
-0.469075 -0.316284 0.779 
-0.448321 -0.327653 0.807 
-0.427811 -0.345517 0.851 
-0.405021 -0.36054 0.888 
-0.382058 -0.37881 0.933 
-0.354538 -0.396675 0.977 
-0.324441 -0.42063 1.036 
-0.294545 -0.448645 1.105 
-0.0244275 -0.249698 0.615 
0.643105 -0.735696 1.812 
0.72957 -0.737726 1.817 
0.816502 -0.739756 1.822 
0.907857 -0.745035 1.835 
0.992846 -0.744628 1.834 
1.08421 -0.748689 1.844 
1.17143 -0.749501 1.846 
1.27927 -0.762493 1.878 
1.3668 -0.762493 1.878 
1.45666 -0.763711 1.881 
1.54351 -0.763305 1.88 
1.63895 -0.766959 1.889 
1.73522 -0.770613 1.898 
1.85252 -0.782794 1.928 
-0.512291 -0.252787 0.625 
-0.501761 -0.264112 0.653 
-0.487926 -0.273415 0.676 
-0.477347 -0.285953 0.707 
-0.473936 -0.304963 0.754 
-0.460907 -0.320332 0.792 
-0.443119 -0.337724 0.835 
-0.419206 -0.350262 0.866 
-0.393715 -0.364014 0.9 
-0.371699 -0.384641 0.951 
-0.342758 -0.410122 1.014 
-0.308317 -0.427918 1.058 
-0.0358937 -0.248743 0.615 
0.600816 -0.726005 1.795 
0.689439 -0.731263 1.808 
0.780985 -0.738139 1.825 
0.864625 -0.736926 1.822 
0.954761 -0.74097 1.832 
1.04413 -0.743801 1.839 
1.14459 -0.753508 1.863 
1.23142 -0.753508 1.863 
1.32604 -0.757957 1.874 
1.42018 -0.761598 1.883 
1.49833 -0.756744 1.871 
1.61096 -0.768878 1.901 
1.68884 -0.764024 1.889 
1.80605 -0.776563 1.92 
1.90837 -0.781821 1.933 
-0.506637 -0.259874 0.645 
-0.492228 -0.269544 0.669 
-0.476896 -0.278811 0.692 
-0.473556 -0.296942 0.737 
-0.466022 -0.315073 0.782 
-0.444954 -0.326354 0.81 
-0.425166 -0.342873 0.851 
-0.402715 -0.358183 0.889 
-0.379972 -0.376717 0.935 
-0.351059 -0.394848 0.98 
-0.321686 -0.422246 1.048 
-0.27543 -0.447629 1.111 
0.614358 -0.726037 1.802 
0.703388 -0.731274 1.815 
0.795366 -0.738124 1.832 
0.879314 -0.736915 1.829 
0.968783 -0.740138 1.837 
1.05728 -0.742153 1.842 
1.15741 -0.75142 1.865 
1.249 -0.75424 1.872 
1.34197 -0.757463 1.88 
1.43188 -0.758672 1.883 
1.51238 -0.755046 1.874 
1.62192 -0.765521 1.9 
1.70328 -0.762298 1.892 
1.82745 -0.777609 1.93 
1.92436 -0.780429 1.937 
-0.504967 -0.260076 0.648 
-0.487759 -0.268906 0.67 
-0.47629 -0.280545 0.699 
-0.469852 -0.297803 0.742 
-0.462252 -0.316266 0.788 
-0.444221 -0.331116 0.825 
-0.421015 -0.343558 0.856 
-0.39759 -0.358408 0.893 
-0.375499 -0.378074 0.942 
-0.349754 -0.40055 0.998 
-0.311916 -0.420617 1.048 
-0.27543 -0.445902 1.111 
0.63641 -0.729257 1.817 
0.723085 -0.731264 1.822 
0.814661 -0.737284 1.837 
0.901265 -0.738087 1.839 
0.988591 -0.739291 1.842 
1.07853 -0.7421 1.849 
1.17353 -0.747719 1.863 
1.27187 -0.754542 1.88 
1.36456 -0.757352 1.887 
1.45097 -0.756549 1.885 
1.53883 -0.756549 1.885 
1.63273 -0.759359 1.892 
1.7282 -0.762569 1.9 
1.85213 -0.777419 1.937 
-0.512587 -0.249075 0.623 
-0.500224 -0.260269 0.651 
-0.488018 -0.272663 0.682 
-0.472285 -0.282258 0.706 
-0.466761 -0.299849 0.75 
-0.457712 -0.31784 0.795 
-0.440763 -0.333032 0.833 
-0.418343 -0.346625 0.867 
-0.391445 -0.359019 0.898 
-0.370221 -0.380209 0.951 
-0.338602 -0.404196 1.011 
-0.302723 -0.419789 1.05 
-0.266079 -0.442977 1.108 
0.660505 -0.731232 1.829 
0.744124 -0.729632 1.825 
0.83464 -0.73443 1.837 
0.92377 -0.737229 1.844 
1.01081 -0.738028 1.846 
1.10696 -0.744825 1.863 
1.19507 -0.745624 1.865 
1.29438 -0.752821 1.883 
1.38655 -0.75522 1.889 
1.48006 -0.758018 1.896 
1.57588 -0.761616 1.905 
1.65331 -0.756419 1.892 
1.76267 -0.765614 1.915 
1.87707 -0.776009 1.941 
-0.512307 -0.251293 0.631 
-0.498967 -0.259656 0.652 
-0.486209 -0.27001 0.678 
-0.472041 -0.280364 0.704 
-0.464183 -0.296294 0.744 
-0.458947 -0.316605 0.795 
-0.440466 -0.330543 0.83 
-0.418721 -0.344482 0.865 
-0.392402 -0.357226 0.897 
-0.370917 -0.377934 0.949 
-0.343521 -0.401033 1.007 
-0.307187 -0.41537 1.043 
-0.271733 -0.442052 1.11 
0.652336 -0.728788 1.83 
0.736424 -0.727594 1.827 
0.828326 -0.733567 1.842 
0.916168 -0.73516 1.846 
1.0033 -0.735957 1.848 
1.09769 -0.741532 1.862 
1.18893 -0.74432 1.869 
1.28697 -0.750692 1.885 
1.37993 -0.753479 1.892 
1.46967 -0.754276 1.894 
1.567 -0.758657 1.905 
1.64623 -0.754276 1.894 
1.75191 -0.761843 1.913 
1.8661 -0.772197 1.939 
-0.512638 -0.249519 0.629 
-0.499456 -0.257849 0.65 
-0.485039 -0.266577 0.672 
-0.473972 -0.278477 0.702 
-0.461994 -0.291568 0.735 
-0.459743 -0.313386 0.79 
-0.441122 -0.326874 0.824 
-0.419821 -0.340758 0.859 
-0.395257 -0.354642 0.894 
-0.374154 -0.37527 0.946 
-0.345063 -0.392328 0.989 
-0.314685 -0.412956 1.041 
-0.284573 -0.441517 1.113 
0.613021 -0.723168 1.823 
0.697991 -0.723168 1.823 
0.789834 -0.729515 1.839 
0.874598 -0.728722 1.837 
0.966493 -0.733482 1.849 
1.06065 -0.739036 1.863 
1.15549 -0.744193 1.876 
1.24558 -0.74578 1.88 
1.34172 -0.75054 1.892 
1.43141 -0.751333 1.894 
1.51809 -0.75054 1.892 
1.62411 -0.75887 1.913 
1.70611 -0.755697 1.905 
1.82316 -0.767598 1.935 
1.93906 -0.777912 1.961 
-0.506276 -0.253678 0.642 
-0.489708 -0.260791 0.66 
-0.479111 -0.27225 0.689 
-0.464396 -0.284894 0.721 
-0.463652 -0.306627 0.776 
-0.444009 -0.318481 0.806 
-0.42762 -0.335077 0.848 
-0.403655 -0.348511 0.882 
-0.381864 -0.367083 0.929 
-0.354598 -0.384469 0.973 
-0.32482 -0.403831 1.022 
-0.296091 -0.433861 1.098 
0.575538 -0.715989 1.812 
0.669831 -0.726658 1.839 
0.753493 -0.724682 1.834 
0.842636 -0.727844 1.842 
0.93202 -0.730609 1.849 
1.02426 -0.734956 1.86 
1.12051 -0.741278 1.876 
1.20538 -0.739698 1.872 
1.30782 -0.748391 1.894 
1.39758 -0.749181 1.896 
1.49144 -0.751947 1.903 
1.59591 -0.759454 1.922 
1.67234 -0.753527 1.907 
1.77878 -0.761035 1.926 
1.88116 -0.766172 1.939 
-0.51098 -0.249139 0.633 
-0.495928 -0.256617 0.652 
-0.488036 -0.269605 0.685 
-0.469425 -0.277477 0.705 
-0.459477 -0.292039 0.742 
-0.45324 -0.31408 0.798 
-0.434292 -0.327855 0.833 
-0.413506 -0.342812 0.871 
-0.387894 -0.356587 0.906 
-0.363597 -0.375086 0.953 
-0.335129 -0.39752 1.01 
-0.300601 -0.414837 1.054 
0.056419 -0.27787 0.706 
0.641956 -0.724588 1.841 
0.724208 -0.721046 1.832 
0.818878 -0.729311 1.853 
0.906224 -0.730098 1.855 
0.991616 -0.729311 1.853 
1.08729 -0.735608 1.869 
1.18132 -0.739938 1.88 
1.2784 -0.745448 1.894 
1.37461 -0.749777 1.905 
1.45649 -0.746235 1.896 
1.55872 -0.752926 1.913 
1.64099 -0.749777 1.905 
1.73523 -0.752139 1.911 
1.84912 -0.762372 1.937 
-0.514233 -0.245019 0.625 
-0.501401 -0.253252 0.646 
-0.485882 -0.261092 0.666 
-0.475327 -0.272853 0.696 
-0.460068 -0.283438 0.723 
-0.459905 -0.307352 0.784 
-0.440103 -0.319505 0.815 
-0.422345 -0.335578 0.856 
-0.398083 -0.349299 0.891 
-0.376963 -0.369292 0.942 
-0.345784 -0.383406 0.978 
-0.315782 -0.405359 1.034 
-0.286478 -0.433977 1.107 
0.618401 -0.720944 1.839 
0.700671 -0.717415 1.83 
0.793699 -0.724472 1.848 
0.879835 -0.724472 1.848 
0.972243 -0.729176 1.86 
1.07089 -0.737409 1.881 
1.15795 -0.737017 1.88 
1.25353 -0.741721 1.892 
1.34739 -0.744857 1.9 
1.44124 -0.747602 1.907 
1.53173 -0.748386 1.909 
1.63005 -0.752698 1.92 
1.71327 -0.749954 1.913 
1.82693 -0.760147 1.939 
1.94895 -0.772692 1.971 
-0.506276 -0.250686 0.642 
-0.488106 -0.258496 0.662 
-0.47659 -0.269429 0.69 
-0.462464 -0.280362 0.718 
-0.459457 -0.301838 0.773 
-0.443147 -0.315896 0.809 
-0.424667 -0.331905 0.85 
-0.40045 -0.345181 0.884 
-0.379566 -0.364705 0.934 
-0.350783 -0.380715 0.975 
-0.320027 -0.401019 1.027 
-0.292033 -0.430305 1.102 
0.609829 -0.718086 1.839 
0.693654 -0.716134 1.834 
0.784236 -0.72082 1.846 
0.871693 -0.721991 1.849 
0.965128 -0.727458 1.863 
1.06551 -0.736829 1.887 
1.1498 -0.734486 1.881 
1.24471 -0.738782 1.892 
1.33924 -0.742296 1.901 
1.43686 -0.746982 1.913 
1.52602 -0.746982 1.913 
1.62617 -0.752058 1.926 
1.70703 -0.748153 1.916 
1.82165 -0.758696 1.943 
1.92992 -0.765725 1.961 
-0.503408 -0.251244 0.646 
-0.486486 -0.258245 0.664 
-0.475432 -0.269524 0.693 
-0.461035 -0.280413 0.721 
-0.458256 -0.300637 0.773 
-0.442437 -0.315028 0.81 
-0.423844 -0.330973 0.851 
-0.399053 -0.344975 0.887 
-0.376417 -0.364421 0.937 
-0.346593 -0.379589 0.976 
-0.313568 -0.401368 1.032 
-0.283987 -0.429371 1.104 
0.617887 -0.717952 1.846 
0.699353 -0.713285 1.834 
0.792112 -0.719896 1.851 
0.88076 -0.721841 1.856 
0.973001 -0.726119 1.867 
1.07308 -0.735064 1.89 
1.15687 -0.732342 1.883 
1.25588 -0.738954 1.9 
1.34656 -0.74012 1.903 
1.44506 -0.745176 1.916 
1.53437 -0.745176 1.916 
1.63554 -0.750621 1.93 
1.71298 -0.745176 1.916 
1.82956 -0.756455 1.945 
1.94392 -0.765789 1.969 
-0.497151 -0.250628 0.647 
-0.483595 -0.259537 0.67 
-0.471271 -0.270384 0.698 
-0.455708 -0.280843 0.725 
-0.457997 -0.30486 0.787 
-0.437375 -0.316481 0.817 
-0.419332 -0.332363 0.858 
-0.395699 -0.346695 0.895 
-0.372176 -0.364514 0.941 
-0.342272 -0.380009 0.981 
-0.307623 -0.402477 1.039 
-0.271468 -0.432304 1.116 
0.638192 -0.71857 1.855 
0.716841 -0.710823 1.835 
0.814614 -0.721669 1.863 
0.903384 -0.723218 1.867 
0.989345 -0.722444 1.865 
1.08897 -0.730966 1.887 
1.17692 -0.730966 1.887 
1.28096 -0.740263 1.911 
1.3729 -0.741812 1.915 
1.46064 -0.741037 1.913 
1.55709 -0.744524 1.922 
1.6501 -0.746073 1.926 
1.73265 -0.742974 1.918 
1.8363 -0.748785 1.933 
-0.516175 -0.241135 0.625 
-0.492133 -0.251166 0.651 
-0.48307 -0.26274 0.681 
-0.467897 -0.272386 0.706 
-0.451626 -0.282803 0.733 
-0.452771 -0.306723 0.795 
-0.432972 -0.319455 0.828 
-0.413907 -0.335274 0.869 
-0.388872 -0.349163 0.905 
-0.362779 -0.365367 0.947 
-0.335129 -0.389674 1.01 
-0.300886 -0.407035 1.055 
0.126218 -0.315211 0.817 
0.644997 -0.716845 1.858 
0.72333 -0.708743 1.837 
0.823926 -0.721861 1.871 
0.911621 -0.722247 1.872 
0.99514 -0.719546 1.865 
1.09599 -0.728806 1.889 
1.18467 -0.729191 1.89 
1.2896 -0.738837 1.915 
1.38245 -0.740766 1.92 
1.46888 -0.739223 1.916 
1.56469 -0.742309 1.924 
1.65781 -0.743852 1.928 
1.74405 -0.742309 1.924 
1.84135 -0.745396 1.932 
-0.515056 -0.240548 0.626 
-0.490336 -0.251307 0.654 
-0.480244 -0.262451 0.683 
-0.466792 -0.27321 0.711 
-0.45073 -0.28397 0.739 
-0.448957 -0.306257 0.797 
-0.42886 -0.318937 0.83 
-0.409917 -0.335076 0.872 
-0.385788 -0.350063 0.911 
-0.359908 -0.36697 0.955 
-0.329829 -0.389257 1.013 
-0.298517 -0.413466 1.076 
0.564919 -0.711269 1.851 
0.652954 -0.71319 1.856 
0.734681 -0.708579 1.844 
0.834872 -0.720875 1.876 
0.922313 -0.720875 1.876 
1.00599 -0.718185 1.869 
1.10655 -0.727023 1.892 
1.19853 -0.729329 1.898 
1.30056 -0.737014 1.918 
1.3943 -0.73932 1.924 
1.4809 -0.737783 1.92 
1.57202 -0.738551 1.922 
1.66507 -0.740088 1.926 
1.76122 -0.742778 1.933 
1.84844 -0.741625 1.93 
-0.512956 -0.239958 0.627 
-0.492133 -0.249143 0.651 
-0.480942 -0.259476 0.678 
-0.467234 -0.269809 0.705 
-0.450394 -0.27976 0.731 
-0.452201 -0.30387 0.794 
-0.432449 -0.3165 0.827 
-0.412954 -0.331808 0.867 
-0.387583 -0.345203 0.902 
-0.361246 -0.360894 0.943 
-0.337481 -0.383856 1.003 
-0.304065 -0.401461 1.049 
-0.271468 -0.427102 1.116 
0.617456 -0.712603 1.862 
0.69895 -0.707245 1.848 
0.791033 -0.712603 1.862 
0.882536 -0.71643 1.872 
0.973935 -0.719491 1.88 
1.07455 -0.728294 1.903 
1.1553 -0.723319 1.89 
1.25984 -0.732886 1.915 
1.3491 -0.732886 1.915 
1.44512 -0.736331 1.924 
1.54118 -0.739392 1.932 
1.64052 -0.743602 1.943 
1.71772 -0.737861 1.928 
1.84883 -0.754701 1.972 
1.93977 -0.754318 1.971 
-0.501145 -0.241271 0.633 
-0.484723 -0.252705 0.663 
-0.472302 -0.262997 0.69 
-0.458639 -0.27405 0.719 
-0.449369 -0.289677 0.76 
-0.440089 -0.307973 0.808 
-0.420358 -0.321694 0.844 
-0.398625 -0.336559 0.883 
-0.374876 -0.352949 0.926 
-0.348551 -0.370863 0.973 
-0.31878 -0.389921 1.023 
-0.287528 -0.413553 1.085 
0.565383 -0.70971 1.862 
0.652172 -0.70971 1.862 
0.73261 -0.703611 1.846 
0.835948 -0.718476 1.885 
0.921848 -0.716952 1.881 
1.00684 -0.715046 1.876 
1.10595 -0.722669 1.896 
1.20125 -0.726862 1.907 
1.29893 -0.731817 1.92 
1.39565 -0.735628 1.93 
1.48407 -0.734866 1.928 
1.57067 -0.733341 1.924 
1.67157 -0.738296 1.937 
1.76549 -0.739821 1.941 
1.85022 -0.737534 1.935 
-0.514904 -0.23801 0.627 
-0.494899 -0.245981 0.648 
-0.481189 -0.254712 0.671 
-0.468688 -0.265341 0.699 
-0.451705 -0.274831 0.724 
-0.450287 -0.296089 0.78 
-0.435159 -0.311273 0.82 
-0.416785 -0.326836 0.861 
-0.390137 -0.339743 0.895 
-0.363603 -0.354547 0.934 
-0.340973 -0.377703 0.995 
-0.307776 -0.396683 1.045 
-0.274439 -0.420218 1.107 
0.579225 -0.706058 1.86 
0.665204 -0.705298 1.858 
0.750997 -0.704539 1.856 
0.851494 -0.716307 1.887 
0.936461 -0.714029 1.881 
1.02522 -0.714788 1.883 
1.12304 -0.721242 1.9 
1.21989 -0.726176 1.913 
1.31521 -0.729593 1.922 
1.41064 -0.73263 1.93 
1.50605 -0.735287 1.937 
1.58726 -0.731111 1.926 
1.68487 -0.734528 1.935 
1.79708 -0.743638 1.959 
1.87297 -0.737564 1.943 
-0.510847 -0.237414 0.628 
-0.494654 -0.245353 0.649 
-0.480862 -0.254048 0.672 
-0.467602 -0.264255 0.699 
-0.451202 -0.274084 0.725 
-0.449586 -0.296011 0.783 
-0.433666 -0.310755 0.822 
-0.413824 -0.327389 0.866 
-0.386828 -0.339108 0.897 
-0.360404 -0.35423 0.937 
-0.337011 -0.376913 0.997 
-0.305986 -0.39695 1.05 
-0.271978 -0.42001 1.111 
0.585948 -0.704302 1.863 
0.670978 -0.702412 1.858 
0.759211 -0.703924 1.862 
0.858266 -0.714131 1.889 
0.944309 -0.712619 1.885 
1.03491 -0.714509 1.89 
1.12954 -0.718668 1.901 
1.22776 -0.724338 1.916 
1.32393 -0.728119 1.926 
1.41517 -0.728875 1.928 
1.51675 -0.734546 1.943 
1.59821 -0.730387 1.932 
1.69613 -0.73379 1.941 
1.81421 -0.745131 1.971 
1.88867 -0.738326 1.953 
-0.508895 -0.236438 0.628 
-0.494899 -0.243968 0.648 
-0.481189 -0.252627 0.671 
-0.467347 -0.262416 0.697 
-0.451705 -0.272581 0.724 
-0.44837 -0.294794 0.783 
-0.432389 -0.309478 0.822 
-0.41469 -0.325667 0.865 
-0.386923 -0.336585 0.894 
-0.360315 -0.351268 0.933 
-0.337881 -0.374611 0.995 
-0.307031 -0.394565 1.048 
-0.272226 -0.416025 1.105 
0.570413 -0.703666 1.869 
0.656824 -0.702913 1.867 
0.73747 -0.696889 1.851 
0.843772 -0.713832 1.896 
0.930179 -0.712326 1.892 
1.01567 -0.710443 1.887 
1.11299 -0.716467 1.903 
1.21368 -0.72362 1.922 
1.30327 -0.72362 1.922 
1.40662 -0.730774 1.941 
1.49555 -0.730021 1.939 
1.5802 -0.727385 1.932 
1.68495 -0.733786 1.949 
1.78673 -0.738304 1.961 
1.87238 -0.736045 1.955 
-0.512956 -0.235087 0.627 
-0.497618 -0.241836 0.645 
-0.484227 -0.25046 0.668 
-0.470048 -0.259833 0.693 
-0.456066 -0.270707 0.722 
-0.441135 -0.282705 0.754 
-0.436496 -0.304826 0.813 
-0.418214 -0.319824 0.853 
-0.390284 -0.333322 0.889 
-0.362825 -0.349444 0.932 
-0.339945 -0.37194 0.992 
-0.309104 -0.391437 1.044 
-0.273415 -0.410934 1.096 
0.554469 -0.702637 1.874 
0.643187 -0.704137 1.878 
0.722939 -0.696638 1.858 
0.823048 -0.708261 1.889 
0.914471 -0.710886 1.896 
0.99967 -0.708636 1.89 
1.09525 -0.71351 1.903 
1.19328 -0.719135 1.918 
1.28535 -0.720634 1.922 
1.39139 -0.729258 1.945 
1.47595 -0.726258 1.937 
1.56785 -0.727008 1.939 
1.68046 -0.736757 1.965 
1.76664 -0.734507 1.959 
1.87028 -0.739381 1.972 
1.99105 -0.750255 2.001 
-0.498165 -0.23822 0.638 
-0.483846 -0.246061 0.659 
-0.473071 -0.25689 0.688 
-0.458951 -0.267344 0.716 
-0.446975 -0.280786 0.752 
-0.439313 -0.299456 0.802 
-0.41847 -0.311777 0.835 
-0.399091 -0.328953 0.881 
-0.37136 -0.346502 0.928 
-0.344723 -0.364051 0.975 
-0.317081 -0.385708 1.033 
-0.281429 -0.40363 1.081 
0.069354 -0.655293 1.755 
0.61172 -0.698605 1.871 
0.696686 -0.696365 1.865 
0.789077 -0.701219 1.878 
0.880812 -0.70458 1.887 
0.973386 -0.70794 1.896 
1.0668 -0.711301 1.905 
1.15802 -0.712794 1.909 
1.2581 -0.719142 1.926 
1.35697 -0.723996 1.939 
1.44212 -0.721382 1.932 
1.55835 -0.733704 1.965 
1.64322 -0.730717 1.957 
1.74152 -0.733704 1.965 
1.8611 -0.744905 1.995 
1.95409 -0.744905 1.995 
-0.500728 -0.234254 0.63 
-0.487288 -0.243178 0.654 
-0.474267 -0.252474 0.679 
-0.461523 -0.263257 0.708 
-0.447891 -0.275156 0.74 
-0.44189 -0.294119 0.791 
-0.423455 -0.307505 0.827 
-0.405425 -0.324982 0.874 
-0.379709 -0.338368 0.91 
-0.353603 -0.354728 0.954 
-0.325663 -0.373692 1.005 
-0.294355 -0.394514 1.061 
-0.257828 -0.415337 1.117 
0.565511 -0.69607 1.872 
0.654858 -0.698301 1.878 
0.735276 -0.691608 1.86 
0.840974 -0.707597 1.903 
0.929673 -0.707597 1.903 
1.01356 -0.704251 1.894 
1.11173 -0.710572 1.911 
1.21274 -0.717637 1.93 
1.2973 -0.714662 1.922 
1.41069 -0.726932 1.955 
1.49567 -0.723958 1.947 
1.58642 -0.723958 1.947 
1.69612 -0.732138 1.969 
1.79244 -0.733997 1.974 
1.88445 -0.733997 1.974 
-0.512956 -0.232165 0.627 
-0.495379 -0.2392 0.646 
-0.482554 -0.248087 0.67 
-0.466818 -0.256603 0.693 
-0.453955 -0.268082 0.724 
-0.43704 -0.27882 0.753 
-0.433436 -0.300666 0.812 
-0.417637 -0.31844 0.86 
-0.389406 -0.328437 0.887 
-0.364936 -0.344359 0.93 
-0.33957 -0.363614 0.982 
-0.304981 -0.38546 1.041 
-0.269024 -0.404344 1.092 
0.0588135 -0.653912 1.766 
0.587206 -0.691311 1.867 
0.676033 -0.693162 1.872 
0.764919 -0.694643 1.876 
0.864627 -0.704641 1.903 
0.951824 -0.70353 1.9 
1.04093 -0.7039 1.901 
1.13786 -0.709084 1.915 
1.24121 -0.71723 1.937 
1.33012 -0.716489 1.935 
1.43059 -0.721673 1.949 
1.53704 -0.729079 1.969 
1.6222 -0.726117 1.961 
1.72496 -0.73093 1.974 
1.83262 -0.737225 1.991 
1.91962 -0.735003 1.985 
-0.50091 -0.231928 0.629 
-0.487015 -0.241515 0.655 
-0.473212 -0.250364 0.679 
-0.459772 -0.260689 0.707 
-0.447398 -0.273963 0.743 
-0.438203 -0.291662 0.791 
-0.418821 -0.305304 0.828 
-0.40045 -0.325953 0.884 
-0.375095 -0.340333 0.923 
-0.346105 -0.354714 0.962 
-0.320683 -0.377575 1.024 
-0.284613 -0.396011 1.074 
-0.233871 -0.415553 1.127 
0.303727 -0.485611 1.317 
0.620772 -0.690253 1.872 
0.708783 -0.690991 1.874 
0.803778 -0.697628 1.892 
0.891965 -0.697628 1.892 
0.986886 -0.702421 1.905 
1.07907 -0.704634 1.911 
1.17486 -0.70869 1.922 
1.273 -0.713483 1.935 
1.37446 -0.719383 1.951 
1.4624 -0.717908 1.947 
1.57309 -0.727126 1.972 
1.665 -0.727126 1.972 
1.76583 -0.730813 1.982 
1.8704 -0.735607 1.995 
1.98897 -0.745193 2.021 
-0.497299 -0.235724 0.642 
-0.485575 -0.244903 0.667 
-0.468114 -0.252247 0.687 
-0.457675 -0.264731 0.721 
-0.43821 -0.275011 0.749 
-0.429652 -0.298143 0.812 
-0.414482 -0.3154 0.859 
-0.383184 -0.328618 0.895 
-0.357874 -0.344407 0.938 
-0.32755 -0.359094 0.978 
-0.29984 -0.381858 1.04 
-0.265384 -0.403154 1.098 
-1.78846 -24.0626 65.535 
0.56089 -0.688814 1.876 
0.651441 -0.692118 1.885 
0.735772 -0.688814 1.876 
0.838571 -0.701665 1.911 
0.926673 -0.70093 1.909 
1.01086 -0.697626 1.9 
1.10984 -0.704235 1.918 
1.20674 -0.708641 1.93 
1.29267 -0.706438 1.924 
1.40893 -0.720023 1.961 
1.4988 -0.719289 1.959 
1.5966 -0.722226 1.967 
1.69944 -0.727 1.98 
1.79807 -0.72957 1.987 
1.89639 -0.731773 1.993 
-0.509378 -0.228511 0.625 
-0.491879 -0.23692 0.648 
-0.478774 -0.245695 0.672 
-0.462767 -0.254104 0.695 
-0.44833 -0.264707 0.724 
-0.440672 -0.284451 0.778 
-0.422685 -0.300903 0.823 
-0.402278 -0.323572 0.885 
-0.376121 -0.3371 0.922 
-0.346155 -0.350262 0.958 
-0.320056 -0.373661 1.022 
-0.284949 -0.390845 1.069 
-0.24656 -0.409858 1.121 
0.0725325 -0.645681 1.766 
0.57622 -0.68334 1.869 
0.668304 -0.688458 1.883 
0.756874 -0.689189 1.885 
0.859523 -0.701255 1.918 
0.946448 -0.699427 1.913 
1.0302 -0.695771 1.903 
1.13125 -0.703449 1.924 
1.23171 -0.709664 1.941 
1.31605 -0.706374 1.932 
1.43012 -0.718439 1.965 
1.52636 -0.720633 1.971 
1.62233 -0.722461 1.976 
1.72224 -0.725751 1.985 
1.8239 -0.729407 1.995 
1.9265 -0.733064 2.005 
-0.504188 -0.228268 0.627 
-0.488572 -0.237734 0.653 
-0.474272 -0.246107 0.676 
-0.458483 -0.254845 0.7 
-0.442281 -0.264675 0.727 
-0.433107 -0.285426 0.784 
-0.418315 -0.301081 0.827 
-0.399979 -0.322561 0.886 
-0.373257 -0.335667 0.922 
-0.343178 -0.348773 0.958 
-0.318468 -0.372074 1.022 
-0.283288 -0.389185 1.069 
-0.245255 -0.408844 1.123 
0.0750632 -0.641117 1.761 
0.561488 -0.683712 1.878 
0.652824 -0.687717 1.889 
0.740086 -0.686989 1.887 
0.841643 -0.698275 1.918 
0.928614 -0.696455 1.913 
1.01352 -0.693542 1.905 
1.11447 -0.701187 1.926 
1.20987 -0.704464 1.935 
1.29401 -0.701187 1.926 
1.41037 -0.714658 1.963 
1.50875 -0.717934 1.972 
1.60878 -0.721575 1.982 
1.70545 -0.723395 1.987 
1.80712 -0.727036 1.997 
1.904 -0.728492 2.001 
-0.508407 -0.226569 0.625 
-0.489357 -0.235632 0.65 
-0.47601 -0.244332 0.674 
-0.457788 -0.251582 0.694 
-0.444444 -0.26282 0.725 
-0.434156 -0.280946 0.775 
-0.421407 -0.298346 0.823 
-0.404552 -0.318284 0.878 
-0.376467 -0.329522 0.909 
-0.350271 -0.345472 0.953 
-0.31933 -0.360698 0.995 
-0.288864 -0.381723 1.053 
-0.253674 -0.403837 1.114 
-1.58482 -23.7571 65.535 
0.310416 -0.484676 1.337 
0.602999 -0.678257 1.871 
0.693896 -0.681882 1.881 
0.792373 -0.691307 1.907 
0.883107 -0.692757 1.911 
0.975741 -0.695295 1.918 
1.06347 -0.694207 1.915 
1.16176 -0.699645 1.93 
1.27312 -0.711608 1.963 
1.36462 -0.711608 1.963 
1.46205 -0.714508 1.971 
1.56259 -0.718496 1.982 
1.65915 -0.720308 1.987 
1.75881 -0.723208 1.995 
1.8648 -0.728283 2.009 
1.99158 -0.740609 2.043 
-0.493761 -0.231012 0.64 
-0.483595 -0.241841 0.67 
-0.463844 -0.247977 0.687 
-0.452565 -0.259889 0.72 
-0.434134 -0.270718 0.75 
-0.428449 -0.29057 0.805 
-0.411105 -0.307535 0.852 
-0.38665 -0.320169 0.887 
-0.362435 -0.336051 0.931 
-0.331378 -0.349045 0.967 
-0.304662 -0.371424 1.029 
-0.268425 -0.388389 1.076 
-0.23085 -0.410769 1.138 
0.0992345 -0.632757 1.753 
0.552452 -0.681125 1.887 
0.641424 -0.682208 1.89 
0.731061 -0.683652 1.894 
0.829723 -0.692315 1.918 
0.916726 -0.69051 1.913 
1.00747 -0.691593 1.916 
1.10479 -0.696647 1.93 
1.19908 -0.699173 1.937 
1.29203 -0.700617 1.941 
1.39817 -0.708558 1.963 
1.50636 -0.716499 1.985 
1.61016 -0.721553 1.999 
1.69822 -0.719387 1.993 
1.80549 -0.725162 2.009 
1.89346 -0.722996 2.003 
2.04931 -0.745737 2.066 
-0.489109 -0.232534 0.647 
-0.476686 -0.241519 0.672 
-0.457293 -0.247988 0.69 
-0.446081 -0.260208 0.724 
-0.430476 -0.273146 0.76 
-0.424448 -0.294351 0.819 
-0.401136 -0.308727 0.859 
-0.377072 -0.322385 0.897 
-0.354324 -0.340714 0.948 
-0.31799 -0.34934 0.972 
-0.292603 -0.374857 1.043 
-0.258726 -0.3975 1.106 
-1.68664 -23.5535 65.535 
0.296982 -0.482319 1.342 
0.57377 -0.675678 1.88 
0.668433 -0.682866 1.9 
0.758985 -0.684663 1.905 
0.857123 -0.69221 1.926 
0.945911 -0.691491 1.924 
1.03344 -0.690054 1.92 
1.1317 -0.695445 1.935 
1.232 -0.701195 1.951 
1.31073 -0.694726 1.933 
1.43054 -0.709462 1.974 
1.5372 -0.71629 1.993 
1.635 -0.718447 1.999 
1.72472 -0.717009 1.995 
1.83228 -0.72276 2.011 
1.93847 -0.727432 2.024 
-0.504357 -0.224014 0.626 
-0.487824 -0.233318 0.652 
-0.47357 -0.241548 0.675 
-0.454553 -0.248347 0.694 
-0.441673 -0.259799 0.726 
-0.428057 -0.272681 0.762 
-0.422419 -0.293436 0.82 
-0.400786 -0.309182 0.864 
-0.375537 -0.322064 0.9 
-0.351379 -0.339241 0.948 
-0.315941 -0.348903 0.975 
-0.289396 -0.375384 1.049 
-0.254258 -0.396855 1.109 
0.06583 -0.620511 1.734 
0.308553 -0.482023 1.347 
0.588687 -0.673115 1.881 
0.682474 -0.679198 1.898 
0.778252 -0.685639 1.916 
0.872991 -0.689934 1.928 
0.962855 -0.689934 1.928 
1.05163 -0.689218 1.926 
1.1491 -0.69387 1.939 
1.25354 -0.701743 1.961 
1.34358 -0.701027 1.959 
1.45173 -0.709257 1.982 
1.55112 -0.712478 1.991 
1.64888 -0.714625 1.997 
1.7437 -0.715341 1.999 
1.85342 -0.721782 2.017 
1.9764 -0.732518 2.047 
-0.501145 -0.225535 0.633 
-0.486543 -0.232661 0.653 
-0.471473 -0.2405 0.675 
-0.455656 -0.249051 0.699 
-0.440628 -0.259383 0.728 
-0.425131 -0.271141 0.761 
-0.420895 -0.292875 0.822 
-0.399802 -0.306058 0.859 
-0.375679 -0.319597 0.897 
-0.352479 -0.337412 0.947 
-0.315503 -0.345251 0.969 
-0.290471 -0.373042 1.047 
-0.255289 -0.394063 1.106 
0.0601979 -0.615323 1.727 
0.299513 -0.478861 1.344 
0.578224 -0.671617 1.885 
0.673859 -0.679456 1.907 
0.765944 -0.682306 1.915 
0.861009 -0.686938 1.928 
0.95186 -0.687651 1.93 
1.0429 -0.688363 1.932 
1.1394 -0.692282 1.943 
1.24136 -0.698696 1.961 
1.32053 -0.692282 1.943 
1.43796 -0.705465 1.98 
1.54648 -0.712948 2.001 
1.64139 -0.71366 2.003 
1.73301 -0.712948 2.001 
1.84271 -0.719361 2.019 
1.95121 -0.724705 2.034 
-0.500952 -0.224906 0.634 
-0.485528 -0.231647 0.653 
-0.469727 -0.239096 0.674 
-0.45587 -0.248674 0.701 
-0.440704 -0.258962 0.73 
-0.423391 -0.269604 0.76 
-0.420128 -0.291953 0.823 
-0.398931 -0.305078 0.86 
-0.374702 -0.318558 0.898 
-0.350267 -0.335231 0.945 
-0.315293 -0.345164 0.973 
-0.290194 -0.37106 1.046 
-0.254827 -0.391635 1.104 
0.0782028 -0.606609 1.71 
0.31226 -0.480321 1.354 
0.59444 -0.670462 1.89 
0.687951 -0.675784 1.905 
0.783675 -0.681814 1.922 
0.876895 -0.684652 1.93 
0.968355 -0.685716 1.933 
1.06064 -0.687135 1.937 
1.15687 -0.690683 1.947 
1.263 -0.699197 1.971 
1.35555 -0.699551 1.972 
1.46142 -0.706291 1.991 
1.5589 -0.70842 1.997 
1.65364 -0.709129 1.999 
1.7573 -0.713386 2.011 
1.86668 -0.719417 2.028 
1.98151 -0.726866 2.049 
-0.494057 -0.223921 0.634 
-0.482823 -0.232751 0.659 
-0.463769 -0.238755 0.676 
-0.45226 -0.250411 0.709 
-0.437543 -0.261359 0.74 
-0.417758 -0.270895 0.767 
-0.415377 -0.294559 0.834 
-0.395881 -0.311865 0.883 
-0.366776 -0.322461 0.913 
-0.338425 -0.336589 0.953 
-0.30974 -0.354601 1.004 
-0.278133 -0.375086 1.062 
-0.236877 -0.400162 1.133 
0.106548 -0.614195 1.739 
0.542923 -0.672824 1.905 
0.632379 -0.67353 1.907 
0.723534 -0.675649 1.913 
0.815673 -0.678122 1.92 
0.908936 -0.680947 1.928 
1.00243 -0.683419 1.935 
1.09714 -0.686245 1.943 
1.19137 -0.688364 1.949 
1.29866 -0.697194 1.974 
1.3963 -0.700019 1.982 
1.50896 -0.709555 2.009 
1.60101 -0.708849 2.007 
1.69118 -0.707436 2.003 
1.81038 -0.717679 2.032 
1.89477 -0.713794 2.021 
2.03326 -0.729687 2.066 
-0.489553 -0.225398 0.641 
-0.473519 -0.235244 0.669 
-0.453576 -0.241221 0.686 
-0.443831 -0.254584 0.724 
-0.425341 -0.264781 0.753 
-0.420592 -0.286231 0.814 
-0.400515 -0.299593 0.852 
-0.37526 -0.315065 0.896 
-0.350246 -0.330888 0.941 
-0.316154 -0.341437 0.971 
-0.290703 -0.366403 1.042 
-0.255381 -0.386447 1.099 
0.0722499 -0.596021 1.695 
0.308507 -0.476817 1.356 
0.591059 -0.667403 1.898 
0.685969 -0.673732 1.916 
0.78013 -0.677952 1.928 
0.870897 -0.678655 1.93 
0.965336 -0.68182 1.939 
1.06225 -0.686039 1.951 
1.15673 -0.688149 1.957 
1.25879 -0.694127 1.974 
1.3508 -0.694127 1.974 
1.45962 -0.702214 1.997 
1.55892 -0.705028 2.005 
1.64907 -0.703621 2.001 
1.75627 -0.709247 2.017 
1.86771 -0.715928 2.036 
1.97514 -0.720499 2.049 
-0.495042 -0.221951 0.634 
-0.481644 -0.229653 0.656 
-0.463403 -0.237005 0.677 
-0.450692 -0.248558 0.71 
-0.434656 -0.25871 0.739 
-0.415916 -0.268862 0.768 
-0.411983 -0.292318 0.835 
-0.386772 -0.308421 0.881 
-0.361404 -0.322425 0.921 
-0.331616 -0.335728 0.959 
-0.305167 -0.357083 1.02 
-0.270506 -0.374937 1.071 
-0.229835 -0.396642 1.133 
0.102412 -0.600389 1.715 
0.537127 -0.670755 1.916 
0.626433 -0.670755 1.916 
0.717979 -0.672856 1.922 
0.810085 -0.674956 1.928 
0.903217 -0.677407 1.935 
0.994435 -0.678107 1.937 
1.0948 -0.684408 1.955 
1.18714 -0.685109 1.957 
1.29207 -0.69246 1.978 
1.39616 -0.698412 1.995 
1.4996 -0.703313 2.009 
1.59007 -0.701912 2.005 
1.6852 -0.702613 2.007 
1.80799 -0.714165 2.04 
1.89375 -0.710665 2.03 
2.01286 -0.719416 2.055 
-0.489244 -0.22236 0.638 
-0.477512 -0.231074 0.663 
-0.460082 -0.238044 0.683 
-0.447826 -0.249546 0.716 
-0.43124 -0.259653 0.745 
-0.413547 -0.270806 0.777 
-0.40841 -0.293111 0.841 
-0.381222 -0.308098 0.884 
-0.356557 -0.323085 0.927 
-0.324842 -0.334935 0.961 
-0.300158 -0.358983 1.03 
-0.264144 -0.376061 1.079 
-0.224951 -0.395579 1.135 
0.0793465 -0.584829 1.678 
0.517599 -0.673355 1.932 
0.601045 -0.666036 1.911 
0.695534 -0.671264 1.926 
0.789791 -0.675097 1.937 
0.878258 -0.673703 1.933 
0.972363 -0.676492 1.941 
1.07488 -0.684159 1.963 
1.16875 -0.685553 1.967 
1.27005 -0.690781 1.982 
1.36862 -0.693918 1.991 
1.47169 -0.698797 2.005 
1.56671 -0.699494 2.007 
1.65695 -0.6981 2.003 
1.7774 -0.708905 2.034 
1.88233 -0.712738 2.045 
1.98151 -0.714132 2.049 
-0.494057 -0.219981 0.634 
-0.479159 -0.226921 0.654 
-0.463769 -0.234554 0.676 
-0.451444 -0.244963 0.706 
-0.434543 -0.254332 0.733 
-0.417311 -0.265088 0.764 
-0.415674 -0.288682 0.832 
-0.390466 -0.304296 0.877 
-0.362918 -0.317134 0.914 
-0.334334 -0.331013 0.954 
-0.304773 -0.355301 1.024 
-0.268842 -0.371609 1.071 
-0.230982 -0.39208 1.13 
0.0467006 -0.598183 1.724 
0.13425 -0.619001 1.784 
0.565411 -0.659597 1.901 
0.663306 -0.668965 1.928 
0.755124 -0.6707 1.933 
0.845222 -0.6707 1.933 
0.943062 -0.676252 1.949 
1.03815 -0.679027 1.957 
1.13052 -0.679721 1.959 
1.23493 -0.687008 1.98 
1.31716 -0.681803 1.965 
1.42739 -0.690825 1.991 
1.53852 -0.699152 2.015 
1.63081 -0.698458 2.013 
1.72635 -0.699152 2.015 
1.84557 -0.708867 2.043 
1.93794 -0.707826 2.04 
-0.506005 -0.212433 0.615 
-0.484338 -0.223141 0.646 
-0.4704 -0.231086 0.669 
-0.453662 -0.238685 0.691 
-0.440361 -0.249393 0.722 
-0.423045 -0.25941 0.751 
-0.411809 -0.2753 0.797 
-0.399575 -0.293607 0.85 
-0.374003 -0.30846 0.893 
-0.347269 -0.322277 0.933 
-0.316805 -0.336094 0.973 
-0.285846 -0.359928 1.042 
-0.250941 -0.380653 1.102 
-0.0386304 -0.518475 1.501 
0.0572483 -0.593777 1.719 
0.146397 -0.62072 1.797 
0.56127 -0.658716 1.907 
0.657997 -0.66666 1.93 
0.749893 -0.668388 1.935 
0.84182 -0.669769 1.939 
0.938928 -0.674605 1.953 
1.03101 -0.675296 1.955 
1.12673 -0.678059 1.963 
1.23002 -0.684622 1.982 
1.31239 -0.679441 1.967 
1.42549 -0.689804 1.997 
1.53225 -0.696021 2.015 
1.62617 -0.696021 2.015 
1.7218 -0.696712 2.017 
1.84282 -0.707075 2.047 
1.93445 -0.705693 2.043 
2.02967 -0.705693 2.043 
-0.48484 -0.22145 0.644 
-0.471773 -0.229703 0.668 
-0.454489 -0.236924 0.689 
-0.440766 -0.24724 0.719 
-0.424812 -0.2579 0.75 
-0.409607 -0.270967 0.788 
-0.400424 -0.291942 0.849 
-0.377428 -0.305353 0.888 
-0.351175 -0.319108 0.928 
-0.319689 -0.332863 0.968 
-0.288252 -0.357277 1.039 
-0.253442 -0.377565 1.098 
-0.213501 -0.398541 1.159 
0.012996 -0.52921 1.539 
0.107804 -0.590075 1.716 
0.515396 -0.665381 1.935 
0.602145 -0.661599 1.924 
0.697217 -0.666757 1.939 
0.792468 -0.670883 1.951 
0.877971 -0.666757 1.939 
0.971345 -0.66882 1.945 
1.07893 -0.67948 1.976 
1.1734 -0.680855 1.98 
1.274 -0.685326 1.993 
1.37238 -0.688076 2.001 
1.47151 -0.690827 2.009 
1.56982 -0.692891 2.015 
1.65879 -0.690827 2.009 
1.78557 -0.703894 2.047 
1.8865 -0.705958 2.053 
1.98219 -0.705958 2.053 
-0.495444 -0.216342 0.632 
-0.479258 -0.222503 0.65 
-0.466229 -0.231061 0.675 
-0.451514 -0.239961 0.701 
-0.434375 -0.248861 0.727 
-0.418117 -0.259815 0.759 
-0.410979 -0.278985 0.815 
-0.392671 -0.293704 0.858 
-0.368299 -0.306712 0.896 
-0.341478 -0.320747 0.937 
-0.314014 -0.338205 0.988 
-0.281247 -0.359086 1.049 
-0.245643 -0.379625 1.109 
-0.0511153 -0.499092 1.458 
0.0178475 -0.528873 1.545 
0.114785 -0.595966 1.741 
0.507424 -0.663744 1.939 
0.59256 -0.657925 1.922 
0.688179 -0.663744 1.939 
0.783374 -0.667852 1.951 
0.870726 -0.665113 1.943 
0.965248 -0.667852 1.951 
1.0708 -0.677094 1.978 
1.16417 -0.677779 1.98 
1.26598 -0.682914 1.995 
1.36033 -0.683598 1.997 
1.46069 -0.687021 2.007 
1.56198 -0.690445 2.017 
1.65271 -0.689075 2.013 
1.77256 -0.699345 2.043 
1.87876 -0.703452 2.055 
1.97935 -0.705164 2.06 
-0.501228 -0.209567 0.615 
-0.482089 -0.219108 0.643 
-0.4704 -0.227968 0.669 
-0.454318 -0.235805 0.692 
-0.438532 -0.245006 0.719 
-0.422481 -0.255569 0.75 
-0.405608 -0.267496 0.785 
-0.399105 -0.289304 0.849 
-0.376048 -0.302594 0.888 
-0.348979 -0.315543 0.926 
-0.314645 -0.330877 0.971 
-0.287697 -0.353367 1.037 
-0.251736 -0.374153 1.098 
-0.20497 -0.399369 1.172 
0.0129875 -0.524087 1.538 
0.110857 -0.586787 1.722 
0.452246 -0.668228 1.961 
0.548338 -0.65562 1.924 
0.643653 -0.661413 1.941 
0.734124 -0.661413 1.941 
0.83479 -0.669591 1.965 
0.924494 -0.668228 1.961 
1.00968 -0.664139 1.949 
1.12198 -0.677088 1.987 
1.21704 -0.678451 1.991 
1.30853 -0.67777 1.989 
1.41955 -0.686629 2.015 
1.51647 -0.687992 2.019 
1.61616 -0.690378 2.026 
1.71735 -0.693104 2.034 
1.8371 -0.702645 2.062 
1.92665 -0.70026 2.055 
2.00767 -0.695148 2.04 
-0.49348 -0.214378 0.632 
-0.477238 -0.220483 0.65 
-0.464819 -0.229303 0.676 
-0.450618 -0.238461 0.703 
-0.43271 -0.246941 0.728 
-0.417402 -0.258474 0.762 
-0.405941 -0.274756 0.81 
-0.390914 -0.291717 0.86 
-0.366331 -0.304606 0.898 
-0.337005 -0.321906 0.949 
-0.308814 -0.339544 1.001 
-0.275776 -0.357183 1.053 
-0.238005 -0.383302 1.13 
-0.033559 -0.503041 1.483 
0.0432561 -0.574614 1.694 
0.146071 -0.608195 1.793 
0.478689 -0.663825 1.957 
0.559712 -0.651953 1.922 
0.65504 -0.657719 1.939 
0.746956 -0.659076 1.943 
0.847864 -0.667217 1.967 
0.939547 -0.667217 1.967 
1.02704 -0.664503 1.959 
1.13319 -0.673322 1.985 
1.23312 -0.677393 1.997 
1.32089 -0.674679 1.989 
1.42923 -0.682142 2.011 
1.53054 -0.685534 2.021 
1.63036 -0.687908 2.028 
1.72999 -0.689943 2.034 
1.84992 -0.699441 2.062 
1.94603 -0.699441 2.062 
2.02332 -0.692996 2.043 
-0.493278 -0.213733 0.633 
-0.476229 -0.219474 0.65 
-0.461981 -0.228928 0.678 
-0.448153 -0.238382 0.706 
-0.431715 -0.247836 0.734 
-0.415916 -0.259316 0.768 
-0.405361 -0.276537 0.819 
-0.387811 -0.292069 0.865 
-0.363562 -0.305575 0.905 
-0.336238 -0.321107 0.951 
-0.307566 -0.338327 1.002 
-0.273879 -0.355209 1.052 
-0.240234 -0.37952 1.124 
-0.0615423 -0.485205 1.437 
0.00818172 -0.51762 1.533 
0.123323 -0.589877 1.747 
0.21612 -0.62263 1.844 
0.526059 -0.651668 1.93 
0.620166 -0.656057 1.943 
0.715851 -0.660784 1.957 
0.812016 -0.664836 1.969 
0.90012 -0.662135 1.961 
0.987478 -0.659434 1.953 
1.1017 -0.673615 1.995 
1.19948 -0.676316 2.003 
1.29155 -0.675641 2.001 
1.40212 -0.684082 2.026 
1.49655 -0.684082 2.026 
1.59727 -0.686783 2.034 
1.69706 -0.688809 2.04 
1.81938 -0.699276 2.071 
1.90943 -0.696913 2.064 
2.00175 -0.695562 2.06 
-0.495832 -0.208045 0.619 
-0.481585 -0.215439 0.641 
-0.470062 -0.225186 0.67 
-0.453898 -0.232916 0.693 
-0.436806 -0.241318 0.718 
-0.420193 -0.251401 0.748 
-0.402328 -0.262492 0.781 
-0.397317 -0.285011 0.848 
-0.373403 -0.297447 0.885 
-0.34679 -0.310554 0.924 
-0.316213 -0.323326 0.962 
-0.291402 -0.347189 1.033 
-0.256441 -0.366011 1.089 
-0.213317 -0.389201 1.158 
-0.0288141 -0.496081 1.476 
0.103423 -0.567333 1.688 
0.197959 -0.61674 1.835 
0.503985 -0.655055 1.949 
0.591166 -0.651022 1.937 
0.684968 -0.654383 1.947 
0.782093 -0.65976 1.963 
0.875369 -0.661105 1.967 
0.968035 -0.661777 1.969 
1.07058 -0.668499 1.989 
1.16796 -0.671188 1.997 
1.26862 -0.675221 2.009 
1.36226 -0.675221 2.009 
1.4559 -0.675221 2.009 
1.56728 -0.682951 2.032 
1.66199 -0.682951 2.032 
1.77659 -0.690681 2.055 
1.8824 -0.694378 2.066 
1.9854 -0.696731 2.073 
-0.50232 -0.20541 0.614 
-0.488698 -0.21277 0.636 
-0.47349 -0.219461 0.656 
-0.459793 -0.227825 0.681 
-0.444394 -0.236523 0.707 
-0.430063 -0.247228 0.739 
-0.412749 -0.257934 0.771 
-0.403069 -0.277672 0.83 
-0.381504 -0.290719 0.869 
-0.35556 -0.306777 0.917 
-0.325782 -0.31949 0.955 
-0.301002 -0.341904 1.022 
-0.263531 -0.355621 1.063 
-0.226338 -0.38205 1.142 
-0.0612425 -0.478398 1.43 
0.00577723 -0.510849 1.527 
0.140888 -0.589801 1.763 
0.264357 -0.643663 1.924 
0.523873 -0.646674 1.933 
0.617783 -0.650689 1.945 
0.714996 -0.65671 1.963 
0.81019 -0.659721 1.972 
0.900733 -0.658718 1.969 
0.990492 -0.657379 1.965 
1.1008 -0.668754 1.999 
1.19995 -0.672099 2.009 
1.29359 -0.672099 2.009 
1.40311 -0.679794 2.032 
1.49635 -0.679125 2.03 
1.60273 -0.684143 2.045 
1.70303 -0.68615 2.051 
1.81967 -0.694179 2.075 
1.91454 -0.69351 2.073 
2.00922 -0.692841 2.071 
-0.498214 -0.205122 0.616 
-0.48627 -0.212448 0.638 
-0.472991 -0.220107 0.661 
-0.457568 -0.227766 0.684 
-0.441245 -0.23609 0.709 
-0.427198 -0.247079 0.742 
-0.409016 -0.257402 0.773 
-0.400643 -0.277381 0.833 
-0.379191 -0.290701 0.873 
-0.35556 -0.305352 0.917 
-0.325441 -0.317673 0.954 
-0.299529 -0.338651 1.017 
-0.263283 -0.353636 1.062 
-0.227713 -0.379609 1.14 
-0.178321 -0.399922 1.201 
-0.0107024 -0.502483 1.509 
0.099367 -0.554096 1.664 
0.195321 -0.611704 1.837 
0.45647 -0.650331 1.953 
0.541052 -0.642672 1.93 
0.636568 -0.648333 1.947 
0.732548 -0.652995 1.961 
0.829413 -0.657323 1.974 
0.920021 -0.656324 1.971 
1.01189 -0.656324 1.971 
1.12168 -0.66698 2.003 
1.21868 -0.668978 2.009 
1.31755 -0.671642 2.017 
1.42346 -0.677303 2.034 
1.52647 -0.680966 2.045 
1.62655 -0.682964 2.051 
1.72802 -0.685295 2.058 
1.85054 -0.695284 2.088 
1.9376 -0.691621 2.077 
2.01775 -0.685961 2.06 
-0.49487 -0.205159 0.619 
-0.481829 -0.21212 0.64 
-0.472479 -0.221731 0.669 
-0.454489 -0.22836 0.689 
-0.437701 -0.236646 0.714 
-0.423113 -0.247583 0.747 
-0.403369 -0.257195 0.776 
-0.39843 -0.27907 0.842 
-0.374542 -0.291002 0.878 
-0.350337 -0.305585 0.922 
-0.319696 -0.317848 0.959 
-0.290274 -0.341049 1.029 
-0.255499 -0.359609 1.085 
-0.216826 -0.38049 1.148 
-0.0717441 -0.469978 1.418 
-0.00133314 -0.503453 1.519 
0.0928944 -0.543888 1.641 
0.189303 -0.607855 1.834 
0.31305 -0.651936 1.967 
0.510564 -0.646633 1.951 
0.600268 -0.645308 1.947 
0.695277 -0.649285 1.959 
0.791405 -0.653262 1.971 
0.889548 -0.657902 1.985 
0.980585 -0.656908 1.982 
1.08217 -0.662542 1.999 
1.18475 -0.667845 2.015 
1.28692 -0.672154 2.028 
1.38417 -0.67348 2.032 
1.47088 -0.669834 2.021 
1.58676 -0.679114 2.049 
1.68555 -0.68044 2.053 
1.79686 -0.686406 2.071 
1.90161 -0.689389 2.08 
2.00241 -0.690714 2.084 
-0.501366 -0.202548 0.614 
-0.488147 -0.209146 0.634 
-0.473063 -0.215744 0.654 
-0.458821 -0.223661 0.678 
-0.444862 -0.232898 0.706 
-0.430044 -0.243124 0.737 
-0.411799 -0.25302 0.767 
-0.396151 -0.266546 0.808 
-0.38511 -0.286339 0.868 
-0.359344 -0.298544 0.905 
-0.331805 -0.313719 0.951 
-0.297332 -0.329553 0.999 
-0.264826 -0.348027 1.055 
-0.231187 -0.373098 1.131 
-0.186203 -0.389262 1.18 
-0.0218156 -0.484269 1.468 
0.0499421 -0.518906 1.573 
0.134466 -0.56608 1.716 
0.235319 -0.62117 1.883 
0.417878 -0.645581 1.957 
0.508574 -0.644922 1.955 
0.59847 -0.643602 1.951 
0.69294 -0.646901 1.961 
0.788743 -0.65053 1.972 
0.889143 -0.656797 1.991 
0.980958 -0.656138 1.989 
1.07906 -0.659437 1.999 
1.18397 -0.666034 2.019 
1.28757 -0.670982 2.034 
1.38237 -0.670982 2.034 
1.47137 -0.668343 2.026 
1.58667 -0.67725 2.053 
1.68646 -0.6789 2.058 
1.79537 -0.683848 2.073 
1.90386 -0.688136 2.086 
2.0078 -0.690446 2.093 
-0.501502 -0.201266 0.613 
-0.48836 -0.207833 0.633 
-0.472768 -0.215056 0.655 
-0.457767 -0.222607 0.678 
-0.443765 -0.231801 0.706 
-0.428899 -0.241979 0.737 
-0.40995 -0.252157 0.768 
-0.395102 -0.266275 0.811 
-0.382854 -0.285318 0.869 
-0.35732 -0.297795 0.907 
-0.331022 -0.312898 0.953 
-0.297089 -0.326031 0.993 
-0.265707 -0.345403 1.052 
-0.23109 -0.368386 1.122 
-0.187399 -0.386115 1.176 
-0.0392978 -0.472795 1.44 
0.0299462 -0.508911 1.55 
0.11017 -0.548639 1.671 
0.2073 -0.604783 1.842 
0.312413 -0.644511 1.963 
0.474056 -0.644511 1.963 
0.55979 -0.637944 1.943 
0.653701 -0.641228 1.953 
0.751595 -0.647137 1.971 
0.843892 -0.647466 1.972 
0.940553 -0.650749 1.982 
1.03762 -0.653704 1.991 
1.14292 -0.660927 2.013 
1.24166 -0.663554 2.021 
1.34842 -0.669792 2.04 
1.43501 -0.665852 2.028 
1.54839 -0.674061 2.053 
1.65129 -0.677015 2.062 
1.74909 -0.677672 2.064 
1.88553 -0.692447 2.109 
1.96408 -0.685552 2.088 
2.02882 -0.674717 2.055 
-0.492081 -0.203908 0.624 
-0.477094 -0.210117 0.643 
-0.465203 -0.218613 0.669 
-0.448942 -0.226129 0.692 
-0.43415 -0.235605 0.721 
-0.416655 -0.245082 0.75 
-0.397474 -0.255212 0.781 
-0.39079 -0.278086 0.851 
-0.366391 -0.290177 0.888 
-0.340372 -0.303902 0.93 
-0.310758 -0.317953 0.973 
-0.280954 -0.336579 1.03 
-0.245384 -0.354552 1.085 
-0.205408 -0.377099 1.154 
-0.0768063 -0.454218 1.39 
-0.0127875 -0.483302 1.479 
0.0601354 -0.517613 1.584 
0.146991 -0.567936 1.738 
0.249251 -0.620874 1.9 
0.361579 -0.642115 1.965 
0.450401 -0.638193 1.953 
0.539768 -0.636233 1.947 
0.631813 -0.63754 1.951 
0.73127 -0.645056 1.974 
0.821194 -0.643422 1.969 
0.921316 -0.649304 1.987 
1.01903 -0.652571 1.997 
1.1188 -0.656493 2.009 
1.2239 -0.662701 2.028 
1.32493 -0.665969 2.038 
1.42341 -0.667603 2.043 
1.53127 -0.673158 2.06 
1.63202 -0.675119 2.066 
1.73083 -0.676099 2.069 
1.85465 -0.686229 2.1 
1.94137 -0.682308 2.088 
2.026 -0.67806 2.075 
-0.494071 -0.200987 0.618 
-0.47984 -0.208142 0.64 
-0.4704 -0.217574 0.669 
-0.451036 -0.223428 0.687 
-0.436092 -0.232534 0.715 
-0.421355 -0.243266 0.748 
-0.401475 -0.252698 0.777 
-0.396284 -0.274162 0.843 
-0.370966 -0.284895 0.876 
-0.347849 -0.30018 0.923 
-0.318698 -0.313839 0.965 
-0.288581 -0.332702 1.023 
-0.254792 -0.35189 1.082 
-0.213356 -0.370428 1.139 
-0.170257 -0.393519 1.21 
-0.0414197 -0.467019 1.436 
0.027538 -0.504094 1.55 
0.106479 -0.537917 1.654 
0.204105 -0.598084 1.839 
0.308103 -0.635809 1.955 
0.398001 -0.633858 1.949 
0.493861 -0.640363 1.969 
0.582662 -0.63711 1.959 
0.676724 -0.639712 1.967 
0.772703 -0.643289 1.978 
0.870583 -0.647517 1.991 
0.967255 -0.650119 1.999 
1.06361 -0.65207 2.005 
1.16918 -0.6589 2.026 
1.27422 -0.664429 2.043 
1.37213 -0.66573 2.047 
1.45822 -0.661502 2.034 
1.57287 -0.669958 2.06 
1.67942 -0.674186 2.073 
1.78204 -0.676462 2.08 
1.90248 -0.684918 2.106 
2.00539 -0.686544 2.111 
-0.504734 -0.197438 0.61 
-0.489961 -0.203911 0.63 
-0.473756 -0.209737 0.648 
-0.458612 -0.216858 0.67 
-0.445244 -0.225921 0.698 
-0.429857 -0.235307 0.727 
