# .PCD v.7 - Point Cloud Data file format
VERSION .7
FIELDS x y z
SIZE 4 4 4
TYPE F F F
COUNT 1 1 1
WIDTH 1891
HEIGHT 1
VIEWPOINT 0 0 0 1 0 0 0
POINTS 1891
DATA ascii
0.00580931 0.15655 0.627 
0.0309048 0.157049 0.629 
0.0560707 0.157299 0.63 
0.0814452 0.157799 0.632 
0.107148 0.158548 0.635 
0.132673 0.158797 0.636 
0.158526 0.159297 0.638 
0.185115 0.160295 0.642 
0.211038 0.160545 0.643 
0.236673 0.160545 0.643 
0.26394 0.161544 0.647 
0.290182 0.161793 0.648 
0.315529 0.161544 0.647 
0.336048 0.159047 0.637 
0.344706 0.151057 0.605 
0.34505 0.14132 0.566 
0.347481 0.133579 0.535 
0.350887 0.127088 0.509 
0.357421 0.121595 0.487 
0.36556 0.1176 0.471 
0.38597 0.118099 0.473 
0.404828 0.118099 0.473 
0.425477 0.118599 0.475 
0.447221 0.119348 0.478 
0.466278 0.119348 0.478 
-0.467149 0.148948 0.591 
-0.444338 0.1492 0.592 
-0.441346 0.156508 0.621 
-0.410228 0.155752 0.618 
-0.376231 0.151972 0.603 
-0.34927 0.150712 0.598 
-0.316667 0.151216 0.6 
-0.292747 0.151216 0.6 
-0.269722 0.15172 0.602 
-0.246946 0.152476 0.605 
-0.223194 0.152728 0.606 
-0.199691 0.153232 0.608 
-0.176029 0.153736 0.61 
-0.152455 0.154492 0.613 
-0.128852 0.1555 0.617 
-0.104253 0.1555 0.617 
-0.0800419 0.156256 0.62 
-0.0554131 0.156508 0.621 
-0.0308525 0.157516 0.625 
-0.00594458 0.157769 0.626 
0.0190431 0.158021 0.627 
0.0441808 0.158525 0.629 
0.0694779 0.159029 0.631 
0.0952345 0.160037 0.635 
0.12074 0.160289 0.636 
0.146326 0.160541 0.637 
0.172531 0.161297 0.64 
0.198665 0.161801 0.642 
0.22426 0.161801 0.642 
0.251412 0.162809 0.646 
0.277596 0.163061 0.647 
0.303859 0.163313 0.648 
0.324606 0.160793 0.638 
0.340166 0.156256 0.62 
0.344286 0.147435 0.585 
0.344986 0.138362 0.549 
0.348831 0.131558 0.522 
0.359499 0.127525 0.506 
0.358588 0.118956 0.472 
0.378205 0.119208 0.473 
0.396223 0.118956 0.472 
0.4168 0.119461 0.474 
0.438455 0.120217 0.477 
0.457472 0.120217 0.477 
-0.479381 0.149825 0.589 
-0.452522 0.150079 0.59 
-0.442815 0.154912 0.609 
-0.420373 0.157202 0.618 
-0.389972 0.154912 0.609 
-0.358486 0.15186 0.597 
-0.334685 0.15186 0.597 
-0.312446 0.152623 0.6 
-0.288525 0.152623 0.6 
-0.265487 0.153132 0.602 
-0.243091 0.154149 0.606 
-0.219292 0.154404 0.607 
-0.195414 0.154658 0.608 
-0.171737 0.155167 0.61 
-0.148626 0.156439 0.615 
-0.124511 0.156947 0.617 
-0.100074 0.157202 0.618 
-0.0756799 0.15771 0.62 
-0.051044 0.157965 0.621 
-0.0264977 0.159237 0.626 
-0.0015428 0.159491 0.627 
0.0234918 0.159745 0.628 
0.0486061 0.16 0.629 
0.0738002 0.160254 0.63 
0.099702 0.161526 0.635 
0.125215 0.16178 0.636 
0.150808 0.162035 0.637 
0.177034 0.162798 0.64 
0.203182 0.163307 0.642 
0.228421 0.163052 0.641 
0.255957 0.164324 0.646 
0.282148 0.164578 0.647 
0.308419 0.164833 0.648 
0.328579 0.162035 0.637 
0.342305 0.156693 0.616 
0.344828 0.147281 0.579 
0.345036 0.138124 0.543 
0.348984 0.131001 0.515 
0.359471 0.12744 0.501 
0.360802 0.120063 0.472 
0.380424 0.120318 0.473 
0.399281 0.120318 0.473 
0.419023 0.120572 0.474 
0.440692 0.121335 0.477 
0.459709 0.121335 0.477 
-0.47051 0.151463 0.59 
-0.447745 0.15172 0.591 
-0.442844 0.158394 0.617 
-0.415247 0.158908 0.619 
-0.381735 0.155314 0.605 
-0.352886 0.15326 0.597 
-0.328234 0.153517 0.598 
-0.30592 0.154287 0.601 
-0.28149 0.15403 0.6 
-0.259716 0.155314 0.605 
-0.235595 0.155314 0.605 
-0.212524 0.156084 0.608 
-0.188594 0.15634 0.609 
-0.164584 0.156597 0.61 
-0.141644 0.158138 0.616 
-0.117276 0.158394 0.617 
-0.0928276 0.158651 0.618 
-0.0685202 0.159421 0.621 
-0.0437622 0.159421 0.621 
-0.0191879 0.160961 0.627 
0.00580931 0.160961 0.627 
0.0308556 0.161218 0.628 
0.0560707 0.161732 0.63 
0.0814452 0.162245 0.632 
0.107148 0.163015 0.635 
0.132673 0.163272 0.636 
0.158526 0.163785 0.638 
0.185115 0.164812 0.642 
0.211038 0.165069 0.643 
0.235937 0.164555 0.641 
0.263532 0.165839 0.646 
0.289735 0.166096 0.647 
0.315529 0.166096 0.647 
0.336048 0.163529 0.637 
0.344422 0.155827 0.607 
0.34433 0.145558 0.567 
0.347481 0.137343 0.535 
0.352081 0.130669 0.509 
0.358228 0.124508 0.485 
0.369657 0.12117 0.472 
0.388475 0.12117 0.472 
0.408155 0.121427 0.473 
0.429721 0.122197 0.476 
0.449641 0.122454 0.477 
0.467676 0.122197 0.476 
-0.45944 0.152847 0.59 
-0.444046 0.155696 0.601 
-0.428312 0.160359 0.619 
-0.402329 0.159841 0.617 
-0.365487 0.15466 0.597 
-0.342258 0.154919 0.598 
-0.317544 0.155178 0.599 
-0.294154 0.155437 0.6 
-0.271134 0.155955 0.602 
-0.248775 0.156991 0.606 
-0.224615 0.156991 0.606 
-0.201117 0.15751 0.608 
-0.177168 0.157769 0.609 
-0.153893 0.158805 0.613 
-0.130087 0.159582 0.616 
-0.105871 0.1601 0.618 
-0.0814959 0.160618 0.62 
-0.0568694 0.160877 0.621 
-0.0322666 0.161655 0.624 
-0.00741265 0.162173 0.626 
0.0175727 0.162432 0.627 
0.0427057 0.16295 0.629 
0.0679981 0.163468 0.631 
0.0937453 0.164504 0.635 
0.119061 0.164504 0.635 
0.144832 0.165022 0.637 
0.170495 0.165281 0.638 
0.19716 0.166318 0.642 
0.222408 0.166059 0.641 
0.249124 0.166836 0.644 
0.275652 0.167354 0.646 
0.30234 0.167872 0.648 
0.32311 0.165281 0.638 
0.339258 0.160877 0.621 
0.345845 0.152847 0.59 
0.344986 0.142225 0.549 
0.349499 0.135489 0.523 
0.35902 0.131344 0.507 
0.358588 0.122277 0.472 
0.378205 0.122536 0.473 
0.397063 0.122536 0.473 
0.4168 0.122795 0.474 
0.438455 0.123573 0.477 
0.456513 0.123313 0.476 
-0.478567 0.153707 0.588 
-0.452522 0.15423 0.59 
-0.442815 0.159197 0.609 
-0.421053 0.161811 0.619 
-0.390612 0.159458 0.61 
-0.357886 0.155799 0.596 
-0.331039 0.156321 0.598 
-0.308225 0.156844 0.6 
-0.284304 0.156844 0.6 
-0.262119 0.15789 0.604 
-0.238827 0.158413 0.606 
-0.215376 0.158936 0.608 
-0.191136 0.158936 0.608 
-0.167445 0.159458 0.61 
-0.144534 0.161027 0.616 
-0.12017 0.161288 0.617 
-0.0957262 0.16155 0.618 
-0.0714329 0.162334 0.621 
-0.0466749 0.162334 0.621 
-0.0220581 0.163379 0.625 
0.00286846 0.163902 0.627 
0.0279101 0.164164 0.628 
0.0530315 0.164425 0.629 
0.0783568 0.164948 0.631 
0.104006 0.165732 0.634 
0.12969 0.166255 0.636 
0.155289 0.166516 0.637 
0.181536 0.167301 0.64 
0.207699 0.167823 0.642 
0.232567 0.167301 0.64 
0.260099 0.168608 0.645 
0.2867 0.16913 0.647 
0.312978 0.169392 0.648 
0.333061 0.166516 0.637 
0.3427 0.159197 0.609 
0.342706 0.146388 0.56 
0.348084 0.139591 0.534 
0.352081 0.133056 0.509 
0.358228 0.126782 0.485 
0.369657 0.123384 0.472 
0.388475 0.123384 0.472 
0.408155 0.123646 0.473 
0.429721 0.12443 0.476 
0.448698 0.12443 0.476 
0.466693 0.124168 0.475 
-0.467742 0.155614 0.59 
-0.445726 0.156141 0.592 
-0.444942 0.164581 0.624 
-0.415132 0.16379 0.621 
-0.379059 0.159043 0.603 
-0.351486 0.15746 0.597 
-0.324568 0.157988 0.599 
-0.301189 0.158251 0.6 
-0.277731 0.158515 0.601 
-0.255881 0.159834 0.606 
-0.231721 0.159834 0.606 
-0.208246 0.160361 0.608 
-0.184309 0.160625 0.609 
-0.160293 0.160889 0.61 
-0.137534 0.162735 0.617 
-0.113118 0.162999 0.618 
-0.0886228 0.163263 0.619 
-0.0641512 0.16379 0.621 
-0.0394566 0.164054 0.622 
-0.014753 0.165109 0.626 
0.0102206 0.165373 0.627 
0.0352739 0.165636 0.628 
0.0605031 0.166164 0.63 
0.0860276 0.166955 0.633 
0.11144 0.167219 0.634 
0.137147 0.167746 0.636 
0.162759 0.16801 0.637 
0.189336 0.169065 0.641 
0.215227 0.169329 0.642 
0.240822 0.169329 0.642 
0.267662 0.17012 0.645 
0.294287 0.170648 0.647 
0.319586 0.170384 0.646 
0.337322 0.166428 0.631 
0.344671 0.158251 0.6 
0.342988 0.145591 0.552 
0.349037 0.138734 0.526 
0.356642 0.133722 0.507 
0.356411 0.125282 0.475 
0.373768 0.124755 0.473 
0.391796 0.124491 0.472 
0.411483 0.124755 0.473 
0.43307 0.125546 0.476 
0.452047 0.125546 0.476 
0.470035 0.125282 0.475 
-0.463591 0.156997 0.59 
-0.446036 0.159126 0.598 
-0.444788 0.167641 0.63 
-0.406537 0.164714 0.619 
-0.368287 0.15886 0.597 
-0.345063 0.159126 0.598 
-0.320354 0.159392 0.599 
-0.296968 0.159658 0.6 
-0.273957 0.160191 0.602 
-0.252033 0.161521 0.607 
-0.227833 0.161521 0.607 
-0.203969 0.161787 0.608 
-0.180025 0.162053 0.609 
-0.156512 0.162852 0.612 
-0.133193 0.164182 0.617 
-0.10877 0.164448 0.618 
-0.084404 0.16498 0.62 
-0.0597821 0.165247 0.621 
-0.0350805 0.165513 0.622 
-0.0103488 0.166577 0.626 
0.0146318 0.166843 0.627 
0.0396922 0.167109 0.628 
0.0650385 0.167907 0.631 
0.090624 0.168706 0.634 
0.116083 0.168972 0.635 
0.141622 0.169238 0.636 
0.16724 0.169504 0.637 
0.193544 0.170302 0.64 
0.219401 0.170568 0.641 
0.246103 0.171367 0.644 
0.272622 0.171899 0.646 
0.298839 0.172165 0.647 
0.321623 0.170568 0.641 
0.338512 0.166311 0.625 
0.344822 0.157796 0.593 
0.344986 0.146087 0.549 
0.348831 0.138903 0.522 
0.358312 0.134645 0.506 
0.357481 0.125598 0.472 
0.376299 0.125598 0.472 
0.395953 0.125864 0.473 
0.414811 0.125864 0.473 
0.436419 0.126662 0.476 
0.455396 0.126662 0.476 
-0.482704 0.157844 0.588 
-0.460824 0.158381 0.59 
-0.444714 0.161066 0.6 
-0.434623 0.168045 0.626 
-0.405085 0.166166 0.619 
-0.365658 0.159723 0.595 
-0.34366 0.160529 0.598 
-0.31526 0.161066 0.6 
-0.29134 0.161066 0.6 
-0.268756 0.161871 0.603 
-0.246339 0.162945 0.607 
-0.222139 0.162945 0.607 
-0.198265 0.163213 0.608 
-0.174312 0.163482 0.609 
-0.151018 0.164555 0.613 
-0.127198 0.165361 0.616 
-0.102973 0.165898 0.618 
-0.0787147 0.166703 0.621 
-0.0539567 0.166703 0.621 
-0.0292928 0.16724 0.623 
-0.0044765 0.168045 0.626 
0.0205135 0.168314 0.627 
0.0456559 0.16885 0.629 
0.0709577 0.169387 0.631 
0.0965713 0.170193 0.634 
0.122232 0.170729 0.636 
0.147588 0.170729 0.636 
0.173488 0.171266 0.638 
0.199547 0.171803 0.64 
0.225063 0.171803 0.64 
0.252144 0.172877 0.644 
0.279113 0.173682 0.647 
0.305379 0.173951 0.648 
0.325591 0.170998 0.637 
0.340518 0.165898 0.618 
0.344476 0.156502 0.583 
0.345663 0.144959 0.54 
0.348832 0.137711 0.513 
0.35821 0.133148 0.496 
0.362247 0.126436 0.471 
0.381833 0.126705 0.472 
0.4015 0.126973 0.473 
0.421246 0.127242 0.474 
0.441072 0.12751 0.475 
0.460009 0.12751 0.475 
-0.470294 0.159223 0.588 
-0.449131 0.160036 0.591 
-0.444291 0.167076 0.617 
-0.421528 0.168972 0.624 
-0.387115 0.16491 0.609 
-0.35509 0.161389 0.596 
-0.329636 0.161931 0.598 
-0.306818 0.162473 0.6 
-0.283368 0.162743 0.601 
-0.260703 0.163556 0.604 
-0.237798 0.164368 0.607 
-0.213598 0.164368 0.607 
-0.18971 0.164639 0.608 
-0.165743 0.16491 0.609 
-0.143321 0.167076 0.617 
-0.118723 0.167076 0.617 
-0.0944295 0.167618 0.619 
-0.0699766 0.168159 0.621 
-0.0452186 0.168159 0.621 
-0.0205595 0.168972 0.624 
0.00433889 0.169784 0.627 
0.0293361 0.169784 0.627 
0.0545066 0.170325 0.629 
0.0798366 0.170867 0.631 
0.105492 0.171679 0.634 
0.131181 0.172221 0.636 
0.156783 0.172492 0.637 
0.182751 0.173033 0.639 
0.209204 0.173846 0.642 
0.234434 0.173575 0.641 
0.262017 0.174929 0.646 
0.288217 0.1752 0.647 
0.314012 0.1752 0.647 
0.334554 0.172492 0.637 
0.342719 0.163556 0.604 
0.342094 0.15137 0.559 
0.347374 0.143788 0.531 
0.35258 0.13756 0.508 
0.35675 0.13079 0.483 
0.369657 0.127812 0.472 
0.388475 0.127812 0.472 
0.408155 0.128083 0.473 
0.428819 0.128624 0.475 
0.447756 0.128624 0.475 
0.466693 0.128624 0.475 
-0.462208 0.161148 0.59 
-0.445377 0.163607 0.599 
-0.441833 0.172074 0.63 
-0.411424 0.169889 0.622 
-0.371708 0.163334 0.598 
-0.347286 0.16306 0.597 
-0.313853 0.16388 0.6 
-0.289933 0.16388 0.6 
-0.267342 0.164699 0.603 
-0.244512 0.165519 0.606 
-0.220716 0.165792 0.607 
-0.197163 0.166338 0.609 
-0.172884 0.166338 0.609 
-0.149824 0.167704 0.614 
-0.125754 0.16825 0.616 
-0.101523 0.168796 0.618 
-0.0772583 0.169616 0.621 
-0.0525004 0.169616 0.621 
-0.027787 0.169889 0.622 
-0.00300362 0.170708 0.625 
0.021984 0.171254 0.627 
0.047131 0.171801 0.629 
0.0723227 0.172074 0.63 
0.0980582 0.173166 0.634 
0.123724 0.173713 0.636 
0.14908 0.173713 0.636 
0.174984 0.174259 0.638 
0.201048 0.174805 0.64 
0.226918 0.175078 0.641 
0.254048 0.176171 0.645 
0.280631 0.176717 0.647 
0.306899 0.17699 0.648 
0.327085 0.173986 0.637 
0.340638 0.16743 0.613 
0.346019 0.15869 0.581 
0.34631 0.148311 0.543 
0.348307 0.14039 0.514 
0.359471 0.13684 0.501 
0.358238 0.129192 0.473 
0.375501 0.128646 0.471 
0.395116 0.128919 0.472 
0.414811 0.129192 0.473 
0.435502 0.129738 0.475 
0.45444 0.129738 0.475 
-0.476377 0.161706 0.587 
-0.456061 0.162808 0.591 
-0.44494 0.167491 0.608 
-0.430308 0.171898 0.624 
-0.401532 0.170245 0.618 
-0.362867 0.163909 0.595 
-0.323164 0.165011 0.599 
-0.299782 0.165287 0.6 
-0.25787 0.166389 0.604 
-0.235338 0.167491 0.608 
-0.210751 0.167215 0.607 
-0.186858 0.167491 0.608 
-0.163154 0.168042 0.61 
-0.140655 0.170245 0.618 
-0.115829 0.16997 0.617 
-0.0915261 0.170521 0.619 
-0.0669559 0.170796 0.62 
-0.042374 0.171347 0.622 
-0.0176327 0.171898 0.624 
0.00726812 0.172449 0.626 
0.0322769 0.172725 0.627 
0.0574568 0.173276 0.629 
0.0827962 0.173827 0.631 
0.108466 0.174653 0.634 
0.134164 0.175204 0.636 
0.159771 0.17548 0.637 
0.185458 0.175755 0.638 
0.212546 0.177132 0.643 
0.237811 0.176857 0.642 
0.265047 0.177959 0.646 
0.291252 0.178234 0.647 
0.317046 0.178234 0.647 
0.335952 0.174653 0.634 
0.341857 0.165287 0.6 
0.344441 0.155645 0.565 
0.346182 0.14683 0.533 
0.350887 0.140218 0.509 
0.355618 0.133056 0.483 
0.36556 0.12975 0.471 
0.384338 0.12975 0.471 
0.404828 0.130301 0.473 
0.424581 0.130577 0.474 
0.444414 0.130852 0.475 
0.464327 0.131128 0.476 
-0.468331 0.163638 0.589 
-0.447114 0.164471 0.592 
-0.444974 0.172806 0.622 
-0.418045 0.172528 0.621 
-0.383154 0.168083 0.605 
-0.353693 0.165583 0.596 
-0.309632 0.166694 0.6 
-0.252621 0.168083 0.605 
-0.229634 0.168917 0.608 
-0.205733 0.169194 0.609 
-0.181453 0.169194 0.609 
-0.15769 0.16975 0.611 
-0.13464 0.171417 0.617 
-0.110041 0.171417 0.617 
-0.085858 0.17225 0.62 
-0.0612385 0.172528 0.621 
-0.0365392 0.172806 0.622 
-0.011798 0.17364 0.625 
0.0131614 0.174195 0.627 
0.0382195 0.174473 0.628 
0.0633573 0.174751 0.629 
0.0889966 0.175862 0.633 
0.114594 0.176418 0.635 
0.14013 0.176696 0.636 
0.165747 0.176973 0.637 
0.191442 0.177251 0.638 
0.218918 0.178918 0.644 
0.244593 0.178918 0.644 
0.271527 0.179752 0.647 
0.297321 0.179752 0.647 
0.320619 0.178363 0.642 
0.338125 0.174195 0.627 
0.342852 0.164471 0.592 
0.343551 0.154192 0.555 
0.348546 0.146969 0.529 
0.354963 0.141134 0.508 
0.356773 0.131688 0.474 
0.373292 0.130855 0.471 
0.392903 0.131133 0.472 
0.412593 0.13141 0.473 
0.432362 0.131688 0.474 
0.452212 0.131966 0.475 
0.474125 0.1328 0.478 
-0.461605 0.16558 0.591 
-0.445455 0.168381 0.601 
-0.439729 0.175666 0.627 
-0.410101 0.173704 0.62 
-0.365658 0.1667 0.595 
-0.34366 0.167541 0.598 
-0.304004 0.168101 0.6 
-0.23819 0.170342 0.608 
-0.213598 0.170062 0.607 
-0.190022 0.170623 0.609 
-0.165743 0.170623 0.609 
-0.143089 0.172584 0.616 
-0.11853 0.172584 0.616 
-0.0942769 0.173144 0.618 
-0.0698639 0.173704 0.62 
-0.0452186 0.173985 0.621 
-0.0205595 0.174825 0.624 
0.00431813 0.174825 0.624 
0.0293361 0.175666 0.627 
0.0544199 0.175946 0.628 
0.07971 0.176506 0.63 
0.105492 0.177627 0.634 
0.131181 0.178187 0.636 
0.156537 0.178187 0.636 
0.182465 0.178747 0.638 
0.20953 0.180148 0.643 
0.234434 0.179588 0.641 
0.262017 0.180989 0.646 
0.287772 0.180989 0.646 
0.314012 0.181269 0.647 
0.334554 0.178467 0.637 
0.340173 0.168661 0.602 
0.34421 0.159416 0.569 
0.345616 0.15017 0.536 
0.349693 0.142606 0.509 
0.355273 0.134761 0.481 
0.366665 0.131959 0.471 
0.385443 0.131959 0.471 
0.405937 0.13252 0.473 
0.424794 0.13252 0.473 
0.445528 0.13308 0.475 
0.466421 0.13364 0.477 
-0.468331 0.166401 0.589 
-0.447114 0.167248 0.592 
-0.444259 0.175441 0.621 
-0.417371 0.175158 0.62 
-0.379211 0.169791 0.601 
-0.352295 0.168378 0.596 
-0.31333 0.169226 0.599 
-0.23819 0.171768 0.608 
-0.213598 0.171486 0.607 
-0.190022 0.172051 0.609 
-0.166015 0.172333 0.61 
-0.143089 0.174028 0.616 
-0.11853 0.174028 0.616 
-0.0942769 0.174593 0.618 
-0.0698639 0.175158 0.62 
-0.0452914 0.175723 0.622 
-0.0205595 0.176289 0.624 
0.00431813 0.176289 0.624 
0.0293361 0.177136 0.627 
0.0544199 0.177419 0.628 
0.07971 0.177984 0.63 
0.105492 0.179114 0.634 
0.131181 0.179679 0.636 
0.156537 0.179679 0.636 
0.182465 0.180244 0.638 
0.20953 0.181656 0.643 
0.234434 0.181091 0.641 
0.262017 0.182504 0.646 
0.287772 0.182504 0.646 
0.314012 0.182786 0.647 
0.334554 0.179961 0.637 
0.339608 0.169791 0.601 
0.34421 0.16075 0.569 
0.345616 0.151427 0.536 
0.349693 0.143799 0.509 
0.354881 0.136172 0.482 
0.36556 0.133064 0.471 
0.384338 0.133064 0.471 
0.404828 0.133629 0.473 
0.423685 0.133629 0.473 
0.443478 0.133911 0.474 
0.465302 0.134759 0.477 
-0.468331 0.167782 0.589 
-0.447114 0.168636 0.592 
-0.443544 0.176612 0.62 
-0.415247 0.176328 0.619 
-0.377173 0.170915 0.6 
-0.350897 0.169776 0.596 
-0.306306 0.17063 0.599 
-0.222139 0.172909 0.607 
-0.194307 0.173479 0.609 
-0.170027 0.173479 0.609 
-0.147184 0.175188 0.615 
-0.122864 0.175473 0.616 
-0.0986248 0.176043 0.618 
-0.0742259 0.176612 0.62 
-0.0496675 0.177182 0.622 
-0.0249096 0.177467 0.623 
-7.19196e-05 0.177467 0.623 
0.0249248 0.178606 0.627 
0.0500016 0.178891 0.628 
0.0750387 0.178891 0.628 
0.101191 0.180885 0.635 
0.126707 0.18117 0.636 
0.152063 0.18117 0.636 
0.177976 0.18174 0.638 
0.204369 0.182594 0.641 
0.229924 0.182594 0.641 
0.257472 0.184019 0.646 
0.283665 0.184304 0.647 
0.30946 0.184304 0.647 
0.330073 0.181455 0.637 
0.339286 0.173194 0.608 
0.344543 0.163509 0.574 
0.344359 0.152684 0.536 
0.349184 0.145278 0.51 
0.353994 0.138726 0.487 
0.361142 0.134168 0.471 
0.37992 0.134168 0.471 
0.399544 0.134453 0.472 
0.419248 0.134738 0.473 
0.439032 0.135023 0.474 
0.459861 0.135593 0.476 
-0.471673 0.168876 0.588 
-0.450517 0.169738 0.591 
-0.444293 0.17663 0.615 
-0.416025 0.177492 0.618 
-0.379211 0.17261 0.601 
-0.352295 0.171174 0.596 
-0.23106 0.17462 0.608 
-0.207161 0.174907 0.609 
-0.182881 0.174907 0.609 
-0.159122 0.175482 0.611 
-0.135866 0.176918 0.616 
-0.111307 0.176918 0.616 
-0.0871712 0.177779 0.619 
-0.0626948 0.178354 0.621 
-0.0379979 0.178641 0.622 
-0.0132425 0.179215 0.624 
0.0116351 0.179215 0.624 
0.0366882 0.180077 0.627 
0.0617838 0.180364 0.628 
0.0876503 0.182087 0.634 
0.113105 0.182375 0.635 
0.138639 0.182662 0.636 
0.164253 0.182949 0.637 
0.189946 0.183236 0.638 
0.217745 0.185247 0.645 
0.242705 0.184672 0.643 
0.269592 0.185534 0.646 
0.295804 0.185821 0.647 
0.318616 0.184098 0.641 
0.337728 0.180651 0.629 
0.342273 0.169738 0.591 
0.344231 0.159111 0.554 
0.347142 0.150782 0.525 
0.354051 0.145038 0.505 
0.356043 0.137571 0.479 
0.368091 0.134986 0.47 
0.387652 0.135273 0.471 
0.408155 0.135847 0.473 
0.427013 0.135847 0.473 
0.446813 0.136135 0.474 
0.470623 0.137571 0.479 
-0.464975 0.170834 0.59 
-0.447439 0.17315 0.598 
-0.430518 0.178941 0.618 
-0.405223 0.178652 0.617 
-0.366887 0.172861 0.597 
-0.260703 0.174888 0.604 
-0.227833 0.175756 0.607 
-0.204304 0.176335 0.609 
-0.180025 0.176335 0.609 
-0.156257 0.176915 0.611 
-0.132977 0.178362 0.616 
-0.108418 0.178362 0.616 
-0.0842678 0.179231 0.619 
-0.0597821 0.17981 0.621 
-0.0351369 0.180389 0.623 
-0.0103157 0.180679 0.624 
0.0145852 0.180968 0.625 
0.039629 0.181547 0.627 
0.0646262 0.181547 0.627 
0.090624 0.183574 0.634 
0.116083 0.183864 0.635 
0.141622 0.184153 0.636 
0.16724 0.184443 0.637 
0.192939 0.184732 0.638 
0.220428 0.18647 0.644 
0.246103 0.18647 0.644 
0.272622 0.187049 0.646 
0.298839 0.187338 0.647 
0.320619 0.185022 0.639 
0.339054 0.181258 0.626 
0.343077 0.170834 0.59 
0.343659 0.159542 0.551 
0.347607 0.151145 0.522 
0.355008 0.145643 0.503 
0.356045 0.137825 0.476 
0.370295 0.136088 0.47 
0.389861 0.136378 0.471 
0.409506 0.136667 0.472 
0.429231 0.136957 0.473 
0.449036 0.137246 0.474 
0.47287 0.138694 0.479 
-0.461605 0.17251 0.591 
-0.44842 0.176596 0.605 
-0.428375 0.180099 0.617 
-0.403122 0.179807 0.616 
-0.366887 0.174261 0.597 
-0.260271 0.176012 0.603 
-0.237798 0.17718 0.607 
-0.21395 0.177472 0.608 
-0.190022 0.177764 0.609 
-0.166287 0.178347 0.611 
-0.143089 0.179807 0.616 
-0.11853 0.179807 0.616 
-0.0942769 0.180391 0.618 
-0.0697512 0.180683 0.619 
-0.0452186 0.181266 0.621 
-0.0205265 0.18185 0.623 
0.00431121 0.18185 0.623 
0.0293361 0.183018 0.627 
0.0544199 0.18331 0.628 
0.07971 0.183893 0.63 
0.105659 0.185353 0.635 
0.131181 0.185645 0.636 
0.156537 0.185645 0.636 
0.182465 0.186229 0.638 
0.209856 0.18798 0.644 
0.234434 0.187104 0.641 
0.262017 0.188564 0.646 
0.288217 0.188856 0.647 
0.313527 0.188564 0.646 
0.334029 0.185645 0.636 
0.339043 0.175137 0.6 
0.342395 0.165212 0.566 
0.344883 0.154996 0.531 
0.350887 0.148574 0.509 
0.354084 0.141277 0.484 
0.36258 0.13719 0.47 
0.382129 0.137482 0.471 
0.401758 0.137774 0.472 
0.421467 0.138066 0.473 
0.441255 0.138358 0.474 
0.462094 0.138942 0.476 
-0.470294 0.173013 0.588 
-0.449131 0.173896 0.591 
-0.443571 0.181252 0.616 
-0.415352 0.181546 0.617 
-0.383154 0.178015 0.605 
-0.353099 0.175072 0.595 
-0.249186 0.178603 0.607 
-0.224986 0.178603 0.607 
-0.201448 0.179192 0.609 
-0.177459 0.179486 0.61 
-0.153391 0.17978 0.611 
-0.129876 0.180957 0.615 
-0.1057 0.181546 0.617 
-0.0813645 0.182134 0.619 
-0.0568694 0.182723 0.621 
-0.0322148 0.183311 0.623 
-0.00738897 0.183605 0.624 
0.0175166 0.1839 0.625 
0.0425699 0.184488 0.627 
0.0676748 0.184782 0.628 
0.0935977 0.186548 0.634 
0.119061 0.186842 0.635 
0.144605 0.187136 0.636 
0.170228 0.187431 0.637 
0.196238 0.188019 0.639 
0.223449 0.18949 0.644 
0.249124 0.18949 0.644 
0.275652 0.190079 0.646 
0.301873 0.190373 0.647 
0.322603 0.187431 0.637 
0.33852 0.181546 0.617 
0.34252 0.171247 0.582 
0.343763 0.159772 0.543 
0.347777 0.151533 0.515 
0.355436 0.146237 0.497 
0.357481 0.138881 0.472 
0.375501 0.138587 0.471 
0.394279 0.138587 0.471 
0.414811 0.139175 0.473 
0.434585 0.13947 0.474 
0.453483 0.13947 0.474 
-0.481579 0.174985 0.59 
-0.458833 0.175282 0.591 
-0.448528 0.18062 0.609 
-0.426236 0.182696 0.616 
-0.400373 0.182103 0.614 
-0.364874 0.176764 0.596 
-0.29134 0.177951 0.6 
-0.255037 0.179137 0.604 
-0.232104 0.180027 0.607 
-0.208246 0.180323 0.608 
-0.184309 0.18062 0.609 
-0.160555 0.181213 0.611 
-0.136865 0.182103 0.614 
-0.112752 0.182696 0.616 
-0.0857195 0.183586 0.619 
-0.0596858 0.183882 0.62 
-0.0351369 0.184772 0.623 
-0.0103157 0.185069 0.624 
0.0145618 0.185069 0.624 
0.039629 0.185959 0.627 
0.0647293 0.186255 0.628 
0.0904811 0.187738 0.633 
0.116083 0.188331 0.635 
0.141622 0.188628 0.636 
0.16724 0.188924 0.637 
0.192939 0.189221 0.638 
0.221113 0.191594 0.646 
0.245721 0.190704 0.643 
0.272622 0.191594 0.646 
0.298839 0.19189 0.647 
0.320117 0.189221 0.638 
0.337802 0.184179 0.621 
0.343293 0.174392 0.588 
0.344283 0.163715 0.552 
0.346941 0.154521 0.521 
0.353596 0.148589 0.501 
0.357129 0.140285 0.473 
0.374397 0.139691 0.471 
0.393175 0.139691 0.471 
0.413702 0.140285 0.473 
0.433474 0.140581 0.474 
0.452371 0.140581 0.474 
0.475246 0.141767 0.478 
-0.460219 0.176668 0.591 
-0.44774 0.181151 0.606 
-0.42768 0.184141 0.616 
-0.402467 0.183842 0.615 
-0.366272 0.178162 0.596 
-0.31526 0.179358 0.6 
-0.287118 0.179358 0.6 
-0.260817 0.179657 0.601 
-0.238827 0.181151 0.606 
-0.215022 0.18145 0.607 
-0.19145 0.182048 0.609 
-0.16772 0.182646 0.611 
-0.144064 0.183543 0.614 
-0.119975 0.184141 0.616 
-0.0957262 0.184739 0.618 
-0.0710878 0.184739 0.618 
-0.0466749 0.185635 0.621 
-0.0219523 0.185934 0.622 
0.00285474 0.186532 0.624 
0.0278657 0.187429 0.627 
0.0528628 0.187429 0.627 
0.0782326 0.188326 0.63 
0.104006 0.189522 0.634 
0.12969 0.190119 0.636 
0.155289 0.190418 0.637 
0.180969 0.190717 0.638 
0.207699 0.191913 0.642 
0.233294 0.191913 0.642 
0.260099 0.19281 0.645 
0.286257 0.193109 0.646 
0.312012 0.193109 0.646 
0.332538 0.190119 0.636 
0.339608 0.179657 0.601 
0.34179 0.168895 0.565 
0.344327 0.159629 0.534 
0.349184 0.152454 0.51 
0.35575 0.146775 0.491 
0.360037 0.140796 0.471 
0.378815 0.140796 0.471 
0.398437 0.141095 0.472 
0.418139 0.141394 0.473 
0.43792 0.141693 0.474 
0.457781 0.141992 0.475 
-0.476619 0.177451 0.589 
-0.454675 0.178054 0.591 
-0.445702 0.184079 0.611 
-0.421217 0.185284 0.615 
-0.394118 0.184079 0.611 
-0.359471 0.178957 0.594 
-0.330485 0.179861 0.597 
-0.305411 0.180765 0.6 
-0.28149 0.180765 0.6 
-0.257998 0.181066 0.601 
-0.235595 0.182271 0.605 
-0.212174 0.182874 0.607 
-0.188594 0.183476 0.609 
-0.164584 0.183778 0.61 
-0.141415 0.185284 0.615 
-0.117086 0.185585 0.616 
-0.0929778 0.186489 0.619 
-0.0681892 0.186188 0.618 
-0.0437622 0.187092 0.621 
-0.0190349 0.187393 0.622 
0.00578151 0.187996 0.624 
0.0308065 0.188899 0.627 
0.0558037 0.188899 0.627 
0.0811875 0.189803 0.63 
0.106979 0.191008 0.634 
0.132673 0.191611 0.636 
0.158277 0.191912 0.637 
0.183961 0.192213 0.638 
0.211038 0.19372 0.643 
0.235937 0.193117 0.641 
0.263124 0.194322 0.645 
0.289287 0.194624 0.646 
0.314066 0.194021 0.644 
0.334466 0.191008 0.634 
0.341287 0.180464 0.599 
0.342612 0.169317 0.562 
0.344825 0.159374 0.529 
0.351389 0.153048 0.508 
0.355547 0.14642 0.486 
0.361808 0.141298 0.469 
0.382129 0.141901 0.471 
0.401758 0.142202 0.472 
0.421467 0.142503 0.473 
0.441255 0.142804 0.474 
0.462094 0.143407 0.476 
-0.473856 0.178832 0.589 
-0.451903 0.17944 0.591 
-0.442837 0.185512 0.611 
-0.417652 0.186423 0.614 
-0.389331 0.184601 0.608 
-0.356685 0.18035 0.594 
-0.334685 0.181261 0.597 
-0.311039 0.182172 0.6 
-0.287118 0.182172 0.6 
-0.263198 0.182172 0.6 
-0.240872 0.183387 0.604 
-0.21751 0.183994 0.606 
-0.194307 0.184905 0.609 
-0.170306 0.185208 0.61 
-0.146705 0.186119 0.613 
-0.122665 0.186726 0.615 
-0.0987844 0.187941 0.619 
-0.0741062 0.187941 0.619 
-0.0495877 0.188548 0.621 
-0.0248297 0.188548 0.621 
-7.2035e-05 0.189459 0.624 
0.0248851 0.190066 0.626 
0.049922 0.19037 0.627 
0.0752777 0.191281 0.63 
0.100873 0.192192 0.633 
0.126707 0.193102 0.636 
0.152302 0.193406 0.637 
0.177698 0.193406 0.637 
0.20405 0.194317 0.64 
0.231 0.195531 0.644 
0.256675 0.195531 0.644 
0.283227 0.196139 0.646 
0.308982 0.196139 0.646 
0.329555 0.193102 0.636 
0.339844 0.184905 0.609 
0.342001 0.173671 0.572 
0.343121 0.163348 0.538 
0.348984 0.156364 0.515 
0.355166 0.150292 0.495 
0.357481 0.143309 0.472 
0.374704 0.142701 0.47 
0.394279 0.143005 0.471 
0.414811 0.143612 0.473 
0.434585 0.143916 0.474 
0.45444 0.14422 0.475 
-0.481579 0.18052 0.59 
-0.458833 0.180826 0.591 
-0.447055 0.185721 0.607 
-0.424852 0.187863 0.614 
-0.399721 0.187557 0.613 
-0.358078 0.181743 0.594 
-0.336085 0.182661 0.597 
-0.31333 0.183273 0.599 
-0.289933 0.183579 0.6 
-0.266012 0.183579 0.6 
-0.243301 0.184497 0.603 
-0.220352 0.185415 0.606 
-0.19684 0.186027 0.608 
-0.173168 0.186639 0.61 
-0.14958 0.187557 0.613 
-0.125345 0.187863 0.614 
-0.101688 0.189393 0.619 
-0.0770095 0.189393 0.619 
-0.0525004 0.190004 0.621 
-0.0278317 0.190616 0.623 
-0.00299881 0.190922 0.624 
0.0219489 0.191534 0.626 
0.0469812 0.19184 0.627 
0.0723227 0.192758 0.63 
0.0977489 0.19337 0.632 
0.123724 0.194594 0.636 
0.149314 0.1949 0.637 
0.17471 0.1949 0.637 
0.200734 0.195512 0.639 
0.228334 0.197348 0.645 
0.253261 0.196736 0.643 
0.280197 0.197654 0.646 
0.306425 0.19796 0.647 
0.326572 0.194594 0.636 
0.340861 0.188475 0.616 
0.341691 0.176236 0.576 
0.344401 0.165833 0.542 
0.348452 0.157878 0.516 
0.35472 0.151759 0.496 
0.357129 0.144722 0.473 
0.373602 0.143804 0.47 
0.393175 0.14411 0.471 
0.413702 0.144722 0.473 
0.433474 0.145028 0.474 
0.453326 0.145334 0.475 
0.474251 0.145945 0.477 
-0.460219 0.182212 0.591 
-0.446262 0.18622 0.604 
-0.426292 0.189303 0.614 
-0.401159 0.188994 0.613 
-0.360256 0.182828 0.593 
-0.338318 0.183753 0.596 
-0.31614 0.184678 0.599 
-0.292747 0.184986 0.6 
-0.269274 0.185295 0.601 
-0.245722 0.185603 0.602 
-0.223194 0.186836 0.606 
-0.199691 0.187453 0.608 
-0.17574 0.187761 0.609 
-0.151958 0.188378 0.611 
-0.128225 0.189303 0.614 
-0.104591 0.190844 0.619 
-0.0800419 0.191153 0.62 
-0.0554131 0.191461 0.621 
-0.0307538 0.192077 0.623 
-0.00592558 0.192386 0.624 
0.0190127 0.193002 0.626 
0.0440403 0.193311 0.627 
0.0723227 0.194236 0.63 
0.0975942 0.194544 0.631 
0.123724 0.196085 0.636 
0.149314 0.196394 0.637 
0.17471 0.196394 0.637 
0.200734 0.19701 0.639 
0.22798 0.198552 0.644 
0.252867 0.197935 0.642 
0.280197 0.199169 0.646 
0.306425 0.199477 0.647 
0.326058 0.195777 0.635 
0.340861 0.189919 0.616 
0.341691 0.177587 0.576 
0.344396 0.167721 0.544 
0.347915 0.159397 0.517 
0.354983 0.153539 0.498 
0.35602 0.145831 0.473 
0.371707 0.144598 0.469 
0.39207 0.145214 0.471 
0.412593 0.145831 0.473 
0.432362 0.146139 0.474 
0.452212 0.146447 0.475 
0.472141 0.146756 0.476 
-0.461605 0.183597 0.591 
-0.445455 0.186704 0.601 
-0.427732 0.190743 0.614 
-0.401283 0.189811 0.611 
-0.360256 0.184219 0.593 
-0.338318 0.185151 0.596 
-0.31614 0.186083 0.599 
-0.292259 0.186083 0.599 
-0.268826 0.186393 0.6 
-0.245313 0.186704 0.601 
-0.223194 0.188257 0.606 
-0.199691 0.188879 0.608 
-0.17574 0.189189 0.609 
-0.151958 0.189811 0.611 
-0.128016 0.190432 0.613 
-0.104591 0.192296 0.619 
-0.0799128 0.192296 0.619 
-0.0553238 0.192607 0.62 
-0.0308032 0.193849 0.624 
-0.00592558 0.193849 0.624 
0.0190127 0.19447 0.626 
0.0440403 0.194781 0.627 
0.0693678 0.195713 0.63 
0.0946346 0.196024 0.631 
0.120551 0.197266 0.635 
0.146096 0.197577 0.636 
0.171722 0.197888 0.637 
0.197737 0.198509 0.639 
0.225308 0.200373 0.645 
0.249466 0.19913 0.641 
0.277167 0.200684 0.646 
0.302922 0.200684 0.646 
0.323588 0.197577 0.636 
0.340715 0.192917 0.621 
0.34252 0.180802 0.582 
0.345615 0.170861 0.55 
0.348163 0.161852 0.521 
0.35548 0.155949 0.502 
0.355297 0.147561 0.475 
0.369507 0.145698 0.469 
0.389861 0.146319 0.471 
0.410374 0.14694 0.473 
0.430139 0.147251 0.474 
0.449984 0.147561 0.475 
0.469908 0.147872 0.476 
-0.462991 0.184983 0.591 
-0.446121 0.187801 0.6 
-0.429172 0.192183 0.614 
-0.402715 0.191243 0.611 
-0.360256 0.18561 0.593 
-0.338318 0.186549 0.596 
-0.31614 0.187488 0.599 
-0.292259 0.187488 0.599 
-0.268826 0.187801 0.6 
-0.245313 0.188113 0.601 
-0.222826 0.189366 0.605 
-0.199691 0.190305 0.608 
-0.17574 0.190618 0.609 
-0.151958 0.191243 0.611 
-0.128016 0.19187 0.613 
-0.104591 0.193748 0.619 
-0.0799128 0.193748 0.619 
-0.0553238 0.194061 0.62 
-0.0308032 0.195313 0.624 
-0.00591609 0.195 0.623 
0.0190127 0.195939 0.626 
0.0440403 0.196252 0.627 
0.0693678 0.197191 0.63 
0.0946346 0.197504 0.631 
0.120551 0.198756 0.635 
0.146096 0.199069 0.636 
0.171722 0.199382 0.637 
0.197737 0.200008 0.639 
0.224959 0.201573 0.644 
0.249077 0.200321 0.64 
0.277167 0.202199 0.646 
0.303391 0.202512 0.647 
0.323588 0.199069 0.636 
0.341263 0.194687 0.622 
0.34252 0.182166 0.582 
0.345615 0.17215 0.55 
0.348163 0.163073 0.521 
0.35548 0.157126 0.502 
0.356374 0.147736 0.472 
0.372807 0.146797 0.469 
0.393175 0.147423 0.471 
0.413702 0.148049 0.473 
0.433474 0.148362 0.474 
0.453326 0.148675 0.475 
0.474251 0.149301 0.477 
-0.45944 0.186054 0.59 
-0.446262 0.190469 0.604 
-0.425598 0.193307 0.613 
-0.398541 0.192046 0.609 
-0.360256 0.187 0.593 
-0.33775 0.187631 0.595 
-0.31614 0.188892 0.599 
-0.292259 0.188892 0.599 
-0.268826 0.189208 0.6 
-0.245313 0.189523 0.601 
-0.222826 0.190784 0.605 
-0.199691 0.19173 0.608 
-0.17574 0.192046 0.609 
-0.151958 0.192676 0.611 
-0.128225 0.193622 0.614 
-0.104591 0.195199 0.619 
-0.0799128 0.195199 0.619 
-0.0553238 0.195515 0.62 
-0.0308032 0.196776 0.624 
-0.00591609 0.196461 0.623 
0.0190127 0.197407 0.626 
0.0440403 0.197722 0.627 
0.0692577 0.198353 0.629 
0.0946346 0.198983 0.631 
0.120551 0.200245 0.635 
0.146096 0.20056 0.636 
0.171722 0.200875 0.637 
0.197737 0.201506 0.639 
0.224959 0.203083 0.644 
0.249077 0.201821 0.64 
0.277167 0.203714 0.646 
0.302922 0.203714 0.646 
0.323588 0.20056 0.636 
0.341812 0.196461 0.623 
0.342113 0.182585 0.579 
0.345013 0.172494 0.547 
0.347373 0.163349 0.518 
0.355436 0.156727 0.497 
0.358171 0.148213 0.47 
0.376107 0.147897 0.469 
0.396488 0.148528 0.471 
0.41703 0.149159 0.473 
0.436809 0.149474 0.474 
0.456667 0.149789 0.475 
-0.480763 0.18712 0.589 
-0.458057 0.187438 0.59 
-0.446319 0.192521 0.606 
-0.426292 0.195062 0.614 
-0.398541 0.193474 0.609 
-0.359649 0.188073 0.592 
-0.33775 0.189026 0.595 
-0.31614 0.190297 0.599 
-0.292259 0.190297 0.599 
-0.269274 0.190932 0.601 
-0.245313 0.190932 0.601 
-0.222826 0.192203 0.605 
-0.199691 0.193156 0.608 
-0.17574 0.193474 0.609 
-0.151709 0.193792 0.61 
-0.128225 0.195062 0.614 
-0.104422 0.196333 0.618 
-0.0797837 0.196333 0.618 
-0.0553238 0.196969 0.62 
-0.0308032 0.198239 0.624 
-0.00591609 0.197922 0.623 
0.0190127 0.198875 0.626 
0.0440403 0.199192 0.627 
0.0692577 0.199828 0.629 
0.0975942 0.200463 0.631 
0.123529 0.201734 0.635 
0.14908 0.202052 0.636 
0.17471 0.202369 0.637 
0.200734 0.203005 0.639 
0.227626 0.204275 0.643 
0.252079 0.203322 0.64 
0.280197 0.205229 0.646 
0.306425 0.205546 0.647 
0.326058 0.201734 0.635 
0.342861 0.196015 0.617 
0.342142 0.181084 0.57 
0.344383 0.170918 0.538 
0.348152 0.162658 0.512 
0.356327 0.157257 0.495 
0.358171 0.149315 0.47 
0.376107 0.148997 0.469 
0.396488 0.149633 0.471 
0.41703 0.150268 0.473 
0.436809 0.150586 0.474 
0.456667 0.150903 0.475 
-0.478567 0.188181 0.588 
-0.455899 0.188501 0.589 
-0.445632 0.194262 0.607 
-0.426292 0.196502 0.614 
-0.398541 0.194902 0.609 
-0.362426 0.189462 0.592 
-0.341113 0.190742 0.596 
-0.318949 0.191702 0.599 
-0.294576 0.191382 0.598 
-0.27164 0.192022 0.6 
-0.248132 0.192342 0.601 
-0.225664 0.193622 0.605 
-0.202543 0.194582 0.608 
-0.178303 0.194582 0.608 
-0.154317 0.194902 0.609 
-0.131105 0.196502 0.614 
-0.107321 0.197782 0.618 
-0.0826824 0.197782 0.618 
-0.0581379 0.198103 0.619 
-0.0337299 0.199703 0.624 
-0.00882399 0.199063 0.622 
0.0160766 0.200343 0.626 
0.0410995 0.200663 0.627 
0.0663075 0.201303 0.629 
0.0962667 0.202263 0.632 
0.12204 0.203223 0.635 
0.147356 0.203223 0.635 
0.173216 0.203863 0.637 
0.199235 0.204503 0.639 
0.226118 0.205783 0.643 
0.250578 0.204823 0.64 
0.278682 0.206743 0.646 
0.304437 0.206743 0.646 
0.32508 0.203543 0.636 
0.341967 0.197782 0.618 
0.342142 0.182421 0.57 
0.344383 0.17218 0.538 
0.348152 0.163859 0.512 
0.356327 0.158418 0.495 
0.359609 0.150097 0.469 
0.379113 0.150417 0.47 
0.399544 0.151057 0.472 
0.419248 0.151377 0.473 
0.439958 0.152017 0.475 
0.458895 0.152017 0.475 
-0.475809 0.18956 0.588 
-0.453137 0.189883 0.589 
-0.443514 0.196008 0.608 
-0.419847 0.19762 0.613 
-0.379086 0.19085 0.592 
-0.356084 0.191172 0.593 
-0.333564 0.191817 0.595 
-0.311925 0.193107 0.599 
-0.288045 0.193107 0.599 
-0.265046 0.193751 0.601 
-0.241887 0.194396 0.603 
-0.219292 0.195686 0.607 
-0.195092 0.195686 0.607 
-0.171455 0.19633 0.609 
-0.148143 0.19762 0.613 
-0.124107 0.198265 0.615 
-0.100074 0.199232 0.618 
-0.0754358 0.199232 0.618 
-0.051044 0.200199 0.621 
-0.026413 0.201166 0.624 
-0.0015305 0.200521 0.622 
0.0234544 0.202133 0.627 
0.0484516 0.202133 0.627 
0.0736831 0.202778 0.629 
0.099231 0.203745 0.632 
0.125018 0.204712 0.635 
0.150334 0.204712 0.635 
0.176204 0.205357 0.637 
0.202233 0.206002 0.639 
0.228777 0.206969 0.642 
0.253976 0.206647 0.641 
0.281276 0.207936 0.645 
0.307467 0.208258 0.646 
0.327547 0.204712 0.635 
0.342861 0.198909 0.617 
0.34185 0.185047 0.574 
0.345036 0.175053 0.543 
0.347777 0.166027 0.515 
0.355884 0.159901 0.496 
0.356724 0.151842 0.471 
0.373907 0.151197 0.469 
0.394279 0.151842 0.471 
0.414811 0.152486 0.473 
0.434585 0.152809 0.474 
0.45444 0.153131 0.475 
-0.479946 0.190939 0.588 
-0.45728 0.191264 0.589 
-0.446319 0.196784 0.606 
-0.42416 0.199057 0.613 
-0.396461 0.197434 0.608 
-0.359649 0.192238 0.592 
-0.33775 0.193212 0.595 
-0.31614 0.194511 0.599 
-0.291771 0.194187 0.598 
-0.268826 0.194836 0.6 
-0.24613 0.19581 0.603 
-0.223563 0.197109 0.607 
-0.199691 0.197434 0.608 
-0.175452 0.197434 0.608 
-0.151709 0.198083 0.61 
-0.128434 0.199707 0.615 
-0.104422 0.200681 0.618 
-0.0797837 0.200681 0.618 
-0.0553238 0.201331 0.62 
-0.0307538 0.202305 0.623 
-0.00590659 0.20198 0.622 
0.0189824 0.202954 0.625 
0.0440403 0.203604 0.627 
0.0692577 0.204253 0.629 
0.0947846 0.205227 0.632 
0.120551 0.206201 0.635 
0.146096 0.206526 0.636 
0.171722 0.206851 0.637 
0.197737 0.2075 0.639 
0.22426 0.208475 0.642 
0.249077 0.207825 0.64 
0.276309 0.209124 0.644 
0.302922 0.209773 0.646 
0.323588 0.206526 0.636 
0.341263 0.20198 0.622 
0.340755 0.188017 0.579 
0.344986 0.178275 0.549 
0.347494 0.168858 0.52 
0.35548 0.163013 0.502 
0.354549 0.15392 0.474 
0.369507 0.152297 0.469 
0.389861 0.152946 0.471 
0.409506 0.153271 0.472 
0.430139 0.15392 0.474 
0.449984 0.154245 0.475 
0.469908 0.15457 0.476 
-0.462806 0.192645 0.589 
-0.447528 0.196243 0.6 
-0.431313 0.201149 0.615 
-0.405471 0.200495 0.613 
-0.365202 0.193627 0.592 
-0.345063 0.195589 0.598 
-0.321222 0.195589 0.598 
-0.297381 0.195589 0.598 
-0.274454 0.196243 0.6 
-0.251369 0.196897 0.602 
-0.228879 0.198206 0.606 
-0.205395 0.19886 0.608 
-0.180857 0.198533 0.607 
-0.157173 0.199187 0.609 
-0.133985 0.200822 0.614 
-0.110041 0.201803 0.617 
-0.085581 0.20213 0.618 
-0.0609426 0.20213 0.618 
-0.036598 0.203766 0.623 
-0.0117414 0.203439 0.622 
0.0130985 0.204093 0.624 
0.0381586 0.205074 0.627 
0.0662021 0.205401 0.628 
0.091675 0.206382 0.631 
0.117572 0.207691 0.635 
0.143113 0.208018 0.636 
0.168734 0.208345 0.637 
0.194435 0.208672 0.638 
0.220905 0.209653 0.641 
0.246075 0.209326 0.64 
0.272864 0.210307 0.643 
0.299892 0.211288 0.646 
0.321109 0.208345 0.637 
0.339978 0.20442 0.625 
0.340374 0.190683 0.583 
0.344325 0.17989 0.55 
0.347607 0.170732 0.522 
0.354302 0.16419 0.502 
0.354929 0.155686 0.476 
0.368408 0.153397 0.469 
0.387931 0.153724 0.47 
0.408399 0.154378 0.472 
0.428122 0.154705 0.473 
0.44887 0.155359 0.475 
0.468792 0.155686 0.476 
-0.461424 0.194027 0.589 
-0.447055 0.199956 0.607 
-0.424852 0.202262 0.614 
-0.397113 0.200615 0.609 
-0.359649 0.195015 0.592 
-0.338318 0.196333 0.596 
-0.31614 0.197321 0.599 
-0.292259 0.197321 0.599 
-0.268826 0.19765 0.6 
-0.24613 0.198638 0.603 
-0.223563 0.199956 0.607 
-0.199691 0.200286 0.608 
-0.175452 0.200286 0.608 
-0.151709 0.200944 0.61 
-0.128434 0.202591 0.615 
-0.104253 0.20325 0.617 
-0.0797837 0.20358 0.618 
-0.0552346 0.203909 0.619 
-0.0307538 0.205227 0.623 
-0.00590659 0.204897 0.622 
0.018952 0.205556 0.624 
0.0440403 0.206545 0.627 
0.0691476 0.206874 0.628 
0.0947846 0.208192 0.632 
0.120551 0.20918 0.635 
0.146096 0.209509 0.636 
0.171722 0.209839 0.637 
0.197427 0.210168 0.638 
0.223911 0.211156 0.641 
0.249077 0.210827 0.64 
0.276309 0.212145 0.644 
0.302922 0.212803 0.646 
0.323588 0.209509 0.636 
0.339617 0.203909 0.619 
0.341343 0.191062 0.58 
0.344986 0.18085 0.549 
0.347494 0.171297 0.52 
0.354771 0.165038 0.501 
0.355297 0.156473 0.475 
0.369507 0.154497 0.469 
0.389033 0.154826 0.47 
0.408639 0.155155 0.471 
0.429231 0.155814 0.473 
0.449984 0.156473 0.475 
0.469908 0.156803 0.476 
-0.457883 0.195076 0.588 
-0.44774 0.201048 0.606 
-0.426986 0.204034 0.615 
-0.39985 0.202707 0.611 
-0.359649 0.196403 0.592 
-0.338318 0.19773 0.596 
-0.31614 0.198726 0.599 
-0.292259 0.198726 0.599 
-0.268826 0.199057 0.6 
-0.24613 0.200053 0.603 
-0.223563 0.20138 0.607 
-0.199691 0.201711 0.608 
-0.175452 0.201711 0.608 
-0.151709 0.202375 0.61 
-0.128434 0.204034 0.615 
-0.104253 0.204697 0.617 
-0.0797837 0.205029 0.618 
-0.0552346 0.205361 0.619 
-0.0307538 0.206688 0.623 
-0.00590659 0.206356 0.622 
0.018952 0.20702 0.624 
0.0440403 0.208015 0.627 
0.0691476 0.208347 0.628 
0.0947846 0.209674 0.632 
0.120551 0.210669 0.635 
0.146096 0.211001 0.636 
0.171722 0.211333 0.637 
0.197427 0.211664 0.638 
0.223911 0.21266 0.641 
0.249077 0.212328 0.64 
0.27588 0.213323 0.643 
0.302922 0.214318 0.646 
0.323588 0.211001 0.636 
0.339617 0.205361 0.619 
0.341343 0.192422 0.58 
0.344986 0.182137 0.549 
0.348163 0.172848 0.521 
0.354063 0.165881 0.5 
0.355297 0.157587 0.475 
0.369507 0.155596 0.469 
0.389033 0.155928 0.47 
0.408639 0.15626 0.471 
0.429231 0.156924 0.473 
0.449984 0.157587 0.475 
0.469908 0.157919 0.476 
-0.457883 0.196455 0.588 
-0.44774 0.202469 0.606 
-0.426986 0.205476 0.615 
-0.400504 0.204474 0.612 
-0.362426 0.197792 0.592 
-0.341685 0.199462 0.597 
-0.318949 0.20013 0.599 
-0.295068 0.20013 0.599 
-0.27164 0.200464 0.6 
-0.248958 0.201467 0.603 
-0.226037 0.202469 0.606 
-0.202543 0.203137 0.608 
-0.178303 0.203137 0.608 
-0.154317 0.203471 0.609 
-0.131319 0.205476 0.615 
-0.106973 0.20581 0.616 
-0.0826824 0.206478 0.618 
-0.058044 0.206478 0.618 
-0.0336218 0.207815 0.622 
-0.00882399 0.207815 0.622 
0.0160252 0.208483 0.624 
0.0410995 0.209485 0.627 
0.0662021 0.209819 0.628 
0.091675 0.210822 0.631 
0.117387 0.211824 0.634 
0.143113 0.212492 0.636 
0.168734 0.212826 0.637 
0.194435 0.213161 0.638 
0.22056 0.213829 0.64 
0.246075 0.213829 0.64 
0.272864 0.214831 0.643 
0.299892 0.215833 0.646 
0.321109 0.212826 0.637 
0.338346 0.207815 0.622 
0.340374 0.194785 0.583 
0.344283 0.184427 0.552 
0.347046 0.174738 0.523 
0.353125 0.167722 0.502 
0.355299 0.159703 0.478 
0.367308 0.156696 0.469 
0.386829 0.15703 0.47 
0.405567 0.15703 0.47 
0.427013 0.158033 0.473 
0.447756 0.158701 0.475 
0.467676 0.159035 0.476 
-0.465568 0.198171 0.589 
-0.448841 0.201199 0.598 
-0.436316 0.207928 0.618 
-0.409013 0.206582 0.614 
-0.369991 0.199516 0.593 
-0.34927 0.201199 0.598 
-0.325429 0.201199 0.598 
-0.302092 0.201535 0.599 
-0.278211 0.201535 0.599 
-0.25518 0.202208 0.601 
-0.232758 0.203554 0.605 
-0.209327 0.204227 0.607 
-0.184823 0.20389 0.606 
-0.161193 0.204563 0.608 
-0.138305 0.206582 0.614 
-0.114011 0.206918 0.615 
-0.0896379 0.207255 0.616 
-0.0651849 0.207591 0.617 
-0.0407838 0.208601 0.62 
-0.0161434 0.20961 0.623 
0.00870829 0.209946 0.624 
0.0337473 0.210956 0.627 
0.0588382 0.211292 0.628 
0.0840088 0.211629 0.629 
0.109953 0.213311 0.634 
0.135656 0.213984 0.636 
0.161265 0.21432 0.637 
0.186954 0.214657 0.638 
0.213055 0.21533 0.64 
0.238571 0.21533 0.64 
0.264912 0.216003 0.642 
0.292317 0.217348 0.646 
0.31561 0.215666 0.641 
0.334778 0.211629 0.629 
0.341548 0.200862 0.597 
0.34393 0.189086 0.562 
0.344825 0.177983 0.529 
0.350697 0.170581 0.507 
0.354084 0.162843 0.484 
0.361808 0.157796 0.469 
0.380506 0.157796 0.469 
0.400056 0.158133 0.47 
0.421467 0.159142 0.473 
0.441255 0.159479 0.474 
0.461123 0.159815 0.475 
-0.471673 0.199213 0.588 
-0.450517 0.200229 0.591 
-0.444293 0.208361 0.615 
-0.416972 0.207683 0.613 
-0.385489 0.203956 0.602 
-0.356084 0.200907 0.593 
-0.333564 0.201585 0.595 
-0.312446 0.203279 0.6 
-0.288525 0.203279 0.6 
-0.265046 0.203617 0.601 
-0.242288 0.204634 0.604 
-0.219292 0.20565 0.607 
-0.195092 0.20565 0.607 
-0.171455 0.206328 0.609 
-0.147659 0.207005 0.611 
-0.123905 0.208022 0.614 
-0.0999122 0.209038 0.617 
-0.0754358 0.209377 0.618 
-0.0508796 0.209716 0.619 
-0.026413 0.21141 0.624 
-0.00153296 0.211071 0.623 
0.0233422 0.21141 0.624 
0.0484516 0.212426 0.627 
0.0735659 0.212765 0.628 
0.099545 0.214798 0.634 
0.124821 0.214798 0.634 
0.150571 0.215475 0.636 
0.176204 0.215814 0.637 
0.202233 0.216492 0.639 
0.228064 0.216831 0.64 
0.25358 0.216831 0.64 
0.280404 0.217847 0.643 
0.306991 0.218525 0.645 
0.327547 0.215137 0.635 
0.338415 0.206328 0.609 
0.34185 0.19447 0.574 
0.344401 0.183628 0.542 
0.347777 0.174481 0.515 
0.355436 0.168382 0.497 
0.357069 0.159235 0.47 
0.375007 0.158896 0.469 
0.394544 0.159235 0.47 
0.415041 0.159913 0.472 
0.434778 0.160251 0.473 
0.455553 0.160929 0.475 
-0.475565 0.19991 0.586 
-0.454518 0.200933 0.589 
-0.445672 0.207756 0.609 
-0.421972 0.209462 0.614 
-0.394256 0.207756 0.609 
-0.358261 0.201957 0.592 
-0.335789 0.202639 0.594 
-0.31526 0.204686 0.6 
-0.29134 0.204686 0.6 
-0.267865 0.205027 0.601 
-0.245121 0.20605 0.604 
-0.222139 0.207074 0.607 
-0.198265 0.207415 0.608 
-0.174026 0.207415 0.608 
-0.150279 0.208097 0.61 
-0.126992 0.209803 0.615 
-0.102806 0.210485 0.617 
-0.0783344 0.210826 0.618 
-0.053696 0.210826 0.618 
-0.0292928 0.212532 0.623 
-0.00445505 0.212532 0.623 
0.0204154 0.212873 0.624 
0.0455107 0.213897 0.627 
0.0706204 0.214238 0.628 
0.0965713 0.216285 0.634 
0.121848 0.216285 0.634 
0.147588 0.216967 0.636 
0.173216 0.217308 0.637 
0.198924 0.217649 0.638 
0.225063 0.218331 0.64 
0.250187 0.21799 0.639 
0.277388 0.219355 0.643 
0.303965 0.220037 0.645 
0.324569 0.216626 0.635 
0.337212 0.208779 0.612 
0.341522 0.197181 0.578 
0.343751 0.185923 0.545 
0.347373 0.176712 0.518 
0.355236 0.170571 0.5 
0.357069 0.160337 0.47 
0.375007 0.159996 0.469 
0.394544 0.160337 0.47 
0.415041 0.161019 0.472 
0.434778 0.161361 0.473 
0.455553 0.162043 0.475 
-0.475565 0.201284 0.586 
-0.454518 0.202314 0.589 
-0.445672 0.209184 0.609 
-0.422722 0.210558 0.613 
-0.395684 0.209184 0.609 
-0.361037 0.203345 0.592 
-0.339145 0.204375 0.595 
-0.318075 0.206093 0.6 
-0.294154 0.206093 0.6 
-0.270683 0.206436 0.601 
-0.247544 0.207123 0.603 
-0.224615 0.208154 0.606 
-0.201117 0.208841 0.608 
-0.176877 0.208841 0.608 
-0.152889 0.209184 0.609 
-0.129876 0.211245 0.615 
-0.1057 0.211932 0.617 
-0.0811016 0.211932 0.617 
-0.0565947 0.212276 0.618 
-0.0321631 0.21365 0.622 
-0.00737713 0.213993 0.623 
0.0174886 0.214337 0.624 
0.0425699 0.215367 0.627 
0.0676748 0.215711 0.628 
0.09345 0.217428 0.633 
0.118686 0.217428 0.633 
0.144605 0.218458 0.636 
0.170228 0.218802 0.637 
0.196238 0.219489 0.639 
0.222061 0.219832 0.64 
0.247189 0.219489 0.639 
0.273945 0.220519 0.642 
0.30094 0.22155 0.645 
0.322603 0.218802 0.637 
0.337073 0.211932 0.617 
0.341155 0.19991 0.582 
0.344325 0.188918 0.55 
0.347607 0.179301 0.522 
0.354302 0.172431 0.502 
0.355297 0.163157 0.475 
0.369507 0.161096 0.469 
0.389033 0.161439 0.47 
0.407771 0.161439 0.47 
0.428324 0.162126 0.472 
0.449984 0.163157 0.475 
0.468921 0.163157 0.475 
-0.459262 0.20335 0.588 
-0.449161 0.209575 0.606 
-0.426292 0.212342 0.614 
-0.39985 0.211304 0.611 
-0.364428 0.205079 0.593 
-0.342511 0.206117 0.596 
-0.320889 0.2075 0.6 
-0.296473 0.207154 0.599 
-0.273047 0.2075 0.6 
-0.250372 0.208537 0.603 
-0.227083 0.209229 0.605 
-0.203969 0.210267 0.608 
-0.179434 0.209921 0.607 
-0.155745 0.210612 0.609 
-0.132545 0.212342 0.614 
-0.108594 0.213379 0.617 
-0.0839956 0.213379 0.617 
-0.0594933 0.213725 0.618 
-0.0350241 0.214762 0.621 
-0.0103157 0.2158 0.624 
0.0145852 0.216146 0.625 
0.039629 0.216837 0.627 
0.0647293 0.217183 0.628 
0.0904811 0.218912 0.633 
0.115535 0.218567 0.632 
0.141622 0.21995 0.636 
0.166978 0.21995 0.636 
0.193241 0.220987 0.639 
0.219059 0.221333 0.64 
0.244192 0.220987 0.639 
0.270934 0.222025 0.642 
0.297915 0.223062 0.645 
0.320117 0.220642 0.638 
0.335804 0.214417 0.62 
0.341915 0.20335 0.588 
0.343609 0.191246 0.553 
0.347142 0.181562 0.525 
0.352649 0.173954 0.503 
0.354919 0.165654 0.479 
0.366208 0.162196 0.469 
0.385727 0.162542 0.47 
0.404464 0.162542 0.47 
0.425003 0.163233 0.472 
0.445702 0.163925 0.474 
0.465579 0.164271 0.475 
-0.464778 0.204729 0.588 
-0.449592 0.208559 0.599 
-0.438434 0.216219 0.621 
-0.408346 0.213433 0.613 
-0.371863 0.207514 0.596 
-0.348686 0.207863 0.597 
-0.325429 0.208211 0.598 
-0.302092 0.208559 0.599 
-0.278676 0.208907 0.6 
-0.256029 0.209952 0.603 
-0.232758 0.210648 0.605 
-0.209327 0.211344 0.607 
-0.185128 0.211344 0.607 
-0.161193 0.211692 0.608 
-0.137629 0.212737 0.611 
-0.114382 0.214826 0.617 
-0.0897834 0.214826 0.617 
-0.0652906 0.215174 0.618 
-0.040718 0.215522 0.619 
-0.0161952 0.217612 0.625 
0.00870829 0.217263 0.624 
0.0337473 0.218308 0.627 
0.0588382 0.218656 0.628 
0.0840088 0.219004 0.629 
0.109606 0.220049 0.632 
0.135442 0.221093 0.635 
0.160759 0.221093 0.635 
0.187247 0.222486 0.639 
0.212722 0.222486 0.639 
0.238571 0.222834 0.64 
0.264499 0.223182 0.641 
0.291864 0.224575 0.645 
0.31561 0.223182 0.641 
0.334246 0.218656 0.628 
0.340975 0.207514 0.596 
0.342706 0.19498 0.56 
0.344825 0.184186 0.529 
0.350697 0.176526 0.507 
0.353751 0.167822 0.482 
0.362134 0.162948 0.468 
0.381606 0.163296 0.469 
0.401158 0.163644 0.47 
0.421683 0.16434 0.472 
0.441433 0.164688 0.473 
0.462237 0.165385 0.475 
-0.467536 0.206108 0.588 
-0.44938 0.208562 0.595 
-0.43914 0.218026 0.622 
-0.40768 0.21452 0.612 
-0.371239 0.208562 0.595 
-0.347286 0.209263 0.597 
-0.324568 0.209964 0.599 
-0.300687 0.209964 0.599 
-0.277269 0.210314 0.6 
-0.255037 0.211716 0.604 
-0.231339 0.212067 0.605 
