# .PCD v.7 - Point Cloud Data file format
VERSION .7
FIELDS x y z
SIZE 4 4 4
TYPE F F F
COUNT 1 1 1
WIDTH 1922
HEIGHT 1
VIEWPOINT 0 0 0 1 0 0 0
POINTS 1922
DATA ascii
-0.347078 0.246849 0.587 
-0.330067 0.254839 0.606 
-0.309292 0.261147 0.621 
-0.279895 0.260727 0.62 
-0.257879 0.267876 0.637 
-0.234994 0.275866 0.656 
-0.210962 0.284697 0.677 
-0.186032 0.29521 0.702 
-0.155495 0.299415 0.712 
-0.127978 0.313293 0.745 
-0.096883 0.325488 0.774 
-0.0629277 0.336842 0.801 
-0.0268709 0.353663 0.841 
0.0127681 0.366279 0.871 
0.0549587 0.377213 0.897 
0.101838 0.396977 0.944 
0.153872 0.418845 0.996 
0.209547 0.438189 1.042 
0.284372 0.482765 1.148 
0.350611 0.498325 1.185 
0.431188 0.529444 1.259 
4.33181 4.30367 10.234 
2.2591 1.9954 4.745 
3.99537 3.18591 7.576 
9.21971 6.62919 15.764 
3.57557 2.33519 5.553 
4.02912 2.45378 5.835 
4.66301 2.66025 6.326 
10.4336 5.55432 13.208 
9.34431 4.69729 11.17 
8.26024 3.93319 9.353 
8.00629 3.62116 8.611 
-0.420392 0.224125 0.531 
-0.402577 0.230456 0.546 
-0.383344 0.234255 0.555 
-0.363841 0.240164 0.569 
-0.3446 0.248606 0.589 
-0.327916 0.257047 0.609 
-0.305432 0.262112 0.621 
-0.277378 0.262956 0.623 
-0.255913 0.270976 0.642 
-0.23127 0.277307 0.657 
-0.20706 0.286171 0.678 
-0.182187 0.297145 0.704 
-0.151495 0.301366 0.714 
-0.123844 0.315716 0.748 
-0.0925486 0.328379 0.778 
-0.0580945 0.338931 0.803 
-0.0216444 0.35497 0.841 
0.0182646 0.369321 0.875 
0.0612756 0.383249 0.908 
0.108276 0.400555 0.949 
0.161187 0.423347 1.003 
0.216022 0.439808 1.042 
0.293538 0.487925 1.156 
0.361903 0.505653 1.198 
0.442151 0.535198 1.268 
4.65858 4.71464 11.17 
2.281 2.02219 4.791 
4.02702 3.22301 7.636 
9.21971 6.65368 15.764 
3.54703 2.33073 5.522 
4.04416 2.47761 5.87 
4.63847 2.66164 6.306 
10.2743 5.50056 13.032 
9.43467 4.76909 11.299 
8.32505 3.98571 9.443 
8.22386 3.7333 8.845 
-0.416856 0.227068 0.536 
-0.400646 0.232152 0.548 
-0.380579 0.235541 0.556 
-0.356336 0.243166 0.574 
-0.339917 0.250792 0.592 
-0.323403 0.259688 0.613 
-0.297236 0.261806 0.618 
-0.273643 0.26689 0.63 
-0.25087 0.274091 0.647 
-0.226512 0.281293 0.664 
-0.201159 0.289342 0.683 
-0.175522 0.299933 0.708 
-0.146548 0.308406 0.728 
-0.116947 0.320268 0.756 
-0.0846277 0.331706 0.783 
-0.049853 0.343567 0.811 
0.000579362 0.363055 0.857 
0.0418484 0.374916 0.885 
0.0873239 0.39398 0.93 
0.136994 0.413043 0.975 
0.192544 0.43592 1.029 
0.259671 0.470658 1.111 
0.330095 0.496076 1.171 
0.406028 0.523612 1.236 
0.486895 0.549877 1.298 
2.8888 2.77904 6.56 
2.39504 2.0703 4.887 
4.066 3.20945 7.576 
8.91074 6.36977 15.036 
3.63088 2.366 5.585 
4.01731 2.44268 5.766 
4.7328 2.69728 6.367 
10.1916 5.41235 12.776 
9.54 4.78664 11.299 
8.06294 3.83389 9.05 
10.0859 4.54983 10.74 
-0.410738 0.229602 0.54 
-0.392708 0.233853 0.55 
-0.375749 0.239381 0.563 
-0.35249 0.244483 0.575 
-0.337017 0.252987 0.595 
-0.31968 0.261491 0.615 
-0.291488 0.261916 0.616 
-0.269175 0.268294 0.631 
-0.246224 0.275522 0.648 
-0.223021 0.284451 0.669 
-0.198147 0.293805 0.691 
-0.170982 0.302734 0.712 
-0.142247 0.312513 0.735 
-0.108262 0.323568 0.761 
-0.0757563 0.336749 0.792 
-0.0216444 0.357583 0.841 
0.0182229 0.371189 0.873 
0.0611406 0.38522 0.906 
0.109634 0.403078 0.948 
0.163394 0.428164 1.007 
0.217223 0.442196 1.04 
0.293801 0.488966 1.15 
0.359788 0.506399 1.191 
0.440756 0.537438 1.264 
3.98139 4.07415 9.582 
2.79881 2.54943 5.996 
4.07748 3.18423 7.489 
3.30086 2.29602 5.4 
3.63282 2.34789 5.522 
3.9684 2.39508 5.633 
9.73503 5.4322 12.776 
10.3305 5.4322 12.776 
9.23614 4.59203 10.8 
7.7312 3.64514 8.573 
5.54671 2.42315 5.699 
-0.406455 0.230867 0.541 
-0.388286 0.235135 0.551 
-0.371817 0.241109 0.565 
-0.351597 0.245376 0.575 
-0.336658 0.254338 0.596 
-0.318725 0.262446 0.615 
-0.29006 0.262446 0.615 
-0.268195 0.269274 0.631 
-0.245217 0.276529 0.648 
-0.222313 0.285917 0.67 
-0.197644 0.295732 0.693 
-0.169876 0.30384 0.712 
-0.141105 0.313655 0.735 
-0.105897 0.32475 0.761 
-0.0711026 0.33926 0.795 
-0.0111912 0.35889 0.841 
0.0292736 0.375106 0.879 
0.0748684 0.392176 0.919 
0.123979 0.413086 0.968 
0.178007 0.43485 1.019 
0.238117 0.459174 1.076 
0.310238 0.494167 1.158 
0.379939 0.515504 1.208 
0.461523 0.545376 1.278 
2.90959 2.79004 6.538 
4.05866 3.2842 7.696 
9.19522 6.72716 15.764 
3.52711 2.34324 5.491 
4.06897 2.52034 5.906 
9.59608 5.45205 12.776 
10.1916 5.45205 12.776 
9.76543 4.93569 11.566 
8.2536 3.95334 9.264 
10.9739 4.99501 11.705 
-0.410888 0.230423 0.538 
-0.3937 0.235134 0.549 
-0.376828 0.240702 0.562 
-0.356872 0.244985 0.572 
-0.341179 0.253123 0.591 
-0.323185 0.260832 0.609 
-0.298188 0.26383 0.616 
-0.274288 0.268541 0.627 
-0.250926 0.274966 0.642 
-0.227198 0.282675 0.66 
-0.203876 0.293382 0.685 
-0.177471 0.302805 0.707 
-0.147788 0.309658 0.723 
-0.112694 0.325076 0.759 
-0.078846 0.33664 0.786 
-0.0189858 0.35934 0.839 
0.0209596 0.37433 0.874 
0.0641677 0.389321 0.909 
0.110873 0.405167 0.946 
0.165778 0.433435 1.012 
0.218629 0.444999 1.039 
0.293531 0.489113 1.142 
0.360728 0.508815 1.188 
0.44272 0.541365 1.264 
2.99877 2.96894 6.932 
2.57709 2.2811 5.326 
9.19635 6.86215 16.022 
3.4658 2.34492 5.475 
4.00168 2.5218 5.888 
4.19986 2.47683 5.783 
10.0268 5.43635 12.693 
9.56265 4.89584 11.431 
8.46248 4.10393 9.582 
9.08762 4.18616 9.774 
-0.416225 0.22868 0.532 
-0.400765 0.235127 0.547 
-0.380757 0.238566 0.555 
-0.363201 0.244154 0.568 
-0.346805 0.251462 0.585 
-0.328823 0.258769 0.602 
-0.310256 0.266936 0.621 
-0.279499 0.265217 0.617 
-0.257243 0.272094 0.633 
-0.234934 0.280691 0.653 
-0.211701 0.290578 0.676 
-0.18579 0.299605 0.697 
-0.157041 0.306912 0.714 
-0.125325 0.319378 0.743 
-0.091105 0.333563 0.776 
-0.0564929 0.34302 0.798 
0.00591226 0.368811 0.858 
0.0474554 0.381276 0.887 
0.0931035 0.39976 0.93 
0.143787 0.421252 0.98 
0.198359 0.441025 1.026 
0.267776 0.479712 1.116 
0.333834 0.500774 1.165 
0.412122 0.531723 1.237 
3.06618 3.29522 7.666 
2.9394 2.82927 6.582 
3.98008 3.24407 7.547 
9.12172 6.72198 15.638 
3.51684 2.35342 5.475 
4.08068 2.546 5.923 
9.37131 5.35205 12.451 
10.2786 5.52786 12.86 
9.90098 5.03138 11.705 
8.30726 4.00104 9.308 
12.0768 5.52786 12.86 
-0.411793 0.231663 0.537 
-0.392983 0.236409 0.548 
-0.376157 0.242017 0.561 
-0.356248 0.246331 0.571 
-0.340602 0.254528 0.59 
-0.322654 0.262293 0.608 
-0.297704 0.265313 0.615 
-0.27385 0.270058 0.626 
-0.250144 0.276098 0.64 
-0.227198 0.284726 0.66 
-0.204174 0.295942 0.686 
-0.176622 0.305433 0.708 
-0.147476 0.31363 0.727 
-0.116715 0.322258 0.747 
-0.0798634 0.33822 0.784 
-0.0214899 0.360221 0.835 
0.0181185 0.374458 0.868 
0.0732008 0.395165 0.916 
0.121083 0.412852 0.957 
0.176943 0.440894 1.022 
0.234028 0.459444 1.065 
0.305775 0.49525 1.148 
0.375245 0.517252 1.199 
0.457739 0.549176 1.273 
3.19387 3.24329 7.518 
3.00166 2.74674 6.367 
3.86698 3.18203 7.376 
9.14623 6.80063 15.764 
3.49982 2.36193 5.475 
4.06227 2.5552 5.923 
9.23405 5.30367 12.294 
10.1916 5.5116 12.776 
10.0342 5.0802 11.776 
8.01257 3.83301 8.885 
14.0451 6.38864 14.809 
-0.408302 0.233364 0.539 
-0.387729 0.237693 0.549 
-0.372035 0.244187 0.564 
-0.351264 0.248084 0.573 
-0.337017 0.257609 0.595 
-0.318121 0.264969 0.612 
-0.289122 0.264536 0.611 
-0.268322 0.27233 0.629 
-0.245084 0.279257 0.645 
-0.222021 0.288349 0.666 
-0.196567 0.300039 0.693 
-0.168533 0.307832 0.711 
-0.139963 0.318223 0.735 
-0.0989326 0.329913 0.762 
-0.0662451 0.344633 0.796 
-0.00727131 0.364116 0.841 
0.0503249 0.384898 0.889 
0.0958902 0.402216 0.929 
0.1562 0.433389 1.001 
0.208936 0.446378 1.031 
0.280672 0.487509 1.126 
0.346469 0.506992 1.171 
0.427079 0.539897 1.247 
2.98506 3.16967 7.321 
3.00052 2.85924 6.604 
3.57913 3.05537 7.057 
4.21209 3.29307 7.606 
3.33258 2.32498 5.37 
3.71566 2.41113 5.569 
4.02091 2.43884 5.633 
9.4398 5.25652 12.141 
10.0057 5.25652 12.141 
8.36196 4.04944 9.353 
12.1767 5.60462 12.945 
-0.412811 0.232028 0.534 
-0.390429 0.238112 0.548 
-0.373543 0.24376 0.561 
-0.353587 0.248105 0.571 
-0.338997 0.25723 0.592 
-0.320346 0.264617 0.609 
-0.293399 0.26592 0.612 
-0.271365 0.272438 0.627 
-0.247934 0.278955 0.642 
-0.224462 0.287211 0.661 
-0.200584 0.300681 0.692 
-0.172222 0.307633 0.708 
-0.143941 0.318061 0.732 
-0.112823 0.326752 0.752 
-0.0808747 0.339787 0.782 
-0.0227054 0.361512 0.832 
0.016654 0.374548 0.862 
0.0686303 0.396273 0.912 
0.114795 0.409309 0.942 
0.186653 0.444504 1.023 
0.251057 0.476223 1.096 
0.318407 0.501859 1.155 
0.391257 0.527495 1.214 
0.469606 0.553131 1.273 
3.3757 3.45262 7.946 
3.05163 2.81258 6.473 
3.76467 3.15758 7.267 
8.92735 6.79487 15.638 
3.42989 2.36591 5.445 
3.93602 2.52798 5.818 
4.08572 2.45498 5.65 
10.0725 5.5513 12.776 
9.00435 4.54193 10.453 
8.06779 3.86062 8.885 
12.0389 5.47961 12.611 
-0.406709 0.234602 0.538 
-0.386877 0.239399 0.549 
-0.371159 0.24594 0.564 
-0.350374 0.249865 0.573 
-0.33332 0.259458 0.595 
-0.314831 0.267307 0.613 
-0.285325 0.266435 0.611 
-0.264413 0.274284 0.629 
-0.241449 0.281697 0.646 
-0.218863 0.291727 0.669 
-0.190908 0.301756 0.692 
-0.16278 0.309605 0.71 
-0.134801 0.321815 0.738 
-0.10326 0.330972 0.759 
-0.0708343 0.345363 0.792 
-0.0149674 0.363241 0.833 
0.0249474 0.379812 0.871 
0.068555 0.397254 0.911 
0.114307 0.409028 0.938 
0.181 0.447838 1.027 
0.238451 0.466588 1.07 
0.316064 0.502782 1.153 
0.388408 0.528073 1.211 
0.466527 0.553801 1.27 
3.43319 3.53691 8.111 
3.08203 2.84139 6.516 
3.80402 3.19242 7.321 
8.92735 6.81917 15.638 
3.42044 2.36783 5.43 
3.92385 2.52917 5.8 
4.08572 2.46376 5.65 
10.1856 5.64485 12.945 
8.66595 4.3711 10.024 
8.09539 3.87443 8.885 
-0.4254 0.231062 0.528 
-0.408381 0.235438 0.538 
-0.387729 0.240252 0.549 
-0.372035 0.246816 0.564 
-0.351264 0.250755 0.573 
-0.334605 0.259945 0.594 
-0.316219 0.267822 0.612 
-0.286754 0.266947 0.61 
-0.265521 0.274386 0.627 
-0.242703 0.281826 0.644 
-0.219621 0.291016 0.665 
-0.191706 0.302394 0.691 
-0.163653 0.310271 0.709 
-0.13558 0.322086 0.736 
-0.104302 0.331714 0.758 
-0.0719738 0.346155 0.791 
-0.0213355 0.362785 0.829 
0.0193549 0.377664 0.863 
0.0624792 0.396044 0.905 
0.107437 0.406547 0.929 
0.181176 0.449871 1.028 
0.238229 0.467813 1.069 
0.319369 0.504135 1.152 
0.39379 0.532143 1.216 
0.469361 0.554461 1.267 
3.61063 3.71931 8.499 
3.16666 2.93948 6.717 
3.79265 3.2038 7.321 
8.763 6.73581 15.392 
3.38373 2.35657 5.385 
3.86894 2.50842 5.732 
4.08771 2.43709 5.569 
10.6598 5.85926 13.389 
8.55855 4.25583 9.725 
8.58465 4.05409 9.264 
-0.417092 0.2332 0.531 
-0.399731 0.237592 0.541 
-0.383514 0.243301 0.554 
-0.36544 0.248571 0.566 
-0.347445 0.254719 0.58 
-0.328115 0.263064 0.599 
-0.308214 0.27009 0.615 
-0.279094 0.269651 0.614 
-0.258227 0.277995 0.633 
-0.235226 0.2859 0.651 
-0.211492 0.295123 0.672 
-0.183065 0.306981 0.699 
-0.154359 0.314886 0.717 
-0.124988 0.325426 0.741 
-0.0941117 0.338601 0.771 
-0.0601369 0.350019 0.797 
-0.0123493 0.364951 0.831 
0.0276539 0.382518 0.871 
0.0716209 0.401402 0.914 
0.120393 0.412821 0.94 
0.19498 0.45015 1.025 
0.270776 0.486162 1.107 
0.338099 0.509878 1.161 
0.415186 0.539741 1.229 
2.97128 3.34034 7.606 
3.71323 3.71627 8.462 
3.79552 3.43388 7.819 
3.86629 3.19146 7.267 
9.44839 7.09481 16.155 
3.48671 2.37811 5.415 
4.08237 2.49537 5.682 
10.0188 5.64774 12.86 
8.60947 4.35789 9.923 
8.123 3.90204 8.885 
8.07885 3.62228 8.248 
-0.411982 0.235347 0.534 
-0.395066 0.240195 0.545 
-0.377124 0.245043 0.556 
-0.35942 0.250772 0.569 
-0.342845 0.258265 0.586 
-0.321062 0.266639 0.605 
-0.295283 0.268842 0.61 
-0.271663 0.27369 0.621 
-0.248581 0.280301 0.636 
-0.225822 0.289115 0.656 
-0.197 0.302778 0.687 
-0.169061 0.31027 0.704 
-0.140892 0.320848 0.728 
-0.111074 0.333188 0.756 
-0.078545 0.345088 0.783 
-0.0351181 0.361394 0.82 
0.00320075 0.372853 0.846 
0.0443968 0.388279 0.881 
0.0888556 0.403704 0.916 
0.136864 0.420011 0.953 
0.20194 0.453065 1.028 
0.270531 0.487442 1.106 
0.33839 0.512122 1.162 
0.41451 0.540769 1.227 
2.95995 3.32615 7.547 
3.75588 3.74572 8.499 
4.23641 3.76203 8.536 
4.13662 3.33893 7.576 
3.22079 2.32218 5.269 
3.50388 2.3473 5.326 
4.07282 2.44029 5.537 
10.8402 6.02427 13.669 
8.57366 4.28605 9.725 
8.47837 4.02558 9.134 
7.75835 3.502 7.946 
-0.412038 0.235734 0.533 
-0.395186 0.240599 0.544 
-0.377988 0.245907 0.556 
-0.355624 0.252099 0.57 
-0.340025 0.260502 0.589 
-0.316219 0.270674 0.612 
-0.286284 0.269348 0.609 
-0.264674 0.276424 0.625 
-0.242326 0.284385 0.643 
-0.2183 0.292346 0.661 
-0.19408 0.304288 0.688 
-0.166251 0.312249 0.706 
-0.137877 0.322863 0.73 
-0.107835 0.335247 0.758 
-0.0749911 0.346746 0.784 
-0.0363033 0.361784 0.818 
0.00188411 0.373725 0.845 
0.0470809 0.389205 0.88 
0.0915018 0.404243 0.914 
0.139972 0.421934 0.954 
0.198359 0.453778 1.026 
0.264416 0.487391 1.102 
0.330968 0.510832 1.155 
0.407125 0.540464 1.222 
2.95927 3.37724 7.636 
4.10936 4.15653 9.398 
4.31598 3.77529 8.536 
4.1837 3.3507 7.576 
3.25305 2.32417 5.255 
3.57454 2.37504 5.37 
4.09945 2.47013 5.585 
11.0156 6.13131 13.863 
8.57645 4.27993 9.677 
8.44258 4.00262 9.05 
7.91136 3.57228 8.077 
-0.412038 0.236563 0.533 
-0.394459 0.241001 0.543 
-0.377988 0.246771 0.556 
-0.355624 0.252984 0.57 
-0.340025 0.261417 0.589 
-0.316652 0.271181 0.611 
-0.28723 0.270294 0.609 
-0.26522 0.276951 0.624 
-0.242946 0.28494 0.642 
-0.218663 0.292485 0.659 
-0.194582 0.304469 0.686 
-0.166874 0.312458 0.704 
-0.13863 0.32311 0.728 
-0.109012 0.336425 0.758 
-0.0760148 0.347077 0.782 
-0.0410834 0.360392 0.812 
-0.00335935 0.374151 0.843 
0.0429304 0.390128 0.879 
0.0871461 0.405219 0.913 
0.134673 0.420753 0.948 
0.1946 0.45404 1.023 
0.260282 0.487772 1.099 
0.326812 0.511738 1.153 
0.402338 0.541031 1.219 
0.474222 0.558785 1.259 
4.23993 4.38151 9.872 
4.97805 4.56614 10.288 
3.97369 3.28613 7.404 
9.57389 7.17011 16.155 
3.48885 2.37051 5.341 
4.07968 2.51475 5.666 
10.4101 5.94247 13.389 
8.95812 4.56614 10.288 
8.22583 3.97984 8.967 
7.27497 3.3496 7.547 
-0.417954 0.236054 0.53 
-0.399928 0.240063 0.539 
-0.382454 0.244962 0.55 
-0.362562 0.252534 0.567 
-0.344433 0.258769 0.581 
-0.31971 0.269904 0.606 
-0.291945 0.270349 0.607 
-0.269733 0.276585 0.621 
-0.246992 0.283711 0.637 
-0.223442 0.291728 0.655 
-0.199686 0.301972 0.678 
-0.171958 0.310879 0.698 
-0.144817 0.322905 0.725 
-0.11516 0.33493 0.752 
-0.0828785 0.34651 0.778 
-0.0479339 0.356309 0.8 
-0.0110848 0.371006 0.833 
0.0330669 0.387931 0.871 
0.0774703 0.407973 0.916 
0.12292 0.417327 0.937 
0.180995 0.453403 1.018 
0.239665 0.475672 1.068 
0.308958 0.50774 1.14 
0.385598 0.540698 1.214 
0.456388 0.558068 1.253 
3.6206 3.85214 8.649 
4.04188 3.86951 8.688 
3.96218 3.29764 7.404 
3.23672 2.3405 5.255 
3.5287 2.37212 5.326 
4.10609 2.52356 5.666 
10.5026 6.00425 13.481 
8.99009 4.58213 10.288 
8.2537 3.99377 8.967 
7.06509 3.24864 7.294 
-0.416267 0.237325 0.531 
-0.397209 0.241794 0.541 
-0.380932 0.247604 0.554 
-0.362562 0.253415 0.567 
-0.344433 0.259672 0.581 
-0.324934 0.268164 0.6 
-0.301918 0.272633 0.61 
-0.27483 0.273974 0.613 
-0.253891 0.282466 0.632 
-0.23118 0.290958 0.651 
-0.205465 0.297662 0.666 
-0.182279 0.31107 0.696 
-0.154575 0.320903 0.718 
-0.125157 0.331629 0.742 
-0.0938675 0.343697 0.769 
-0.059986 0.355317 0.795 
-0.0237962 0.368725 0.825 
0.0151193 0.380346 0.851 
0.0574885 0.399117 0.893 
0.102219 0.411631 0.921 
0.153027 0.433978 0.971 
0.209517 0.45856 1.026 
0.278157 0.495656 1.109 
0.35156 0.528283 1.182 
0.423856 0.550629 1.232 
3.00702 3.34713 7.489 
3.80526 3.782 8.462 
6.23745 5.56484 12.451 
10.3267 7.8706 17.61 
3.46471 2.39336 5.355 
4.00925 2.53236 5.666 
10.1534 5.9434 13.298 
9.71522 5.3597 11.992 
8.14731 4.0448 9.05 
8.18944 3.86558 8.649 
-0.421298 0.236804 0.528 
-0.40345 0.240841 0.537 
-0.383767 0.245326 0.547 
-0.368751 0.252502 0.563 
-0.34981 0.257884 0.575 
-0.331997 0.265059 0.591 
-0.314753 0.274029 0.611 
-0.284869 0.272684 0.608 
-0.262859 0.279411 0.623 
-0.241327 0.288381 0.643 
-0.217273 0.296454 0.661 
-0.193798 0.308115 0.687 
-0.166015 0.316188 0.705 
-0.13731 0.326055 0.727 
-0.107835 0.339958 0.758 
-0.0747041 0.350273 0.781 
-0.0396747 0.362831 0.809 
-0.0020496 0.37808 0.843 
0.0387008 0.39288 0.876 
0.082709 0.408577 0.911 
0.12943 0.422481 0.942 
0.186402 0.454324 1.013 
0.251607 0.489306 1.091 
0.316043 0.511282 1.14 
0.394114 0.545816 1.217 
0.465657 0.563756 1.257 
4.2246 4.42753 9.872 
5.31805 5.00967 11.17 
12.4604 10.6912 23.838 
3.32837 2.44205 5.445 
3.4848 2.37567 5.297 
4.04717 2.52636 5.633 
10.4398 6.04614 13.481 
10.3801 5.51378 12.294 
8.10045 4.02164 8.967 
8.18021 3.86197 8.611 
-0.419658 0.237625 0.528 
-0.400858 0.242125 0.538 
-0.382068 0.246176 0.547 
-0.367654 0.253826 0.564 
-0.347734 0.259227 0.576 
-0.330357 0.266878 0.593 
-0.312416 0.275429 0.612 
-0.282499 0.274079 0.609 
-0.260372 0.280829 0.624 
-0.2387 0.28983 0.644 
-0.21484 0.298381 0.663 
-0.191428 0.310532 0.69 
-0.163191 0.318183 0.707 
-0.134843 0.329434 0.732 
-0.104164 0.340685 0.757 
-0.0713369 0.352837 0.784 
-0.0359927 0.364988 0.811 
0.00188411 0.38029 0.845 
0.0429304 0.395591 0.879 
0.0866689 0.408643 0.908 
0.134673 0.426644 0.948 
0.191124 0.455897 1.013 
0.257162 0.491901 1.093 
0.322484 0.514854 1.144 
0.400444 0.548607 1.219 
0.472641 0.567059 1.26 
4.11875 4.20929 9.353 
6.84835 6.32901 14.063 
25.3864 20.4587 45.459 
3.27696 2.3587 5.241 
3.52124 2.3587 5.241 
4.13839 2.54276 5.65 
11.0292 6.28355 13.962 
10.2626 5.43027 12.066 
8.16137 4.07292 9.05 
8.16683 3.87535 8.611 
-0.415442 0.2398 0.531 
-0.397314 0.243864 0.54 
-0.379725 0.248832 0.551 
-0.363038 0.255154 0.565 
-0.343531 0.26238 0.581 
-0.325709 0.270057 0.598 
-0.304809 0.27638 0.612 
-0.276284 0.27638 0.612 
-0.25464 0.284057 0.629 
-0.232487 0.293089 0.649 
-0.207223 0.300314 0.665 
-0.183647 0.312959 0.693 
-0.156151 0.322894 0.715 
-0.127119 0.334184 0.74 
-0.0957564 0.345474 0.765 
-0.0621421 0.357216 0.791 
-0.0262 0.370312 0.82 
0.0124309 0.382957 0.848 
0.0544685 0.401473 0.889 
0.0987099 0.413214 0.915 
0.148774 0.434891 0.963 
0.206707 0.460633 1.02 
0.275686 0.49947 1.106 
0.347061 0.529727 1.173 
0.421599 0.55592 1.231 
3.83862 4.2035 9.308 
3.86367 3.78848 8.389 
9.59126 8.48828 18.796 
13.0708 10.1466 22.468 
3.41896 2.39213 5.297 
8.74719 5.69513 12.611 
3.9816 2.3989 5.312 
10.2634 5.73217 12.693 
10.855 5.73217 12.693 
8.1092 4.01247 8.885 
7.06194 3.24565 7.187 
-0.409493 0.241984 0.534 
-0.391805 0.246516 0.544 
-0.374533 0.251954 0.556 
-0.358022 0.258751 0.571 
-0.337382 0.265548 0.586 
-0.319182 0.274158 0.605 
-0.290502 0.273705 0.604 
-0.26843 0.280049 0.618 
-0.246217 0.287753 0.635 
-0.22276 0.29591 0.653 
-0.198508 0.305426 0.674 
-0.172547 0.315395 0.696 
-0.145944 0.328537 0.725 
-0.116328 0.340772 0.752 
-0.0834388 0.349835 0.772 
-0.0489309 0.360711 0.796 
-0.012379 0.377477 0.833 
0.0274634 0.391978 0.865 
0.0710724 0.411011 0.907 
0.115847 0.420074 0.927 
0.173307 0.453607 1.001 
0.228534 0.47128 1.04 
0.300182 0.510705 1.127 
0.381815 0.54741 1.208 
0.453353 0.566443 1.25 
4.19541 4.36342 9.629 
8.01578 7.50695 16.566 
17.1486 14.5213 32.045 
13.1057 10.1815 22.468 
3.44275 2.39401 5.283 
8.82556 5.71473 12.611 
10.4282 6.15157 13.575 
10.6185 5.90551 13.032 
11.3775 5.98526 13.208 
8.17947 4.08201 9.008 
7.16313 3.29307 7.267 
-0.406935 0.243269 0.535 
-0.389138 0.247816 0.545 
-0.372007 0.254636 0.56 
-0.351313 0.261912 0.576 
-0.331225 0.267368 0.588 
-0.314669 0.276917 0.609 
-0.283463 0.274189 0.603 
-0.26298 0.282374 0.621 
-0.240441 0.290104 0.638 
-0.216979 0.298743 0.657 
-0.194298 0.311475 0.685 
-0.167111 0.320569 0.705 
-0.13844 0.330573 0.727 
-0.108437 0.34285 0.754 
-0.0723699 0.355582 0.782 
-0.0369771 0.36604 0.805 
0.00057125 0.384228 0.845 
0.0429304 0.399688 0.879 
0.0863825 0.411511 0.905 
0.134673 0.431063 0.948 
0.193504 0.4588 1.009 
0.260559 0.496996 1.093 
0.324899 0.518367 1.14 
0.417095 0.558836 1.229 
4.65858 5.07909 11.17 
5.2787 5.10819 11.234 
10.9216 9.5575 21.019 
18.1941 14.5711 32.045 
3.31532 2.36403 5.199 
9.24591 6.12992 13.481 
4.13416 2.53954 5.585 
10.7014 6.08808 13.389 
11.0235 5.92575 13.032 
8.59375 4.37838 9.629 
8.08656 3.91549 8.611 
-0.410439 0.242731 0.532 
-0.392891 0.247294 0.542 
-0.374341 0.254138 0.557 
-0.357761 0.260982 0.572 
-0.33192 0.267369 0.586 
-0.316042 0.277407 0.608 
-0.28439 0.274213 0.601 
-0.264483 0.282882 0.62 
-0.241284 0.289726 0.635 
-0.217687 0.297939 0.653 
-0.194792 0.311627 0.683 
-0.167967 0.321208 0.704 
-0.139377 0.331246 0.726 
-0.109463 0.343565 0.753 
-0.0723699 0.356797 0.782 
-0.0368852 0.366378 0.803 
0.00057125 0.385541 0.845 
0.0414701 0.400141 0.877 
0.0848825 0.41246 0.904 
0.134673 0.432536 0.948 
0.193121 0.459455 1.007 
0.264438 0.499606 1.095 
0.329017 0.521051 1.142 
0.421941 0.562114 1.232 
4.77522 5.18541 11.365 
6.62563 6.37032 13.962 
11.2284 9.80095 21.481 
15.4565 12.387 27.149 
3.29746 2.35933 5.171 
9.31038 6.19375 13.575 
4.14284 2.54822 5.585 
10.7222 6.10889 13.389 
11.2691 6.06737 13.298 
8.56669 4.3719 9.582 
8.17237 3.964 8.688 
-0.413013 0.242642 0.53 
-0.395636 0.24722 0.54 
-0.377667 0.253172 0.553 
-0.361436 0.260039 0.568 
-0.335898 0.267822 0.585 
-0.318655 0.27652 0.604 
-0.289059 0.275147 0.601 
-0.26843 0.28293 0.618 
-0.245441 0.289797 0.633 
-0.222077 0.298038 0.651 
-0.197919 0.307652 0.672 
-0.172299 0.318182 0.695 
-0.145541 0.331 0.723 
-0.116019 0.343361 0.75 
-0.0776422 0.354349 0.774 
-0.0428547 0.365337 0.798 
-0.00596466 0.385023 0.841 
0.0343411 0.397841 0.869 
0.0777738 0.413407 0.903 
0.123314 0.42531 0.929 
0.18036 0.456442 0.997 
0.245559 0.490778 1.072 
0.310688 0.515958 1.127 
0.389323 0.553041 1.208 
0.46186 0.573185 1.252 
3.94583 4.03106 8.805 
10.9685 10.055 21.963 
15.2909 12.7845 27.925 
3.36138 2.48594 5.43 
3.43342 2.36141 5.158 
4.01557 2.54225 5.553 
10.899 6.39202 13.962 
12.0677 6.67861 14.588 
10.8802 5.70026 12.451 
8.17822 4.06769 8.885 
7.31958 3.41576 7.461 
-0.407898 0.244844 0.533 
-0.390241 0.249437 0.543 
-0.374341 0.255868 0.557 
-0.357135 0.2623 0.571 
-0.329398 0.270109 0.588 
-0.312777 0.279756 0.609 
-0.281122 0.27654 0.602 
-0.26105 0.285268 0.621 
-0.238085 0.292618 0.637 
-0.21461 0.301346 0.656 
-0.191889 0.314208 0.684 
-0.165388 0.324774 0.707 
-0.136743 0.335339 0.73 
-0.105672 0.344986 0.751 
-0.0700293 0.359686 0.783 
-0.0344757 0.369792 0.805 
0.00319696 0.388167 0.845 
0.0443968 0.404704 0.881 
0.0875946 0.41481 0.903 
0.136434 0.436401 0.95 
0.190605 0.460288 1.002 
0.260082 0.501172 1.091 
0.323759 0.521843 1.136 
0.405558 0.561808 1.223 
0.474665 0.576508 1.255 
4.22349 4.25559 9.264 
10.6276 9.65548 21.019 
13.5179 10.8186 23.551 
3.37284 2.39469 5.213 
9.35063 6.19275 13.481 
4.16224 2.55088 5.553 
11.4926 6.55428 14.268 
12.0699 6.50696 14.165 
8.36511 4.27581 9.308 
8.36128 4.06312 8.845 
-0.414769 0.242906 0.527 
-0.39909 0.248437 0.539 
-0.37813 0.251203 0.545 
-0.364378 0.259499 0.563 
-0.343531 0.267796 0.581 
-0.321205 0.276554 0.6 
-0.296172 0.279319 0.606 
-0.271905 0.283467 0.615 
-0.248381 0.289459 0.628 
-0.226437 0.299139 0.649 
-0.200721 0.306053 0.664 
-0.175908 0.317115 0.688 
-0.150322 0.331403 0.719 
-0.12087 0.342926 0.744 
-0.0889726 0.353989 0.768 
-0.0546991 0.364129 0.79 
-0.0186916 0.380722 0.826 
0.0204559 0.393167 0.853 
0.0629676 0.411143 0.892 
0.106654 0.41944 0.91 
0.158898 0.447095 0.97 
0.214 0.468758 1.017 
0.288582 0.51439 1.116 
0.357385 0.53974 1.171 
0.434833 0.5697 1.236 
5.05136 5.46055 11.847 
10.4907 10.1232 21.963 
10.047 8.83312 19.164 
3.38073 2.52355 5.475 
3.40748 2.36499 5.131 
4.01547 2.58163 5.601 
11.1082 6.62484 14.373 
12.0437 6.77418 14.697 
11.5959 6.17129 13.389 
8.22146 4.15199 9.008 
8.04752 3.86668 8.389 
-0.413095 0.244187 0.528 
-0.396578 0.249275 0.539 
-0.377658 0.253437 0.548 
-0.362396 0.260837 0.564 
-0.340823 0.268699 0.581 
-0.319341 0.277486 0.6 
-0.292346 0.278411 0.602 
-0.270433 0.284885 0.616 
-0.246822 0.290898 0.629 
-0.22442 0.300147 0.649 
-0.199256 0.308009 0.666 
-0.174276 0.319109 0.69 
-0.135609 0.337608 0.73 
-0.104505 0.34732 0.751 
-0.0721848 0.360731 0.78 
-0.0369311 0.371831 0.804 
0.000570574 0.39033 0.844 
0.0414701 0.405592 0.877 
0.0847887 0.417616 0.903 
0.132639 0.436578 0.944 
0.186556 0.461089 0.997 
0.256221 0.503637 1.089 
0.318819 0.523061 1.131 
0.399458 0.562371 1.216 
0.46889 0.578095 1.25 
4.51573 4.61228 9.973 
10.7277 9.93445 21.481 
10.2629 8.6927 18.796 
3.3521 2.50431 5.415 
3.39748 2.36048 5.104 
3.99316 2.55379 5.522 
10.956 6.5038 14.063 
12.3208 6.90107 14.922 
10.9298 5.79483 12.53 
8.23977 4.14702 8.967 
7.99731 3.83069 8.283 
-0.41059 0.245472 0.529 
-0.391441 0.250576 0.54 
-0.376446 0.257537 0.555 
-0.358157 0.263105 0.567 
-0.340505 0.270065 0.582 
-0.321993 0.27749 0.598 
-0.298055 0.281202 0.606 
-0.273371 0.284914 0.614 
-0.249535 0.290483 0.626 
-0.22775 0.300227 0.647 
-0.202479 0.307652 0.663 
-0.177529 0.318325 0.686 
-0.140118 0.335958 0.724 
-0.110339 0.348487 0.751 
-0.0775419 0.358695 0.773 
-0.0428547 0.370296 0.798 
-0.00596466 0.390249 0.841 
0.0343016 0.402778 0.868 
0.0776877 0.418555 0.902 
0.123049 0.430156 0.927 
0.177376 0.458926 0.989 
0.247455 0.497904 1.073 
0.311607 0.52157 1.124 
0.389904 0.558692 1.204 
0.462323 0.579109 1.248 
4.71684 4.8505 10.453 
10.5779 9.85925 21.247 
9.25478 7.88758 16.998 
3.31459 2.47838 5.341 
3.39606 2.36191 5.09 
3.98158 2.55495 5.506 
10.899 6.47879 13.962 
12.2505 6.87182 14.809 
10.6757 5.66905 12.217 
8.2537 4.16096 8.967 
8.04403 3.8598 8.318 
-0.408896 0.246759 0.53 
-0.389523 0.252346 0.542 
-0.373669 0.258865 0.556 
-0.355884 0.264917 0.569 
-0.338046 0.271901 0.584 
-0.318809 0.278885 0.599 
-0.291375 0.27935 0.6 
-0.270433 0.2868 0.616 
-0.24643 0.292387 0.628 
-0.224074 0.301698 0.648 
-0.199555 0.310544 0.667 
-0.174276 0.321253 0.69 
-0.136743 0.339876 0.73 
-0.105672 0.349653 0.751 
-0.0731143 0.361758 0.777 
-0.0381803 0.374329 0.804 
-0.000739852 0.392487 0.843 
0.0399703 0.40692 0.874 
0.0832933 0.419956 0.902 
0.130894 0.43858 0.942 
0.18445 0.46279 0.994 
0.272234 0.511676 1.099 
0.337292 0.533559 1.146 
0.420368 0.574065 1.233 
5.51219 6.10799 13.119 
8.12856 8.05413 17.299 
9.26233 8.34931 17.933 
8.87682 7.33946 15.764 
3.21349 2.35772 5.064 
10.0571 6.84268 14.697 
4.13416 2.60028 5.585 
12.3702 7.05499 15.153 
11.0977 5.98741 12.86 
8.26987 4.23309 9.092 
8.16201 3.97422 8.536 
-0.410634 0.246648 0.528 
-0.391554 0.251787 0.539 
-0.377308 0.259261 0.555 
-0.357772 0.263933 0.565 
-0.340823 0.271407 0.581 
-0.322382 0.278881 0.597 
-0.298503 0.282618 0.605 
-0.273371 0.286822 0.614 
-0.249535 0.292428 0.626 
-0.227398 0.301771 0.646 
-0.202479 0.309712 0.663 
-0.177787 0.320923 0.687 
-0.147469 0.33447 0.716 
-0.117443 0.34428 0.737 
-0.0863606 0.357827 0.766 
-0.0523105 0.369506 0.791 
-0.0161445 0.386323 0.827 
0.0229711 0.396132 0.848 
0.0656657 0.416219 0.891 
0.10912 0.423694 0.907 
0.162246 0.454057 0.972 
0.244643 0.498903 1.068 
0.315941 0.526464 1.127 
0.395934 0.565703 1.211 
0.465454 0.582053 1.246 
5.88156 6.04709 12.945 
10.4175 9.71412 20.795 
8.846 7.5466 16.155 
3.27809 2.46135 5.269 
3.37789 2.35951 5.051 
3.96767 2.55758 5.475 
12.9303 7.48447 16.022 
11.8341 6.47592 13.863 
8.18512 4.24721 9.092 
8.37502 4.13183 8.845 
-0.414011 0.246063 0.525 
-0.39835 0.252156 0.538 
-0.379518 0.256374 0.547 
-0.361789 0.261998 0.559 
-0.34445 0.269497 0.575 
-0.32704 0.277465 0.592 
-0.308552 0.285901 0.61 
-0.279172 0.285901 0.61 
-0.256083 0.291994 0.623 
-0.234334 0.301368 0.643 
-0.209448 0.308867 0.659 
-0.18497 0.319647 0.682 
-0.158368 0.332771 0.71 
-0.129156 0.343082 0.732 
-0.0980238 0.353862 0.755 
-0.0649968 0.366048 0.781 
-0.0297291 0.380577 0.812 
0.0083784 0.392763 0.838 
0.0524901 0.411979 0.879 
0.0959061 0.422759 0.902 
0.146513 0.449006 0.958 
0.201704 0.470097 1.003 
0.292994 0.521653 1.113 
0.362224 0.5479 1.169 
0.44309 0.582583 1.243 
5.5251 5.79865 12.372 
10.3664 9.85142 21.019 
8.50944 7.38844 15.764 
3.30162 2.53796 5.415 
3.35843 2.39829 5.117 
4.02966 2.64014 5.633 
11.6555 6.88835 14.697 
11.8101 6.54386 13.962 
8.0815 4.22197 9.008 
8.38529 4.16432 8.885 
-0.416479 0.246408 0.524 
-0.401033 0.252051 0.536 
-0.379824 0.256283 0.545 
-0.362225 0.261926 0.557 
-0.34445 0.270391 0.575 
-0.326488 0.277915 0.591 
-0.308046 0.286379 0.609 
-0.279172 0.286849 0.61 
-0.255672 0.292492 0.622 
-0.233969 0.301897 0.642 
-0.209448 0.309891 0.659 
-0.18497 0.320707 0.682 
-0.157486 0.334344 0.711 
-0.127669 0.343279 0.73 
-0.0968507 0.355035 0.755 
-0.063865 0.367731 0.782 
-0.0285026 0.382309 0.813 
0.00965728 0.393125 0.836 
0.0552215 0.413345 0.879 
0.0988184 0.424631 0.903 
0.149802 0.451435 0.96 
0.205637 0.473536 1.007 
0.29845 0.523853 1.114 
0.370818 0.554418 1.179 
0.448161 0.583574 1.241 
5.78099 6.08732 12.945 
10.0424 9.57512 20.362 
8.44142 7.35369 15.638 
3.26504 2.51816 5.355 
3.34071 2.39355 5.09 
4.04182 2.65688 5.65 
12.7221 7.41294 15.764 
11.5882 6.38357 13.575 
7.99876 4.17812 8.885 
8.33715 4.1405 8.805 
-0.414826 0.247694 0.525 
-0.395007 0.253828 0.538 
-0.378181 0.259489 0.55 
-0.35738 0.265622 0.563 
-0.341137 0.273643 0.58 
-0.321685 0.280248 0.594 
-0.298948 0.284966 0.604 
-0.27483 0.289212 0.613 
-0.251079 0.294874 0.625 
-0.22905 0.30431 0.645 
-0.203509 0.312802 0.663 
-0.179115 0.324597 0.688 
-0.150386 0.336864 0.714 
-0.119402 0.343469 0.728 
-0.0891092 0.358095 0.759 
-0.055785 0.371777 0.788 
-0.0198057 0.386403 0.819 
0.0187045 0.39348 0.834 
0.0655183 0.419429 0.889 
0.10912 0.427921 0.907 
0.161745 0.457173 0.969 
0.240709 0.499163 1.058 
0.30647 0.527471 1.118 
0.382635 0.562855 1.193 
0.456241 0.585974 1.242 
6.46049 6.73162 14.268 
10.2758 9.70772 20.576 
8.6074 7.43743 15.764 
3.27183 2.50619 5.312 
3.33789 2.37692 5.038 
3.97074 2.59064 5.491 
11.6256 6.73162 14.268 
10.7935 5.91163 12.53 
8.20583 4.19193 8.885 
8.42884 4.09898 8.688 
-0.407132 0.251823 0.532 
-0.38447 0.256557 0.542 
-0.36716 0.262237 0.554 
-0.349151 0.270284 0.571 
-0.330444 0.276911 0.585 
-0.311988 0.284958 0.602 
-0.282513 0.283538 0.599 
-0.262244 0.292058 0.617 
-0.239919 0.300105 0.634 
-0.215677 0.307679 0.65 
-0.191462 0.319513 0.675 
-0.16474 0.32898 0.695 
-0.136181 0.344127 0.727 
-0.105391 0.354541 0.749 
-0.0727379 0.365901 0.773 
-0.0383703 0.382468 0.808 
-0.000734586 0.396196 0.837 
0.0456098 0.415603 0.878 
0.0883077 0.424123 0.896 
0.13791 0.449684 0.95 
0.191011 0.471459 0.996 
0.266342 0.512167 1.082 
0.33434 0.540568 1.142 
0.416416 0.580803 1.227 
5.53638 6.16872 13.032 
7.87635 7.90829 16.707 
8.58202 7.84155 16.566 
8.42587 7.06336 14.922 
3.19699 2.38475 5.038 
10.211 7.06336 14.922 
4.07311 2.59918 5.491 
10.7487 6.12754 12.945 
8.06779 4.20573 8.885 
8.29386 4.11248 8.688 
-0.412313 0.250275 0.527 
-0.391554 0.255974 0.539 
-0.374589 0.261673 0.551 
-0.356262 0.267847 0.564 
-0.339335 0.275445 0.58 
-0.319839 0.282094 0.594 
-0.295595 0.285418 0.601 
-0.272925 0.291117 0.613 
-0.249535 0.297291 0.626 
-0.226694 0.305839 0.644 
-0.202784 0.315337 0.664 
-0.178564 0.327685 0.69 
-0.151283 0.338608 0.713 
-0.120202 0.344782 0.726 
-0.0899315 0.359029 0.756 
-0.0568646 0.373276 0.786 
-0.0209752 0.387048 0.815 
0.0173462 0.394647 0.831 
0.0638485 0.420292 0.885 
0.107711 0.430739 0.907 
0.159413 0.457809 0.964 
0.214096 0.479655 1.01 
0.287975 0.525721 1.107 
0.357057 0.55279 1.164 
0.436754 0.586983 1.236 
5.91564 6.4022 13.481 
8.25122 8.07245 16.998 
8.0619 7.19625 15.153 
6.9391 5.69507 11.992 
3.29157 2.39875 5.051 
9.65525 6.53755 13.766 
12.5751 7.48641 15.764 
10.3151 5.80192 12.217 
8.25134 4.20054 8.845 
-0.418133 0.248712 0.522 
-0.401196 0.254429 0.534 
-0.382648 0.258717 0.543 
-0.364578 0.263958 0.554 
-0.348539 0.271582 0.57 
-0.330444 0.278729 0.585 
-0.311469 0.286352 0.601 
-0.282513 0.285399 0.599 
-0.261819 0.293499 0.616 
-0.239541 0.301599 0.633 
-0.215345 0.309222 0.649 
-0.19194 0.320657 0.673 
-0.165582 0.330663 0.694 
-0.138225 0.343051 0.72 
-0.108155 0.354486 0.744 
-0.0760446 0.366874 0.77 
-0.0418756 0.382597 0.803 
-0.00461371 0.396891 0.833 
0.0413755 0.416902 0.875 
0.0840375 0.426431 0.895 
0.132358 0.448825 0.942 
0.185995 0.473601 0.994 
0.259378 0.515053 1.081 
0.322945 0.53697 1.127 
0.404793 0.578898 1.215 
0.473957 0.594621 1.248 
7.61627 7.82632 16.426 
8.90595 8.31565 17.453 
8.77885 7.51091 15.764 
3.19699 2.4004 5.038 
3.40525 2.38182 4.999 
4.00561 2.57288 5.4 
10.2805 5.9324 12.451 
8.10018 4.21428 8.845 
8.47395 4.19522 8.805 
-0.408124 0.252869 0.529 
-0.390716 0.257649 0.539 
-0.373733 0.263385 0.551 
-0.35451 0.269599 0.564 
-0.336951 0.27677 0.579 
-0.318529 0.284418 0.595 
-0.292751 0.28633 0.599 
-0.270579 0.292544 0.612 
-0.247986 0.299714 0.627 
-0.225041 0.308318 0.645 
-0.200721 0.317401 0.664 
-0.17642 0.329829 0.69 
-0.148649 0.339867 0.711 
-0.118433 0.348471 0.729 
-0.0875824 0.361378 0.756 
-0.0544914 0.376196 0.787 
-0.0183975 0.388625 0.813 
0.0258477 0.409179 0.856 
0.0682807 0.424954 0.889 
0.112186 0.434514 0.909 
0.164246 0.461761 0.966 
0.218803 0.482793 1.01 
0.298182 0.532028 1.113 
0.371132 0.564055 1.18 
0.444911 0.588912 1.232 
6.37182 6.82029 14.268 
8.76401 8.49429 17.77 
8.37449 7.41589 15.514 
3.19776 2.42066 5.064 
3.40735 2.40202 5.025 
3.93417 2.5459 5.326 
10.1768 5.91398 12.372 
8.04521 4.22802 8.845 
8.23373 4.11617 8.611 
-0.411412 0.253691 0.529 
-0.393335 0.258007 0.538 
-0.375788 0.263282 0.549 
-0.358491 0.269516 0.562 
-0.339983 0.275751 0.575 
-0.320602 0.283903 0.592 
-0.298948 0.289658 0.604 
-0.274382 0.293495 0.612 
-0.250677 0.29925 0.624 
-0.22834 0.308361 0.643 
-0.201145 0.317473 0.662 
-0.175348 0.330901 0.69 
-0.147337 0.340492 0.71 
-0.117462 0.350084 0.73 
-0.0866364 0.363512 0.758 
-0.0532687 0.377419 0.787 
-0.0171133 0.389408 0.812 
0.0272729 0.411948 0.859 
0.0696619 0.426335 0.889 
0.113723 0.436406 0.91 
0.165747 0.463261 0.966 
0.220591 0.484842 1.011 
0.297646 0.532799 1.111 
0.371132 0.565889 1.18 
0.444189 0.589867 1.23 
6.37405 6.89281 14.373 
8.33045 8.15168 16.998 
8.32628 7.44 15.514 
3.19655 2.40982 5.025 
9.55411 6.69571 13.962 
3.94033 2.54746 5.312 
10.0554 5.89579 12.294 
7.96778 4.22258 8.805 
8.05181 4.05809 8.462 
-0.411454 0.254032 0.528 
-0.392391 0.259324 0.539 
-0.374082 0.264135 0.549 
-0.35738 0.270871 0.563 
-0.337889 0.277125 0.576 
-0.318916 0.285786 0.594 
-0.294662 0.289153 0.601 
-0.270136 0.293965 0.611 
-0.247986 0.301663 0.627 
-0.224692 0.309842 0.644 
-0.197924 0.319945 0.665 
-0.170234 0.332454 0.691 
-0.142221 0.342558 0.712 
-0.113016 0.355067 0.738 
-0.080515 0.369019 0.767 
-0.0463408 0.38201 0.794 
-0.00960251 0.393075 0.817 
0.0343016 0.417612 0.868 
0.0768264 0.429159 0.892 
0.12422 0.445036 0.925 
0.177646 0.47246 0.982 
0.233656 0.494111 1.027 
0.312238 0.538855 1.12 
0.388196 0.573977 1.193 
0.461286 0.596589 1.24 
6.91465 7.34719 15.271 
8.79454 8.47253 17.61 
8.53861 7.52376 15.638 
3.25179 2.42388 5.038 
9.68426 6.7174 13.962 
4.04468 2.59083 5.385 
9.84126 5.73447 11.919 
7.92674 4.23627 8.805 
8.04741 4.08904 8.499 
-0.412348 0.253887 0.526 
-0.394171 0.259679 0.538 
-0.375955 0.264505 0.548 
-0.359365 0.271263 0.562 
-0.340283 0.277055 0.574 
-0.321522 0.285743 0.592 
-0.300383 0.292018 0.605 
-0.274382 0.295397 0.612 
-0.250677 0.301189 0.624 
-0.227984 0.309877 0.642 
-0.203305 0.318082 0.659 
-0.17377 0.33208 0.688 
-0.146028 0.342216 0.709 
-0.116646 0.353317 0.732 
-0.0856842 0.366832 0.76 
-0.0519137 0.378899 0.785 
-0.0158126 0.390966 0.81 
0.0272094 0.413652 0.857 
0.0697403 0.42958 0.89 
0.113473 0.438268 0.908 
0.166555 0.464332 0.962 
0.221722 0.487018 1.009 
0.299103 0.535768 1.11 
0.373281 0.570038 1.181 
0.445737 0.593206 1.229 
6.64933 7.31396 15.153 
7.71434 7.67066 15.892 
8.88868 8.06404 16.707 
3.18094 2.42544 5.025 
3.45933 2.45681 5.09 
3.87138 2.52969 5.241 
10.2167 6.087 12.611 
10.1257 5.68397 11.776 
8.14126 4.2123 8.727 
-0.414871 0.253251 0.523 
-0.395204 0.259546 0.536 
-0.377128 0.264388 0.546 
-0.36134 0.271652 0.561 
-0.342361 0.277462 0.573 
-0.324468 0.28521 0.589 
-0.305587 0.293442 0.606 
-0.278714 0.294895 0.609 
-0.254439 0.299737 0.619 
-0.231783 0.307969 0.636 
-0.208177 0.317169 0.655 
-0.181716 0.324433 0.67 
-0.155062 0.341381 0.705 
-0.125322 0.350097 0.723 
-0.0946639 0.361718 0.747 
-0.0621694 0.375761 0.776 
-0.0269714 0.389803 0.805 
0.0107989 0.399004 0.824 
0.0571022 0.42951 0.887 
0.10011 0.436773 0.902 
0.152509 0.459532 0.949 
0.208352 0.486649 1.005 
0.280516 0.531682 1.098 
0.344684 0.552504 1.141 
0.425065 0.590274 1.219 
5.90978 6.76079 13.962 
7.40729 7.63337 15.764 
9.70807 9.10155 18.796 
3.20032 2.49087 5.144 
3.40397 2.46472 5.09 
3.85316 2.55818 5.283 
10.4768 6.31046 13.032 
10.1257 5.70227 11.776 
8.09138 4.20697 8.688 
-0.412433 0.254064 0.523 
-0.392604 0.260865 0.537 
-0.374419 0.265722 0.547 
-0.358491 0.273009 0.562 
-0.339392 0.278839 0.574 
-0.322441 0.287583 0.592 
-0.301323 0.293898 0.605 
-0.275381 0.296327 0.61 
-0.251806 0.302156 0.622 
-0.229263 0.3109 0.64 
-0.20473 0.319158 0.657 
-0.179142 0.328388 0.676 
-0.151991 0.342962 0.706 
-0.122289 0.352192 0.725 
-0.0915483 0.364336 0.75 
-0.0586278 0.377452 0.777 
-0.0232481 0.39154 0.806 
0.0146929 0.401741 0.827 
0.0586122 0.43186 0.889 
0.101624 0.438661 0.903 
0.157097 0.461492 0.95 
0.21346 0.489182 1.007 
0.284186 0.533874 1.099 
0.350976 0.558649 1.15 
0.43406 0.594111 1.223 
6.24372 7.13953 14.697 
7.31392 7.53641 15.514 
10.2289 9.59175 19.745 
3.19223 2.49254 5.131 
3.42203 2.48574 5.117 
3.84907 2.55278 5.255 
10.0484 6.04846 12.451 
9.27058 5.27559 10.86 
8.15148 4.37592 9.008 
7.88149 4.02373 8.283 
-0.40161 0.257313 0.528 
-0.385568 0.263161 0.54 
-0.369742 0.269984 0.554 
-0.350128 0.274857 0.564 
-0.333027 0.282654 0.58 
-0.314962 0.290939 0.597 
-0.286654 0.290452 0.596 
-0.26539 0.297762 0.611 
-0.243115 0.305559 0.627 
-0.220031 0.314331 0.645 
-0.195268 0.323103 0.663 
-0.16916 0.336749 0.691 
-0.14052 0.345521 0.709 
-0.111263 0.357704 0.734 
-0.0803051 0.372811 0.765 
-0.0459906 0.38402 0.788 
-0.00952024 0.394741 0.81 
0.0299072 0.418134 0.858 
0.0728317 0.435678 0.894 
0.116422 0.442988 0.909 
0.172713 0.469304 0.963 
0.228219 0.492208 1.01 
0.302825 0.541429 1.111 
0.376951 0.575543 1.181 
0.451833 0.599422 1.23 
6.95598 7.80808 16.022 
7.45854 7.56052 15.514 
11.0848 10.2433 21.019 
3.16463 2.43034 4.987 
8.83998 6.26713 12.86 
3.97335 2.58872 5.312 
9.55254 5.67014 11.635 
11.2314 6.30855 12.945 
8.16049 4.34995 8.926 
7.76077 3.93621 8.077 
-0.39997 0.258133 0.528 
-0.385312 0.264978 0.542 
-0.368685 0.271333 0.555 
-0.348993 0.276222 0.565 
-0.331225 0.283556 0.58 
-0.314156 0.292844 0.599 
-0.284325 0.290889 0.595 
-0.263923 0.2992 0.612 
-0.241167 0.306533 0.627 
-0.218364 0.315822 0.646 
-0.193208 0.324133 0.663 
-0.16833 0.338311 0.692 
-0.139418 0.346622 0.709 
-0.109972 0.358355 0.733 
-0.0791165 0.374 0.765 
-0.0447663 0.385244 0.788 
-0.00827196 0.396489 0.811 
0.0313131 0.420444 0.86 
0.0743037 0.437555 0.895 
0.117964 0.444889 0.91 
0.17015 0.467867 0.957 
0.227993 0.493289 1.009 
0.305099 0.544133 1.113 
0.379107 0.577867 1.182 
0.454113 0.601822 1.231 
7.06392 7.898 16.155 
7.56675 7.64524 15.638 
11.7835 10.8597 22.213 
3.20331 2.44395 4.999 
9.43692 6.63667 13.575 
4.08404 2.64733 5.415 
9.15247 5.30933 10.86 
8.36511 4.55058 9.308 
8.06918 4.17315 8.536 
-0.405762 0.258463 0.527 
-0.389155 0.263858 0.538 
-0.370846 0.268762 0.548 
-0.354126 0.275629 0.562 
-0.336683 0.282985 0.577 
-0.318379 0.290832 0.593 
-0.292701 0.292794 0.597 
-0.269252 0.298679 0.609 
-0.246799 0.306036 0.624 
-0.223995 0.314864 0.642 
-0.199512 0.323692 0.66 
-0.171948 0.335953 0.685 
-0.143904 0.345271 0.704 
-0.115193 0.358023 0.73 
-0.0843922 0.372246 0.759 
-0.0503711 0.382545 0.78 
-0.0145541 0.397258 0.81 
0.024174 0.413933 0.844 
0.0672005 0.437965 0.893 
0.110286 0.44385 0.905 
0.159713 0.464939 0.948 
0.215298 0.490933 1.001 
0.287601 0.538996 1.099 
0.356708 0.567442 1.157 
0.435604 0.599321 1.222 
5.92846 6.99763 14.268 
7.34398 7.79411 15.892 
10.4676 10.0913 20.576 
3.15075 2.48998 5.077 
3.45011 2.53608 5.171 
3.87356 2.57728 5.255 
9.55254 5.7063 11.635 
9.65866 5.32621 10.86 
8.0598 4.2232 8.611 
-0.414078 0.256822 0.522 
-0.39031 0.263218 0.535 
-0.372886 0.26863 0.546 
-0.354999 0.276502 0.562 
-0.336995 0.28339 0.576 
-0.318379 0.291754 0.593 
-0.29221 0.29323 0.596 
-0.270198 0.299626 0.609 
-0.247372 0.306514 0.623 
-0.224642 0.31537 0.641 
-0.200537 0.324717 0.66 
-0.174919 0.334557 0.68 
-0.147858 0.345381 0.702 
-0.119074 0.357189 0.726 
-0.0884047 0.370473 0.753 
-0.0550062 0.382281 0.777 
-0.0195639 0.398025 0.809 
0.0186821 0.409833 0.833 
0.0615127 0.438369 0.891 
0.104662 0.445257 0.905 
0.153334 0.464936 0.945 
0.207824 0.489536 0.995 
0.281708 0.539228 1.096 
0.346153 0.560876 1.14 
0.427309 0.600235 1.22 
5.07004 6.16471 12.53 
7.67022 8.36295 16.998 
8.61235 8.51104 17.299 
9.76385 8.82297 17.933 
8.78004 6.32707 12.86 
3.94859 2.61348 5.312 
9.66456 5.75881 11.705 
8.79742 4.83288 9.823 
8.14912 4.25527 8.649 
-0.411645 0.257633 0.522 
-0.389374 0.264543 0.536 
-0.370846 0.270465 0.548 
-0.351257 0.277869 0.563 
-0.333675 0.285272 0.578 
-0.316286 0.294156 0.596 
-0.28657 0.292181 0.592 
-0.266851 0.301065 0.61 
-0.244282 0.308469 0.625 
-0.221346 0.317353 0.643 
-0.196733 0.326236 0.661 
-0.171446 0.337095 0.683 
-0.1437 0.346966 0.703 
-0.115193 0.360291 0.73 
-0.084281 0.374111 0.758 
-0.0503066 0.384475 0.779 
-0.0146081 0.401256 0.813 
0.0241167 0.415569 0.842 
0.0672757 0.441234 0.894 
0.110408 0.447156 0.906 
0.159544 0.467392 0.947 
0.214223 0.491576 0.996 
0.287078 0.541424 1.097 
0.356091 0.57005 1.155 
0.43335 0.602624 1.221 
5.51397 6.69994 13.575 
7.69663 8.38936 16.998 
8.87445 8.77038 17.77 
9.70271 8.77038 17.77 
9.43692 6.69994 13.575 
4.14989 2.71008 5.491 
8.49464 4.94734 10.024 
8.21337 4.48735 9.092 
8.07382 4.19468 8.499 
-0.404125 0.26092 0.527 
-0.384854 0.266861 0.539 
-0.36774 0.272802 0.551 
-0.348115 0.279733 0.565 
-0.330323 0.28716 0.58 
-0.313748 0.297062 0.6 
-0.282924 0.294091 0.594 
-0.262542 0.302508 0.611 
-0.240192 0.31043 0.627 
-0.217361 0.319837 0.646 
-0.191888 0.327759 0.662 
-0.16833 0.342612 0.692 
-0.138632 0.349048 0.705 
-0.109672 0.361921 0.731 
-0.0785994 0.376279 0.76 
-0.044539 0.388161 0.784 
-0.00830256 0.403014 0.814 
0.0313131 0.425789 0.86 
0.0744697 0.444108 0.897 
0.118094 0.451039 0.911 
0.167782 0.471338 0.952 
0.223075 0.495599 1.001 
0.301462 0.547584 1.106 
0.376951 0.584717 1.181 
0.450363 0.606997 1.226 
6.65263 7.86818 15.892 
7.45384 7.93255 16.022 
12.9935 12.5687 25.386 
3.15786 2.49433 5.038 
3.86337 2.62256 5.297 
9.35073 5.6927 11.498 
10.5625 5.97392 12.066 
8.19203 4.39899 8.885 
-0.412456 0.259255 0.522 
-0.393167 0.263725 0.531 
-0.376743 0.269685 0.543 
-0.360494 0.276638 0.557 
-0.341139 0.282101 0.568 
-0.32519 0.291538 0.587 
-0.304933 0.298491 0.601 
-0.27551 0.298988 0.602 
-0.253617 0.306437 0.617 
-0.231418 0.315377 0.635 
-0.207224 0.32382 0.652 
-0.181716 0.33276 0.67 
-0.157 0.347163 0.699 
-0.128514 0.358586 0.722 
-0.0969632 0.366533 0.738 
-0.0650233 0.380936 0.767 
-0.0304945 0.396829 0.799 
0.00694131 0.408252 0.822 
0.0480077 0.433085 0.872 
0.0922102 0.450468 0.907 
0.138637 0.464374 0.935 
0.190208 0.484737 0.976 
0.263193 0.534403 1.076 
0.32645 0.556753 1.121 
0.406402 0.597479 1.203 
0.479389 0.619331 1.247 
7.40612 8.44218 16.998 
7.99004 8.22762 16.566 
15.4314 14.49 29.175 
9.77103 6.93433 13.962 
4.21047 2.74999 5.537 
8.36583 4.903 9.872 
8.28602 4.57918 9.22 
8.24973 4.33433 8.727 
-0.404944 0.262557 0.527 
-0.386876 0.267041 0.536 
-0.36932 0.272521 0.547 
-0.350128 0.280991 0.564 
-0.331553 0.288464 0.579 
-0.31456 0.29793 0.598 
-0.281098 0.296934 0.596 
-0.260119 0.304905 0.612 
-0.23727 0.312378 0.627 
-0.214682 0.322342 0.647 
-0.189088 0.330314 0.663 
-0.16474 0.346257 0.695 
-0.135203 0.35373 0.71 
-0.105129 0.364192 0.731 
-0.073779 0.378142 0.759 
-0.0398691 0.39259 0.788 
-0.00325574 0.407038 0.817 
0.0368709 0.430952 0.865 
0.0801336 0.447393 0.898 
0.124707 0.457358 0.918 
0.175158 0.478282 0.96 
0.232502 0.505684 1.015 
0.309172 0.552516 1.109 
0.384616 0.588885 1.182 
0.457938 0.613298 1.231 
7.13263 8.39535 16.851 
7.71835 8.18361 16.426 
15.0688 14.5353 29.175 
3.2379 2.53589 5.09 
3.92589 2.65347 5.326 
9.45995 5.76231 11.566 
9.7501 5.47135 10.982 
8.11838 4.32846 8.688 
-0.406627 0.262876 0.526 
-0.387195 0.266374 0.533 
-0.37119 0.272871 0.546 
-0.354126 0.280868 0.562 
-0.335205 0.287864 0.576 
-0.317458 0.29636 0.593 
-0.288841 0.295361 0.591 
-0.26881 0.303857 0.608 
-0.245613 0.310354 0.621 
-0.223297 0.319849 0.64 
-0.198907 0.328845 0.658 
-0.173863 0.33984 0.68 
-0.145262 0.349835 0.7 
-0.117301 0.364328 0.729 
-0.0860649 0.376323 0.753 
-0.0526595 0.388817 0.778 
-0.0171976 0.407808 0.816 
0.0213727 0.418303 0.837 
0.064137 0.444291 0.889 
0.107117 0.450788 0.902 
0.156436 0.472777 0.946 
0.210068 0.495267 0.991 
0.285508 0.545243 1.091 
0.353933 0.57373 1.148 
0.43335 0.610213 1.221 
6.20286 7.6319 15.271 
8.59316 9.48453 18.978 
9.66551 9.67244 19.354 
11.118 10.1762 20.362 
9.71942 6.87976 13.766 
4.24488 2.7672 5.537 
8.02637 4.44041 8.885 
8.21631 4.32246 8.649 
-0.407523 0.262691 0.524 
-0.388948 0.266701 0.532 
-0.37305 0.273218 0.545 
-0.357854 0.28124 0.561 
-0.337618 0.286253 0.571 
-0.320435 0.295778 0.59 
-0.293503 0.297282 0.593 
-0.271244 0.303297 0.605 
-0.248267 0.309815 0.618 
-0.226209 0.31934 0.637 
-0.202071 0.328363 0.655 
-0.177303 0.339392 0.677 
-0.149398 0.350421 0.699 
-0.121497 0.364458 0.727 
-0.090142 0.374986 0.748 
-0.0573467 0.389023 0.776 
-0.0221869 0.407572 0.813 
0.016055 0.416595 0.831 
0.0578869 0.440157 0.878 
0.101287 0.451186 0.9 
0.150239 0.473244 0.944 
0.202881 0.4943 0.986 
0.272057 0.540421 1.078 
0.337551 0.565988 1.129 
0.419895 0.609102 1.215 
0.491822 0.628653 1.254 
8.78707 9.89853 19.745 
8.65774 8.82821 17.61 
13.1516 12.2492 24.434 
9.67664 6.90115 13.766 
4.21622 2.76828 5.522 
7.99876 4.45421 8.885 
8.18944 4.3359 8.649 
-0.409237 0.261996 0.521 
-0.389042 0.267025 0.531 
-0.373211 0.273562 0.544 
-0.358086 0.281608 0.56 
-0.337618 0.28714 0.571 
-0.319519 0.296694 0.59 
-0.291169 0.2977 0.592 
-0.269809 0.30474 0.606 
-0.246346 0.310775 0.618 
-0.224933 0.321335 0.639 
-0.200341 0.329884 0.656 
-0.175717 0.34145 0.679 
-0.145262 0.35201 0.7 
-0.117301 0.366594 0.729 
-0.0859506 0.37816 0.752 
-0.0526595 0.391234 0.778 
-0.0171765 0.409841 0.815 
0.0213471 0.420401 0.836 
0.063632 0.443533 0.882 
0.10688 0.452585 0.9 
0.156932 0.477225 0.949 
0.209856 0.497843 0.99 
0.280566 0.545616 1.085 
0.346703 0.571262 1.136 
0.439401 0.614509 1.222 
7.17051 8.77662 17.453 
9.21867 10.1339 20.152 
11.1968 11.1703 22.213 
11.8291 10.8022 21.481 
3.98887 2.69288 5.355 
8.83614 5.06694 10.076 
8.01613 4.29251 8.536 
-0.410856 0.262806 0.521 
-0.390692 0.26785 0.531 
-0.374212 0.273903 0.543 
-0.358956 0.282478 0.56 
-0.338203 0.287018 0.569 
-0.32209 0.296602 0.588 
-0.296186 0.298115 0.591 
-0.273185 0.30316 0.601 
-0.250884 0.310222 0.615 
-0.229084 0.319806 0.634 
-0.204568 0.327877 0.65 
-0.180438 0.339478 0.673 
-0.15157 0.352593 0.699 
-0.123756 0.366717 0.727 
-0.0922191 0.376301 0.746 
-0.059604 0.390425 0.774 
-0.0245916 0.40808 0.809 
0.0134566 0.418673 0.83 
0.0544676 0.437337 0.867 
0.0980523 0.451965 0.896 
0.147617 0.477187 0.946 
0.199209 0.49585 0.983 
0.266962 0.54024 1.071 
0.332859 0.567479 1.125 
0.412352 0.607328 1.204 
0.486369 0.630532 1.25 
8.99838 10.2711 20.362 
8.37683 8.64939 17.147 
16.3448 15.4067 30.543 
3.86957 2.66488 5.283 
7.57179 4.40212 8.727 
8.02424 4.32444 8.573 
8.53683 4.38245 8.688 
-0.384711 0.269687 0.533 
-0.367796 0.276265 0.546 
-0.352379 0.28436 0.562 
-0.333729 0.290938 0.575 
-0.316537 0.300046 0.593 
-0.287435 0.298528 0.59 
-0.267865 0.307635 0.608 
-0.243466 0.312695 0.618 
-0.222997 0.324839 0.642 
-0.197584 0.332428 0.657 
-0.172806 0.344066 0.68 
-0.145262 0.354185 0.7 
-0.117462 0.369365 0.73 
-0.0858363 0.37999 0.751 
-0.0526595 0.393652 0.778 
-0.0171133 0.410855 0.812 
0.0213216 0.422493 0.835 
0.0630549 0.442226 0.874 
0.106405 0.453357 0.896 
