# .PCD v.7 - Point Cloud Data file format
VERSION .7
FIELDS x y z
SIZE 4 4 4
TYPE F F F
COUNT 1 1 1
WIDTH 1887
HEIGHT 1
VIEWPOINT 0 0 0 1 0 0 0
POINTS 1887
DATA ascii
-0.155627 -0.0115939 0.605 
-0.237671 -0.0237243 1.238 
-0.0245025 -0.0123029 0.642 
0.00544665 -0.0123604 0.645 
0.0422955 -0.0125904 0.657 
0.135277 -0.0137402 0.717 
0.322602 -0.0162123 0.846 
0.334144 -0.0149092 0.778 
1.28417 -0.0434627 2.268 
2.8596 -0.0693717 3.62 
4.19639 -0.0950699 4.961 
4.34016 -0.0931919 4.863 
4.52175 -0.092272 4.815 
-0.202729 -0.010513 0.597 
-0.176367 -0.0106011 0.602 
-0.14954 -0.0106891 0.607 
-0.0459402 -0.0111822 0.635 
-0.0134883 -0.0112703 0.64 
0.119725 -0.0127495 0.724 
0.154679 -0.0125734 0.714 
0.32609 -0.0142463 0.809 
1.30092 -0.0424396 2.41 
1.29311 -0.0384245 2.182 
2.9885 -0.0640996 3.64 
4.45216 -0.0898803 5.104 
4.21683 -0.0808112 4.589 
4.63734 -0.0845797 4.803 
-0.186968 -0.00963366 0.6 
-0.14671 -0.00974605 0.607 
-0.035143 -0.0102117 0.636 
-0.00555075 -0.010308 0.642 
0.131004 -0.0115283 0.718 
0.311422 -0.013728 0.855 
0.325343 -0.0125719 0.783 
1.31116 -0.0388879 2.422 
1.2864 -0.0347614 2.165 
3.00533 -0.0583318 3.633 
4.40717 -0.0802644 4.999 
4.39327 -0.0759935 4.733 
-0.205167 -0.00864344 0.596 
-0.179173 -0.00873046 0.602 
-0.152118 -0.00878847 0.606 
-0.0418616 -0.00918003 0.633 
-0.00851651 -0.00928155 0.64 
0.125601 -0.0104272 0.719 
0.157343 -0.0103112 0.711 
0.324126 -0.0113554 0.783 
1.31651 -0.0355744 2.453 
1.28343 -0.0313252 2.16 
2.99474 -0.0526003 3.627 
4.41448 -0.0728747 5.025 
4.38966 -0.068814 4.745 
-0.207945 -0.00771745 0.596 
-0.181979 -0.00779514 0.602 
-0.154687 -0.00783399 0.605 
-0.0447412 -0.00818361 0.632 
-0.0154528 -0.00827425 0.639 
0.0144882 -0.00836489 0.646 
0.153785 -0.00925835 0.715 
0.323694 -0.0109028 0.842 
1.29231 -0.0319187 2.465 
1.29897 -0.0287592 2.221 
2.94448 -0.0466155 3.6 
4.39459 -0.0652358 5.038 
4.39142 -0.061882 4.779 
4.81499 -0.0645754 4.987 
-0.184785 -0.00685983 0.602 
-0.157246 -0.00688262 0.604 
-0.231278 -0.0141869 1.245 
-0.0124744 -0.00728145 0.639 
0.0175263 -0.00737261 0.647 
0.155112 -0.00815887 0.716 
0.320166 -0.00968581 0.85 
0.340279 -0.0087742 0.77 
1.30179 -0.025844 2.268 
2.92759 -0.0409425 3.593 
4.34504 -0.0569639 4.999 
4.47547 -0.0556877 4.887 
4.88611 -0.0578528 5.077 
-0.184785 -0.00592452 0.602 
-0.156986 -0.00593436 0.603 
-0.233025 -0.0122427 1.244 
-0.0124744 -0.00628865 0.639 
0.127479 -0.00705628 0.717 
0.162672 -0.00703659 0.715 
0.322602 -0.00832582 0.846 
0.337886 -0.00757787 0.77 
1.42184 -0.0248495 2.525 
3.01185 -0.0354979 3.607 
4.40154 -0.048705 4.949 
4.73985 -0.0498368 5.064 
-0.178534 -0.00499749 0.603 
-0.138223 -0.00503064 0.607 
-0.0224024 -0.00529585 0.639 
0.00742779 -0.005329 0.643 
0.169755 -0.00575167 0.694 
0.326582 -0.00692853 0.836 
1.31612 -0.0205618 2.481 
1.26443 -0.0174539 2.106 
4.24264 -0.0411153 4.961 
4.54331 -0.0417535 5.038 
4.89194 -0.042748 5.158 
-0.138223 -0.00408756 0.607 
-0.0330624 -0.00426938 0.634 
-0.00355029 -0.00431652 0.641 
0.153314 -0.00483504 0.718 
0.321668 -0.00570373 0.847 
0.341336 -0.00516501 0.767 
1.31767 -0.0152526 2.265 
2.96728 -0.024155 3.587 
4.34105 -0.0331584 4.924 
4.61697 -0.0334951 4.974 
-0.149987 -0.00313412 0.605 
-0.0417293 -0.00326881 0.631 
-0.0125134 -0.00332061 0.641 
0.0757587 -0.00343976 0.664 
0.310094 -0.00442921 0.855 
0.332335 -0.00399406 0.771 
1.25205 -0.0107751 2.08 
3.09624 -0.0188928 3.647 
4.51986 -0.025964 5.012 
4.99722 -0.0272953 5.269 
-0.0887344 -0.00223766 0.617 
-0.0125134 -0.0023247 0.641 
0.0738064 -0.00241174 0.665 
0.311422 -0.00310081 0.855 
0.333101 -0.00279255 0.77 
2.95037 -0.0129835 3.58 
4.2827 -0.0176801 4.875 
4.53213 -0.0177671 4.899 
-0.136786 -0.00126246 0.609 
-0.024388 -0.00132465 0.639 
0.00542132 -0.00133087 0.642 
0.295964 -0.00175169 0.845 
0.325991 -0.00160243 0.773 
2.93368 -0.00742137 3.58 
4.24194 -0.010081 4.863 
4.46861 -0.010081 4.863 
-0.13701 -0.000316792 0.61 
-0.0243498 -0.000331333 0.638 
0.0654423 -0.000344835 0.664 
0.315407 -0.000444027 0.855 
0.338953 -0.000398326 0.767 
3.09624 -0.001894 3.647 
4.45133 -0.00256341 4.936 
4.99722 -0.00273635 5.269 
-0.0273236 0.000659913 0.638 
0.00441697 0.000663016 0.641 
0.309368 0.000882297 0.853 
0.338953 0.000793343 0.767 
3.07899 0.00376502 3.64 
4.38436 0.00505485 4.887 
4.93302 0.00540653 5.227 
-0.00555075 0.00166151 0.642 
0.328656 0.0019876 0.768 
3.05109 0.00938676 3.627 
4.38695 0.0127434 4.924 
4.83585 0.013349 5.158 
-0.0311905 0.00263412 0.636 
0.33416 0.00301516 0.728 
4.03523 0.0193666 4.676 
4.41145 0.0200872 4.85 
4.85456 0.0210274 5.077 
-0.0253411 0.00363365 0.638 
0.077822 0.00378173 0.664 
3.07307 0.0206913 3.633 
4.43998 0.0281864 4.949 
4.84242 0.029223 5.131 
-0.0870986 0.00448716 0.619 
-0.0105216 0.00464664 0.641 
0.253127 0.00501634 0.692 
4.11166 0.0344765 4.756 
4.43083 0.0352521 4.863 
4.78775 0.036238 4.999 
-0.032128 0.00558973 0.635 
-0.000562568 0.00564255 0.641 
0.32445 0.00637318 0.724 
4.16722 0.0422795 4.803 
4.44594 0.0428077 4.863 
4.76677 0.0436703 4.961 
-0.0243498 0.00660739 0.638 
0.24702 0.00720806 0.696 
0.335751 0.00754982 0.729 
0.367702 0.00750839 0.725 
4.43373 0.0521756 5.038 
4.57403 0.0511192 4.936 
4.85374 0.0516474 4.987 
0.253127 0.00824178 0.692 
0.340946 0.00867054 0.728 
1.78656 0.0309543 2.599 
4.57488 0.061587 5.171 
4.62032 0.0590859 4.961 
4.95228 0.0603127 5.064 
-0.0105052 0.00861681 0.64 
0.264259 0.00933038 0.693 
0.335078 0.00982854 0.73 
0.367081 0.00977469 0.726 
4.25528 0.0657974 4.887 
4.49407 0.065959 4.899 
4.79471 0.0669687 4.974 
-0.787742 0.0197479 1.315 
-0.0253808 0.00959614 0.639 
0.263183 0.0104071 0.693 
0.325794 0.0109177 0.727 
0.356711 0.0108276 0.721 
1.79335 0.0390904 2.603 
4.55077 0.0776552 5.171 
4.58937 0.0741261 4.936 
4.90633 0.0754626 5.025 
-0.793871 0.021791 1.315 
-0.0283592 0.0105889 0.639 
0.261029 0.0114838 0.693 
0.313312 0.0118318 0.714 
0.35223 0.0119478 0.721 
0.392793 0.0121632 0.734 
4.30785 0.0824247 4.974 
4.5356 0.0813807 4.911 
4.86249 0.0830544 5.012 
-0.942508 0.0236166 1.303 
-0.0963238 0.0114005 0.629 
0.246999 0.0126692 0.699 
0.299845 0.0128867 0.711 
0.342077 0.0131948 0.728 
0.377043 0.0132311 0.73 
0.41332 0.0133036 0.734 
4.58774 0.0944845 5.213 
4.68969 0.0899171 4.961 
5.10244 0.0932339 5.144 
-0.780162 0.0258969 1.316 
-0.0274092 0.0125942 0.64 
0.105995 0.0131059 0.666 
0.266868 0.0137159 0.697 
0.310222 0.0140111 0.712 
0.35223 0.0141882 0.721 
0.392793 0.014444 0.734 
0.69351 0.0170416 0.866 
4.63941 0.0968968 4.924 
5.02021 0.0999076 5.077 
-0.783655 0.0279203 1.315 
-0.0215436 0.0136523 0.643 
0.100972 0.0141618 0.667 
0.247706 0.0148837 0.701 
0.283179 0.0150324 0.708 
0.32669 0.0154782 0.729 
0.371372 0.0154995 0.73 
0.508929 0.016009 0.754 
4.51394 0.103252 4.863 
4.86148 0.105885 4.987 
-0.93918 0.0297127 1.304 
-0.027452 0.0146057 0.641 
0.0889015 0.0150842 0.662 
0.121205 0.0152665 0.67 
0.269104 0.0159501 0.7 
0.306904 0.0162235 0.712 
0.346947 0.0164969 0.724 
0.397896 0.0167476 0.735 
0.514977 0.0172261 0.756 
4.50993 0.111081 4.875 
4.82843 0.11304 4.961 
-0.943371 0.0318117 1.307 
-0.0274949 0.015626 0.642 
0.0900658 0.0161371 0.663 
0.123287 0.0163075 0.67 
0.272442 0.0171107 0.703 
0.309116 0.0173297 0.712 
0.387174 0.0178165 0.732 
0.487431 0.018425 0.757 
0.549161 0.0186441 0.766 
4.53893 0.1262 5.185 
4.77831 0.120456 4.949 
-0.953822 0.0339977 1.313 
0.0856862 0.0171154 0.661 
0.118945 0.0173225 0.669 
0.29874 0.01841 0.711 
0.362695 0.0187467 0.724 
0.492256 0.0196529 0.759 
0.547971 0.0198342 0.766 
4.55552 0.124986 4.827 
4.83993 0.12654 4.887 
-0.0205766 0.0176758 0.644 
0.0978633 0.018307 0.667 
0.29874 0.0195147 0.711 
0.44484 0.0202832 0.739 
0.493436 0.0208322 0.759 
0.530903 0.0209145 0.762 
0.590251 0.021436 0.781 
4.75688 0.134791 4.911 
-0.0382872 0.0185313 0.639 
0.0837588 0.0191983 0.662 
0.127641 0.0194594 0.671 
0.458393 0.0216924 0.748 
0.500511 0.0220114 0.759 
0.546781 0.0222144 0.766 
0.594652 0.0226784 0.782 
4.62997 0.140653 4.85 
-1.59033 0.0610167 1.997 
-0.0186043 0.0197075 0.645 
0.102009 0.0203797 0.667 
0.303585 0.0217546 0.712 
0.472613 0.0230379 0.754 
0.513144 0.0232823 0.762 
0.565923 0.0235573 0.771 
0.627441 0.0244128 0.799 
4.70283 0.148585 4.863 
-0.357944 0.054166 1.687 
0.0828552 0.0212875 0.663 
0.114787 0.0214802 0.669 
0.459006 0.0240488 0.749 
0.500511 0.0243699 0.759 
0.5373 0.0244341 0.761 
0.584813 0.0249478 0.777 
3.02868 0.104415 3.252 
4.75674 0.154214 4.803 
-0.350911 0.0569217 1.691 
0.0937181 0.0224523 0.667 
0.460784 0.0252462 0.75 
0.501029 0.0255155 0.758 
0.53919 0.0256501 0.762 
0.585266 0.0261214 0.776 
3.01393 0.109299 3.247 
4.71508 0.161273 4.791 
-0.410211 0.0613449 1.742 
-0.32069 0.0602885 1.712 
0.486255 0.0266579 0.757 
0.52705 0.0269397 0.765 
0.567121 0.0271509 0.771 
0.623266 0.0277848 0.789 
2.98961 0.111738 3.173 
-1.59941 0.0731334 1.989 
-0.413629 0.0641617 1.745 
-0.32601 0.0629484 1.712 
0.492786 0.0278708 0.758 
0.530206 0.0279811 0.761 
0.573853 0.0283856 0.772 
2.99922 0.119205 3.242 
4.65108 0.174873 4.756 
-1.7153 0.140299 3.661 
-0.356671 0.0644203 1.681 
0.474493 0.0290102 0.757 
0.514491 0.0292785 0.764 
0.552262 0.0293934 0.767 
0.61479 0.0301215 0.786 
2.96097 0.120831 3.153 
4.70667 0.181841 4.745 
-1.70965 0.144073 3.613 
-0.367773 0.0671516 1.684 
-0.290655 0.0674706 1.692 
0.504049 0.0302661 0.759 
0.541558 0.0303857 0.762 
0.585406 0.0308243 0.773 
0.699117 0.0316219 0.793 
2.96623 0.125331 3.143 
-1.58749 0.0819484 1.978 
-2.38539 0.190122 4.589 
-0.399322 0.0716738 1.73 
-0.313896 0.0705966 1.704 
0.484002 0.0314453 0.759 
0.522116 0.031611 0.763 
0.562065 0.0318596 0.769 
0.611661 0.0323982 0.782 
0.691209 0.0327711 0.791 
2.92272 0.1298 3.133 
4.62099 0.194224 4.688 
-2.4353 0.197252 4.589 
-0.426419 0.0753503 1.753 
-0.334879 0.0732011 1.703 
0.467306 0.0323667 0.753 
0.507742 0.0327105 0.761 
0.54464 0.0327965 0.763 
0.588568 0.0332693 0.774 
0.641239 0.0339571 0.79 
0.705278 0.034086 0.793 
2.99036 0.135527 3.153 
-1.55862 0.0873376 1.961 
-2.38539 0.204382 4.589 
-0.389847 0.0762478 1.712 
-0.308058 0.0757579 1.701 
0.479831 0.0337593 0.758 
0.519565 0.0338929 0.761 
0.560141 0.0342046 0.768 
0.606025 0.0347836 0.781 
0.650654 0.035229 0.791 
0.699466 0.0352735 0.792 
2.90943 0.137754 3.093 
4.63087 0.207277 4.654 
-2.0229 0.139702 3.031 
-1.69856 0.169338 3.674 
-0.34437 0.0770641 1.672 
-0.220926 0.111909 2.428 
0.492786 0.034937 0.758 
0.528813 0.034983 0.759 
0.57311 0.0355361 0.771 
0.616946 0.035997 0.781 
0.659205 0.0363197 0.788 
0.699466 0.036504 0.792 
2.91424 0.142559 3.093 
-4.49269 0.244465 5.131 
-2.47329 0.217593 4.567 
-0.415385 0.0829493 1.741 
-0.321839 0.0811865 1.704 
0.0827229 0.0419749 0.881 
0.496973 0.0361623 0.759 
0.533052 0.0362099 0.76 
0.576704 0.036734 0.771 
0.6218 0.0372105 0.781 
0.66663 0.0376869 0.791 
0.707742 0.0377822 0.793 
4.67885 0.229409 4.815 
-1.50933 0.0951004 1.933 
-2.37141 0.223114 4.535 
-0.355436 0.0812264 1.651 
-0.285735 0.083342 1.694 
0.0879979 0.0432453 0.879 
0.500511 0.0373415 0.759 
0.5373 0.0374399 0.761 
0.58105 0.0379811 0.772 
0.625026 0.0384731 0.782 
0.669934 0.0389651 0.792 
0.713902 0.0390143 0.793 
4.56213 0.227345 4.621 
-1.46654 0.107036 2.109 
-2.2801 0.225999 4.453 
-0.342104 0.0842991 1.661 
-0.268987 0.0856694 1.688 
0.0854605 0.0447125 0.881 
0.498153 0.0385208 0.759 
0.534233 0.0385715 0.76 
0.578651 0.0391805 0.772 
0.622596 0.0396881 0.782 
0.66663 0.0401448 0.791 
0.707056 0.0403478 0.795 
4.56579 0.235083 4.632 
-1.45671 0.110313 2.109 
-2.25225 0.230773 4.412 
-0.347951 0.086409 1.652 
-0.277511 0.0885012 1.692 
0.0803485 0.0462905 0.885 
0.492135 0.0395954 0.757 
0.527419 0.0395954 0.757 
0.57311 0.0403277 0.771 
0.618951 0.040903 0.782 
0.662105 0.0413215 0.79 
0.706005 0.0417399 0.798 
4.5547 0.240554 4.599 
-1.43649 0.113805 2.113 
-2.14559 0.229872 4.268 
-0.337755 0.0896758 1.665 
-0.263273 0.090753 1.685 
0.0935669 0.0473962 0.88 
0.507074 0.0409331 0.76 
0.545354 0.0411485 0.764 
0.595678 0.0418487 0.777 
0.64572 0.0427643 0.794 
0.685308 0.0429259 0.797 
0.717924 0.0426566 0.792 
-1.44169 0.116977 2.111 
-2.29052 0.245646 4.433 
-0.36599 0.0922073 1.664 
-0.294324 0.0940913 1.698 
-0.051497 0.0851698 1.537 
0.513483 0.0420585 0.759 
0.553922 0.0424464 0.766 
0.602145 0.0430005 0.776 
0.657234 0.044275 0.799 
0.706531 0.0443304 0.8 
-1.4714 0.118946 2.088 
-2.48942 0.262616 4.61 
-0.649045 0.0899504 1.579 
-0.331183 0.0951914 1.671 
-0.255268 0.0959319 1.684 
0.509436 0.0432947 0.76 
0.590533 0.0441492 0.775 
0.655571 0.0455734 0.8 
0.708659 0.0456303 0.801 
-1.47223 0.121722 2.08 
-2.52041 0.272354 4.654 
-0.656405 0.0924037 1.579 
-0.345308 0.0973779 1.664 
-0.272253 0.0990165 1.692 
0.340426 0.524752 8.967 
0.505228 0.044417 0.759 
0.583758 0.0452948 0.774 
0.654328 0.0468163 0.8 
0.707933 0.0469919 0.803 
0.763926 0.0481623 0.823 
-1.45077 0.128198 2.134 
-2.2545 0.264506 4.403 
-0.388782 0.0991823 1.651 
-0.317117 0.100864 1.679 
-0.23957 0.101165 1.684 
0.404505 0.531355 8.845 
0.517326 0.045416 0.756 
0.606968 0.0466175 0.776 
0.682831 0.047879 0.797 
0.71998 0.047879 0.797 
-56.7714 4.03877 65.535 
-1.4483 0.132808 2.155 
-2.20517 0.269498 4.373 
-0.382788 0.103596 1.681 
-0.304338 0.104459 1.695 
-0.0708306 0.09503 1.542 
0.43016 0.526054 8.536 
0.496973 0.0467754 0.759 
0.530246 0.0465906 0.756 
0.648973 0.0491789 0.798 
0.697459 0.0493638 0.801 
0.748554 0.0502882 0.816 
-1.48051 0.130722 2.069 
-1.44361 0.136345 2.158 
-2.21798 0.278756 4.412 
-0.383471 0.106398 1.684 
-0.306428 0.106903 1.692 
-0.22716 0.106713 1.689 
0.362272 0.536979 8.499 
0.505073 0.0478283 0.757 
0.541785 0.0479547 0.759 
0.666757 0.0505451 0.8 
0.712924 0.0507347 0.803 
0.769975 0.0520615 0.824 
-57.2805 4.24241 65.535 
-1.46362 0.139051 2.148 
-2.3233 0.287618 4.443 
-0.395283 0.105195 1.625 
-0.328194 0.108043 1.669 
-0.254152 0.109661 1.694 
-0.0286411 0.103188 1.594 
0.107031 0.0515939 0.797 
0.5333 0.0490045 0.757 
0.654328 0.0517881 0.8 
0.696214 0.0518528 0.801 
0.747286 0.0528238 0.816 
0.793981 0.0534064 0.825 
-56.5677 4.34423 65.535 
-1.46839 0.142852 2.155 
-2.29052 0.293858 4.433 
-0.369949 0.111498 1.682 
-0.294151 0.112492 1.697 
-0.214419 0.112161 1.692 
0.394481 0.535414 8.077 
0.499707 0.0501143 0.756 
0.53636 0.0502469 0.758 
0.591282 0.050512 0.762 
0.692859 0.053031 0.8 
0.740187 0.0537602 0.811 
0.792377 0.0547545 0.826 
-57.5859 4.44605 65.535 
-1.48803 0.140773 2.075 
-1.44965 0.146675 2.162 
-2.26626 0.302102 4.453 
-0.344782 0.113568 1.674 
-0.271378 0.115536 1.703 
-0.0458328 0.107802 1.589 
0.38652 0.536905 7.914 
0.476127 0.0511532 0.754 
0.529072 0.0512889 0.756 
0.590506 0.0516281 0.761 
0.694102 0.0542739 0.8 
0.74419 0.0552237 0.814 
0.7927 0.05597 0.825 
-57.5859 4.54787 65.535 
-1.57121 0.145732 2.1 
-1.45502 0.150243 2.165 
-2.25911 0.306176 4.412 
-0.347798 0.116308 1.676 
-0.274023 0.118182 1.703 
-0.0655373 0.114504 1.65 
0.240535 0.525745 7.576 
0.470894 0.0523941 0.755 
0.519675 0.0524635 0.756 
0.553445 0.0523247 0.754 
0.683211 0.0552393 0.796 
0.725742 0.0556557 0.802 
0.785338 0.0571824 0.824 
-58.1968 4.64969 65.535 
-1.57356 0.147079 2.073 
-1.47857 0.153606 2.165 
-1.31791 0.151762 2.139 
-0.375845 0.11955 1.685 
-0.297836 0.119763 1.688 
-0.219547 0.119976 1.691 
-0.0188172 0.113591 1.601 
0.446187 0.559226 7.882 
1.48219 0.36305 5.117 
0.484734 0.0532833 0.751 
0.531421 0.053638 0.756 
0.584179 0.0540637 0.762 
0.705806 0.0569017 0.802 
0.760794 0.0582498 0.821 
0.801007 0.0583917 0.823 
-56.7714 4.75151 65.535 
-1.4691 0.149502 2.062 
-1.43824 0.156607 2.16 
-0.411782 0.120428 1.661 
-0.337382 0.121516 1.676 
-0.262976 0.123256 1.7 
-0.0672055 0.122676 1.692 
0.201322 0.538846 7.432 
0.421893 0.149792 2.066 
0.477932 0.0547401 0.755 
0.525548 0.0548126 0.756 
0.69497 0.0580753 0.801 
0.738704 0.0585828 0.808 
0.7927 0.0598154 0.825 
-57.5859 4.85333 65.535 
-1.56722 0.154483 2.086 
-1.47844 0.159593 2.155 
-1.32579 0.158556 2.141 
-0.365156 0.124712 1.684 
-0.287346 0.125008 1.688 
-0.208667 0.125008 1.688 
-0.0239852 0.119528 1.614 
0.357558 0.542172 7.321 
1.4392 0.395539 5.341 
0.49266 0.0559872 0.756 
0.5333 0.0560613 0.757 
0.695345 0.0592457 0.8 
0.751778 0.0602825 0.814 
0.799729 0.060949 0.823 
-55.855 4.95516 65.535 
-1.45761 0.156741 2.073 
-1.4227 0.163849 2.167 
-0.394669 0.126724 1.676 
-0.316361 0.126648 1.675 
-0.241561 0.128387 1.698 
-0.0705772 0.129294 1.71 
0.00851796 0.120675 1.596 
0.416077 0.156439 2.069 
1.49019 0.384859 5.09 
0.519186 0.0572374 0.757 
0.702803 0.0604887 0.8 
0.800034 0.0621521 0.822 
-1.5556 0.159113 2.062 
-1.42685 0.166521 2.158 
-0.367773 0.129945 1.684 
-0.288937 0.129791 1.682 
-0.211665 0.130485 1.691 
-0.0573603 0.132106 1.712 
0.174271 0.560754 7.267 
0.422914 0.159808 2.071 
0.425657 0.0584907 0.758 
0.474568 0.0585679 0.759 
0.510451 0.0584907 0.758 
0.545244 0.058182 0.754 
0.686258 0.0618088 0.801 
0.725176 0.0617316 0.8 
-1.55038 0.159798 2.03 
-1.46985 0.170976 2.172 
-0.42795 0.132561 1.684 
-0.348213 0.132089 1.678 
-0.271127 0.13264 1.685 
-0.192589 0.13264 1.685 
-0.0494672 0.135002 1.715 
0.201383 0.553467 7.031 
1.31189 0.401778 5.104 
0.430936 0.0597471 0.759 
0.474012 0.0598258 0.76 
0.508766 0.0597471 0.759 
0.541275 0.0594322 0.755 
0.594386 0.0602981 0.766 
0.704765 0.0628171 0.798 
0.747857 0.0632107 0.803 
-1.47228 0.170337 2.122 
-0.728522 0.182217 2.27 
-0.372562 0.135017 1.682 
-0.29294 0.134455 1.675 
-0.21769 0.136221 1.697 
-0.126739 0.137666 1.715 
-0.00888403 0.128756 1.604 
0.343231 0.546732 6.811 
1.47653 0.427528 5.326 
0.457481 0.0610066 0.76 
0.498153 0.0609263 0.759 
0.53353 0.0609263 0.759 
0.575653 0.0616488 0.768 
0.686258 0.0642978 0.801 
0.721786 0.0641372 0.799 
0.767578 0.0648597 0.808 
-1.55983 0.174207 2.129 
-1.46513 0.177561 2.17 
-0.42035 0.137876 1.685 
-0.34384 0.138694 1.695 
-0.264367 0.138449 1.692 
-0.184735 0.137876 1.685 
-0.071155 0.141067 1.724 
0.00849127 0.130184 1.591 
0.383683 0.165042 2.017 
1.48923 0.432284 5.283 
0.457515 0.0625147 0.764 
0.493665 0.0624329 0.763 
0.527148 0.0621874 0.76 
0.57446 0.062842 0.768 
0.687503 0.0655423 0.801 
0.723028 0.0653786 0.799 
0.768833 0.066115 0.808 
-1.554 0.173179 2.077 
-1.471 0.175597 2.106 
-0.729485 0.189521 2.273 
-0.371234 0.139744 1.676 
-0.292765 0.139577 1.674 
-0.218588 0.142078 1.704 
-0.137775 0.140661 1.687 
-0.0267555 0.135908 1.63 
0.251551 0.552471 6.626 
1.29042 0.421148 5.051 
0.431504 0.0633682 0.76 
0.477754 0.0638685 0.766 
0.510106 0.0634516 0.761 
0.544143 0.0632848 0.759 
0.589625 0.0638685 0.766 
0.687503 0.0667867 0.801 
0.723028 0.06662 0.799 
0.769785 0.0674538 0.809 
-1.55268 0.178104 2.097 
-1.46604 0.179463 2.113 
-0.718891 0.193052 2.273 
-0.362337 0.141923 1.671 
-0.285133 0.142263 1.675 
-0.210522 0.144641 1.703 
-0.0575948 0.146 1.719 
0.020759 0.134534 1.584 
0.417872 0.175132 2.062 
0.441505 0.0648038 0.763 
0.490846 0.0650586 0.766 
0.5238 0.0647189 0.762 
0.562987 0.0651435 0.767 
0.671687 0.0676915 0.797 
0.724269 0.0678614 0.799 
0.797412 0.0694751 0.818 
-1.46932 0.182746 2.113 
-1.27554 0.1856 2.146 
-0.36643 0.144087 1.666 
-0.280596 0.145211 1.679 
-0.204989 0.147114 1.701 
-0.0238366 0.138724 1.604 
0.24821 0.565449 6.538 
0.465306 0.0670271 0.775 
0.49999 0.0657298 0.76 
0.536118 0.0658163 0.761 
0.760976 0.0696217 0.805 
-1.51569 0.1833 2.082 
-1.46703 0.189551 2.153 
-1.21686 0.184092 2.091 
-0.354549 0.147115 1.671 
-0.267311 0.14914 1.694 
-0.188354 0.14914 1.694 
-0.0372928 0.14509 1.648 
0.0379862 0.139456 1.584 
0.466507 0.0684073 0.777 
0.49999 0.0669106 0.76 
0.536118 0.0669986 0.761 
0.693234 0.0703441 0.799 
0.789786 0.0720169 0.818 
-1.50447 0.185549 2.071 
-1.45428 0.195225 2.179 
-0.432612 0.151593 1.692 
-0.349984 0.14998 1.674 
-0.27407 0.151145 1.687 
-0.19706 0.152399 1.701 
-0.0989684 0.144246 1.61 
-0.0038196 0.140752 1.571 
0.3671 0.17874 1.995 
0.486794 0.0688977 0.769 
0.521613 0.0684497 0.764 
0.579522 0.0697041 0.778 
0.66506 0.0712272 0.795 
0.762866 0.0723023 0.807 
-1.5556 0.187946 2.062 
-1.48921 0.191775 2.104 
-1.34469 0.201983 2.216 
-0.413041 0.154769 1.698 
-0.344515 0.159691 1.752 
-0.256402 0.155771 1.709 
-0.174573 0.153857 1.688 
-0.0814045 0.142281 1.561 
0.00106138 0.143102 1.57 
0.376776 0.182022 1.997 
0.495499 0.0696368 0.764 
0.529024 0.0693633 0.761 
0.585397 0.0711863 0.781 
0.66837 0.0725535 0.796 
0.788516 0.0745587 0.818 
-1.53986 0.191984 2.071 
-1.47469 0.196156 2.116 
-1.28051 0.200235 2.16 
-0.379372 0.15444 1.666 
-0.304158 0.157036 1.694 
-0.228391 0.159261 1.718 
-0.144516 0.155182 1.674 
-0.0627172 0.146375 1.579 
0.018194 0.146004 1.575 
1.12736 0.269668 2.909 
0.525862 0.0709165 0.765 
0.598749 0.0731413 0.789 
0.678338 0.0740683 0.799 
0.782784 0.0756442 0.816 
-1.55123 0.195013 2.069 
-1.49066 0.19982 2.12 
-1.40003 0.203402 2.158 
-0.734577 0.216786 2.3 
-0.339651 0.165417 1.755 
-0.222404 0.161459 1.713 
-0.139148 0.157594 1.672 
-0.0526236 0.155238 1.647 
0.0230588 0.148263 1.573 
0.577376 0.0735188 0.78 
0.66299 0.0748384 0.794 
0.778336 0.0767235 0.814 
-1.66784 0.204647 2.136 
-1.49948 0.198611 2.073 
-1.45361 0.205797 2.148 
-1.30492 0.209246 2.184 
-0.355615 0.157126 1.64 
-0.25021 0.163162 1.703 
-0.169027 0.161438 1.685 
-0.0825518 0.151665 1.583 
-0.00872341 0.150899 1.575 
0.202153 0.0812457 0.848 
0.616113 0.076072 0.794 
0.760668 0.077605 0.81 
0.802365 0.0779882 0.814 
-1.56882 0.201637 2.071 
-1.49717 0.205045 2.106 
-1.41817 0.209816 2.155 
-1.27456 0.210984 2.167 
-0.339497 0.159285 1.636 
-0.226929 0.166197 1.707 
-0.144516 0.162984 1.674 
-0.0594582 0.158116 1.624 
0.015737 0.153248 1.574 
0.28073 0.0938573 0.964 
0.602724 0.0770136 0.791 
0.672529 0.0776951 0.798 
0.766014 0.0787661 0.809 
0.811669 0.079545 0.817 
-1.60653 0.207229 2.095 
-1.506 0.206833 2.091 
-1.44828 0.212669 2.15 
-1.3378 0.217516 2.199 
-0.717333 0.227705 2.302 
-0.288422 0.16608 1.679 
-0.213168 0.168454 1.703 
-0.131119 0.165091 1.669 
-0.0499735 0.162618 1.644 
0.0253892 0.154902 1.566 
0.277383 0.0957507 0.968 
1.10833 0.182599 1.846 
0.633448 0.0782425 0.791 
0.75074 0.0808143 0.817 
0.790012 0.0804187 0.813 
-1.96609 0.220129 2.191 
-1.5654 0.208475 2.075 
-1.49912 0.212795 2.118 
-1.42024 0.215809 2.148 
-1.34532 0.219928 2.189 
-1.06136 0.233793 2.327 
-0.707095 0.230276 2.292 
-0.320328 0.163665 1.629 
-0.218588 0.1712 1.704 
-0.13655 0.167985 1.672 
-0.0573908 0.164469 1.637 
0.0181709 0.158039 1.573 
0.274942 0.0974556 0.97 
1.10307 0.185065 1.842 
0.646962 0.0791701 0.788 
0.787189 0.0817823 0.814 
-1.97971 0.223533 2.191 
-1.59697 0.213331 2.091 
-1.51241 0.215167 2.109 
-1.43892 0.218942 2.146 
-1.36135 0.222615 2.182 
-1.27351 0.225063 2.206 
-0.998848 0.23802 2.333 
-0.392177 0.163441 1.602 
-0.263898 0.172317 1.689 
-0.171645 0.171909 1.685 
-0.0900125 0.166196 1.629 
-0.0137299 0.162013 1.588 
0.2012 0.0861077 0.844 
1.38091 0.353613 3.466 
0.585003 0.0802924 0.787 
0.644513 0.0803944 0.788 
0.773901 0.0828429 0.812 
-17.5909 1.87464 18.099 
-1.60328 0.216994 2.095 
-1.52072 0.219169 2.116 
-1.43889 0.221758 2.141 
-1.35974 0.225176 2.174 
-1.27983 0.229009 2.211 
-1.01682 0.242474 2.341 
-0.69753 0.23657 2.284 
-0.32309 0.166241 1.605 
-0.188465 0.175563 1.695 
-0.107458 0.172352 1.664 
-0.0288208 0.166138 1.604 
0.114278 0.164066 1.584 
1.83002 0.611726 5.906 
1.10743 0.190064 1.835 
0.643296 0.0836902 0.808 
0.751778 0.0843117 0.814 
0.788748 0.0842081 0.813 
-14.4036 1.58074 15.036 
-1.59351 0.220249 2.095 
-1.50854 0.224559 2.136 
-1.40766 0.224349 2.134 
-1.33149 0.228344 2.172 
-1.08478 0.241801 2.3 
-0.987773 0.244324 2.324 
-0.693069 0.239803 2.281 
-0.319597 0.168209 1.6 
-0.18309 0.178091 1.694 
-0.10198 0.174412 1.659 
-0.023688 0.167578 1.594 
0.118372 0.165371 1.573 
0.279102 0.102397 0.974 
1.41945 0.360493 3.429 
0.59337 0.0830532 0.79 
0.658879 0.0842097 0.801 
0.697326 0.0838943 0.798 
0.767578 0.0849456 0.808 
-20.1582 2.19514 20.576 
-1.90415 0.231185 2.167 
-1.53346 0.228625 2.143 
-1.42756 0.227664 2.134 
-1.34863 0.231185 2.167 
-1.2908 0.239186 2.242 
-1.0241 0.249748 2.341 
-0.72743 0.245374 2.3 
-0.344216 0.166961 1.565 
-0.281133 0.18115 1.698 
-0.15566 0.179443 1.682 
-0.07547 0.175282 1.643 
0.00107354 0.169415 1.588 
0.157377 0.165147 1.548 
1.83077 0.557639 5.227 
1.09124 0.194912 1.827 
0.647277 0.0867344 0.813 
0.680486 0.0856675 0.803 
0.739044 0.0860943 0.807 
0.780508 0.086521 0.811 
-18.7204 2.09484 19.354 
-1.54991 0.230439 2.129 
-1.45068 0.230439 2.129 
-1.36477 0.232712 2.15 
-1.30338 0.239855 2.216 
-1.05638 0.251545 2.324 
-0.765628 0.245159 2.265 
-0.434691 0.178593 1.65 
-0.316319 0.172748 1.596 
-0.201816 0.186061 1.719 
-0.118578 0.181299 1.675 
-0.0388859 0.174047 1.608 
0.138761 0.16831 1.555 
0.284516 0.105749 0.977 
1.0741 0.19721 1.822 
0.64713 0.0883222 0.816 
0.677586 0.0870234 0.804 
0.71784 0.0861575 0.796 
0.767578 0.0874563 0.808 
-20.8156 2.33274 21.247 
-1.90471 0.23715 2.16 
-1.48531 0.234515 2.136 
-1.38446 0.234295 2.134 
-1.31931 0.240554 2.191 
-1.0867 0.251313 2.289 
-0.994994 0.255156 2.324 
-0.713282 0.251313 2.289 
-0.330331 0.173471 1.58 
-0.217841 0.188732 1.719 
-0.134754 0.18467 1.682 
-0.0545794 0.178851 1.629 
0.124505 0.171055 1.558 
0.27224 0.107815 0.982 
1.06737 0.20037 1.825 
0.645384 0.0896998 0.817 
0.673839 0.0882725 0.804 
0.707245 0.0876138 0.798 
0.759105 0.0886019 0.807 
0.799681 0.0889313 0.81 
-1.94904 0.241842 2.172 
-1.55829 0.234827 2.109 
-1.48075 0.238168 2.139 
-1.37653 0.237388 2.132 
-1.31849 0.245071 2.201 
-1.0812 0.256094 2.3 
-0.807178 0.253088 2.273 
-0.704627 0.254313 2.284 
-0.309088 0.179266 1.61 
-0.218221 0.191737 1.722 
-0.134994 0.187617 1.685 
-0.0545459 0.18127 1.628 
0.129181 0.173253 1.556 
0.270715 0.109341 0.982 
1.06854 0.203428 1.827 
0.645384 0.0909692 0.817 
0.671753 0.0894103 0.803 
0.707946 0.0886309 0.796 
0.75879 0.0899671 0.808 
0.795466 0.0898557 0.807 
-1.92821 0.243862 2.16 
-1.56916 0.237765 2.106 
-1.50871 0.243862 2.16 
-1.38522 0.23991 2.125 
-1.31341 0.244991 2.17 
-1.08456 0.258765 2.292 
-0.785212 0.257523 2.281 
-0.428294 0.186848 1.655 
-0.293873 0.186396 1.651 
-0.225459 0.193735 1.716 
-0.143441 0.191025 1.692 
-0.0624394 0.184703 1.636 
0.128765 0.175106 1.551 
0.267391 0.110754 0.981 
1.06745 0.206605 1.83 
1.15841 0.207621 1.839 
0.670505 0.0906579 0.803 
0.707946 0.0898677 0.796 
0.780131 0.0912224 0.808 
-20.9369 2.51373 21.963 
-1.64766 0.246417 2.153 
-1.55737 0.248019 2.167 
-1.43553 0.244471 2.136 
-1.34035 0.245272 2.143 
-1.2914 0.255344 2.231 
-0.333119 0.179691 1.57 
-0.279478 0.193196 1.688 
-0.207104 0.199262 1.741 
-0.121398 0.192052 1.678 
-0.04141 0.184154 1.609 
0.140269 0.176829 1.545 
0.275852 0.112621 0.984 
1.0728 0.207732 1.815 
0.659545 0.0928212 0.811 
0.687887 0.0915622 0.8 
0.785285 0.0919055 0.803 
-1.92307 0.250342 2.158 
-1.57959 0.245934 2.12 
-1.52198 0.252778 2.179 
-1.37935 0.24547 2.116 
-1.31038 0.251154 2.165 
-1.01943 0.272267 2.347 
-0.335558 0.18213 1.57 
-0.281599 0.195471 1.685 
-0.209448 0.201619 1.738 
-0.124301 0.195123 1.682 
-0.0440736 0.18735 1.615 
0.135556 0.179346 1.546 
0.274602 0.114266 0.985 
1.07265 0.209972 1.81 
0.667593 0.0932692 0.804 
0.778876 0.0937332 0.808 
-25.1399 3.10535 26.415 
-1.57637 0.250285 2.129 
-1.51391 0.256516 2.182 
-1.36949 0.248757 2.116 
-1.31351 0.257104 2.187 
-1.02307 0.275914 2.347 
-0.796545 0.274503 2.335 
-0.324772 0.188214 1.601 
-0.261867 0.197031 1.676 
-0.190875 0.204672 1.741 
-0.104684 0.195267 1.661 
-0.026263 0.188096 1.6 
0.142578 0.181513 1.544 
0.279193 0.115797 0.985 
1.09348 0.211373 1.798 
0.68913 0.0940481 0.8 
0.782789 0.0944007 0.803 
-1.85801 0.260144 2.184 
-1.56562 0.255618 2.146 
-1.48198 0.258477 2.17 
-1.34775 0.252283 2.118 
-1.31921 0.266457 2.237 
-0.992663 0.277178 2.327 
-0.85351 0.285039 2.393 
-0.427221 0.195466 1.641 
-0.291051 0.193083 1.621 
-0.226397 0.202851 1.703 
-0.14702 0.202851 1.703 
-0.0650209 0.194989 1.637 
0.118083 0.586516 4.924 
0.210758 0.0988644 0.83 
2.11239 0.712062 5.978 
1.08608 0.213809 1.795 
0.706952 0.0938616 0.788 
-29.0418 3.62883 30.073 
-1.61897 0.258952 2.146 
-1.55079 0.264382 2.191 
-1.38982 0.253643 2.102 
-1.30391 0.25666 2.127 
-1.18382 0.256418 2.125 
-0.9541 0.286585 2.375 
-0.845531 0.287309 2.381 
-0.422121 0.198015 1.641 
-0.288711 0.195723 1.622 
-0.223751 0.205497 1.703 
-0.14395 0.204893 1.698 
-0.0625539 0.197774 1.639 
0.117772 0.592598 4.911 
0.196336 0.100033 0.829 
0.285315 0.118857 0.985 
1.50018 0.346316 2.87 
1.10499 0.215391 1.785 
0.785818 0.0966546 0.801 
-1.63245 0.263387 2.155 
-1.55618 0.267542 2.189 
-1.39901 0.257398 2.106 
-1.30183 0.260209 2.129 
-1.18104 0.259109 2.12 
-0.990285 0.282697 2.313 
-0.882873 0.289908 2.372 
-0.696507 0.283064 2.316 
-0.324391 0.198487 1.624 
-0.257425 0.205454 1.681 
-0.184399 0.211565 1.731 
-0.0988636 0.201665 1.65 
-0.0164521 0.197143 1.613 
0.149386 0.188221 1.54 
0.264612 0.120021 0.982 
2.14025 0.730638 5.978 
1.07891 0.219631 1.797 
0.713979 0.0964325 0.789 
-27.0065 3.50654 28.33 
-1.57188 0.266116 2.15 
-1.49494 0.270324 2.184 
-1.3269 0.261289 2.111 
-1.3123 0.279112 2.255 
-1.06966 0.275275 2.224 
-0.955812 0.292232 2.361 
-0.854004 0.295079 2.384 
-0.417526 0.202124 1.633 
-0.292483 0.199896 1.615 
-0.227429 0.209303 1.691 
-0.149402 0.210417 1.7 
-0.0676881 0.202991 1.64 
0.102511 0.607858 4.911 
0.264881 0.121671 0.983 
2.04136 0.744505 6.015 
1.06844 0.225518 1.822 
1.15547 0.215863 1.744 
0.780017 0.0995149 0.804 
-1.5871 0.268078 2.139 
-1.52912 0.275597 2.199 
-1.35475 0.266824 2.129 
-1.32215 0.280986 2.242 
-1.08571 0.258678 2.064 
-0.987122 0.286877 2.289 
-0.906971 0.295525 2.358 
-0.786585 0.291639 2.327 
-0.33106 0.204536 1.632 
-0.263586 0.211429 1.687 
-0.188682 0.21569 1.721 
-0.103865 0.206541 1.648 
-0.0267391 0.20416 1.629 
0.154372 0.193256 1.542 
1.91287 0.758488 6.052 
1.51173 0.360319 2.875 
1.11747 0.222333 1.774 
0.717656 0.0988842 0.789 
-1.59007 0.271908 2.143 
-1.52912 0.279014 2.199 
-1.33381 0.269244 2.122 
-1.15189 0.265311 2.091 
-1.04171 0.281171 2.216 
-0.956131 0.291829 2.3 
-0.871443 0.299569 2.361 
-0.413973 0.206691 1.629 
-0.299896 0.206564 1.628 
-0.232271 0.214177 1.688 
-0.15423 0.215065 1.695 
-0.0728285 0.208214 1.641 
0.0794265 0.621596 4.899 
13.0773 8.31522 65.535 
2.11033 0.767891 6.052 
1.06952 0.228388 1.8 
1.13035 0.22382 1.764 
1.21463 0.223693 1.763 
-1.86249 0.276137 2.15 
-1.58558 0.276779 2.155 
-1.51201 0.281788 2.194 
-1.31484 0.272027 2.118 
-1.1237 0.265734 2.069 
-1.04 0.287953 2.242 
-0.953637 0.294632 2.294 
-0.867014 0.301696 2.349 
-0.41194 0.208194 1.621 
-0.301002 0.209864 1.634 
-0.232408 0.216928 1.689 
-0.153866 0.217185 1.691 
-0.0727842 0.210635 1.64 
0.0859542 0.621373 4.838 
0.17967 0.196892 1.533 
2.06332 0.777294 6.052 
1.06952 0.231184 1.8 
1.13164 0.226818 1.766 
0.715788 0.101593 0.791 
-1.85365 0.281687 2.167 
-1.58605 0.282597 2.174 
-1.49837 0.285197 2.194 
-1.30721 0.276488 2.127 
-1.10119 0.268948 2.069 
-1.03536 0.295076 2.27 
-0.942656 0.299236 2.302 
-0.855681 0.306515 2.358 
-0.347533 0.203954 1.569 
-0.286294 0.212793 1.637 
-0.215765 0.218642 1.682 
-0.136877 0.217862 1.676 
-0.0576012 0.213573 1.643 
0.119401 0.607831 4.676 
13.0773 8.51886 65.535 
2.12914 0.786696 6.052 
1.07094 0.233071 1.793 
1.1339 0.228911 1.761 
1.08933 0.179256 1.379 
-1.86509 0.283212 2.153 
-1.59661 0.285449 2.17 
-1.51339 0.288869 2.196 
-1.32788 0.281371 2.139 
-1.10869 0.272426 2.071 
-1.03995 0.296893 2.257 
-0.938432 0.306101 2.327 
-0.417943 0.212442 1.615 
-0.29683 0.215599 1.639 
-0.226488 0.221519 1.684 
-0.147732 0.221124 1.681 
-0.0676468 0.215599 1.639 
0.0847106 0.627198 4.768 
0.18134 0.200866 1.527 
1.73551 0.736773 5.601 
2.38851 0.801098 6.09 
1.07291 0.235068 1.787 
1.13355 0.230464 1.752 
1.08989 0.181135 1.377 
-23.7024 3.29322 24.743 
-1.59673 0.290684 2.184 
-1.50521 0.29268 2.199 
-1.15876 0.276841 2.08 
-1.07447 0.297338 2.234 
-0.342875 0.218279 1.64 
-0.273583 0.224135 1.684 
-0.195207 0.224268 1.685 
-0.11376 0.218678 1.643 
-0.037338 0.21961 1.65 
0.154869 0.591349 4.443 
0.229304 0.193656 1.455 
1.80282 0.762911 5.732 
1.45957 0.373869 2.809 
1.08928 0.237179 1.782 
1.13221 0.22906 1.721 
1.05594 0.179681 1.35 
-23.8177 3.33166 24.743 
-1.72922 0.303637 2.255 
-1.58396 0.29677 2.204 
-1.48123 0.29677 2.204 
-1.11244 0.278188 2.066 
-0.955072 0.295019 2.191 
-0.345975 0.211805 1.573 
-0.285657 0.221904 1.648 
-0.211758 0.225001 1.671 
-0.132751 0.223116 1.657 
-0.0549815 0.220962 1.641 
0.110553 0.620739 4.61 
0.191304 0.203592 1.512 
0.274735 0.133439 0.991 
1.47875 0.380926 2.829 
1.09759 0.239947 1.782 
1.14758 0.232138 1.724 
1.05515 0.181644 1.349 
-24.0849 3.41341 25.061 
-1.73513 0.300875 2.209 
-1.61059 0.298151 2.189 
-1.51339 0.299104 2.196 
-1.34189 0.295155 2.167 
-0.944284 0.296108 2.174 
-0.854958 0.312861 2.297 
-0.306159 0.226371 1.662 
-0.233234 0.230866 1.695 
-0.150499 0.225282 1.654 
-0.0724735 0.222421 1.633 
0.00364781 0.22283 1.636 
0.179436 0.208529 1.531 
13.0773 8.92614 65.535 
2.12358 0.829484 6.09 
1.07518 0.242035 1.777 
1.12803 0.235769 1.731 
1.23386 0.240673 1.767 
1.1353 0.190141 1.396 
-1.74937 0.303205 2.201 
-1.631 0.301552 2.189 
-1.53595 0.30293 2.199 
-1.37009 0.302516 2.196 
-1.03081 0.274827 1.995 
-0.849666 0.317119 2.302 
-0.304308 0.229505 1.666 
-0.226488 0.231984 1.684 
-0.143602 0.225096 1.634 
-0.0674405 0.225096 1.634 
0.00873678 0.22551 1.637 
0.175363 0.211734 1.537 
0.266767 0.13638 0.99 
1.04397 0.245898 1.785 
1.12717 0.245898 1.785 
1.20088 0.243969 1.771 
1.07881 0.187764 1.363 
-1.89231 0.30161 2.165 
-1.72658 0.313033 2.247 
-1.59099 0.307739 2.209 
-1.48776 0.309829 2.224 
-4.79825 1.3548 9.725 
-0.837537 0.321531 2.308 
-0.302263 0.232511 1.669 
-0.203237 0.231954 1.665 
-0.119793 0.225824 1.621 
-0.0448923 0.229168 1.645 
0.108251 0.628852 4.514 
0.200509 0.205624 1.476 
1.74791 0.778055 5.585 
1.10159 0.248532 1.784 
1.14756 0.24073 1.728 
1.0442 0.187095 1.343 
-1.96927 0.310749 2.206 
-1.71348 0.315397 2.239 
-1.58197 0.310749 2.206 
-1.48057 0.314693 2.234 
-4.57882 1.34977 9.582 
-0.314508 0.236513 1.679 
-0.177686 0.231582 1.644 
-0.0749647 0.229892 1.632 
0.00110802 0.230878 1.639 
0.170698 0.216651 1.538 
0.206695 0.114664 0.814 
1.03565 0.251444 1.785 
1.12073 0.251867 1.788 
1.19801 0.250599 1.779 
1.06117 0.189605 1.346 
-1.83978 0.305204 2.143 
-1.61625 0.314176 2.206 
-1.50656 0.312752 2.196 
-5.09248 1.4887 10.453 
-0.525145 0.330697 2.322 
-0.216561 0.237555 1.668 
-0.102352 0.231288 1.624 
-0.0270345 0.234564 1.647 
0.144336 0.617244 4.334 
0.200126 0.115787 0.813 
0.293212 0.141137 0.991 
1.10159 0.254075 1.784 
1.2135 0.256639 1.802 
-1.86467 0.308245 2.141 
-1.6276 0.315156 2.189 
-1.53602 0.317316 2.204 
-4.97143 1.45067 10.076 
-0.53702 0.332721 2.311 
-0.148958 0.227909 1.583 
-0.0775003 0.234963 1.632 
-0.00143845 0.235971 1.639 
0.175021 0.220854 1.534 
0.204926 0.116906 0.812 
1.32663 0.41752 2.9 
1.1124 0.257423 1.788 
1.24712 0.258863 1.798 
-1.75158 0.311572 2.141 
-1.54427 0.321031 2.206 
-4.83675 1.45876 10.024 
-0.526629 0.334274 2.297 
-0.113977 0.234297 1.61 
-0.0398291 0.239682 1.647 
0.0368035 0.238809 1.641 
0.212025 0.219599 1.509 
0.277111 0.144653 0.994 
1.05302 0.256563 1.763 
1.25528 0.265149 1.822 
-1.72618 0.311515 2.118 
-1.54783 0.325929 2.216 
-4.60128 1.41623 9.629 
-0.524795 0.336666 2.289 
-0.106803 0.237534 1.615 
-0.0320352 0.241358 1.641 
0.0444252 0.241211 1.64 
0.189705 0.117811 0.801 
0.284547 0.14605 0.993 
1.0655 0.259008 1.761 
-1.85 0.301726 2.03 
-1.60815 0.328332 2.209 
-1.50111 0.336655 2.265 
-1.2281 0.354343 2.384 
-0.595959 0.274675 1.848 
-0.146887 0.232017 1.561 
-0.0774053 0.242273 1.63 
-0.00143845 0.243611 1.639 
0.190579 0.226666 1.525 
0.202661 0.120096 0.808 
1.36463 0.438915 2.953 
1.26673 0.28285 1.903 
-1.85854 0.309987 2.064 
-1.59442 0.331764 2.209 
-1.49606 0.340625 2.268 
-0.650003 0.279799 1.863 
-0.537335 0.34498 2.297 
-0.136833 0.238047 1.585 
-0.0649812 0.245706 1.636 
0.0113215 0.246758 1.643 
0.197039 0.228285 1.52 
0.203664 0.121201 0.807 
1.378 0.444855 2.962 
1.25162 0.286407 1.907 
-1.84939 0.306365 2.019 
-1.58083 0.335954 2.214 
-1.48155 0.343238 2.262 
-1.22312 0.363571 2.396 
-0.590199 0.279052 1.839 
-0.167094 0.234592 1.546 
-0.0994601 0.245517 1.618 
-0.0242676 0.247793 1.633 
0.0520693 0.248855 1.64 
0.243628 0.230039 1.516 
0.287053 0.150375 0.991 
1.0352 0.266457 1.756 
1.29758 0.291039 1.918 
-1.87042 0.320079 2.088 
-1.55548 0.34522 2.252 
-1.28632 0.320846 2.093 
-1.21737 0.360089 2.349 
-0.627375 0.284515 1.856 
-0.531713 0.357943 2.335 
-0.0992757 0.247571 1.615 
-0.00143845 0.25125 1.639 
0.182527 0.235614 1.537 
0.198156 0.123402 0.805 
0.296328 0.151149 0.986 
1.04498 0.267499 1.745 
-1.8575 0.312948 2.021 
-1.58129 0.346705 2.239 
-1.47325 0.34748 2.244 
-1.23552 0.344383 2.224 
-0.660874 0.283218 1.829 
-0.576568 0.283682 1.832 
-0.155084 0.239396 1.546 
-0.0872668 0.251629 1.625 
0.0494911 0.253796 1.639 
0.219784 0.23444 1.514 
0.273471 0.15361 0.992 
1.53155 0.436827 2.821 
1.30905 0.296225 1.913 
-1.57505 0.353469 2.26 
-1.434 0.347369 2.221 
-1.1844 0.354251 2.265 
-0.647991 0.289187 1.849 
-0.508955 0.268855 1.719 
-0.143129 0.24602 1.573 
0.00110802 0.256343 1.639 
0.183358 0.241485 1.544 
0.195169 0.125591 0.803 
0.289317 0.153743 0.983 
1.55786 0.443712 2.837 
1.28998 0.300292 1.92 
-1.52555 0.354453 2.244 
-1.26758 0.334234 2.116 
-1.22132 0.375619 2.378 
-0.627343 0.29048 1.839 
-0.578382 0.377988 2.393 
-0.154361 0.246885 1.563 
-0.0064796 0.256836 1.626 
0.0699055 0.259047 1.64 
0.240955 0.239145 1.514 
0.281968 0.155428 0.984 
1.5916 0.451437 2.858 
1.29717 0.302169 1.913 
-1.58908 0.359694 2.255 
-1.44488 0.351878 2.206 
-1.23079 0.345657 2.167 
-1.17827 0.360491 2.26 
-0.64694 0.294454 1.846 
-0.542612 0.286319 1.795 
-0.182579 0.251387 1.576 
-0.110645 0.254896 1.598 
0.0189565 0.261755 1.641 
0.197624 0.246123 1.543 
0.198912 0.128086 0.803 
1.64645 0.799461 5.012 
1.02458 0.277227 1.738 
1.30016 0.303068 1.9 
-1.54646 0.337105 2.093 
-1.56791 0.365613 2.27 
-1.4196 0.354983 2.204 
-1.23353 0.347896 2.16 
-1.15697 0.355305 2.206 
-0.655873 0.293618 1.823 
-0.567759 0.293457 1.822 
-0.543581 0.392511 2.437 
-0.134285 0.255124 1.584 
-0.0114967 0.261083 1.621 
0.0697776 0.26366 1.637 
0.240955 0.243849 1.514 
0.285448 0.157036 0.975 
1.44359 0.499779 3.103 
1.27042 0.308114 1.913 
1.30724 0.289913 1.8 
-1.54336 0.343284 2.111 
-1.54696 0.367514 2.26 
-1.2744 0.334665 2.058 
-1.22715 0.348488 2.143 
-1.15041 0.355643 2.187 
-0.669915 0.295149 1.815 
-0.583139 0.295475 1.817 
-0.555623 0.396785 2.44 
-0.14622 0.256934 1.58 
-0.0341844 0.263764 1.622 
0.0546506 0.266854 1.641 
0.208847 0.247177 1.52 
0.278887 0.157413 0.968 
1.73211 0.815035 5.012 
1.01953 0.281977 1.734 
1.28647 0.305719 1.88 
1.31197 0.291897 1.795 
-1.66314 0.346235 2.109 
-1.60683 0.366264 2.231 
-1.49611 0.364622 2.221 
-1.25919 0.345086 2.102 
-1.16729 0.346892 2.113 
-1.18907 0.387114 2.358 
-0.651283 0.301088 1.834 
-0.550566 0.297477 1.812 
-0.214764 0.223436 1.361 
-0.119595 0.26021 1.585 
0.00110329 0.267926 1.632 
0.0773604 0.268583 1.636 
0.200669 0.254136 1.548 
0.200905 0.1315 0.801 
1.61949 0.824956 5.025 
2.44742 1.02853 6.265 
1.06335 0.286313 1.744 
1.32172 0.307327 1.872 
1.37568 0.292223 1.78 
-1.75499 0.352827 2.129 
-1.53464 0.344209 2.077 
-1.53303 0.373708 2.255 
-1.24072 0.357135 2.155 
-1.14556 0.358793 2.165 
-1.05558 0.366084 2.209 
-0.581583 0.29184 1.761 
-0.23799 0.227539 1.373 
-0.146498 0.262341 1.583 
-0.0689941 0.266981 1.611 
0.0189102 0.27129 1.637 
0.0945715 0.269467 1.626 
0.205601 0.253724 1.531 
0.20314 0.132579 0.8 
1.61218 0.837072 5.051 
2.03708 0.922917 5.569 
1.76787 0.538106 3.247 
1.26717 0.307584 1.856 
1.30918 0.297475 1.795 
1.42653 0.300458 1.813 
-1.75911 0.356971 2.134 
-1.59382 0.351952 2.104 
-1.57644 0.378382 2.262 
-1.25764 0.3558 2.127 
-1.15723 0.358476 2.143 
-1.10372 0.3742 2.237 
-0.88496 0.353458 2.113 
-0.580892 0.302773 1.81 
-0.235513 0.229338 1.371 
-0.151991 0.265804 1.589 
-0.0784666 0.267644 1.6 
0.00363889 0.272997 1.632 
0.0797557 0.273165 1.633 
0.174694 0.263295 1.574 
0.23876 0.253426 1.515 
0.213791 0.133488 0.798 
1.63216 0.819494 4.899 
2.30779 1.01236 6.052 
1.04949 0.290896 1.739 
1.3172 0.314148 1.878 
1.33741 0.299093 1.788 
-1.85363 0.346949 2.055 
-1.66285 0.351845 2.084 
-1.56572 0.351845 2.084 
-1.5659 0.381897 2.262 
-1.23975 0.36552 2.165 
-1.14778 0.36839 2.182 
-1.05662 0.372104 2.204 
-0.89623 0.359949 2.132 
-0.579601 0.296299 1.755 
-0.25225 0.233156 1.381 
-0.17151 0.271819 1.61 
-0.0950888 0.267935 1.587 
-0.014093 0.275195 1.63 
0.0622614 0.276884 1.64 
0.147793 0.265741 1.574 
0.212446 0.255273 1.512 
0.200404 0.134896 0.799 
1.61672 0.859352 5.09 
2.02843 0.940222 5.569 
1.80463 0.561196 3.324 
1.27675 0.312169 1.849 
1.31576 0.301364 1.785 
1.4162 0.305078 1.807 
-1.78484 0.364794 2.141 
-1.64372 0.361557 2.122 
-1.59115 0.377233 2.214 
-1.27673 0.365987 2.148 
-1.17552 0.365646 2.146 
-1.13262 0.38507 2.26 
-1.00865 0.382003 2.242 
-0.693454 0.310953 1.825 
-0.581476 0.301411 1.769 
-0.251885 0.234961 1.379 
-0.173776 0.245695 1.442 
-0.104224 0.268527 1.576 
-0.0290005 0.275002 1.614 
0.0470592 0.279943 1.643 
0.121006 0.273979 1.608 
0.195078 0.265971 1.561 
0.262818 0.258645 1.518 
0.291806 0.166296 0.976 
1.80512 0.874246 5.131 
2.44907 1.04736 6.147 
1.25013 0.317768 1.865 
1.31125 0.311634 1.829 
1.36338 0.303626 1.782 
-1.84503 0.352303 2.049 
-1.66261 0.350755 2.04 
-1.55258 0.35385 2.058 
-1.58908 0.387722 2.255 
-1.28981 0.373107 2.17 
-1.17935 0.370184 2.153 
-1.11559 0.382736 2.226 
-1.00717 0.383595 2.231 
-0.857437 0.364166 2.118 
-0.585437 0.300549 1.748 
-0.264121 0.238479 1.387 
-0.197315 0.2359 1.372 
-0.130743 0.270116 1.571 
-0.0586161 0.275274 1.601 
0.0163569 0.281292 1.636 
0.0919886 0.2794 1.625 
0.167038 0.270116 1.571 
0.23231 0.261175 1.519 
0.205576 0.136691 0.795 
1.66261 0.842328 4.899 
2.35067 1.04711 6.09 
1.24172 0.323761 1.883 
1.31042 0.319118 1.856 
1.35629 0.309834 1.802 
-8.28524 1.50054 8.649 
-1.77819 0.371447 2.141 
-1.61169 0.365375 2.106 
-1.54998 0.38845 2.239 
-1.29476 0.375958 2.167 
-1.18604 0.373529 2.153 
-1.1099 0.381857 2.201 
-1.00956 0.385327 2.221 
-0.843477 0.36711 2.116 
-0.587888 0.311766 1.797 
-0.251885 0.239246 1.379 
-0.18829 0.240114 1.384 
-0.123342 0.272383 1.57 
-0.0484232 0.276373 1.593 
0.0367811 0.284528 1.64 
0.111358 0.279843 1.613 
0.185377 0.270822 1.561 
0.250529 0.262841 1.515 
0.215875 0.137406 0.792 
1.80355 0.885505 5.104 
1.87137 0.758682 4.373 
1.24678 0.322696 1.86 
1.30188 0.314368 1.812 
1.36338 0.309164 1.782 
-1.84323 0.358319 2.047 
-1.66568 0.372673 2.129 
-1.57787 0.393679 2.249 
-1.288 0.374424 2.139 
-1.19441 0.376349 2.15 
-1.10641 0.38055 2.174 
-1.01664 0.384926 2.199 
-0.890034 0.374774 2.141 
-0.664148 0.323135 1.846 
-0.551096 0.322435 1.842 
-0.205542 0.239813 1.37 
-0.145388 0.274997 1.571 
-0.073357 0.279549 1.597 
0.0112595 0.286025 1.634 
0.11122 0.281999 1.611 
0.185021 0.272722 1.558 
0.250529 0.265195 1.515 
1.60803 0.881882 5.038 
2.03708 0.974832 5.569 
1.77796 0.568375 3.247 
1.29559 0.32121 1.835 
1.35381 0.314208 1.795 
-8.3226 1.5343 8.688 
-1.67622 0.376864 2.134 
-1.55346 0.394524 2.234 
-1.30824 0.388696 2.201 
-1.17771 0.37969 2.15 
-1.08852 0.383575 2.172 
-1.00274 0.389579 2.206 
-0.864835 0.374392 2.12 
-0.662291 0.329359 1.865 
-0.560897 0.326003 1.846 
-0.211618 0.241589 1.368 
-0.155151 0.277438 1.571 
-0.0833341 0.282206 1.598 
0.0647699 0.289447 1.639 
0.13815 0.283266 1.604 
0.202294 0.269138 1.524 
0.272969 0.268785 1.522 
1.67719 0.860924 4.875 
1.51053 0.589137 3.336 
1.27558 0.315584 1.787 
1.38232 0.315231 1.785 
-1.84355 0.36664 2.058 
-1.66412 0.378932 2.127 
-1.54652 0.397104 2.229 
-1.31549 0.395323 2.219 
-1.1629 0.379289 2.129 
-1.07915 0.384812 2.16 
-0.998407 0.39265 2.204 
-0.853794 0.375726 2.109 
-0.661308 0.336176 1.887 
-0.540931 0.325486 1.827 
-0.199156 0.24407 1.37 
-0.13979 0.278454 1.563 
-0.0682233 0.283798 1.593 
0.091649 0.28843 1.619 
0.16554 0.281482 1.58 
0.233075 0.271506 1.524 
0.356668 0.271862 1.526 
1.78198 0.890589 4.999 
1.51065 0.584343 3.28 
1.26488 0.315688 1.772 
1.40131 0.318538 1.788 
-1.59051 0.352046 1.959 
-1.27975 0.365884 2.036 
-1.32035 0.409912 2.281 
-1.13725 0.385112 2.143 
-1.0422 0.386909 2.153 
-0.965038 0.396434 2.206 
-0.714064 0.332279 1.849 
-0.558395 0.32527 1.81 
-0.211618 0.245839 1.368 
-0.141855 0.280163 1.559 
-0.0706983 0.286273 1.593 
0.0867787 0.291485 1.622 
0.171373 0.281421 1.566 
0.244432 0.273335 1.521 
0.358804 0.274053 1.525 
1.69453 0.869423 4.838 
1.54198 0.616216 3.429 
1.62013 0.560327 3.118 
1.25488 0.315925 1.758 
1.3856 0.31898 1.775 
-1.59213 0.355452 1.961 
-1.33277 0.409649 2.26 
-1.13398 0.381735 2.106 
-1.05204 0.387717 2.139 
-0.975497 0.397142 2.191 
-0.831519 0.37811 2.086 
-0.550979 0.325363 1.795 
-0.203116 0.247965 1.368 
-0.136923 0.282404 1.558 
-0.0656657 0.288386 1.591 
0.0938736 0.292555 1.614 
0.182646 0.278779 1.538 
0.344362 0.276241 1.524 
1.61408 0.862076 4.756 
1.84841 0.794466 4.383 
1.57953 0.571515 3.153 
1.71006 0.566078 3.123 
1.29053 0.3221 1.777 
1.36563 0.320288 1.767 
-1.609 0.358865 1.963 
-1.33597 0.421936 2.308 
-1.11265 0.385556 2.109 
-1.01772 0.386836 2.116 
-0.952971 0.401095 2.194 
-0.706364 0.352832 1.93 
-0.211309 0.249725 1.366 
-0.1632 0.280072 1.532 
-0.0954483 0.291223 1.593 
0.0864042 0.295245 1.615 
0.170342 0.288664 1.579 
0.346047 0.278061 1.521 
0.313585 0.177879 0.973 
1.82533 0.803104 4.393 
1.57689 0.573672 3.138 
1.70393 0.567273 3.103 
1.31666 0.327238 1.79 
1.35942 0.317732 1.738 
-1.59232 0.362283 1.965 
-1.18824 0.392151 2.127 
-1.06875 0.387173 2.1 
-0.982429 0.391782 2.125 
-0.713842 0.372239 2.019 
-0.23159 0.253137 1.373 
-0.169059 0.25535 1.385 
-0.106537 0.290196 1.574 
0.076462 0.298123 1.617 
0.157397 0.294436 1.597 
0.284418 0.28024 1.52 
0.297567 0.179759 0.975 
1.48069 0.73692 3.997 
1.47938 0.578547 3.138 
1.68947 0.572094 3.103 
1.21778 0.317298 1.721 
1.31534 0.321538 1.744 
-1.8796 0.384115 2.066 
-1.34455 0.425017 2.286 
-1.10762 0.384672 2.069 
-1.01981 0.390436 2.1 
-0.729647 0.387089 2.082 
-0.229457 0.255271 1.373 
-0.166229 0.285948 1.538 
-0.0978004 0.295802 1.591 
0.0958438 0.298405 1.605 
0.169377 0.296174 1.593 
0.352461 0.28037 1.508 
0.312296 0.180158 0.969 
1.75573 0.80058 4.306 
1.58085 0.575986 3.098 
1.68014 0.560926 3.017 
1.22809 0.318484 1.713 
1.31175 0.319414 1.718 
-1.87197 0.393136 2.097 
-1.33232 0.43738 2.333 
-1.06467 0.388637 2.073 
-0.943698 0.39876 2.127 
-0.538156 0.32377 1.727 
-0.190642 0.256841 1.37 
-0.123577 0.294899 1.573 
-0.026263 0.299961 1.6 
0.123658 0.301836 1.61 
0.267622 0.287212 1.532 
0.29029 0.182976 0.976 
1.63902 0.858263 4.578 
1.88547 0.829017 4.422 
1.66054 0.581737 3.103 
1.93224 0.59111 3.153 
1.3176 0.333706 1.78 
1.32134 0.314209 1.676 
-1.60106 0.372766 1.972 
-1.11811 0.386943 2.047 
-1.02949 0.393181 2.08 
-0.741873 0.393181 2.08 
-0.188789 0.259348 1.372 
-0.121287 0.297721 1.575 
-0.0163807 0.303581 1.606 
0.123658 0.304337 1.61 
0.275876 0.28827 1.525 
0.305398 0.183547 0.971 
1.7912 0.830405 4.393 
1.56606 0.580131 3.069 
1.67235 0.567655 3.003 
1.21206 0.320972 1.698 
1.29044 0.320783 1.697 
-1.8564 0.390886 2.051 
-1.34673 0.439865 2.308 
-1.0916 0.389742 2.045 
-0.996218 0.39222 2.058 
-0.920417 0.400986 2.104 
-0.730124 0.400605 2.102 
-0.18266 0.261861 1.374 
-0.116689 0.30093 1.579 
-0.001413 0.306838 1.61 
0.131162 0.306838 1.61 
0.342634 0.287018 1.506 
0.311535 0.183341 0.962 
1.91744 0.88278 4.632 
1.61587 0.583946 3.064 
1.95191 0.61482 3.226 
1.31175 0.335616 1.761 
-1.92327 0.400028 2.082 
-1.94735 0.432692 2.252 
-1.22688 0.417321 2.172 
-1.05723 0.391959 2.04 
-0.96828 0.394456 2.053 
-0.906167 0.409635 2.132 
-0.719642 0.403487 2.1 
-0.180656 0.264188 1.375 
-0.109398 0.303576 1.58 
0.0712607 0.309916 1.613 
0.145444 0.307803 1.602 
0.265588 0.294737 1.534 
0.311535 0.184835 0.962 
1.57058 0.586017 3.05 
1.68073 0.575065 2.993 
