# .PCD v.7 - Point Cloud Data file format
VERSION .7
FIELDS x y z
SIZE 4 4 4
TYPE F F F
COUNT 1 1 1
WIDTH 1882
HEIGHT 1
VIEWPOINT 0 0 0 1 0 0 0
POINTS 1882
DATA ascii
0.457127 0.0789844 0.557 
0.480194 0.0791262 0.558 
0.50244 0.0791262 0.558 
0.524687 0.0791262 0.558 
0.545953 0.0789844 0.557 
-0.577918 0.101769 0.706 
-0.549771 0.101769 0.706 
-0.52458 0.102345 0.71 
-0.494875 0.102057 0.708 
-0.470604 0.102922 0.714 
-0.459477 0.106958 0.742 
-0.419518 0.105228 0.73 
-0.381323 0.102778 0.713 
-0.353392 0.102922 0.714 
-0.324016 0.102634 0.712 
-0.296461 0.102922 0.714 
-0.267995 0.102922 0.714 
-0.2402 0.10321 0.716 
-0.212542 0.103643 0.719 
-0.183621 0.103499 0.718 
-0.156075 0.104219 0.723 
-0.127074 0.104075 0.722 
-0.0981536 0.103931 0.721 
-0.0698902 0.104652 0.726 
-0.0410025 0.104796 0.727 
-0.012002 0.104652 0.726 
0.0169421 0.104652 0.726 
0.0459495 0.104796 0.727 
0.0750365 0.10494 0.728 
0.104346 0.105228 0.73 
0.13345 0.105228 0.73 
0.162776 0.105373 0.731 
0.192707 0.105805 0.734 
0.221365 0.105517 0.732 
0.250549 0.105517 0.732 
0.281261 0.106093 0.736 
0.307649 0.105084 0.729 
0.320782 0.0996066 0.691 
0.324134 0.0926875 0.643 
0.325601 0.0859125 0.596 
0.330604 0.0812997 0.564 
0.347455 0.0800024 0.555 
0.36825 0.0797141 0.553 
0.391003 0.0798582 0.554 
0.415327 0.0802907 0.557 
0.437533 0.0802907 0.557 
0.45974 0.0802907 0.557 
0.482811 0.0804348 0.558 
0.504152 0.0802907 0.557 
0.527304 0.0804348 0.558 
0.548565 0.0802907 0.557 
-0.572139 0.103278 0.705 
-0.544804 0.103425 0.706 
-0.518853 0.103864 0.709 
-0.489894 0.103717 0.708 
-0.466232 0.104743 0.715 
-0.448346 0.108112 0.738 
-0.413815 0.106794 0.729 
-0.375779 0.104303 0.712 
-0.347881 0.10445 0.713 
-0.319007 0.104303 0.712 
-0.291845 0.104743 0.715 
-0.262603 0.10445 0.713 
-0.235163 0.104889 0.716 
-0.207194 0.105182 0.718 
-0.178569 0.105182 0.718 
-0.150571 0.105622 0.721 
-0.121995 0.105768 0.722 
-0.093081 0.105622 0.721 
-0.0647824 0.106354 0.726 
-0.0358877 0.106501 0.727 
-0.00690369 0.106501 0.727 
0.0220803 0.106501 0.727 
0.0510643 0.106501 0.727 
0.0802685 0.106794 0.729 
0.109482 0.10694 0.73 
0.138586 0.10694 0.73 
0.168149 0.107233 0.732 
0.197332 0.107233 0.732 
0.226515 0.107233 0.732 
0.255699 0.107233 0.732 
0.28605 0.107673 0.735 
0.311491 0.106354 0.726 
0.320931 0.0997622 0.681 
0.324058 0.092877 0.634 
0.326192 0.0867242 0.592 
0.330295 0.0818899 0.559 
0.349428 0.0811575 0.554 
0.370173 0.0808645 0.552 
0.394312 0.081304 0.555 
0.417939 0.081597 0.557 
0.440936 0.0817434 0.558 
0.462352 0.081597 0.557 
0.485428 0.0817434 0.558 
0.506765 0.081597 0.557 
0.528971 0.081597 0.557 
0.551178 0.081597 0.557 
-0.565526 0.104931 0.705 
-0.538181 0.10508 0.706 
-0.512924 0.105676 0.71 
-0.485301 0.105824 0.711 
-0.462096 0.107015 0.719 
-0.436638 0.108652 0.73 
-0.404185 0.107759 0.724 
-0.3691 0.105973 0.712 
-0.340235 0.105824 0.711 
-0.312766 0.106122 0.713 
-0.285138 0.10642 0.715 
-0.256274 0.106271 0.714 
-0.228446 0.106569 0.716 
-0.20018 0.106717 0.717 
-0.172073 0.107015 0.719 
-0.143608 0.107164 0.72 
-0.115701 0.107908 0.725 
-0.0867964 0.107908 0.725 
-0.0578922 0.107908 0.725 
-0.0289879 0.107908 0.725 
-8.39254e-05 0.108206 0.727 
0.0289398 0.108355 0.728 
0.0579637 0.108355 0.728 
0.087107 0.108503 0.729 
0.116489 0.108801 0.731 
0.145434 0.108652 0.73 
0.175015 0.10895 0.732 
0.204199 0.10895 0.732 
0.233382 0.10895 0.732 
0.263283 0.109248 0.734 
0.292546 0.109248 0.734 
0.315232 0.107015 0.719 
0.321292 0.0985313 0.662 
0.323525 0.0916847 0.616 
0.329436 0.086773 0.583 
0.337043 0.0826055 0.555 
0.358522 0.0824567 0.554 
0.378548 0.0820102 0.551 
0.40415 0.0827544 0.556 
0.426316 0.0827544 0.556 
0.449289 0.0829032 0.557 
0.471496 0.0829032 0.557 
0.493702 0.0829032 0.557 
0.515909 0.0829032 0.557 
0.538115 0.0829032 0.557 
-0.582059 0.106585 0.705 
-0.553952 0.106585 0.705 
-0.527337 0.106887 0.707 
-0.499857 0.107038 0.708 
-0.474295 0.107643 0.712 
-0.457808 0.110515 0.731 
-0.428078 0.110364 0.73 
-0.390776 0.108097 0.715 
-0.361764 0.107945 0.714 
-0.331431 0.107341 0.71 
-0.304406 0.107794 0.713 
-0.276754 0.108097 0.715 
-0.248249 0.108097 0.715 
-0.220358 0.108399 0.717 
-0.191505 0.108248 0.716 
-0.164325 0.109155 0.722 
-0.135353 0.109004 0.721 
-0.106904 0.109306 0.723 
-0.0785112 0.109911 0.727 
-0.0495272 0.109911 0.727 
-0.0204867 0.109608 0.725 
0.00842916 0.10976 0.726 
0.0373733 0.10976 0.726 
0.0665001 0.110062 0.728 
0.0956551 0.110213 0.729 
0.125061 0.110515 0.731 
0.153994 0.110364 0.73 
0.183599 0.110667 0.732 
0.212491 0.110515 0.731 
0.241304 0.110364 0.73 
0.27226 0.11112 0.735 
0.299511 0.110364 0.73 
0.318712 0.107038 0.708 
0.322995 0.0991767 0.656 
0.323601 0.0919199 0.608 
0.329703 0.0857213 0.567 
0.343609 0.0836047 0.553 
0.365656 0.0836047 0.553 
0.387002 0.0834536 0.552 
0.412714 0.0842095 0.557 
0.434921 0.0842095 0.557 
0.457127 0.0842095 0.557 
0.480194 0.0843607 0.558 
0.50154 0.0842095 0.557 
0.523746 0.0842095 0.557 
0.544973 0.0840583 0.556 
-0.572139 0.108238 0.705 
-0.545576 0.108545 0.707 
-0.518853 0.108852 0.709 
-0.489894 0.108699 0.708 
-0.466232 0.109773 0.715 
-0.451808 0.113305 0.738 
-0.417234 0.111923 0.729 
-0.377521 0.108852 0.709 
-0.351718 0.10962 0.714 
-0.322346 0.109313 0.712 
-0.294786 0.10962 0.714 
-0.266693 0.109773 0.715 
-0.238521 0.109927 0.716 
-0.210269 0.11008 0.717 
-0.181684 0.11008 0.717 
-0.153952 0.110695 0.721 
-0.125381 0.110848 0.722 
-0.0964628 0.110695 0.721 
-0.0681876 0.111462 0.726 
-0.0392976 0.111616 0.727 
-0.0103136 0.111616 0.727 
0.0186447 0.111462 0.726 
0.0474577 0.111155 0.724 
0.0767438 0.111769 0.728 
0.105768 0.111769 0.728 
0.135347 0.11223 0.731 
0.16449 0.11223 0.731 
0.193899 0.112383 0.732 
0.223082 0.112383 0.732 
0.251921 0.11223 0.731 
0.282602 0.112844 0.735 
0.30851 0.111616 0.727 
0.320782 0.106089 0.691 
0.323126 0.0984122 0.641 
0.324747 0.0916569 0.597 
0.330604 0.0865904 0.564 
0.346203 0.0849016 0.553 
0.367584 0.0847481 0.552 
0.390297 0.0849016 0.553 
0.415327 0.0855157 0.557 
0.437533 0.0855157 0.557 
0.458914 0.0853622 0.556 
0.482811 0.0856693 0.558 
0.503247 0.0853622 0.556 
0.526359 0.0855157 0.557 
0.54758 0.0853622 0.556 
-0.569639 0.110047 0.706 
-0.54226 0.110203 0.707 
-0.516254 0.110671 0.71 
-0.487948 0.110671 0.71 
-0.464174 0.111762 0.717 
-0.442984 0.1141 0.732 
-0.409844 0.113009 0.725 
-0.373058 0.110671 0.71 
-0.345723 0.110983 0.712 
-0.317337 0.110983 0.712 
-0.289763 0.111294 0.714 
-0.261297 0.111294 0.714 
-0.233484 0.111606 0.716 
-0.205224 0.111762 0.717 
-0.176639 0.111762 0.717 
-0.148467 0.112074 0.719 
-0.120468 0.112697 0.723 
-0.0916437 0.112697 0.723 
-0.0629929 0.113009 0.725 
-0.0340887 0.113009 0.725 
-0.0052059 0.113477 0.728 
0.0237852 0.113321 0.727 
0.0526966 0.113165 0.726 
0.0818657 0.113477 0.728 
0.111042 0.113632 0.729 
0.140298 0.113788 0.73 
0.169633 0.113944 0.731 
0.199049 0.1141 0.732 
0.228232 0.1141 0.732 
0.257415 0.1141 0.732 
0.287382 0.114412 0.734 
0.311899 0.112697 0.723 
0.322345 0.106618 0.684 
0.322524 0.0983567 0.631 
0.327027 0.0921217 0.591 
0.332434 0.0866661 0.556 
0.352688 0.0861985 0.553 
0.374057 0.0860426 0.552 
0.397499 0.0863544 0.554 
0.421101 0.0866661 0.556 
0.444064 0.086822 0.557 
0.465434 0.0866661 0.556 
0.488477 0.086822 0.557 
0.509767 0.0866661 0.556 
0.53289 0.086822 0.557 
-0.591979 0.111545 0.705 
-0.560566 0.111545 0.705 
-0.533969 0.111861 0.707 
-0.507214 0.112178 0.709 
-0.479623 0.112336 0.71 
-0.460851 0.114709 0.725 
-0.433808 0.115658 0.731 
-0.39636 0.113285 0.716 
-0.36576 0.112652 0.712 
-0.3369 0.112494 0.711 
-0.308988 0.112652 0.712 
-0.281391 0.112969 0.714 
-0.253279 0.113127 0.715 
-0.225088 0.113285 0.716 
-0.196542 0.113285 0.716 
-0.168701 0.11376 0.719 
-0.140425 0.114076 0.721 
-0.1123 0.114709 0.725 
-0.0833959 0.114709 0.725 
-0.0545668 0.114867 0.726 
-0.0255169 0.114393 0.723 
0.00333053 0.115184 0.728 
0.0322211 0.114709 0.725 
0.0613782 0.115184 0.728 
0.0905263 0.115342 0.729 
0.119754 0.1155 0.73 
0.148858 0.1155 0.73 
0.178449 0.115817 0.732 
0.207348 0.115658 0.731 
0.236815 0.115817 0.732 
0.266725 0.116133 0.734 
0.294376 0.1155 0.73 
0.316832 0.113127 0.715 
0.322154 0.105532 0.667 
0.322603 0.0976214 0.617 
0.329195 0.0925584 0.585 
0.33444 0.0878118 0.555 
0.355281 0.0874954 0.553 
0.376646 0.0873372 0.552 
0.400097 0.0876536 0.554 
0.423708 0.08797 0.556 
0.446677 0.0881283 0.557 
0.468042 0.08797 0.556 
0.49109 0.0881283 0.557 
0.512375 0.08797 0.556 
0.535503 0.0881283 0.557 
-0.592819 0.113359 0.706 
-0.564672 0.113359 0.706 
-0.537286 0.113519 0.707 
-0.509819 0.11368 0.708 
-0.482953 0.114001 0.71 
-0.461691 0.115767 0.721 
-0.437834 0.117533 0.732 
-0.400277 0.115125 0.717 
-0.368063 0.114001 0.71 
-0.340714 0.114322 0.712 
-0.312328 0.114322 0.712 
-0.284739 0.114643 0.714 
-0.256633 0.114804 0.715 
-0.228446 0.114964 0.716 
-0.199901 0.114964 0.716 
-0.171595 0.115125 0.717 
-0.143608 0.115607 0.72 
-0.115701 0.116409 0.725 
-0.086557 0.116088 0.723 
-0.0578922 0.116409 0.725 
-0.028908 0.116088 0.723 
-8.40409e-05 0.116891 0.728 
0.0288206 0.116409 0.725 
0.0579637 0.116891 0.728 
0.0869875 0.116891 0.728 
0.11633 0.117212 0.73 
0.145434 0.117212 0.73 
0.174776 0.117373 0.731 
0.20392 0.117373 0.731 
0.233382 0.117533 0.732 
0.262924 0.117694 0.733 
0.291749 0.117533 0.732 
0.314794 0.115285 0.718 
0.321417 0.107899 0.672 
0.321782 0.0997107 0.621 
0.328683 0.0945726 0.589 
0.333138 0.0891134 0.555 
0.353984 0.0887923 0.553 
0.375351 0.0886317 0.552 
0.398798 0.0889528 0.554 
0.422404 0.089274 0.556 
0.445371 0.0894345 0.557 
0.466738 0.089274 0.556 
0.489784 0.0894345 0.557 
0.511071 0.089274 0.556 
0.534196 0.0894345 0.557 
-0.594475 0.115014 0.706 
-0.566328 0.115014 0.706 
-0.538944 0.115177 0.707 
-0.511479 0.11534 0.708 
-0.484618 0.115666 0.71 
-0.463381 0.117458 0.721 
-0.439031 0.119576 0.734 
-0.400277 0.116806 0.717 
-0.368063 0.115666 0.71 
-0.340714 0.115992 0.712 
-0.311889 0.115829 0.711 
-0.284341 0.116155 0.713 
-0.256633 0.116481 0.715 
-0.228446 0.116643 0.716 
-0.199901 0.116643 0.716 
-0.171834 0.116969 0.718 
-0.143608 0.117295 0.72 
-0.115701 0.11811 0.725 
-0.086557 0.117784 0.723 
-0.0578922 0.11811 0.725 
-0.028908 0.117784 0.723 
-8.40409e-05 0.118598 0.728 
0.0287808 0.117947 0.724 
0.0579637 0.118598 0.728 
0.0869875 0.118598 0.728 
0.11633 0.118924 0.73 
0.145434 0.118924 0.73 
0.174776 0.119087 0.731 
0.20392 0.119087 0.731 
0.233701 0.119413 0.733 
0.262924 0.119413 0.733 
0.29135 0.119087 0.731 
0.314794 0.116969 0.718 
0.321896 0.109638 0.673 
0.321264 0.101004 0.62 
0.328683 0.0959539 0.589 
0.333138 0.090415 0.555 
0.353984 0.0900891 0.553 
0.376031 0.0900891 0.553 
0.398798 0.090252 0.554 
0.422404 0.0905779 0.556 
0.445371 0.0907408 0.557 
0.466738 0.0905779 0.556 
0.489784 0.0907408 0.557 
0.511071 0.0905779 0.556 
0.534196 0.0907408 0.557 
-0.594475 0.11667 0.706 
-0.566328 0.11667 0.706 
-0.538944 0.116835 0.707 
-0.511479 0.117001 0.708 
-0.484618 0.117331 0.71 
-0.463381 0.119149 0.721 
-0.439629 0.121462 0.735 
-0.399719 0.118323 0.716 
-0.368063 0.117331 0.71 
-0.340714 0.117662 0.712 
-0.31145 0.117331 0.71 
-0.284341 0.117827 0.713 
-0.256633 0.118157 0.715 
-0.228446 0.118323 0.716 
-0.199901 0.118323 0.716 
-0.171834 0.118653 0.718 
-0.143608 0.118984 0.72 
-0.115541 0.119645 0.724 
-0.0864373 0.119314 0.722 
-0.0578922 0.11981 0.725 
-0.028908 0.119479 0.723 
-8.40409e-05 0.120306 0.728 
0.028741 0.119479 0.723 
0.0579637 0.120306 0.728 
0.087107 0.120471 0.729 
0.11633 0.120636 0.73 
0.145434 0.120636 0.73 
0.174776 0.120801 0.731 
0.20392 0.120801 0.731 
0.233701 0.121132 0.733 
0.262565 0.120967 0.732 
0.29135 0.120801 0.731 
0.314794 0.118653 0.718 
0.321417 0.111051 0.672 
0.321264 0.102458 0.62 
0.328125 0.0971699 0.588 
0.332434 0.0918818 0.556 
0.352688 0.091386 0.553 
0.374735 0.091386 0.553 
0.397499 0.0915513 0.554 
0.421101 0.0918818 0.556 
0.444064 0.0920471 0.557 
0.466271 0.0920471 0.557 
0.488477 0.0920471 0.557 
0.509767 0.0918818 0.556 
0.53289 0.0920471 0.557 
-0.59613 0.118326 0.706 
-0.567984 0.118326 0.706 
-0.541366 0.118661 0.708 
-0.512415 0.118493 0.707 
-0.485598 0.118829 0.709 
-0.463782 0.120505 0.719 
-0.443154 0.123689 0.738 
-0.401958 0.120169 0.717 
-0.369728 0.118996 0.71 
-0.342384 0.119331 0.712 
-0.313116 0.118996 0.71 
-0.285612 0.119331 0.712 
-0.257948 0.119667 0.714 
-0.230125 0.120002 0.716 
-0.20158 0.120002 0.716 
-0.173276 0.120169 0.717 
-0.145296 0.120672 0.72 
-0.117077 0.121175 0.723 
-0.0880084 0.12084 0.721 
-0.0595102 0.121343 0.724 
-0.0306459 0.121343 0.724 
-0.00179133 0.122013 0.728 
0.0270455 0.121175 0.723 
0.0562564 0.122013 0.728 
0.0853974 0.122181 0.729 
0.114461 0.122181 0.729 
0.143722 0.122348 0.73 
0.173062 0.122516 0.731 
0.202205 0.122516 0.731 
0.231982 0.122851 0.733 
0.260849 0.122683 0.732 
0.289636 0.122516 0.731 
0.314418 0.12084 0.721 
0.322221 0.113465 0.677 
0.320842 0.104247 0.622 
0.327857 0.0988841 0.59 
0.332434 0.0931857 0.556 
0.353325 0.0928505 0.554 
0.374735 0.0926829 0.553 
0.397499 0.0928505 0.554 
0.421101 0.0931857 0.556 
0.443267 0.0931857 0.556 
0.465434 0.0931857 0.556 
0.488477 0.0933533 0.557 
0.509767 0.0931857 0.556 
0.53289 0.0933533 0.557 
-0.597786 0.119981 0.706 
-0.569639 0.119981 0.706 
-0.543027 0.120321 0.708 
-0.514073 0.120151 0.707 
-0.486574 0.120321 0.708 
-0.464174 0.121851 0.717 
-0.445487 0.12559 0.739 
-0.404766 0.122191 0.719 
-0.371393 0.120661 0.71 
-0.344053 0.121001 0.712 
-0.314781 0.120661 0.71 
-0.287281 0.121001 0.712 
-0.259623 0.121341 0.714 
-0.231804 0.121681 0.716 
-0.203259 0.121681 0.716 
-0.174958 0.121851 0.717 
-0.146781 0.122191 0.719 
-0.118773 0.12287 0.723 
-0.0896993 0.122531 0.721 
-0.0611236 0.12287 0.723 
-0.0323884 0.12321 0.725 
-0.00349861 0.12372 0.728 
0.0253499 0.12287 0.723 
0.0545491 0.12372 0.728 
0.0835729 0.12372 0.728 
0.112751 0.12389 0.729 
0.14201 0.12406 0.73 
0.171113 0.12406 0.73 
0.200491 0.12423 0.731 
0.230577 0.12474 0.734 
0.259132 0.1244 0.732 
0.288315 0.1244 0.732 
0.313595 0.12287 0.723 
0.322528 0.115733 0.681 
0.320326 0.105536 0.621 
0.327302 0.100098 0.589 
0.333138 0.0943197 0.555 
0.354625 0.0941497 0.554 
0.376711 0.0941497 0.554 
0.399518 0.0943197 0.555 
0.421645 0.0943197 0.555 
0.444571 0.0944896 0.556 
0.466738 0.0944896 0.556 
0.489784 0.0946596 0.557 
0.51199 0.0946596 0.557 
0.534196 0.0946596 0.557 
-0.594475 0.121637 0.706 
-0.566328 0.121637 0.706 
-0.539706 0.121982 0.708 
-0.510035 0.121637 0.706 
-0.483935 0.122154 0.709 
-0.464024 0.124394 0.722 
-0.442619 0.127495 0.74 
-0.398596 0.123532 0.717 
-0.366914 0.122499 0.711 
-0.33952 0.122843 0.713 
-0.308913 0.121982 0.708 
-0.282669 0.122843 0.713 
-0.254599 0.123015 0.714 
-0.226767 0.12336 0.716 
-0.198222 0.12336 0.716 
-0.170387 0.123877 0.719 
-0.142313 0.124394 0.722 
-0.113686 0.124566 0.723 
-0.0846267 0.124221 0.721 
-0.0561144 0.124738 0.724 
-0.0272877 0.124911 0.725 
0.00161878 0.125083 0.726 
0.0303524 0.124221 0.721 
0.0596709 0.125427 0.728 
0.0888166 0.1256 0.729 
0.11788 0.1256 0.729 
0.147146 0.125772 0.73 
0.176491 0.125944 0.731 
0.205915 0.126117 0.732 
0.23542 0.126289 0.733 
0.263921 0.125944 0.731 
0.292664 0.125772 0.73 
0.316037 0.123532 0.717 
0.319918 0.113023 0.656 
0.322175 0.104753 0.608 
0.331031 0.100101 0.581 
0.339034 0.0954489 0.554 
0.359817 0.0951044 0.552 
0.383899 0.0956212 0.555 
0.406758 0.0957935 0.556 
0.428153 0.0956212 0.555 
0.451091 0.0957935 0.556 
0.474108 0.0959658 0.557 
0.496315 0.0959658 0.557 
0.518521 0.0959658 0.557 
0.540728 0.0959658 0.557 
-0.584541 0.123293 0.706 
-0.557182 0.123467 0.707 
-0.528995 0.123467 0.707 
-0.500809 0.123467 0.707 
-0.474628 0.123991 0.71 
-0.459522 0.127659 0.731 
-0.433356 0.129056 0.739 
-0.39023 0.12469 0.714 
-0.360751 0.124341 0.712 
-0.332365 0.124341 0.712 
-0.302698 0.123817 0.709 
-0.275593 0.124341 0.712 
-0.248249 0.124865 0.715 
-0.219743 0.124865 0.715 
-0.191505 0.125039 0.716 
-0.16387 0.125738 0.72 
-0.136479 0.12696 0.727 
-0.106904 0.126262 0.723 
-0.0779712 0.126087 0.722 
-0.0493228 0.126436 0.724 
-0.0204867 0.126611 0.725 
0.00842916 0.126786 0.726 
0.0371674 0.126087 0.722 
0.0665914 0.127309 0.729 
0.0956551 0.127309 0.729 
0.126428 0.127309 0.729 
0.155706 0.127484 0.73 
0.185062 0.127659 0.731 
0.215378 0.128357 0.735 
0.244015 0.128008 0.733 
0.27212 0.127484 0.73 
0.300398 0.127135 0.728 
0.318109 0.122769 0.703 
0.321598 0.112989 0.647 
0.323564 0.104781 0.6 
0.33069 0.099717 0.571 
0.343609 0.0965735 0.553 
0.364995 0.0963989 0.552 
0.388404 0.0967482 0.554 
0.411973 0.0970975 0.556 
0.433359 0.0969228 0.555 
0.455486 0.0969228 0.555 
0.479333 0.0972721 0.557 
0.50154 0.0972721 0.557 
0.523746 0.0972721 0.557 
0.546933 0.0974467 0.558 
-0.579574 0.124949 0.706 
-0.552989 0.125302 0.708 
-0.52328 0.124949 0.706 
-0.495835 0.125125 0.707 
-0.469632 0.125656 0.71 
-0.458109 0.130435 0.737 
-0.426419 0.130258 0.736 
-0.383588 0.125833 0.711 
-0.356241 0.126187 0.713 
-0.326896 0.125833 0.711 
-0.29813 0.125656 0.71 
-0.270584 0.12601 0.712 
-0.243218 0.126541 0.715 
-0.214713 0.126541 0.715 
-0.186468 0.126718 0.716 
-0.158804 0.127426 0.72 
-0.131545 0.128842 0.728 
-0.101676 0.12778 0.722 
-0.0728916 0.12778 0.722 
-0.0442902 0.128311 0.725 
-0.0153859 0.128311 0.725 
0.0135556 0.128665 0.727 
0.0424225 0.128311 0.725 
0.0717203 0.129019 0.729 
0.100646 0.128842 0.728 
0.129848 0.129019 0.729 
0.159129 0.129196 0.73 
0.188491 0.129373 0.731 
0.218825 0.130081 0.735 
0.247115 0.12955 0.732 
0.275921 0.129373 0.731 
0.303395 0.128665 0.727 
0.319121 0.123533 0.698 
0.321618 0.113976 0.644 
0.324203 0.105481 0.596 
0.329865 0.0999942 0.565 
0.344906 0.0978704 0.553 
0.366953 0.0978704 0.553 
0.389704 0.0980474 0.554 
0.413277 0.0984014 0.556 
0.43466 0.0982244 0.555 
0.456787 0.0982244 0.555 
0.48064 0.0985783 0.557 
0.501943 0.0984014 0.556 
0.52411 0.0984014 0.556 
0.548241 0.0987553 0.558 
-0.576262 0.126604 0.706 
-0.550444 0.127142 0.709 
-0.519969 0.126604 0.706 
-0.493215 0.126963 0.708 
-0.468929 0.128039 0.714 
-0.455382 0.132881 0.741 
-0.421242 0.131446 0.733 
-0.379184 0.127142 0.709 
-0.353392 0.128039 0.714 
-0.323106 0.127321 0.71 
-0.29563 0.12768 0.712 
-0.267244 0.12768 0.712 
-0.239865 0.128218 0.715 
-0.211359 0.128218 0.715 
-0.183365 0.128577 0.717 
-0.155211 0.128935 0.719 
-0.127778 0.130191 0.726 
-0.0982898 0.129473 0.722 
-0.0695051 0.129473 0.722 
-0.0409461 0.130191 0.726 
-0.0119854 0.130011 0.725 
0.0169421 0.130191 0.726 
0.0458863 0.130191 0.726 
0.0750365 0.130549 0.728 
0.10406 0.130549 0.728 
0.133267 0.130729 0.729 
0.162553 0.130908 0.73 
0.19192 0.131087 0.731 
0.222877 0.132163 0.737 
0.250549 0.131267 0.732 
0.279732 0.131267 0.732 
0.306383 0.130191 0.726 
0.320085 0.124273 0.693 
0.321045 0.113155 0.631 
0.324804 0.106161 0.592 
0.328396 0.100064 0.558 
0.3475 0.0991673 0.553 
0.369547 0.0991673 0.553 
0.39301 0.099526 0.555 
0.415885 0.0997053 0.556 
0.437264 0.099526 0.555 
0.45939 0.099526 0.555 
0.483252 0.0998846 0.557 
0.504551 0.0997053 0.556 
0.526718 0.0997053 0.556 
0.550859 0.100064 0.558 
-0.572139 0.128078 0.705 
-0.546347 0.128623 0.708 
-0.516657 0.12826 0.706 
-0.489894 0.128623 0.708 
-0.466884 0.130077 0.716 
-0.450687 0.134255 0.739 
-0.416664 0.132802 0.731 
-0.376388 0.128987 0.71 
-0.349553 0.129532 0.713 
-0.319776 0.128987 0.71 
-0.292291 0.12935 0.712 
-0.263905 0.12935 0.712 
-0.236511 0.129895 0.715 
-0.208006 0.129895 0.715 
-0.180002 0.130258 0.717 
-0.151839 0.130622 0.719 
-0.124031 0.13153 0.724 
-0.0949033 0.131167 0.722 
-0.0660271 0.130985 0.721 
-0.0374892 0.131712 0.725 
-0.00858494 0.131712 0.725 
0.0203473 0.131893 0.726 
0.0493593 0.132075 0.727 
0.0784511 0.132257 0.728 
0.107475 0.132257 0.728 
0.136686 0.132438 0.729 
0.165977 0.13262 0.73 
0.195348 0.132802 0.731 
0.226027 0.13371 0.736 
0.253635 0.132802 0.731 
0.283552 0.133165 0.733 
0.308508 0.131348 0.723 
0.321469 0.125171 0.689 
0.320991 0.11409 0.628 
0.32509 0.107186 0.59 
0.329113 0.101191 0.557 
0.348166 0.100283 0.552 
0.371514 0.100646 0.554 
0.394312 0.100828 0.555 
0.417189 0.101009 0.556 
0.438565 0.100828 0.555 
0.459862 0.100646 0.554 
0.484558 0.101191 0.557 
0.505855 0.101009 0.556 
0.528022 0.101009 0.556 
0.552167 0.101373 0.558 
-0.568833 0.129732 0.705 
-0.54226 0.1301 0.707 
-0.5148 0.130284 0.708 
-0.487261 0.130468 0.709 
-0.464821 0.132124 0.718 
-0.443076 0.135252 0.735 
-0.409833 0.133964 0.728 
-0.371393 0.130652 0.71 
-0.344537 0.131204 0.713 
-0.314337 0.130468 0.709 
-0.288088 0.131388 0.714 
-0.259259 0.131204 0.713 
-0.231481 0.131572 0.715 
-0.203259 0.131756 0.716 
-0.174958 0.13194 0.717 
-0.147189 0.132676 0.721 
-0.118773 0.133044 0.723 
-0.0898237 0.13286 0.722 
-0.0610391 0.13286 0.722 
-0.0324331 0.133596 0.726 
-0.00347458 0.133044 0.723 
0.0254201 0.133412 0.725 
0.0543992 0.133596 0.726 
0.0835729 0.133964 0.728 
0.112597 0.133964 0.728 
0.141815 0.134148 0.729 
0.171113 0.134332 0.73 
0.200491 0.134516 0.731 
0.230891 0.135252 0.735 
0.258424 0.134332 0.73 
0.289103 0.135068 0.734 
0.312728 0.132676 0.721 
0.321581 0.124947 0.679 
0.321264 0.11409 0.62 
0.325893 0.107466 0.584 
0.331239 0.101945 0.554 
0.352688 0.101761 0.553 
0.375412 0.101945 0.554 
0.398216 0.102129 0.555 
0.420343 0.102129 0.555 
0.44247 0.102129 0.555 
0.463759 0.101945 0.554 
0.4876 0.102313 0.556 
0.509767 0.102313 0.556 
0.53289 0.102497 0.557 
-0.592819 0.131571 0.706 
-0.563873 0.131385 0.705 
-0.537286 0.131758 0.707 
-0.510539 0.13213 0.709 
-0.482273 0.13213 0.709 
-0.464252 0.135112 0.725 
-0.439031 0.136789 0.734 
-0.40586 0.135485 0.727 
-0.368581 0.132503 0.711 
-0.340714 0.132689 0.712 
-0.311012 0.13213 0.709 
-0.284739 0.133062 0.714 
-0.256274 0.133062 0.714 
-0.228127 0.133249 0.715 
-0.199901 0.133435 0.716 
-0.171834 0.133808 0.718 
-0.144007 0.134553 0.722 
-0.115382 0.134739 0.723 
-0.0863176 0.134367 0.721 
-0.0576526 0.134553 0.722 
-0.0290279 0.135298 0.726 
-8.34637e-05 0.134739 0.723 
0.0288206 0.135112 0.725 
0.0578044 0.135298 0.726 
0.0869875 0.135671 0.728 
0.116011 0.135671 0.728 
0.145234 0.135858 0.729 
0.174537 0.136044 0.73 
0.204199 0.136417 0.732 
0.23402 0.136789 0.734 
0.261848 0.136044 0.73 
0.291749 0.136417 0.732 
0.314356 0.133621 0.717 
0.319982 0.124676 0.669 
0.321264 0.115544 0.62 
0.325893 0.108835 0.584 
0.331937 0.103058 0.553 
0.353984 0.103058 0.553 
0.376031 0.103058 0.553 
0.399518 0.103431 0.555 
0.421645 0.103431 0.555 
0.443771 0.103431 0.555 
0.465059 0.103244 0.554 
0.488904 0.103617 0.556 
0.511071 0.103617 0.556 
0.534196 0.103803 0.557 
-0.589508 0.133227 0.706 
-0.560566 0.133038 0.705 
-0.533969 0.133416 0.707 
-0.507214 0.133793 0.709 
-0.478947 0.133793 0.709 
-0.462123 0.13719 0.727 
-0.434994 0.138322 0.733 
-0.398575 0.135869 0.72 
-0.36576 0.134359 0.712 
-0.337374 0.134359 0.712 
-0.30812 0.133982 0.71 
-0.281391 0.134737 0.714 
-0.252925 0.134737 0.714 
-0.224773 0.134925 0.715 
-0.196268 0.134925 0.715 
-0.168701 0.13568 0.719 
-0.141204 0.136812 0.725 
-0.111835 0.136246 0.722 
-0.0829358 0.136058 0.721 
-0.0543414 0.136435 0.723 
-0.0255874 0.136812 0.725 
0.00330766 0.136435 0.723 
0.0321766 0.136624 0.724 
0.0612096 0.137001 0.726 
0.0904021 0.137378 0.728 
0.119426 0.137378 0.728 
0.148858 0.137756 0.73 
0.177961 0.137756 0.73 
0.207916 0.138322 0.733 
0.237139 0.138322 0.733 
0.265272 0.137756 0.73 
0.294779 0.137945 0.731 
0.316389 0.134737 0.714 
0.31829 0.124358 0.659 
0.322603 0.116432 0.617 
0.327506 0.109827 0.582 
0.332632 0.104166 0.552 
0.355281 0.104355 0.553 
0.378011 0.104544 0.554 
0.401542 0.104921 0.556 
0.422946 0.104732 0.555 
0.445073 0.104732 0.555 
0.4672 0.104732 0.555 
0.490208 0.104921 0.556 
0.512375 0.104921 0.556 
0.535503 0.10511 0.557 
-0.590326 0.134692 0.705 
-0.562219 0.134692 0.705 
-0.535627 0.135074 0.707 
-0.509594 0.135647 0.71 
-0.48061 0.135456 0.709 
-0.46319 0.138704 0.726 
-0.436118 0.13985 0.732 
-0.404155 0.138895 0.727 
-0.366914 0.135838 0.711 
-0.339044 0.136029 0.712 
-0.309785 0.135647 0.71 
-0.283065 0.136411 0.714 
-0.254599 0.136411 0.714 
-0.22645 0.136602 0.715 
-0.197945 0.136602 0.715 
-0.17015 0.137175 0.718 
-0.142313 0.137939 0.722 
-0.113371 0.137748 0.721 
-0.0845093 0.137557 0.72 
-0.0560369 0.138131 0.723 
-0.0272877 0.138513 0.725 
0.0016121 0.138131 0.723 
0.0305208 0.138513 0.725 
0.059507 0.138704 0.726 
0.088573 0.138895 0.727 
0.117557 0.138895 0.727 
0.146944 0.139277 0.729 
0.176249 0.139468 0.73 
0.205915 0.13985 0.732 
0.235741 0.140232 0.734 
0.26356 0.139468 0.73 
0.293064 0.139659 0.731 
0.315596 0.136793 0.716 
0.319148 0.126858 0.664 
0.32195 0.117115 0.613 
0.327741 0.11081 0.58 
0.333926 0.105461 0.552 
0.356578 0.105652 0.553 
0.378625 0.105652 0.553 
0.402846 0.106225 0.556 
0.424248 0.106034 0.555 
0.446375 0.106034 0.555 
0.468501 0.106034 0.555 
0.491512 0.106225 0.556 
0.513679 0.106225 0.556 
0.536809 0.106416 0.557 
-0.587019 0.136345 0.705 
-0.558912 0.136345 0.705 
-0.532311 0.136732 0.707 
-0.506264 0.137312 0.71 
-0.476611 0.136925 0.708 
-0.461051 0.140793 0.728 
-0.434401 0.141567 0.732 
-0.400236 0.139826 0.723 
-0.36409 0.137699 0.712 
-0.335704 0.137699 0.712 
-0.306455 0.137312 0.71 
-0.279716 0.138086 0.714 
-0.25125 0.138086 0.714 
-0.222785 0.138086 0.714 
-0.194591 0.138279 0.715 
-0.166782 0.138859 0.718 
-0.138927 0.139633 0.722 
-0.109837 0.139246 0.72 
-0.0811323 0.139246 0.72 
-0.0526458 0.139826 0.723 
-0.0238213 0.139826 0.723 
0.00500321 0.139826 0.723 
0.0338745 0.140019 0.724 
0.0629122 0.140406 0.726 
0.0921094 0.140793 0.728 
0.121133 0.140793 0.728 
0.150363 0.140986 0.729 
0.179673 0.14118 0.73 
0.209635 0.14176 0.733 
0.238858 0.14176 0.733 
0.26735 0.141373 0.731 
0.296088 0.14118 0.73 
0.317173 0.137699 0.712 
0.318865 0.127062 0.657 
0.32195 0.118552 0.613 
0.328306 0.112364 0.581 
0.333926 0.106755 0.552 
0.356578 0.106949 0.553 
0.378625 0.106949 0.553 
0.402846 0.107529 0.556 
0.424248 0.107335 0.555 
0.446375 0.107335 0.555 
0.468501 0.107335 0.555 
0.491512 0.107529 0.556 
0.513679 0.107529 0.556 
0.536809 0.107722 0.557 
-0.589489 0.137803 0.704 
-0.561422 0.137803 0.704 
-0.53487 0.138194 0.706 
-0.509594 0.138977 0.71 
-0.48061 0.138781 0.709 
-0.46319 0.142109 0.726 
-0.436118 0.143283 0.732 
-0.404711 0.1425 0.728 
-0.365246 0.139173 0.711 
-0.3369 0.139173 0.711 
-0.308554 0.139173 0.711 
-0.281391 0.13976 0.714 
-0.252925 0.13976 0.714 
-0.224459 0.13976 0.714 
-0.196268 0.139956 0.715 
-0.168466 0.140543 0.718 
-0.140425 0.14113 0.721 
-0.111371 0.140739 0.719 
-0.0828208 0.140934 0.72 
-0.0543414 0.141522 0.723 
-0.0255169 0.141522 0.723 
0.00330766 0.141522 0.723 
0.0321766 0.141717 0.724 
0.0612096 0.142109 0.726 
0.0902779 0.142305 0.727 
0.119262 0.142305 0.727 
0.148654 0.142696 0.729 
0.177961 0.142892 0.73 
0.207632 0.143283 0.732 
0.236815 0.143283 0.732 
0.265635 0.143088 0.731 
0.294376 0.142892 0.73 
0.316389 0.13976 0.714 
0.318773 0.12919 0.66 
0.322603 0.120773 0.617 
0.327506 0.113922 0.582 
0.332029 0.107854 0.551 
0.355924 0.108441 0.554 
0.377328 0.108245 0.553 
0.40082 0.108637 0.555 
0.422946 0.108637 0.555 
0.445073 0.108637 0.555 
0.4672 0.108637 0.555 
0.49109 0.109028 0.557 
0.512375 0.108833 0.556 
0.535503 0.109028 0.557 
-0.587838 0.139454 0.704 
-0.558976 0.139255 0.703 
-0.533214 0.13985 0.706 
-0.507929 0.140642 0.71 
-0.478272 0.140246 0.708 
-0.462758 0.144208 0.728 
-0.434994 0.145198 0.733 
-0.401896 0.143811 0.726 
-0.363579 0.14084 0.711 
-0.334761 0.140642 0.71 
-0.307319 0.141038 0.712 
-0.279324 0.141236 0.713 
-0.25125 0.141434 0.714 
-0.222473 0.141236 0.713 
-0.194591 0.141632 0.715 
-0.166782 0.142227 0.718 
-0.138542 0.142623 0.72 
-0.109685 0.142425 0.719 
-0.0811323 0.142623 0.72 
-0.0526458 0.143217 0.723 
-0.0237883 0.143019 0.722 
0.00500321 0.143217 0.723 
0.0338745 0.143415 0.724 
0.0629122 0.143811 0.726 
0.0919828 0.14401 0.727 
0.120967 0.14401 0.727 
0.150363 0.144406 0.729 
0.179673 0.144604 0.73 
0.209349 0.145 0.732 
0.238532 0.145 0.732 
0.26735 0.144802 0.731 
0.295682 0.144406 0.729 
0.317173 0.141038 0.712 
0.319351 0.130342 0.658 
0.32195 0.121428 0.613 
0.328183 0.114098 0.576 
0.336515 0.109344 0.552 
0.359172 0.109542 0.553 
0.381219 0.109542 0.553 
0.404724 0.109939 0.555 
0.426851 0.109939 0.555 
0.448978 0.109939 0.555 
0.471104 0.109939 0.555 
0.49412 0.110137 0.556 
0.515358 0.109939 0.555 
0.539421 0.110335 0.557 
-0.577111 0.140904 0.703 
-0.549865 0.141105 0.704 
-0.524021 0.141706 0.707 
-0.496536 0.141906 0.708 
-0.469632 0.142307 0.71 
-0.456866 0.147318 0.735 
-0.425839 0.147318 0.735 
-0.379235 0.141505 0.706 
-0.353077 0.142307 0.71 
-0.324771 0.142307 0.71 
-0.2973 0.142708 0.712 
-0.268914 0.142708 0.712 
-0.241204 0.143109 0.714 
-0.212738 0.143109 0.714 
-0.184788 0.14351 0.716 
-0.156898 0.144111 0.719 
-0.128233 0.144111 0.719 
-0.0994291 0.143911 0.718 
-0.0710997 0.144512 0.721 
-0.0424724 0.144913 0.723 
-0.0136291 0.144712 0.722 
0.0152186 0.145314 0.725 
0.0441228 0.145314 0.725 
0.0728256 0.144913 0.723 
0.102212 0.145715 0.727 
0.131557 0.146115 0.729 
0.160841 0.146316 0.73 
0.189945 0.146316 0.73 
0.219649 0.146717 0.732 
0.248832 0.146717 0.732 
0.278015 0.146717 0.732 
0.303422 0.144913 0.723 
0.319379 0.139301 0.695 
0.321121 0.128277 0.64 
0.323347 0.119658 0.597 
0.326362 0.112042 0.559 
0.344906 0.110839 0.553 
0.36629 0.110639 0.552 
0.389704 0.11104 0.554 
0.41179 0.11104 0.554 
0.43466 0.11124 0.555 
0.45761 0.111441 0.556 
0.479777 0.111441 0.556 
0.501943 0.111441 0.556 
0.52411 0.111441 0.556 
0.547259 0.111641 0.557 
-0.573813 0.142553 0.703 
-0.546563 0.142756 0.704 
-0.520705 0.143364 0.707 
-0.492518 0.143364 0.707 
-0.468929 0.144783 0.714 
-0.454652 0.149447 0.737 
-0.424115 0.149042 0.735 
-0.377579 0.143161 0.706 
-0.351412 0.143972 0.71 
-0.323106 0.143972 0.71 
-0.29563 0.144378 0.712 
-0.267244 0.144378 0.712 
-0.239529 0.144783 0.714 
-0.211064 0.144783 0.714 
-0.183109 0.145189 0.716 
-0.154996 0.145594 0.718 
-0.126546 0.145797 0.719 
-0.0976091 0.145392 0.717 
-0.0694089 0.146203 0.721 
-0.0407205 0.146406 0.722 
-0.0119524 0.146608 0.723 
0.0169421 0.147217 0.726 
0.0458231 0.147014 0.725 
0.0745212 0.146608 0.723 
0.103917 0.147419 0.727 
0.133267 0.147825 0.729 
0.162553 0.148028 0.73 
0.191657 0.148028 0.73 
0.221063 0.148231 0.731 
0.250206 0.148231 0.731 
0.279732 0.148433 0.732 
0.304273 0.146203 0.721 
0.320085 0.140525 0.693 
0.321614 0.129372 0.638 
0.323659 0.120653 0.595 
0.327932 0.112542 0.555 
0.348797 0.112136 0.553 
0.370173 0.111933 0.552 
0.394312 0.112542 0.555 
0.415688 0.112339 0.554 
0.438565 0.112542 0.555 
0.461522 0.112744 0.556 
0.484558 0.112947 0.557 
0.505855 0.112744 0.556 
0.528022 0.112744 0.556 
0.551178 0.112947 0.557 
-0.563921 0.144201 0.703 
-0.537419 0.144612 0.705 
-0.510757 0.145022 0.707 
-0.48257 0.145022 0.707 
-0.465309 0.148509 0.724 
-0.439629 0.150765 0.735 
-0.407534 0.14974 0.73 
-0.366398 0.145637 0.71 
-0.337139 0.145227 0.708 
-0.310658 0.146048 0.712 
-0.282272 0.146048 0.712 
-0.254599 0.146458 0.714 
-0.2255 0.146048 0.712 
-0.197945 0.146663 0.715 
-0.168701 0.147483 0.719 
-0.140036 0.147483 0.719 
-0.111371 0.147483 0.719 
-0.0827058 0.147483 0.719 
-0.0542662 0.148099 0.722 
-0.025411 0.147689 0.72 
0.00331223 0.148509 0.724 
0.0321766 0.148509 0.724 
0.0612096 0.148919 0.726 
0.0902779 0.149124 0.727 
0.119098 0.148919 0.726 
0.148858 0.14974 0.73 
0.178205 0.149945 0.731 
0.207348 0.149945 0.731 
0.236815 0.15015 0.732 
0.265272 0.14974 0.73 
0.294376 0.14974 0.73 
0.316389 0.146458 0.714 
0.319256 0.135586 0.661 
0.32208 0.126356 0.616 
0.328069 0.119587 0.583 
0.336515 0.113228 0.552 
0.358523 0.113228 0.552 
0.381219 0.113433 0.553 
0.403995 0.113638 0.554 
0.426851 0.113843 0.555 
0.449787 0.114048 0.556 
0.471953 0.114048 0.556 
0.49412 0.114048 0.556 
0.516286 0.114048 0.556 
0.538453 0.114048 0.556 
-0.584521 0.145643 0.702 
-0.550732 0.14585 0.703 
-0.524936 0.146472 0.706 
-0.496789 0.146472 0.706 
-0.46997 0.146887 0.708 
-0.457342 0.152074 0.733 
-0.426419 0.152697 0.736 
-0.379235 0.146472 0.706 
-0.35258 0.147095 0.709 
-0.324771 0.147302 0.71 
-0.297717 0.147925 0.713 
-0.268159 0.147302 0.71 
-0.241204 0.148132 0.714 
-0.21244 0.147925 0.713 
-0.184788 0.148547 0.716 
-0.156898 0.14917 0.719 
-0.128411 0.149377 0.72 
-0.0994291 0.148962 0.718 
-0.0711984 0.149792 0.722 
-0.0424137 0.149792 0.722 
-0.0136291 0.149792 0.722 
0.0152186 0.150414 0.725 
0.0441228 0.150414 0.725 
0.0729263 0.150207 0.724 
0.102212 0.150829 0.727 
0.131557 0.151244 0.729 
0.160841 0.151452 0.73 
0.189945 0.151452 0.73 
0.219349 0.151659 0.731 
0.248832 0.151867 0.732 
0.277636 0.151659 0.731 
0.303002 0.149792 0.722 
0.320298 0.144605 0.697 
0.321118 0.133402 0.643 
0.323888 0.124066 0.598 
0.327959 0.117012 0.564 
0.343609 0.11473 0.553 
0.364995 0.114522 0.552 
0.388404 0.114937 0.554 
0.410491 0.114937 0.554 
0.433359 0.115145 0.555 
0.456306 0.115352 0.556 
0.479333 0.11556 0.557 
0.500639 0.115352 0.556 
0.522806 0.115352 0.556 
0.544973 0.115352 0.556 
-0.573813 0.147499 0.703 
-0.543261 0.147709 0.704 
-0.516657 0.148128 0.706 
-0.488511 0.148128 0.706 
-0.466884 0.150226 0.716 
-0.447131 0.154423 0.736 
-0.416653 0.154003 0.734 
-0.372612 0.148128 0.706 
-0.345441 0.148548 0.708 
-0.318111 0.148967 0.71 
-0.291029 0.149597 0.713 
-0.262235 0.149387 0.712 
-0.234506 0.149807 0.714 
-0.206329 0.150016 0.715 
-0.178321 0.150436 0.717 
-0.149944 0.150646 0.718 
-0.121488 0.150856 0.719 
-0.0928228 0.150856 0.719 
-0.0644255 0.151485 0.722 
-0.0355421 0.151066 0.72 
-0.00688469 0.152115 0.725 
0.0220196 0.152115 0.725 
0.0509238 0.152115 0.725 
0.0796078 0.151695 0.723 
0.108732 0.152115 0.725 
0.138396 0.152954 0.729 
0.167689 0.153164 0.73 
0.196793 0.153164 0.73 
0.225897 0.153164 0.73 
0.255349 0.153373 0.731 
0.284882 0.153583 0.732 
0.308059 0.150646 0.718 
0.32121 0.143722 0.685 
0.320536 0.132182 0.63 
0.324539 0.12358 0.589 
0.328523 0.116656 0.556 
0.348797 0.116027 0.553 
0.370173 0.115817 0.552 
0.393601 0.116237 0.554 
0.415688 0.116237 0.554 
0.438565 0.116446 0.555 
0.461522 0.116656 0.556 
0.484558 0.116866 0.557 
0.506765 0.116866 0.557 
0.528022 0.116656 0.556 
0.550188 0.116656 0.556 
-0.568058 0.148935 0.702 
-0.54161 0.14936 0.704 
-0.514272 0.149572 0.705 
-0.486855 0.149784 0.706 
-0.465855 0.152118 0.717 
-0.443679 0.156149 0.736 
-0.412084 0.1553 0.732 
-0.370347 0.150208 0.708 
-0.34212 0.150208 0.708 
-0.315667 0.151057 0.712 
-0.287281 0.151057 0.712 
-0.258895 0.151057 0.712 
-0.231157 0.151481 0.714 
-0.202975 0.151693 0.715 
-0.174958 0.152118 0.717 
-0.146576 0.15233 0.718 
-0.118116 0.152542 0.719 
-0.0894505 0.152542 0.719 
-0.0610391 0.153178 0.722 
-0.0322097 0.152966 0.721 
-0.003489 0.154027 0.726 
0.0254201 0.153815 0.725 
0.0543992 0.154027 0.726 
0.0832285 0.153815 0.725 
0.112133 0.153815 0.725 
0.141815 0.154664 0.729 
0.171348 0.155088 0.731 
0.200217 0.154876 0.73 
0.229635 0.155088 0.731 
0.258778 0.155088 0.731 
0.287921 0.155088 0.731 
0.310993 0.152118 0.717 
0.321107 0.143843 0.678 
0.320326 0.13175 0.621 
0.327506 0.123476 0.582 
0.332632 0.117111 0.552 
0.354639 0.117111 0.552 
0.376646 0.117111 0.552 
0.400097 0.117536 0.554 
0.422184 0.117536 0.554 
0.445073 0.117748 0.555 
0.4672 0.117748 0.555 
0.490208 0.11796 0.556 
0.513296 0.118172 0.557 
0.534541 0.11796 0.556 
-0.58946 0.150582 0.702 
-0.561473 0.150582 0.702 
-0.535766 0.151225 0.705 
-0.507659 0.151225 0.705 
-0.480912 0.151654 0.707 
-0.462971 0.155086 0.723 
-0.437368 0.158089 0.737 
-0.399682 0.154872 0.722 
-0.364733 0.152298 0.71 
-0.335479 0.151869 0.708 
-0.308988 0.152727 0.712 
-0.280602 0.152727 0.712 
-0.252571 0.152941 0.713 
-0.224459 0.153156 0.714 
-0.196542 0.153585 0.716 
-0.168701 0.154228 0.719 
-0.140231 0.154443 0.72 
-0.111371 0.154228 0.719 
-0.0829358 0.154657 0.721 
-0.0542662 0.154872 0.722 
-0.0254463 0.154657 0.721 
0.00332138 0.15573 0.726 
0.0322211 0.155515 0.725 
0.0611253 0.155515 0.725 
0.0902779 0.155944 0.727 
0.119098 0.15573 0.726 
0.148858 0.156588 0.73 
0.178205 0.156802 0.731 
0.207065 0.156588 0.73 
0.236815 0.157017 0.732 
0.265272 0.156588 0.73 
0.293972 0.156373 0.729 
0.316389 0.153156 0.714 
0.319739 0.142001 0.662 
0.32286 0.131276 0.612 
0.328183 0.123554 0.576 
0.336515 0.118406 0.552 
0.358523 0.118406 0.552 
0.38053 0.118406 0.552 
0.403266 0.118621 0.553 
0.426082 0.118835 0.554 
0.448978 0.11905 0.555 
0.471104 0.11905 0.555 
0.49412 0.119264 0.556 
0.517215 0.119479 0.557 
0.537485 0.11905 0.555 
-0.580408 0.152445 0.703 
-0.551595 0.152228 0.702 
-0.525846 0.152878 0.705 
-0.497739 0.152878 0.705 
-0.470964 0.153312 0.707 
-0.456555 0.158083 0.729 
-0.425839 0.159384 0.735 
-0.38143 0.153312 0.707 
-0.354243 0.153746 0.709 
-0.326436 0.153963 0.71 
-0.29897 0.154396 0.712 
-0.270204 0.154179 0.711 
-0.242878 0.15483 0.714 
-0.214412 0.15483 0.714 
-0.186468 0.155264 0.716 
-0.158584 0.155914 0.719 
-0.130461 0.156565 0.722 
-0.101254 0.155914 0.719 
-0.0728916 0.156565 0.722 
-0.0441069 0.156565 0.722 
-0.0153435 0.156782 0.723 
0.0135183 0.157215 0.725 
0.0424225 0.157215 0.725 
0.0712284 0.156999 0.724 
0.100508 0.157649 0.727 
0.12967 0.157866 0.728 
0.159129 0.1583 0.73 
0.188491 0.158516 0.731 
0.217337 0.1583 0.73 
0.247115 0.158733 0.732 
0.275921 0.158516 0.731 
0.301726 0.156782 0.723 
0.320035 0.151794 0.7 
0.320605 0.137916 0.636 
0.323415 0.128374 0.592 
0.327673 0.121218 0.559 
0.345577 0.119701 0.552 
0.367584 0.119701 0.552 
0.390297 0.119917 0.553 
0.412344 0.119917 0.553 
0.435962 0.120351 0.555 
0.458089 0.120351 0.555 
0.481946 0.120785 0.557 
0.504152 0.120785 0.557 
0.525414 0.120568 0.556 
0.54758 0.120568 0.556 
-0.568893 0.153655 0.701 
-0.543261 0.154313 0.704 
-0.515925 0.154532 0.705 
-0.488511 0.154751 0.706 
-0.466884 0.156943 0.716 
-0.440752 0.160888 0.734 
-0.408686 0.159792 0.729 
-0.368686 0.155189 0.708 
-0.34046 0.155189 0.708 
-0.313998 0.156066 0.712 
-0.285612 0.156066 0.712 
-0.257226 0.156066 0.712 
-0.229804 0.156724 0.715 
-0.201298 0.156724 0.715 
-0.173276 0.157162 0.717 
-0.145094 0.1576 0.719 
-0.116753 0.158039 0.721 
-0.0880084 0.158039 0.721 
-0.0593458 0.158258 0.722 
-0.0305612 0.158258 0.722 
-0.00178887 0.159354 0.727 
0.0270829 0.158696 0.724 
0.0560245 0.158916 0.725 
0.0850459 0.159135 0.726 
0.11399 0.159135 0.726 
0.143525 0.159792 0.729 
0.172825 0.160012 0.73 
0.201929 0.160012 0.73 
0.231349 0.160231 0.731 
0.260492 0.160231 0.731 
0.28924 0.160012 0.73 
0.312238 0.156943 0.716 
0.320793 0.147737 0.674 
0.31981 0.1359 0.62 
0.325335 0.12779 0.583 
0.330641 0.121214 0.553 
0.35205 0.120995 0.552 
0.374057 0.120995 0.552 
0.396782 0.121214 0.553 
0.418828 0.121214 0.553 
0.44247 0.121653 0.555 
0.463759 0.121433 0.554 
0.4876 0.121872 0.556 
0.510684 0.122091 0.557 
0.530977 0.121653 0.555 
-0.587003 0.155742 0.703 
-0.55659 0.155077 0.7 
-0.532459 0.156185 0.705 
-0.504352 0.156185 0.705 
-0.476921 0.156407 0.706 
-0.458944 0.159951 0.722 
-0.428702 0.16261 0.734 
-0.385835 0.157071 0.709 
-0.357064 0.15685 0.708 
-0.329302 0.157071 0.709 
-0.302309 0.157736 0.712 
-0.273923 0.157736 0.712 
-0.246227 0.158179 0.714 
-0.217761 0.158179 0.714 
-0.189826 0.158622 0.716 
-0.161956 0.159287 0.719 
-0.133847 0.159951 0.722 
-0.104917 0.15973 0.721 
-0.0761723 0.15973 0.721 
-0.0474933 0.159951 0.722 
-0.0187346 0.160173 0.723 
0.0101038 0.160394 0.724 
0.0390221 0.160616 0.725 
0.0677389 0.160173 0.723 
0.0970977 0.161059 0.727 
0.126255 0.16128 0.728 
0.155706 0.161724 0.73 
0.185062 0.161945 0.731 
0.213913 0.161724 0.73 
0.243682 0.162167 0.732 
0.272493 0.161945 0.731 
0.299573 0.160837 0.726 
0.318109 0.155742 0.703 
0.319056 0.143557 0.648 
0.323069 0.134474 0.607 
0.329735 0.127163 0.574 
0.340399 0.12229 0.552 
0.362406 0.12229 0.552 
0.38511 0.122511 0.553 
0.407157 0.122511 0.553 
0.429203 0.122511 0.553 
0.452882 0.122954 0.555 
0.475009 0.122954 0.555 
0.497136 0.122954 0.555 
0.521134 0.123397 0.557 
0.542365 0.123176 0.556 
-0.580408 0.157391 0.703 
-0.550809 0.156943 0.701 
-0.525846 0.157838 0.705 
-0.497739 0.157838 0.705 
-0.470964 0.158286 0.707 
-0.446298 0.163212 0.729 
-0.417806 0.163436 0.73 
-0.376456 0.158286 0.707 
-0.348269 0.158286 0.707 
-0.321894 0.159182 0.711 
-0.29396 0.159406 0.712 
-0.26632 0.159853 0.714 
-0.238188 0.160077 0.715 
-0.209389 0.159853 0.714 
-0.18143 0.160301 0.716 
-0.153098 0.160525 0.717 
-0.125208 0.161421 0.721 
-0.0964628 0.161421 0.721 
-0.067718 0.161421 0.721 
-0.0390813 0.161868 0.723 
-0.0102994 0.16254 0.726 
0.0185677 0.161868 0.723 
0.0475233 0.162316 0.725 
0.0763221 0.162092 0.724 
0.105622 0.162764 0.727 
0.134791 0.162988 0.728 
0.164265 0.163436 0.73 
0.193369 0.163436 0.73 
0.222473 0.163436 0.73 
0.252265 0.163883 0.732 
0.281449 0.163883 0.732 
0.304691 0.160749 0.718 
0.321469 0.154256 0.689 
0.320071 0.141495 0.632 
0.322869 0.132316 0.591 
0.328259 0.125375 0.56 
0.344951 0.12336 0.551 
0.367584 0.123584 0.552 
0.390297 0.123808 0.553 
0.412344 0.123808 0.553 
0.435177 0.124032 0.554 
0.458089 0.124256 0.555 
0.481081 0.12448 0.556 
0.503247 0.12448 0.556 
0.524469 0.124256 0.555 
0.54758 0.12448 0.556 
-0.572181 0.158587 0.701 
-0.545786 0.159039 0.703 
-0.519232 0.159492 0.705 
-0.491125 0.159492 0.705 
-0.468929 0.161528 0.714 
-0.442878 0.164921 0.729 
-0.413815 0.164921 0.729 
-0.37314 0.159944 0.707 
-0.345441 0.16017 0.708 
-0.319007 0.161075 0.712 
-0.290621 0.161075 0.712 
-0.262972 0.161528 0.714 
-0.234834 0.161754 0.715 
-0.206329 0.161754 0.715 
-0.178072 0.16198 0.716 
-0.149944 0.162433 0.718 
-0.121826 0.163111 0.721 
-0.0932101 0.163338 0.722 
-0.064247 0.162885 0.72 
-0.0356902 0.163564 0.723 
-0.00689419 0.164243 0.726 
0.0219588 0.163564 0.723 
0.050994 0.164243 0.726 
0.079828 0.164016 0.725 
0.109032 0.164469 0.727 
0.138206 0.164695 0.728 
0.167689 0.165148 0.73 
0.196793 0.165148 0.73 
0.225897 0.165148 0.73 
0.255699 0.1656 0.732 
0.284493 0.165374 0.731 
0.30763 0.162207 0.717 
0.320931 0.154062 0.681 
0.32041 0.141167 0.624 
0.32426 0.13257 0.586 
0.330641 0.125105 0.553 
0.351412 0.124652 0.551 
0.374057 0.124879 0.552 
0.396782 0.125105 0.553 
0.418828 0.125105 0.553 
0.44247 0.125557 0.555 
0.463759 0.125331 0.554 
0.4876 0.125784 0.556 
0.510684 0.12601 0.557 
0.53002 0.125331 0.554 
-0.593597 0.160688 0.703 
-0.561548 0.159545 0.698 
-0.538308 0.160917 0.704 
-0.510965 0.161145 0.705 
-0.483543 0.161374 0.706 
-0.463137 0.164117 0.718 
-0.436638 0.166859 0.73 
-0.400277 0.163888 0.717 
-0.367026 0.161831 0.708 
-0.339278 0.162059 0.709 
-0.312328 0.162745 0.712 
-0.284341 0.162974 0.713 
-0.255915 0.162974 0.713 
-0.228127 0.163431 0.715 
-0.199621 0.163431 0.715 
-0.171595 0.163888 0.717 
-0.143408 0.164345 0.719 
-0.114743 0.164345 0.719 
-0.0861978 0.164574 0.72 
-0.0575728 0.164802 0.721 
-0.028908 0.165259 0.723 
-8.36945e-05 0.165717 0.725 
0.0287808 0.165488 0.724 
0.0578044 0.165945 0.726 
0.0867485 0.165945 0.726 
0.116011 0.166402 0.728 
0.145234 0.166631 0.729 
0.174537 0.166859 0.73 
0.203641 0.166859 0.73 
0.232744 0.166859 0.73 
0.262565 0.167317 0.732 
0.290952 0.166859 0.73 
0.313479 0.163431 0.715 
0.319982 0.152916 0.669 
0.320746 0.141488 0.619 
0.325893 0.133488 0.584 
0.331337 0.126173 0.552 
0.352704 0.125945 0.551 
0.375351 0.126173 0.552 
0.398078 0.126402 0.553 
0.420125 0.126402 0.553 
0.443771 0.126859 0.555 
0.465059 0.12663 0.554 
0.488025 0.126859 0.555 
0.511071 0.127088 0.556 
0.531319 0.12663 0.554 
-0.591949 0.162337 0.703 
-0.559108 0.160951 0.697 
-0.536657 0.162568 0.704 
-0.509312 0.162798 0.705 
-0.481888 0.163029 0.706 
-0.462096 0.166031 0.719 
-0.434926 0.168571 0.73 
-0.396928 0.164877 0.714 
-0.365366 0.163491 0.708 
-0.337615 0.163722 0.709 
-0.310222 0.164184 0.711 
-0.283065 0.164877 0.714 
-0.254599 0.164877 0.714 
-0.22645 0.165108 0.715 
-0.197945 0.165108 0.715 
-0.169913 0.16557 0.717 
-0.141722 0.166031 0.719 
-0.113214 0.166262 0.72 
-0.0843919 0.166031 0.719 
-0.0558819 0.166493 0.721 
-0.0272124 0.166955 0.723 
0.0016121 0.166955 0.723 
0.0304787 0.167186 0.724 
0.059507 0.167648 0.726 
0.0884511 0.167648 0.726 
0.117719 0.16811 0.728 
0.146944 0.168341 0.729 
0.176249 0.168571 0.73 
0.205353 0.168571 0.73 
0.234456 0.168571 0.73 
0.263921 0.168802 0.731 
0.292664 0.168571 0.73 
0.314274 0.164646 0.713 
0.319148 0.153331 0.664 
0.32208 0.142247 0.616 
0.328306 0.134164 0.581 
0.333321 0.127237 0.551 
0.355289 0.127237 0.551 
0.377941 0.127468 0.552 
0.400672 0.127699 0.553 
0.422719 0.127699 0.553 
0.446375 0.128161 0.555 
0.468501 0.128161 0.555 
0.490628 0.128161 0.555 
0.514602 0.128622 0.557 
0.533918 0.12793 0.554 
-0.588651 0.163985 0.703 
-0.555042 0.162352 0.696 
-0.533355 0.164219 0.704 
-0.506005 0.164452 0.705 
-0.478576 0.164685 0.706 
-0.46 0.168184 0.721 
-0.428078 0.170283 0.73 
-0.385858 0.164685 0.706 
-0.358218 0.164918 0.707 
-0.331431 0.165618 0.71 
-0.303979 0.166085 0.712 
-0.276367 0.166551 0.714 
-0.247901 0.166551 0.714 
-0.219743 0.166784 0.715 
-0.191238 0.166784 0.715 
-0.163187 0.167251 0.717 
-0.134977 0.167718 0.719 
-0.106904 0.168651 0.723 
-0.0775392 0.167484 0.718 
-0.0492547 0.168651 0.723 
-0.0204584 0.168884 0.724 
0.0083595 0.167951 0.72 
0.0372703 0.168884 0.724 
0.066226 0.169117 0.725 
0.0952615 0.16935 0.726 
0.124719 0.17005 0.729 
0.153994 0.170283 0.73 
0.183097 0.170283 0.73 
0.212201 0.170283 0.73 
0.241304 0.170283 0.73 
0.271149 0.17075 0.732 
0.29787 0.16935 0.726 
0.316461 0.163985 0.703 
0.319056 0.151156 0.648 
0.320408 0.140426 0.602 
0.331081 0.133894 0.574 
0.340456 0.128296 0.55 
0.363701 0.128762 0.552 
0.386406 0.128996 0.553 
0.407715 0.128762 0.552 
0.4305 0.128996 0.553 
0.454184 0.129462 0.555 
0.476311 0.129462 0.555 
0.498437 0.129462 0.555 
0.520564 0.129462 0.555 
0.542691 0.129462 0.555 
-0.573006 0.164927 0.7 
-0.547435 0.165634 0.703 
-0.520886 0.166105 0.705 
-0.492779 0.166105 0.705 
-0.469285 0.167754 0.712 
-0.443368 0.171289 0.727 
-0.414384 0.171289 0.727 
-0.375328 0.166812 0.708 
-0.346611 0.166576 0.707 
-0.319776 0.167283 0.71 
-0.292291 0.167754 0.712 
-0.264646 0.168226 0.714 
-0.23618 0.168226 0.714 
-0.207715 0.168226 0.714 
-0.179751 0.168697 0.716 
-0.151839 0.169404 0.719 
-0.123174 0.169404 0.719 
-0.0950348 0.170346 0.723 
-0.065844 0.169404 0.719 
-0.0374375 0.170582 0.724 
-0.00859678 0.171053 0.726 
0.0201792 0.169639 0.72 
0.0492914 0.171053 0.726 
0.07802 0.170582 0.724 
0.107475 0.171524 0.728 
0.136499 0.171524 0.728 
0.165977 0.171995 0.73 
0.195081 0.171995 0.73 
0.224185 0.171995 0.73 
0.253288 0.171995 0.73 
0.282779 0.172231 0.731 
0.305948 0.168932 0.717 
0.321003 0.1621 0.688 
0.320991 0.147963 0.628 
0.323988 0.138539 0.588 
0.329113 0.131235 0.557 
0.347535 0.129821 0.551 
0.370173 0.130057 0.552 
0.39218 0.130057 0.552 
0.414187 0.130057 0.552 
0.438565 0.130764 0.555 
0.461522 0.130999 0.556 
0.482819 0.130764 0.555 
0.504945 0.130764 0.555 
0.526122 0.130528 0.554 
0.550188 0.130999 0.556 
-0.562378 0.165855 0.697 
-0.539959 0.167521 0.704 
-0.513346 0.167996 0.706 
-0.485199 0.167996 0.706 
-0.465468 0.17109 0.719 
-0.438856 0.173231 0.728 
-0.401398 0.170376 0.716 
-0.368686 0.168472 0.708 
-0.340941 0.16871 0.709 
-0.313557 0.169186 0.711 
-0.285612 0.169424 0.712 
-0.257948 0.1699 0.714 
-0.229482 0.1699 0.714 
-0.201017 0.1699 0.714 
-0.173276 0.170614 0.717 
-0.144893 0.170852 0.718 
-0.116753 0.171566 0.721 
-0.0880084 0.171566 0.721 
-0.0591815 0.171328 0.72 
-0.0305612 0.171804 0.722 
-0.00178148 0.17228 0.724 
0.0270455 0.172042 0.723 
0.0561018 0.172756 0.726 
0.0849288 0.172518 0.725 
0.114461 0.173469 0.729 
0.143525 0.173469 0.729 
0.172825 0.173707 0.73 
0.201652 0.173469 0.729 
0.231032 0.173707 0.73 
0.260136 0.173707 0.73 
0.28924 0.173707 0.73 
0.311802 0.170138 0.715 
0.318187 0.157526 0.662 
0.321558 0.146343 0.615 
0.327967 0.137538 0.578 
0.335296 0.130875 0.55 
0.357873 0.131113 0.551 
0.38053 0.131351 0.552 
0.402537 0.131351 0.552 
0.425313 0.131589 0.553 
0.448978 0.132065 0.555 
0.471953 0.132303 0.556 
0.492342 0.131827 0.554 
0.515358 0.132065 0.555 
