# .PCD v.7 - Point Cloud Data file format
VERSION .7
FIELDS x y z
SIZE 4 4 4
TYPE F F F
COUNT 1 1 1
WIDTH 1883
HEIGHT 1
VIEWPOINT 0 0 0 1 0 0 0
POINTS 1883
DATA ascii
0.200802 0.113246 1.11 
0.245486 0.110083 1.079 
0.283169 0.10539 1.033 
0.315841 0.0999829 0.98 
0.346372 0.0953918 0.935 
0.379526 0.0928412 0.91 
0.40664 0.0894745 0.877 
0.438842 0.0877401 0.86 
0.465562 0.0852915 0.836 
0.493062 0.0833531 0.817 
0.509688 0.0799863 0.784 
0.5316 0.0778438 0.763 
0.549323 0.0753952 0.739 
0.56402 0.0728447 0.714 
0.582242 0.0710082 0.696 
0.593486 0.0685597 0.672 
0.609002 0.0668253 0.655 
0.624886 0.0652949 0.64 
-0.641326 0.0805829 0.778 
-0.622173 0.0828616 0.8 
-0.600238 0.0850367 0.821 
-0.587297 0.0888691 0.858 
-0.568356 0.0922871 0.891 
-0.540425 0.0946694 0.914 
-0.511985 0.0973624 0.94 
-0.472653 0.0982946 0.949 
-0.451444 0.103577 1 
-0.440054 0.112588 1.087 
-0.391538 0.11321 1.093 
-0.335607 0.111552 1.077 
-0.286468 0.111967 1.081 
-0.232588 0.11031 1.065 
-0.185181 0.111656 1.078 
-0.135186 0.111863 1.08 
-0.0860248 0.113417 1.095 
-0.0366799 0.118906 1.148 
0.0171365 0.121082 1.169 
0.0741973 0.125432 1.211 
0.125193 0.116835 1.128 
0.171308 0.112588 1.087 
0.228917 0.11611 1.121 
0.265616 0.109688 1.059 
0.300105 0.104509 1.009 
0.334302 0.0997447 0.963 
0.363437 0.0956016 0.923 
0.391926 0.0921835 0.89 
0.422696 0.0899048 0.868 
0.453549 0.0880404 0.85 
0.472861 0.0844153 0.815 
0.500193 0.0826544 0.798 
0.518532 0.0797543 0.77 
0.540741 0.0777863 0.751 
0.55658 0.0751969 0.726 
0.57334 0.0730218 0.705 
0.587284 0.0707431 0.683 
0.600083 0.068568 0.662 
0.616643 0.0670143 0.647 
-0.657762 0.0815814 0.776 
-0.628 0.0824225 0.784 
-0.612582 0.0853661 0.812 
-0.590306 0.087679 0.834 
-0.577219 0.0917791 0.873 
-0.554966 0.094933 0.903 
-0.526508 0.0974561 0.927 
-0.498941 0.10061 0.957 
-0.465729 0.103133 0.981 
-0.445692 0.109441 1.041 
-0.418918 0.115433 1.098 
-0.363721 0.114172 1.086 
-0.314256 0.114592 1.09 
-0.262242 0.114067 1.085 
-0.21206 0.114277 1.087 
-0.161543 0.114382 1.088 
-0.110423 0.113962 1.084 
-0.0615003 0.11701 1.113 
-0.0100034 0.121636 1.157 
0.045671 0.126472 1.203 
0.0987831 0.122793 1.168 
0.147738 0.11701 1.113 
0.197822 0.115959 1.103 
0.244714 0.113857 1.083 
0.280201 0.108074 1.028 
0.312796 0.103028 0.98 
0.342745 0.0985074 0.937 
0.374872 0.0955638 0.909 
0.404388 0.0926201 0.881 
0.436351 0.0907278 0.863 
0.463874 0.0883098 0.84 
0.488655 0.0857866 0.816 
0.507325 0.0826327 0.786 
0.53012 0.0805301 0.766 
0.546618 0.0777967 0.74 
0.561477 0.0751684 0.715 
0.578998 0.073171 0.696 
0.591398 0.0706478 0.672 
0.606967 0.0688606 0.655 
0.621924 0.0671785 0.639 
-0.642916 0.0828937 0.777 
-0.620094 0.0860943 0.807 
-0.594028 0.0878012 0.823 
-0.581324 0.0918552 0.861 
-0.567592 0.096336 0.903 
-0.534814 0.0980429 0.919 
-0.507505 0.101137 0.948 
-0.472604 0.103164 0.967 
-0.447869 0.108071 1.013 
-0.431503 0.116393 1.091 
-0.382396 0.116926 1.096 
-0.327079 0.115432 1.082 
-0.277252 0.116393 1.091 
-0.224533 0.115432 1.082 
-0.17394 0.115326 1.081 
-0.12424 0.115966 1.087 
-0.0744543 0.117353 1.1 
-0.0244475 0.123754 1.16 
0.0303354 0.126741 1.188 
0.0873331 0.126421 1.185 
0.134385 0.119166 1.117 
0.18044 0.115326 1.081 
0.236377 0.1181 1.107 
0.271846 0.111485 1.045 
0.306444 0.106578 0.999 
0.334986 0.101137 0.948 
0.367173 0.0979362 0.918 
0.395671 0.0945223 0.886 
0.427597 0.0924953 0.867 
0.456133 0.0901483 0.845 
0.477339 0.0868411 0.814 
0.501987 0.0846007 0.793 
0.521958 0.0819336 0.768 
0.541777 0.0795865 0.746 
0.557227 0.0769194 0.721 
0.575263 0.0748924 0.702 
0.588251 0.072332 0.678 
0.603397 0.0704117 0.66 
0.614943 0.068278 0.64 
-0.652098 0.0838845 0.775 
-0.621706 0.0866987 0.801 
-0.599692 0.0889717 0.822 
-0.581866 0.0922188 0.852 
-0.566971 0.0964401 0.891 
-0.538415 0.0988213 0.913 
-0.511067 0.101852 0.941 
-0.471675 0.102826 0.95 
-0.44989 0.108238 1 
-0.436752 0.117222 1.083 
-0.391623 0.118845 1.098 
-0.334244 0.116681 1.078 
-0.28795 0.118304 1.093 
-0.232234 0.115923 1.071 
-0.184017 0.117005 1.081 
-0.133878 0.117222 1.083 
-0.0842465 0.118412 1.094 
-0.0351395 0.125123 1.156 
0.0189203 0.126314 1.167 
0.0758275 0.130643 1.207 
0.123988 0.122634 1.133 
0.169307 0.117438 1.085 
0.225149 0.120252 1.111 
0.264362 0.114083 1.054 
0.299213 0.108887 1.006 
0.330621 0.104017 0.961 
0.362522 0.100445 0.928 
0.389598 0.0964401 0.891 
0.420966 0.0941671 0.87 
0.451438 0.0921106 0.851 
0.47206 0.0885387 0.818 
0.498337 0.0864822 0.799 
0.514128 0.0830186 0.767 
0.537691 0.0811785 0.75 
0.554324 0.0785808 0.726 
0.57196 0.076416 0.706 
0.583448 0.0737101 0.681 
0.598026 0.0716536 0.662 
0.613682 0.0699218 0.646 
-0.659674 0.0849788 0.774 
-0.626816 0.0876138 0.798 
-0.606616 0.090139 0.821 
-0.57804 0.0916761 0.835 
-0.565592 0.0961775 0.876 
-0.543931 0.0996909 0.908 
-0.515972 0.102545 0.934 
-0.479014 0.103973 0.947 
-0.455079 0.108804 0.991 
-0.439008 0.116818 1.064 
-0.402225 0.120661 1.099 
-0.344612 0.118465 1.079 
-0.299503 0.120551 1.098 
-0.24267 0.117806 1.073 
-0.195171 0.119344 1.087 
-0.143841 0.118795 1.082 
-0.0940995 0.119673 1.09 
-0.0452803 0.125163 1.14 
0.00797259 0.127029 1.157 
0.0649503 0.133287 1.214 
0.115028 0.126151 1.149 
0.161247 0.120661 1.099 
0.212858 0.120881 1.101 
0.255059 0.116709 1.063 
0.290564 0.111329 1.014 
0.323828 0.105729 0.963 
0.356845 0.102326 0.932 
0.385683 0.098593 0.898 
0.415636 0.0958482 0.873 
0.447964 0.0940915 0.857 
0.46969 0.0905782 0.825 
0.496441 0.0884921 0.806 
0.512018 0.0846494 0.771 
0.53303 0.0823438 0.75 
0.552084 0.0800382 0.729 
0.56918 0.0777325 0.708 
0.580917 0.0749877 0.683 
0.5975 0.0731213 0.666 
0.610611 0.0710352 0.647 
0.623932 0.0691688 0.63 
-0.632066 0.0871834 0.783 
-0.615346 0.0900784 0.809 
-0.591205 0.092194 0.828 
-0.577305 0.0963138 0.865 
-0.557474 0.0999882 0.898 
-0.52825 0.102438 0.92 
-0.501195 0.105778 0.95 
-0.469421 0.108673 0.976 
-0.443475 0.113684 1.021 
-0.421865 0.121144 1.088 
-0.374564 0.122257 1.098 
-0.320735 0.121255 1.089 
-0.271712 0.122035 1.096 
-0.220627 0.122035 1.096 
-0.170006 0.122369 1.099 
-0.118133 0.1217 1.093 
-0.0681099 0.123371 1.108 
-0.0173573 0.130051 1.168 
0.038036 0.133392 1.198 
0.091681 0.130274 1.17 
0.139217 0.124039 1.114 
0.185993 0.120698 1.084 
0.239137 0.122035 1.096 
0.274069 0.115242 1.035 
0.307986 0.110121 0.989 
0.335843 0.103997 0.934 
0.370847 0.101658 0.913 
0.400272 0.0984293 0.884 
0.433485 0.0966478 0.868 
0.4592 0.0936415 0.841 
0.482991 0.0907465 0.815 
0.504358 0.0878515 0.789 
0.523987 0.0850679 0.764 
0.543484 0.0826183 0.742 
0.557813 0.0797233 0.716 
0.575498 0.0776077 0.697 
0.589667 0.0752695 0.676 
0.603717 0.0731539 0.657 
0.615029 0.070927 0.637 
-0.646446 0.0873839 0.774 
-0.627719 0.0898677 0.796 
-0.608425 0.0925772 0.82 
-0.577158 0.0937062 0.83 
-0.565719 0.098448 0.872 
-0.546151 0.102399 0.907 
-0.518319 0.105335 0.933 
-0.482466 0.107028 0.948 
-0.456309 0.111431 0.987 
-0.43691 0.118657 1.051 
-0.40564 0.124076 1.099 
-0.349578 0.122383 1.084 
-0.303466 0.124189 1.1 
-0.247839 0.122044 1.081 
-0.19928 0.123173 1.091 
-0.14802 0.122834 1.088 
-0.0977549 0.123399 1.093 
-0.0484372 0.127689 1.131 
0.00438495 0.13085 1.159 
0.0612283 0.137172 1.215 
0.111555 0.129834 1.15 
0.158407 0.124528 1.103 
0.208296 0.123624 1.095 
0.251992 0.120125 1.064 
0.287697 0.114593 1.015 
0.322332 0.108722 0.963 
0.357908 0.105109 0.931 
0.385785 0.101045 0.895 
0.416993 0.0985609 0.873 
0.448771 0.0966416 0.856 
0.470972 0.0931417 0.825 
0.494606 0.0904321 0.801 
0.511354 0.0869323 0.77 
0.53303 0.0846743 0.75 
0.551326 0.0821905 0.728 
0.568376 0.0798196 0.707 
0.580066 0.0769972 0.682 
0.5975 0.0751908 0.666 
0.609667 0.0729328 0.646 
0.623932 0.0711264 0.63 
-0.632473 0.089502 0.782 
-0.614316 0.0922489 0.806 
-0.592491 0.0947669 0.828 
-0.574635 0.0983149 0.859 
-0.555757 0.102206 0.893 
-0.527952 0.104953 0.917 
-0.501084 0.108387 0.947 
-0.469972 0.111477 0.974 
-0.443753 0.116513 1.018 
-0.421608 0.123952 1.083 
-0.379697 0.126814 1.108 
-0.322427 0.124639 1.089 
-0.274911 0.126127 1.102 
-0.222938 0.125784 1.099 
-0.167501 0.12647 1.105 
-0.115261 0.125669 1.098 
-0.0649588 0.127386 1.113 
-0.0137044 0.133452 1.166 
0.0420374 0.13803 1.206 
0.0947464 0.133109 1.163 
0.142294 0.127157 1.111 
0.189187 0.123952 1.083 
0.241436 0.124868 1.091 
0.275946 0.117886 1.03 
0.309172 0.112507 0.983 
0.336211 0.106555 0.931 
0.371043 0.104152 0.91 
0.401191 0.101062 0.883 
0.434833 0.099345 0.868 
0.459411 0.0960258 0.839 
0.483663 0.0931645 0.814 
0.504943 0.0901888 0.788 
0.5238 0.087213 0.762 
0.542434 0.0845806 0.739 
0.557364 0.0817192 0.714 
0.574926 0.0795446 0.695 
0.58897 0.0771411 0.674 
0.603817 0.075081 0.656 
0.614085 0.0726775 0.635 
-0.644776 0.0895569 0.772 
-0.62693 0.0922251 0.795 
-0.608425 0.0951253 0.82 
-0.577158 0.0962853 0.83 
-0.564422 0.100926 0.87 
-0.545548 0.105102 0.906 
-0.517763 0.108118 0.932 
-0.480939 0.109626 0.945 
-0.455847 0.114382 0.986 
-0.435663 0.121575 1.048 
-0.406009 0.127607 1.1 
-0.352158 0.126679 1.092 
-0.303742 0.127723 1.101 
-0.249214 0.126099 1.087 
-0.199645 0.126795 1.093 
-0.1487 0.126795 1.093 
-0.0963203 0.127143 1.096 
-0.0467626 0.131435 1.133 
0.006191 0.134567 1.16 
0.0630122 0.140716 1.213 
0.11275 0.132711 1.144 
0.159249 0.127259 1.097 
0.209614 0.126795 1.093 
0.252692 0.122967 1.06 
0.288419 0.117398 1.012 
0.319008 0.111598 0.962 
0.352122 0.108002 0.931 
0.381497 0.104174 0.898 
0.41251 0.101506 0.875 
0.445005 0.0996495 0.859 
0.469233 0.0964013 0.831 
0.490851 0.0931531 0.803 
0.5092 0.089789 0.774 
0.530699 0.0870048 0.75 
0.549064 0.0844527 0.728 
0.566179 0.0820165 0.707 
0.578794 0.0792324 0.683 
0.596325 0.0773763 0.667 
0.60766 0.0749401 0.646 
0.622961 0.0732 0.631 
-0.634091 0.0918144 0.781 
-0.61376 0.0942832 0.802 
-0.594345 0.0972222 0.827 
-0.569912 0.099691 0.848 
-0.554779 0.104276 0.887 
-0.529065 0.10745 0.914 
-0.501365 0.110742 0.942 
-0.471542 0.114151 0.971 
-0.444283 0.118971 1.012 
-0.421834 0.126377 1.075 
-0.389364 0.132373 1.126 
-0.32611 0.12814 1.09 
-0.279851 0.130257 1.108 
-0.225055 0.129434 1.101 
-0.174526 0.130021 1.106 
-0.123086 0.130139 1.107 
-0.0714883 0.130139 1.107 
-0.0209508 0.137075 1.166 
0.034342 0.140955 1.199 
0.0882712 0.137898 1.173 
0.135999 0.131197 1.116 
0.181109 0.126377 1.075 
0.235946 0.128963 1.097 
0.27033 0.12144 1.033 
0.304296 0.116032 0.987 
0.333265 0.110389 0.939 
0.367797 0.107685 0.916 
0.397496 0.104276 0.887 
0.430923 0.102395 0.871 
0.456904 0.0992207 0.844 
0.480368 0.0960466 0.817 
0.50308 0.0925198 0.787 
0.52193 0.0894632 0.761 
0.540554 0.0867593 0.738 
0.557034 0.0840555 0.715 
0.574595 0.0813516 0.692 
0.588433 0.0788828 0.671 
0.604008 0.0768843 0.654 
0.615088 0.0745331 0.634 
-0.642465 0.0923132 0.775 
-0.623554 0.0949337 0.797 
-0.6048 0.0979115 0.822 
-0.572689 0.0989835 0.831 
-0.561585 0.104105 0.874 
-0.540514 0.108036 0.907 
-0.512521 0.111133 0.933 
-0.472552 0.111967 0.94 
-0.451544 0.117923 0.99 
-0.429969 0.125069 1.05 
-0.403164 0.132335 1.111 
-0.34632 0.13043 1.095 
-0.298518 0.131859 1.107 
-0.24365 0.131025 1.1 
-0.193078 0.131502 1.104 
-0.141492 0.131382 1.103 
-0.089509 0.130549 1.096 
-0.0402121 0.136623 1.147 
0.0134694 0.138887 1.166 
0.0702016 0.14377 1.207 
0.118707 0.134956 1.133 
0.163947 0.129 1.083 
0.217 0.130549 1.096 
0.257323 0.125308 1.052 
0.292378 0.11959 1.004 
0.323297 0.113992 0.957 
0.357139 0.110657 0.929 
0.384923 0.106369 0.893 
0.418426 0.104344 0.876 
0.448247 0.101842 0.855 
0.472685 0.0986262 0.828 
0.493362 0.0944572 0.793 
0.512937 0.0913603 0.767 
0.533664 0.0888589 0.746 
0.551672 0.0862384 0.724 
0.570901 0.0836179 0.702 
0.582985 0.0807591 0.678 
0.601111 0.0788533 0.662 
0.610011 0.0761137 0.639 
-0.646694 0.0929139 0.77 
-0.625876 0.0952066 0.789 
-0.60702 0.0981026 0.813 
-0.581027 0.100154 0.83 
-0.558022 0.10305 0.854 
-0.54613 0.108601 0.9 
-0.518746 0.111738 0.926 
-0.483289 0.113548 0.941 
-0.45624 0.117892 0.977 
-0.438446 0.125856 1.043 
-0.410388 0.132493 1.098 
-0.362482 0.1337 1.108 
-0.308593 0.132734 1.1 
-0.257088 0.132614 1.099 
-0.205114 0.132131 1.095 
-0.155342 0.133217 1.104 
-0.104167 0.133579 1.107 
-0.0532815 0.135389 1.122 
-0.00101719 0.139854 1.159 
0.055428 0.146249 1.212 
0.105733 0.138164 1.145 
0.152571 0.132493 1.098 
0.200409 0.130321 1.08 
0.247962 0.128873 1.068 
0.282966 0.122477 1.015 
0.315958 0.117168 0.971 
0.345964 0.112221 0.93 
0.378009 0.108963 0.903 
0.409864 0.106308 0.881 
0.441202 0.104015 0.862 
0.464069 0.100275 0.831 
0.48586 0.096896 0.803 
0.505693 0.0936379 0.776 
0.525802 0.0908626 0.753 
0.546421 0.0879666 0.729 
0.562884 0.0853119 0.707 
0.577297 0.0826572 0.685 
0.593216 0.0804852 0.667 
0.607457 0.0783132 0.649 
0.621003 0.0762618 0.632 
-0.631665 0.0954547 0.781 
-0.608981 0.0976547 0.799 
-0.59106 0.100955 0.826 
-0.563263 0.10291 0.842 
-0.550778 0.108166 0.885 
-0.527952 0.112077 0.917 
-0.496322 0.114643 0.938 
-0.463217 0.117332 0.96 
-0.441574 0.12381 1.013 
-0.417715 0.131143 1.073 
-0.389292 0.138843 1.136 
-0.324796 0.134077 1.097 
-0.277905 0.136154 1.114 
-0.224967 0.135543 1.109 
-0.173901 0.136032 1.113 
-0.122353 0.136399 1.116 
-0.0702095 0.136154 1.114 
-0.0190243 0.141654 1.159 
0.036386 0.147276 1.205 
0.0897864 0.142876 1.169 
0.137363 0.136032 1.113 
0.181759 0.130654 1.069 
0.237434 0.133954 1.096 
0.270092 0.125399 1.026 
0.30459 0.120143 0.983 
0.335824 0.114643 0.938 
0.369834 0.11171 0.914 
0.400703 0.108532 0.888 
0.434127 0.106577 0.872 
0.45626 0.102421 0.838 
0.481134 0.099488 0.814 
0.500582 0.0959436 0.785 
0.520748 0.0930103 0.761 
0.539498 0.0898325 0.735 
0.556583 0.0871437 0.713 
0.572445 0.084577 0.692 
0.586348 0.0820104 0.671 
0.603817 0.0801771 0.656 
0.613118 0.0774882 0.634 
-0.643294 0.0960492 0.776 
-0.62199 0.098401 0.795 
-0.6048 0.101743 0.822 
-0.574067 0.103104 0.833 
-0.559015 0.107684 0.87 
-0.539322 0.112016 0.905 
-0.510873 0.115111 0.93 
-0.471044 0.115977 0.937 
-0.449719 0.122042 0.986 
-0.430379 0.130087 1.051 
-0.40643 0.138628 1.12 
-0.349166 0.136647 1.104 
-0.299057 0.137266 1.109 
-0.247366 0.137266 1.109 
-0.195322 0.137019 1.107 
-0.143985 0.137266 1.109 
-0.0920441 0.136895 1.106 
-0.0416647 0.140856 1.138 
0.0117078 0.14494 1.171 
0.0678169 0.148282 1.198 
0.116431 0.139618 1.128 
0.161815 0.133677 1.08 
0.214708 0.135286 1.093 
0.255445 0.130087 1.051 
0.28995 0.123899 1.001 
0.321138 0.118205 0.955 
0.35493 0.114739 0.927 
0.384824 0.110902 0.896 
0.418969 0.108922 0.88 
0.445873 0.10558 0.853 
0.471398 0.102486 0.828 
0.489666 0.098401 0.795 
0.508832 0.095059 0.768 
0.530446 0.0925835 0.748 
0.548663 0.0894892 0.723 
0.567058 0.0871375 0.704 
0.580274 0.0842906 0.681 
0.597636 0.0823102 0.665 
0.607835 0.0795872 0.643 
0.624911 0.0779781 0.63 
-0.628828 0.0980069 0.782 
-0.604499 0.100012 0.798 
-0.586499 0.103396 0.825 
-0.557346 0.105151 0.839 
-0.547127 0.111292 0.888 
-0.5251 0.115553 0.922 
-0.490492 0.117558 0.938 
-0.454869 0.119689 0.955 
-0.438716 0.12796 1.021 
-0.411813 0.134728 1.075 
-0.378867 0.14112 1.126 
-0.321456 0.138989 1.109 
-0.271955 0.140117 1.118 
-0.218861 0.139491 1.113 
-0.167434 0.139867 1.116 
-0.115624 0.140117 1.118 
-0.063684 0.140493 1.121 
-0.0117807 0.144754 1.155 
0.0439476 0.151271 1.207 
0.0960552 0.145005 1.157 
0.142983 0.138237 1.103 
0.188226 0.133851 1.068 
0.242463 0.136357 1.088 
0.274582 0.12771 1.019 
0.309435 0.122697 0.979 
0.339471 0.117307 0.936 
0.373684 0.114425 0.913 
0.405298 0.111417 0.889 
0.436182 0.108785 0.868 
0.45742 0.104399 0.833 
0.481949 0.101391 0.809 
0.501029 0.0977562 0.78 
0.522917 0.0951243 0.759 
0.539169 0.0918658 0.733 
0.556909 0.0892339 0.712 
0.571273 0.086226 0.688 
0.585802 0.0837194 0.668 
0.603085 0.0818395 0.653 
0.613148 0.0792076 0.632 
-0.644041 0.0982068 0.774 
-0.622104 0.100491 0.792 
-0.605138 0.103916 0.819 
-0.576656 0.105693 0.833 
-0.553232 0.109246 0.861 
-0.53813 0.114575 0.903 
-0.510323 0.117874 0.929 
-0.469536 0.118508 0.934 
-0.446983 0.124344 0.98 
-0.430379 0.133353 1.051 
-0.406793 0.142235 1.121 
-0.350748 0.140712 1.109 
-0.300136 0.14122 1.113 
-0.248481 0.141347 1.114 
-0.196028 0.140966 1.111 
-0.144374 0.141093 1.112 
-0.0927099 0.141347 1.114 
-0.0415915 0.144138 1.136 
0.0117278 0.148833 1.173 
0.067364 0.15099 1.19 
0.116121 0.142742 1.125 
0.161516 0.136779 1.078 
0.214315 0.138428 1.091 
0.254959 0.133099 1.049 
0.289081 0.126628 0.998 
0.320802 0.121046 0.954 
0.354547 0.117493 0.926 
0.385683 0.11394 0.898 
0.419921 0.11191 0.882 
0.444827 0.107977 0.851 
0.470829 0.104932 0.827 
0.490284 0.100744 0.794 
0.510026 0.0974455 0.768 
0.530187 0.0946541 0.746 
0.54754 0.0917358 0.723 
0.565964 0.089325 0.704 
0.580274 0.0864067 0.681 
0.596738 0.0842497 0.664 
0.60689 0.0814583 0.642 
0.624911 0.0799358 0.63 
-0.631257 0.100052 0.779 
-0.609459 0.102492 0.798 
-0.589475 0.105574 0.822 
-0.56323 0.107886 0.84 
-0.547666 0.113024 0.88 
-0.527952 0.117776 0.917 
-0.495793 0.120344 0.937 
-0.455014 0.121115 0.943 
-0.438523 0.129206 1.006 
-0.410708 0.1355 1.055 
-0.388264 0.145518 1.133 
-0.329829 0.143078 1.114 
-0.278404 0.143334 1.116 
-0.228213 0.14449 1.125 
-0.173719 0.144233 1.123 
-0.121159 0.143977 1.121 
-0.0688475 0.143848 1.12 
-0.0171344 0.148087 1.153 
0.038036 0.153866 1.198 
0.0910542 0.149242 1.162 
0.138342 0.142178 1.107 
0.184215 0.136656 1.064 
0.24084 0.140766 1.096 
0.271682 0.131005 1.02 
0.306706 0.125867 0.98 
0.338001 0.12073 0.94 
0.37166 0.117519 0.915 
0.403894 0.114565 0.892 
0.434483 0.111739 0.87 
0.456674 0.107115 0.834 
0.48188 0.104161 0.811 
0.499176 0.100052 0.779 
0.521737 0.0974828 0.759 
0.53803 0.0941435 0.733 
0.555803 0.0914463 0.712 
0.57079 0.0886207 0.69 
0.584601 0.0859236 0.669 
0.60207 0.0838686 0.653 
0.612166 0.0811714 0.632 
-0.643576 0.100352 0.772 
-0.62176 0.102692 0.79 
-0.603449 0.105941 0.815 
-0.57795 0.108281 0.833 
-0.548184 0.110101 0.847 
-0.539139 0.116991 0.9 
-0.511553 0.12037 0.926 
-0.469909 0.12076 0.929 
-0.445436 0.12609 0.97 
-0.432819 0.136359 1.049 
-0.404055 0.143508 1.104 
-0.355471 0.144678 1.113 
-0.30295 0.145198 1.117 
-0.25156 0.145588 1.12 
-0.195526 0.145328 1.118 
-0.142775 0.144678 1.113 
-0.0915507 0.145718 1.121 
-0.0398265 0.147668 1.136 
0.0135733 0.152738 1.175 
0.0686312 0.153388 1.18 
0.117659 0.145978 1.123 
0.163191 0.140129 1.078 
0.216208 0.141949 1.092 
0.255121 0.135579 1.043 
0.289466 0.12921 0.994 
0.322284 0.12401 0.954 
0.355602 0.12024 0.925 
0.38794 0.116991 0.9 
0.420814 0.114521 0.881 
0.444317 0.109841 0.845 
0.471682 0.107111 0.824 
0.48966 0.102822 0.791 
0.510553 0.0997019 0.767 
0.530634 0.0968422 0.745 
0.547145 0.0937224 0.721 
0.565447 0.0912526 0.702 
0.579422 0.0883929 0.68 
0.59494 0.0860531 0.662 
0.607835 0.0835832 0.643 
0.623919 0.0817634 0.629 
-0.629238 0.102341 0.778 
-0.608219 0.104971 0.798 
-0.587634 0.10826 0.823 
-0.56062 0.110496 0.84 
-0.541333 0.114706 0.872 
-0.526527 0.120625 0.917 
-0.494337 0.123256 0.937 
-0.452587 0.123782 0.941 
-0.434353 0.131543 1 
-0.40713 0.13812 1.05 
-0.383774 0.147986 1.125 
-0.331338 0.147986 1.125 
-0.277166 0.147065 1.118 
-0.227672 0.148775 1.131 
-0.173046 0.148644 1.13 
-0.119631 0.147723 1.123 
-0.0671673 0.14746 1.121 
-0.0153696 0.151932 1.155 
0.0396975 0.156799 1.192 
0.0923001 0.151932 1.155 
0.139429 0.144961 1.102 
0.183868 0.139699 1.062 
0.241279 0.144434 1.098 
0.272731 0.133911 1.018 
0.308228 0.128912 0.98 
0.3391 0.123519 0.939 
0.372674 0.12023 0.914 
0.405734 0.117468 0.893 
0.433831 0.113916 0.866 
0.456674 0.109707 0.834 
0.48188 0.106682 0.811 
0.498535 0.102341 0.778 
0.521737 0.0998413 0.759 
0.537296 0.0962896 0.732 
0.555022 0.0935272 0.711 
0.569963 0.0906333 0.689 
0.583727 0.0878708 0.668 
0.601056 0.0858977 0.653 
0.611184 0.0831353 0.632 
-0.641909 0.102485 0.77 
-0.620973 0.105013 0.789 
-0.602182 0.108474 0.815 
-0.576656 0.11087 0.833 
-0.547514 0.112866 0.848 
-0.536133 0.120053 0.902 
-0.508332 0.123514 0.928 
-0.46608 0.12378 0.93 
-0.439551 0.128705 0.967 
-0.427114 0.139352 1.047 
-0.400716 0.147604 1.109 
-0.349969 0.148004 1.112 
-0.301088 0.149468 1.123 
-0.24963 0.15 1.127 
-0.196925 0.149867 1.126 
-0.141045 0.148137 1.113 
-0.0902898 0.15 1.127 
-0.0381285 0.151464 1.138 
0.0153989 0.156389 1.175 
0.0700466 0.156123 1.173 
0.119404 0.149468 1.123 
0.165324 0.143878 1.081 
0.218304 0.145608 1.094 
0.25638 0.137755 1.035 
0.291672 0.131899 0.991 
0.325248 0.126974 0.954 
0.357313 0.122715 0.922 
0.391171 0.11992 0.901 
0.422109 0.116859 0.878 
0.442993 0.111801 0.84 
0.470666 0.109139 0.82 
0.489648 0.105013 0.789 
0.511078 0.101952 0.766 
0.531077 0.0990241 0.744 
0.546745 0.0956966 0.719 
0.564924 0.0931678 0.7 
0.578771 0.0902397 0.678 
0.594168 0.0878439 0.66 
0.607887 0.0854482 0.642 
0.622909 0.0834517 0.627 
-0.629238 0.104758 0.778 
-0.608981 0.107586 0.799 
-0.587634 0.110817 0.823 
-0.561955 0.113376 0.842 
-0.535535 0.116742 0.867 
-0.524249 0.123609 0.918 
-0.490376 0.125898 0.935 
-0.449663 0.126706 0.941 
-0.429521 0.134112 0.996 
-0.403868 0.141383 1.05 
-0.377912 0.150539 1.118 
-0.330465 0.152694 1.134 
-0.275161 0.151347 1.124 
-0.225545 0.153232 1.138 
-0.170735 0.153232 1.138 
-0.116348 0.151482 1.125 
-0.0637976 0.151213 1.123 
-0.0118623 0.156599 1.163 
0.0432558 0.159965 1.188 
0.095225 0.154444 1.147 
0.141687 0.147173 1.093 
0.186816 0.14273 1.06 
0.242908 0.146769 1.09 
0.27481 0.136536 1.014 
0.310956 0.131823 0.979 
0.340925 0.126033 0.936 
0.374692 0.122801 0.912 
0.407594 0.119974 0.891 
0.434002 0.115934 0.861 
0.457062 0.11176 0.83 
0.483206 0.108932 0.809 
0.499665 0.104489 0.776 
0.522024 0.101796 0.756 
0.53736 0.0981602 0.729 
0.555664 0.0954672 0.709 
0.570443 0.0925049 0.687 
0.584925 0.0898119 0.667 
0.59939 0.0873882 0.649 
0.613148 0.0850991 0.632 
-0.637855 0.104605 0.768 
-0.617631 0.107738 0.791 
-0.59785 0.111143 0.816 
-0.572851 0.113731 0.835 
-0.546081 0.116318 0.854 
-0.534731 0.122856 0.902 
-0.50689 0.126398 0.928 
-0.463636 0.126398 0.928 
-0.436237 0.131165 0.963 
-0.424268 0.142197 1.044 
-0.395035 0.149552 1.098 
-0.349807 0.15214 1.117 
-0.301209 0.153911 1.13 
-0.248979 0.154183 1.132 
-0.196389 0.154319 1.133 
-0.141552 0.15214 1.117 
-0.0906102 0.154047 1.131 
-0.038095 0.154864 1.137 
0.0153989 0.16004 1.175 
0.0698077 0.159223 1.169 
0.119404 0.152957 1.123 
0.165018 0.146964 1.079 
0.217905 0.148735 1.092 
0.255637 0.140563 1.032 
0.291378 0.134842 0.99 
0.325589 0.130075 0.955 
0.356926 0.125444 0.921 
0.392473 0.123129 0.904 
0.421148 0.119315 0.876 
0.442465 0.114275 0.839 
0.469518 0.111415 0.818 
0.489648 0.107465 0.789 
0.51041 0.104196 0.765 
0.530364 0.1012 0.743 
0.545984 0.0977946 0.718 
0.56331 0.0950705 0.698 
0.578771 0.0923465 0.678 
0.593268 0.0897586 0.659 
0.607887 0.0874431 0.642 
0.621916 0.0852638 0.626 
-0.627222 0.107038 0.777 
-0.60774 0.110069 0.799 
-0.587634 0.113375 0.823 
-0.562622 0.11613 0.843 
-0.532021 0.118059 0.857 
-0.523082 0.125497 0.911 
-0.492754 0.128666 0.934 
-0.450166 0.129355 0.939 
-0.425009 0.135278 0.982 
-0.405113 0.144508 1.049 
-0.378291 0.153462 1.114 
-0.334863 0.157457 1.143 
-0.278878 0.155942 1.132 
-0.228312 0.157457 1.143 
-0.173505 0.15608 1.133 
-0.120057 0.155253 1.127 
-0.0674669 0.155115 1.126 
-0.0154628 0.160075 1.162 
0.0394643 0.163243 1.185 
0.0917407 0.158146 1.148 
0.138291 0.150569 1.093 
0.183003 0.14561 1.057 
0.242158 0.151809 1.102 
0.274539 0.139549 1.013 
0.311274 0.135003 0.98 
0.340561 0.128804 0.935 
0.374281 0.125497 0.911 
0.406679 0.122467 0.889 
0.432994 0.118334 0.859 
0.456512 0.114201 0.829 
0.483206 0.111446 0.809 
0.499665 0.1069 0.776 
0.520643 0.103869 0.754 
0.53736 0.100426 0.729 
0.555664 0.0976703 0.709 
0.571273 0.0947774 0.688 
0.584925 0.0918845 0.667 
0.598467 0.0892671 0.648 
0.613148 0.087063 0.632 
-0.635833 0.106852 0.767 
-0.617295 0.109917 0.789 
-0.598178 0.11326 0.813 
-0.575446 0.116325 0.835 
-0.547449 0.118693 0.852 
-0.533362 0.124684 0.895 
-0.508126 0.128863 0.925 
-0.462572 0.128585 0.923 
-0.43546 0.13346 0.958 
-0.422627 0.144327 1.036 
-0.390237 0.150456 1.08 
-0.355319 0.157283 1.129 
-0.304573 0.158258 1.136 
-0.250959 0.15784 1.133 
-0.199024 0.158537 1.138 
-0.144571 0.157004 1.127 
-0.0927758 0.158258 1.136 
-0.0398966 0.158537 1.138 
0.0135618 0.163552 1.174 
0.0679915 0.162855 1.169 
0.117659 0.156447 1.123 
0.162736 0.14976 1.075 
0.215416 0.151571 1.088 
0.255994 0.143073 1.027 
0.292324 0.13764 0.988 
0.326731 0.132903 0.954 
0.358357 0.128306 0.921 
0.394313 0.126077 0.905 
0.421544 0.121758 0.874 
0.444542 0.116743 0.838 
0.469751 0.1134 0.814 
0.491476 0.109778 0.788 
0.510106 0.106016 0.761 
0.531238 0.10323 0.741 
0.545925 0.0996078 0.715 
0.563048 0.0968215 0.695 
0.579164 0.0941746 0.676 
0.593509 0.0915277 0.657 
0.606082 0.0888808 0.638 
-0.647742 0.107058 0.76 
-0.625209 0.109311 0.776 
-0.605739 0.11241 0.798 
-0.587068 0.116073 0.824 
-0.562644 0.119031 0.845 
-0.529451 0.12044 0.855 
-0.521094 0.128187 0.91 
-0.489199 0.131005 0.93 
-0.449207 0.131991 0.937 
-0.421114 0.137062 0.973 
-0.405885 0.148049 1.051 
-0.375574 0.155797 1.106 
-0.337793 0.162418 1.153 
-0.281095 0.160727 1.141 
-0.229311 0.161713 1.148 
-0.173046 0.159178 1.13 
-0.118726 0.159319 1.131 
-0.0657759 0.158755 1.127 
-0.0137044 0.164249 1.166 
0.0413055 0.166925 1.185 
0.0930356 0.160868 1.142 
0.13922 0.153121 1.087 
0.186111 0.148754 1.056 
0.242074 0.149881 1.064 
0.276042 0.141851 1.007 
0.312715 0.137344 0.975 
0.342364 0.131286 0.932 
0.376698 0.128187 0.91 
0.407599 0.124666 0.885 
0.434649 0.120722 0.857 
0.458154 0.116214 0.825 
0.486375 0.113819 0.808 
0.501336 0.108889 0.773 
0.519987 0.105367 0.748 
0.538532 0.102268 0.726 
0.556603 0.0994508 0.706 
0.57053 0.0960701 0.682 
0.586421 0.0935345 0.664 
0.597845 0.0905763 0.643 
0.614146 0.0886042 0.629 
-0.632624 0.109093 0.766 
-0.614844 0.112369 0.789 
-0.597117 0.116071 0.815 
-0.573537 0.119062 0.836 
-0.54672 0.121768 0.855 
-0.52821 0.126895 0.891 
-0.505252 0.131738 0.925 
-0.460638 0.13131 0.922 
-0.433066 0.136152 0.956 
-0.419798 0.147119 1.033 
-0.38712 0.153243 1.076 
-0.35701 0.162358 1.14 
-0.30494 0.162927 1.144 
-0.249859 0.161788 1.136 
-0.197256 0.162073 1.138 
-0.141569 0.161076 1.131 
-0.0894029 0.162073 1.138 
-0.0364882 0.162642 1.142 
0.0172245 0.167342 1.175 
0.0714401 0.16606 1.166 
0.120502 0.159082 1.117 
0.164995 0.152103 1.068 
0.218998 0.155094 1.089 
0.258176 0.145695 1.023 
0.295394 0.14071 0.988 
0.328313 0.135298 0.95 
0.361219 0.131168 0.921 
0.395809 0.128462 0.902 
0.422318 0.123904 0.87 
0.44478 0.119062 0.836 
0.46928 0.115502 0.811 
0.4927 0.112226 0.788 
0.509945 0.108096 0.759 
0.530953 0.105248 0.739 
0.545506 0.101545 0.713 
0.562505 0.0986963 0.693 
0.578498 0.0959903 0.674 
0.59272 0.0932844 0.655 
0.605171 0.0905784 0.636 
-0.645711 0.109275 0.759 
-0.624004 0.111723 0.776 
-0.604499 0.11489 0.798 
-0.585077 0.118489 0.823 
-0.561996 0.121801 0.846 
-0.528123 0.123097 0.855 
-0.519109 0.130871 0.909 
-0.484607 0.133031 0.924 
-0.447274 0.134758 0.936 
-0.418309 0.139653 0.97 
-0.405791 0.151891 1.055 
-0.372166 0.158514 1.101 
-0.338333 0.167152 1.161 
-0.281281 0.165424 1.149 
-0.228518 0.166 1.153 
-0.17129 0.162689 1.13 
-0.114357 0.164129 1.14 
-0.0604155 0.161969 1.125 
-0.00828386 0.16816 1.168 
0.0468288 0.170608 1.185 
0.0976694 0.163265 1.134 
0.143225 0.155346 1.079 
0.189572 0.152179 1.057 
0.240291 0.151027 1.049 
0.275677 0.143973 1 
0.313263 0.139941 0.972 
0.343443 0.134038 0.931 
0.378943 0.131303 0.912 
0.407126 0.12684 0.881 
0.435471 0.123241 0.856 
0.458154 0.118777 0.825 
0.485773 0.116186 0.807 
0.500039 0.111003 0.771 
0.518596 0.107404 0.746 
0.53779 0.10438 0.725 
0.556603 0.101645 0.706 
0.56947 0.0981893 0.682 
0.585389 0.0955978 0.664 
0.596846 0.0925744 0.643 
0.613169 0.0905588 0.629 
-0.632258 0.111619 0.767 
-0.61284 0.114675 0.788 
-0.595851 0.118604 0.815 
-0.572238 0.12166 0.836 
-0.54603 0.12457 0.856 
-0.522096 0.1285 0.883 
-0.50327 0.134466 0.924 
-0.458708 0.13403 0.921 
-0.43158 0.139123 0.956 
-0.416169 0.149601 1.028 
-0.384374 0.15615 1.073 
-0.358043 0.16721 1.149 
-0.305283 0.167646 1.152 
-0.24853 0.165609 1.138 
-0.195488 0.165609 1.138 
-0.142696 0.1659 1.14 
-0.0900314 0.166773 1.146 
-0.0365521 0.166482 1.144 
0.0172538 0.171284 1.177 
0.0711338 0.168956 1.161 
0.119962 0.161825 1.112 
0.164223 0.154694 1.063 
0.217993 0.15775 1.084 
0.254748 0.148728 1.022 
0.292028 0.143634 0.987 
0.325018 0.138104 0.949 
0.359135 0.134321 0.923 
0.393442 0.13141 0.903 
0.420862 0.126171 0.867 
0.44478 0.12166 0.836 
0.46928 0.118022 0.811 
0.493325 0.11482 0.789 
0.507929 0.110018 0.756 
0.530234 0.107398 0.738 
0.545506 0.10376 0.713 
0.561693 0.100704 0.692 
0.576781 0.0977937 0.672 
0.59091 0.0950287 0.653 
0.605171 0.0925547 0.636 
-0.645047 0.111928 0.761 
-0.622393 0.114281 0.777 
-0.60202 0.11737 0.798 
-0.58252 0.121047 0.823 
-0.560689 0.124724 0.848 
-0.528539 0.126489 0.86 
-0.516852 0.133843 0.91 
-0.479129 0.135166 0.919 
-0.44389 0.13752 0.935 
-0.415723 0.142815 0.971 
-0.40442 0.155905 1.06 
-0.367405 0.161347 1.097 
-0.335302 0.171054 1.163 
-0.279161 0.169877 1.155 
-0.225326 0.169877 1.155 
-0.168373 0.166789 1.134 
-0.117147 0.169142 1.15 
-0.0620528 0.165171 1.123 
-0.0100986 0.171789 1.168 
0.0450256 0.174437 1.186 
0.095823 0.166642 1.133 
0.141417 0.158552 1.078 
0.187041 0.154728 1.052 
0.240872 0.156787 1.066 
0.272569 0.14708 1 
0.310562 0.143109 0.973 
0.341282 0.137226 0.933 
0.376934 0.134431 0.914 
0.407104 0.129136 0.878 
0.435781 0.125606 0.854 
0.458322 0.121047 0.823 
0.486423 0.118546 0.806 
0.500587 0.113252 0.77 
0.519059 0.109575 0.745 
0.53743 0.106339 0.723 
0.55691 0.103691 0.705 
0.567184 0.0997202 0.678 
0.584655 0.0973669 0.662 
0.597845 0.0945724 0.643 
0.612193 0.0922191 0.627 
-0.63345 0.114002 0.767 
-0.613285 0.116975 0.787 
-0.595652 0.120839 0.813 
-0.572851 0.124109 0.835 
-0.54736 0.12723 0.856 
-0.517539 0.129757 0.873 
-0.503613 0.13704 0.922 
-0.459639 0.136743 0.92 
-0.431707 0.141648 0.953 
-0.413296 0.15116 1.017 
-0.385321 0.159187 1.071 
-0.359202 0.170483 1.147 
-0.308672 0.172118 1.158 
-0.251398 0.169888 1.143 
-0.199509 0.171077 1.151 
-0.144974 0.170037 1.144 
-0.0924529 0.171523 1.154 
-0.0383966 0.170334 1.146 
0.0154251 0.174942 1.177 
0.0692105 0.172266 1.159 
0.117916 0.164835 1.109 
0.162265 0.1577 1.061 
0.214712 0.15993 1.076 
0.252913 0.151755 1.021 
0.289906 0.146404 0.985 
0.32546 0.140607 0.946 
0.36135 0.137486 0.925 
0.393096 0.133622 0.899 
0.417579 0.128271 0.863 
0.444012 0.124406 0.837 
0.468597 0.120691 0.812 
0.490852 0.116975 0.787 
0.506085 0.112218 0.755 
0.529088 0.109692 0.738 
0.545161 0.106124 0.714 
0.560618 0.102854 0.692 
0.57488 0.0997332 0.671 
0.588992 0.0969091 0.652 
0.604182 0.094531 0.636 
-0.651815 0.114443 0.762 
-0.625194 0.116095 0.773 
-0.603646 0.118948 0.792 
-0.585335 0.122853 0.818 
-0.56527 0.126908 0.845 
-0.534597 0.129011 0.859 
-0.513321 0.134267 0.894 
-0.486951 0.138623 0.923 
-0.447777 0.139824 0.931 
-0.418717 0.144781 0.964 
-0.40713 0.157697 1.05 
-0.369447 0.162653 1.083 
-0.342235 0.174518 1.162 
-0.287826 0.174367 1.161 
-0.231698 0.172866 1.151 
-0.174956 0.169862 1.131 
-0.125482 0.174367 1.161 
-0.0661844 0.170312 1.134 
-0.0137162 0.175269 1.167 
0.0414449 0.178573 1.189 
0.0924653 0.170463 1.135 
0.137811 0.161602 1.076 
0.182549 0.156946 1.045 
0.240108 0.162953 1.085 
0.270474 0.149887 0.998 
0.308733 0.145982 0.972 
0.342014 0.140425 0.935 
0.376934 0.137271 0.914 
0.403929 0.132165 0.88 
0.432306 0.12841 0.855 
0.455591 0.123905 0.825 
0.479073 0.12015 0.8 
0.500587 0.115644 0.77 
0.519059 0.11189 0.745 
0.536687 0.108435 0.722 
0.55612 0.105732 0.704 
0.565511 0.101527 0.676 
0.582888 0.0991236 0.66 
0.597845 0.0965704 0.643 
0.610241 0.093867 0.625 
-0.633083 0.116537 0.768 
-0.612062 0.11942 0.787 
-0.594389 0.123365 0.813 
-0.572238 0.126855 0.836 
-0.54603 0.12989 0.856 
-0.515 0.132166 0.871 
-0.501636 0.139753 0.921 
-0.459206 0.139905 0.922 
-0.430677 0.144761 0.954 
-0.412121 0.154472 1.018 
-0.383657 0.162515 1.071 
-0.357108 0.173895 1.146 
-0.308198 0.176475 1.163 
-0.25137 0.174654 1.151 
-0.198924 0.175716 1.158 
-0.143572 0.174047 1.147 
-0.0912099 0.176171 1.161 
-0.0333146 0.175261 1.155 
0.0210177 0.17951 1.183 
0.0740333 0.174502 1.15 
0.123232 0.166156 1.095 
0.167904 0.160087 1.055 
0.221811 0.163577 1.078 
0.259311 0.154017 1.015 
0.297256 0.149313 0.984 
0.330289 0.143092 0.943 
0.365511 0.139753 0.921 
0.394692 0.135049 0.89 
0.421472 0.130497 0.86 
0.447066 0.1264 0.833 
0.470727 0.122455 0.807 
0.493066 0.117903 0.777 
0.509527 0.113502 0.748 
0.531292 0.110771 0.73 
0.54828 0.107433 0.708 
0.564039 0.104246 0.687 
0.57784 0.101059 0.666 
0.591512 0.0981764 0.647 
0.606295 0.0957486 0.631 
-0.645015 0.11773 0.768 
-0.61953 0.119723 0.781 
-0.598061 0.122789 0.801 
-0.577526 0.126468 0.825 
-0.556062 0.130454 0.851 
-0.526106 0.132906 0.867 
-0.507542 0.138885 0.906 
-0.467368 0.139498 0.91 
-0.438495 0.143944 0.939 
-0.413224 0.150689 0.983 
-0.398054 0.163259 1.065 
-0.358883 0.168164 1.097 
-0.327109 0.178742 1.166 
-0.271124 0.177668 1.159 
-0.217664 0.178128 1.162 
-0.161533 0.175982 1.148 
-0.10953 0.178435 1.164 
-0.0404575 0.176902 1.154 
0.013608 0.180581 1.178 
0.0672353 0.177209 1.156 
0.117278 0.169084 1.103 
0.161807 0.162186 1.058 
0.213315 0.163872 1.069 
0.254 0.156207 1.019 
0.290845 0.150689 0.983 
0.324333 0.14517 0.947 
0.360691 0.142104 0.927 
0.390828 0.137505 0.897 
0.414792 0.131833 0.86 
0.442182 0.128154 0.836 
0.467911 0.124629 0.813 
0.486519 0.119876 0.782 
0.505414 0.115584 0.754 
0.526937 0.112672 0.735 
0.545506 0.109299 0.713 
0.56007 0.105773 0.69 
0.574206 0.102554 0.669 
0.588195 0.0996415 0.65 
0.604219 0.0973421 0.635 
-0.651325 0.118769 0.767 
-0.622798 0.120162 0.776 
-0.600992 0.123104 0.795 
-0.579542 0.126511 0.817 
-0.560019 0.130847 0.845 
-0.532956 0.133944 0.865 
-0.504598 0.137196 0.886 
-0.478465 0.141686 0.915 
-0.443914 0.144319 0.932 
-0.415942 0.149893 0.968 
-0.405301 0.16383 1.058 
-0.365072 0.16801 1.085 
-0.33508 0.179005 1.156 
-0.282658 0.179934 1.162 
-0.22712 0.17885 1.155 
-0.173285 0.17885 1.155 
-0.120485 0.180398 1.165 
-0.0527325 0.177766 1.148 
0.000792989 0.181637 1.173 
0.0556087 0.182102 1.176 
0.10507 0.173275 1.119 
0.152662 0.164604 1.063 
0.200687 0.163365 1.055 
0.247775 0.158874 1.026 
0.28292 0.152061 0.982 
0.317311 0.146796 0.948 
0.355397 0.144319 0.932 
0.386427 0.139828 0.903 
0.410009 0.133789 0.864 
0.438294 0.130227 0.841 
0.464434 0.126666 0.818 
0.481673 0.121401 0.784 
0.503673 0.117994 0.762 
0.522208 0.114278 0.738 
0.541126 0.110871 0.716 
0.558452 0.107774 0.696 
0.569668 0.103903 0.671 
0.583927 0.100961 0.652 
0.600184 0.0986384 0.637 
0.615043 0.0963157 0.622 
-0.624775 0.120586 0.771 
-0.604876 0.12387 0.792 
-0.583021 0.127155 0.813 
-0.564571 0.13169 0.842 
-0.53718 0.134662 0.861 
-0.506862 0.137321 0.878 
-0.486104 0.143264 0.916 
-0.448734 0.144985 0.927 
-0.4204 0.150302 0.961 
-0.408439 0.16344 1.045 
-0.372124 0.169071 1.081 
-0.342572 0.180019 1.151 
-0.292187 0.182052 1.164 
-0.236297 0.180801 1.156 
-0.183205 0.181583 1.161 
-0.130202 0.183147 1.171 
-0.0751692 0.182052 1.164 
-0.0173871 0.18299 1.17 
0.0378455 0.186431 1.192 
0.0890952 0.177829 1.137 
0.134093 0.167819 1.073 
0.178272 0.162502 1.039 
0.236955 0.169853 1.086 
0.267105 0.155933 0.997 
0.30414 0.151241 0.967 
0.339822 0.147174 0.941 
0.372266 0.142795 0.913 
0.400282 0.13779 0.881 
0.426818 0.133255 0.852 
0.451198 0.128875 0.824 
0.473562 0.124652 0.797 
0.492127 0.120117 0.768 
0.514176 0.116989 0.748 
0.531424 0.113235 0.724 
0.551899 0.110576 0.707 
0.565827 0.106979 0.684 
0.57761 0.103382 0.661 
0.593692 0.100879 0.645 
0.605381 0.0979077 0.626 
-0.638686 0.121468 0.769 
-0.614508 0.124311 0.787 
-0.593978 0.127786 0.809 
-0.572085 0.131419 0.832 
-0.547408 0.134894 0.854 
-0.518896 0.137895 0.873 
-0.499568 0.144056 0.912 
-0.460567 0.145161 0.919 
-0.431824 0.150058 0.95 
-0.413652 0.160167 1.014 
-0.385901 0.168697 1.068 
-0.351228 0.176279 1.116 
-0.313153 0.184492 1.168 
-0.258712 0.184492 1.168 
-0.205495 0.185598 1.175 
-0.147393 0.181491 1.149 
-0.0957159 0.185124 1.172 
-0.0390331 0.184018 1.165 
0.0154644 0.186388 1.18 
0.0688522 0.182123 1.153 
0.11664 0.173277 1.097 
0.161348 0.166643 1.055 
0.212318 0.168065 1.064 
0.255082 0.160641 1.017 
0.290885 0.154481 0.978 
0.326493 0.1499 0.949 
0.361741 0.146267 0.926 
0.389598 0.140739 0.891 
0.41516 0.135526 0.858 
0.44189 0.131577 0.833 
0.466866 0.127786 0.809 
0.485197 0.122574 0.776 
0.505914 0.118941 0.753 
0.525205 0.115466 0.731 
0.54474 0.112464 0.712 
0.558446 0.108674 0.688 
0.573348 0.105514 0.668 
0.58729 0.102513 0.649 
0.603267 0.100144 0.634 
-0.653872 0.122822 0.77 
-0.618772 0.123939 0.777 
-0.59905 0.127448 0.799 
-0.574465 0.130319 0.817 
-0.55608 0.135104 0.847 
-0.530019 0.138614 0.869 
-0.495148 0.140209 0.879 
-0.469162 0.144834 0.908 
-0.439532 0.149141 0.935 
-0.415008 0.156319 0.98 
-0.398726 0.168761 1.058 
-0.361301 0.174503 1.094 
-0.327896 0.184393 1.156 
-0.275199 0.18519 1.161 
-0.220894 0.185031 1.16 
-0.167689 0.185988 1.166 
-0.113731 0.186626 1.17 
-0.0591459 0.186466 1.169 
-0.00468237 0.187423 1.175 
0.050511 0.189019 1.185 
0.100033 0.17881 1.121 
0.144268 0.169399 1.062 
0.189754 0.16589 1.04 
0.241674 0.164933 1.034 
0.275292 0.156638 0.982 
0.312562 0.152491 0.956 
0.349651 0.149301 0.936 
0.381093 0.144675 0.907 
0.407498 0.139252 0.873 
0.433301 0.134626 0.844 
0.45808 0.130479 0.818 
0.478017 0.125374 0.786 
0.500902 0.122025 0.765 
0.518323 0.117877 0.739 
0.53706 0.114528 0.718 
0.555429 0.111497 0.699 
0.566979 0.107509 0.674 
0.580638 0.104319 0.654 
0.597104 0.101926 0.639 
0.608248 0.0988958 0.62 
-0.623964 0.124019 0.77 
-0.604876 0.127562 0.792 
-0.580152 0.1303 0.809 
-0.56323 0.135293 0.84 
-0.53718 0.138675 0.861 
-0.506862 0.141413 0.878 
-0.481859 0.146245 0.908 
-0.44825 0.149144 0.926 
-0.419087 0.154298 0.958 
-0.408439 0.168311 1.045 
-0.373501 0.174753 1.085 
-0.338107 0.182968 1.136 
-0.292689 0.187799 1.166 
-0.237932 0.187477 1.164 
-0.185887 0.189732 1.178 
-0.130647 0.189249 1.175 
-0.0761379 0.189893 1.179 
-0.0211125 0.189249 1.175 
0.0341415 0.191987 1.192 
0.0857879 0.183612 1.14 
0.131003 0.173143 1.075 
0.175638 0.166378 1.033 
0.233751 0.173787 1.079 
0.263774 0.161385 1.002 
0.299323 0.155587 0.966 
0.337575 0.152527 0.947 
0.368817 0.147373 0.915 
0.396176 0.141897 0.881 
0.423343 0.137387 0.853 
0.446271 0.132394 0.822 
0.471026 0.128689 0.799 
0.486639 0.123213 0.765 
0.512055 0.120797 0.75 
0.528779 0.116771 0.725 
0.548604 0.113872 0.707 
0.563461 0.110328 0.685 
0.576267 0.106785 0.663 
0.591601 0.104047 0.646 
0.605351 0.101309 0.629 
-0.645498 0.125215 0.77 
-0.616734 0.126678 0.779 
-0.596071 0.130093 0.8 
-0.571355 0.13302 0.818 
-0.552784 0.137899 0.848 
-0.52839 0.141964 0.873 
-0.491051 0.14294 0.879 
-0.464418 0.147493 0.907 
-0.43657 0.152534 0.938 
-0.41421 0.160828 0.989 
-0.393422 0.171886 1.057 
-0.358481 0.179041 1.101 
-0.322787 0.188148 1.157 
-0.270253 0.189123 1.163 
-0.216602 0.189611 1.166 
-0.162811 0.190262 1.17 
-0.108647 0.190912 1.174 
-0.053835 0.190587 1.172 
0.000796369 0.191562 1.178 
0.0556087 0.191237 1.176 
0.104413 0.18083 1.112 
0.148797 0.172211 1.059 
0.19735 0.170097 1.046 
0.242104 0.167333 1.029 
0.276817 0.15969 0.982 
0.314705 0.155787 0.958 
0.351105 0.152209 0.936 
0.381659 0.147168 0.905 
0.407918 0.141639 0.871 
0.433582 0.136923 0.842 
0.457104 0.13237 0.814 
0.479238 0.127817 0.786 
0.500648 0.123751 0.761 
0.518506 0.119686 0.736 
0.537038 0.116271 0.715 
0.55441 0.113019 0.695 
0.568229 0.109441 0.673 
0.581779 0.106189 0.653 
0.597215 0.103587 0.637 
0.608207 0.100497 0.618 
-0.626738 0.126247 0.769 
-0.607031 0.129695 0.79 
-0.583201 0.13265 0.808 
-0.56512 0.137411 0.837 
-0.539307 0.140858 0.858 
-0.513282 0.144798 0.882 
-0.485556 0.148903 0.907 
-0.450611 0.151365 0.922 
-0.421342 0.156454 0.953 
-0.410936 0.170573 1.039 
-0.377162 0.177468 1.081 
-0.337659 0.183378 1.117 
-0.299402 0.192244 1.171 
-0.245239 0.192572 1.173 
-0.192515 0.194542 1.185 
-0.136471 0.193393 1.178 
-0.0814948 0.193229 1.177 
-0.0267024 0.193721 1.18 
0.0285136 0.195199 1.189 
0.0807567 0.187811 1.144 
0.126695 0.177468 1.081 
0.170201 0.170573 1.039 
0.22745 0.176155 1.073 
0.260655 0.165484 1.008 
0.295125 0.158753 0.967 
0.334217 0.155962 0.95 
0.366145 0.150873 0.919 
0.392514 0.144798 0.882 
0.420842 0.14053 0.856 
0.443516 0.135276 0.824 
0.467887 0.131336 0.8 
0.486085 0.125755 0.766 
0.512252 0.123456 0.752 
0.527653 0.119024 0.725 
0.546731 0.115904 0.706 
0.563701 0.112293 0.684 
0.575556 0.108517 0.661 
0.591688 0.10589 0.645 
0.605364 0.103099 0.628 
-0.641909 0.127608 0.77 
-0.615464 0.129596 0.782 
-0.594563 0.133076 0.803 
-0.56893 0.135894 0.82 
-0.548832 0.140534 0.848 
-0.527324 0.145506 0.878 
-0.490832 0.146832 0.886 
-0.461205 0.150643 0.909 
-0.434041 0.156112 0.942 
-0.414984 0.166056 1.002 
-0.388495 0.17517 1.057 
-0.354954 0.183291 1.106 
-0.318491 0.192406 1.161 
-0.266426 0.193897 1.17 
-0.212616 0.19456 1.174 
-0.157896 0.19456 1.174 
-0.103263 0.194726 1.175 
-0.048331 0.194063 1.171 
0.00630307 0.19572 1.181 
0.0606745 0.193566 1.168 
0.108512 0.182462 1.101 
0.153152 0.174839 1.055 
0.201175 0.173845 1.049 
0.243871 0.169536 1.023 
0.279584 0.162575 0.981 
0.318013 0.158929 0.959 
0.353257 0.154786 0.934 
0.382772 0.149317 0.901 
0.409681 0.144014 0.869 
0.434126 0.138877 0.838 
0.45794 0.134402 0.811 
0.479848 0.130093 0.785 
0.499192 0.125453 0.757 
0.518943 0.121807 0.735 
0.536643 0.118161 0.713 
0.553092 0.114681 0.692 
0.569275 0.111532 0.673 
0.581901 0.108052 0.652 
0.596326 0.105235 0.635 
0.607195 0.102086 0.616 
-0.626357 0.128804 0.77 
-0.605037 0.131982 0.789 
-0.580505 0.134826 0.806 
-0.563146 0.139844 0.836 
-0.537974 0.143524 0.858 
-0.513073 0.147874 0.884 
-0.483079 0.151386 0.905 
-0.449178 0.15423 0.922 
-0.419861 0.159416 0.953 
-0.40814 0.1733 1.036 
-0.376872 0.181496 1.085 
-0.334119 0.185846 1.111 
-0.299616 0.19722 1.179 
-0.24404 0.196719 1.176 
-0.190674 0.198224 1.185 
-0.135441 0.198224 1.185 
-0.0798015 0.19722 1.179 
-0.0249955 0.198391 1.186 
0.0303609 0.198893 1.189 
0.0822455 0.190697 1.14 
0.128137 0.180493 1.079 
0.171154 0.173132 1.035 
0.22639 0.178653 1.068 
0.260138 0.168281 1.006 
0.295125 0.161758 0.967 
0.333865 0.158747 0.949 
0.366145 0.153728 0.919 
0.392069 0.147372 0.881 
0.421334 0.143357 0.857 
0.443516 0.137837 0.824 
0.467302 0.133655 0.799 
0.486085 0.128135 0.766 
0.512252 0.125793 0.752 
0.526197 0.120942 0.723 
0.545183 0.117764 0.704 
0.562397 0.114585 0.685 
0.574369 0.110738 0.662 
0.590598 0.108061 0.646 
0.604373 0.105218 0.629 
-0.653524 0.130169 0.771 
-0.61999 0.130676 0.774 
-0.599757 0.134221 0.795 
-0.571903 0.136416 0.808 
-0.556061 0.141987 0.841 
-0.532226 0.146208 0.866 
-0.500381 0.14874 0.881 
-0.468702 0.151779 0.899 
-0.441991 0.157182 0.931 
-0.415295 0.163766 0.97 
-0.397553 0.175922 1.042 
-0.369415 0.186221 1.103 
-0.326076 0.190948 1.131 
-0.286895 0.200403 1.187 
-0.229813 0.198883 1.178 
-0.176836 0.201078 1.191 
-0.120712 0.200065 1.185 
-0.065313 0.199559 1.182 
-0.0102715 0.200572 1.188 
0.0449117 0.199728 1.183 
0.0948081 0.18926 1.121 
0.139318 0.179299 1.062 
0.184729 0.173896 1.03 
0.237709 0.177611 1.052 
0.269571 0.166974 0.989 
0.308008 0.162922 0.965 
0.344574 0.159039 0.942 
0.373635 0.152961 0.906 
0.401634 0.147727 0.875 
0.427755 0.142831 0.846 
0.450068 0.137598 0.815 
0.477277 0.134559 0.797 
0.492371 0.128481 0.761 
0.515357 0.125442 0.743 
0.530742 0.121052 0.717 
0.548425 0.117675 0.697 
0.565077 0.114468 0.678 
0.577317 0.110753 0.656 
0.593994 0.108221 0.641 
0.604405 0.104844 0.621 
-0.645139 0.131367 0.771 
-0.616313 0.1329 0.78 
-0.594084 0.136138 0.799 
-0.570084 0.139375 0.818 
-0.548215 0.143635 0.843 
-0.528845 0.149257 0.876 
-0.493585 0.150961 0.886 
-0.459946 0.153517 0.901 
-0.435113 0.159821 0.938 
-0.416846 0.170215 0.999 
-0.389556 0.179075 1.051 
-0.359363 0.188957 1.109 
-0.317382 0.194921 1.144 
-0.273985 0.202247 1.187 
-0.217554 0.201225 1.181 
-0.16347 0.202417 1.188 
-0.107642 0.201566 1.183 
-0.0522359 0.200543 1.177 
0.00265113 0.202588 1.189 
0.0568498 0.198328 1.164 
0.105186 0.187764 1.102 
0.14959 0.179416 1.053 
0.196406 0.177371 1.041 
0.242045 0.174134 1.022 
0.278627 0.167489 0.983 
0.317843 0.164081 0.963 
0.351429 0.158969 0.933 
0.380102 0.153006 0.898 
0.407861 0.147894 0.868 
0.433341 0.142953 0.839 
0.455553 0.137842 0.809 
0.479847 0.134093 0.787 
0.497358 0.128811 0.756 
0.517097 0.125063 0.734 
0.534033 0.121144 0.711 
0.550421 0.117566 0.69 
0.569073 0.11484 0.674 
0.58267 0.111432 0.654 
0.59534 0.108195 0.635 
0.606238 0.104957 0.616 
-0.636296 0.132221 0.769 
-0.612165 0.1348 0.784 
-0.589573 0.138067 0.803 
-0.567272 0.141849 0.825 
-0.543562 0.145804 0.848 
-0.524245 0.15165 0.882 
-0.49409 0.155089 0.902 
-0.454553 0.155948 0.907 
-0.429096 0.16231 0.944 
-0.415284 0.175034 1.018 
-0.382649 0.182083 1.059 
-0.348081 0.190164 1.106 
-0.31208 0.200137 1.164 
-0.26292 0.204091 1.187 
-0.206894 0.203404 1.183 
-0.152652 0.204607 1.19 
-0.0963692 0.202888 1.18 
-0.0415444 0.203747 1.185 
0.0137351 0.204435 1.189 
0.0684342 0.197042 1.146 
0.115045 0.186038 1.082 
0.16043 0.180364 1.049 
0.210322 0.181223 1.054 
0.248865 0.17383 1.011 
0.286034 0.167984 0.977 
0.325802 0.165061 0.96 
0.358197 0.159559 0.928 
0.385445 0.153197 0.891 
0.414036 0.148555 0.864 
0.438007 0.143225 0.833 
0.459661 0.138067 0.803 
0.480375 0.133424 0.776 
0.500569 0.129298 0.752 
0.51995 0.125515 0.73 
0.536521 0.121561 0.707 
0.55256 0.11795 0.686 
0.570049 0.115027 0.669 
0.583257 0.111588 0.649 
0.595546 0.108321 0.63 
0.610032 0.105742 0.615 
-0.632712 0.133416 0.769 
-0.609287 0.136192 0.785 
-0.58656 0.139488 0.804 
-0.566159 0.143825 0.829 
-0.541518 0.147642 0.851 
-0.520134 0.15302 0.882 
-0.491515 0.157011 0.905 
-0.451319 0.157705 0.909 
-0.426046 0.164297 0.947 
-0.412959 0.177656 1.024 
-0.378783 0.184249 1.062 
-0.341995 0.191362 1.103 
-0.309553 0.203854 1.175 
-0.257604 0.206109 1.188 
-0.201721 0.205589 1.185 
-0.1476 0.20715 1.194 
-0.0908692 0.204721 1.18 
-0.0362338 0.206803 1.192 
0.0193094 0.206629 1.191 
0.0716183 0.197781 1.14 
0.118079 0.187198 1.079 
0.16369 0.181994 1.049 
0.216052 0.183555 1.058 
0.252574 0.174707 1.007 
0.289993 0.169155 0.975 
0.328901 0.165859 0.956 
0.36135 0.160481 0.925 
0.387849 0.153888 0.887 
0.416128 0.149203 0.86 
0.440298 0.143999 0.83 
0.461672 0.138794 0.8 
0.482071 0.133763 0.771 
0.505242 0.130466 0.752 
0.522331 0.126129 0.727 
0.53862 0.122139 0.704 
0.556011 0.118842 0.685 
0.569915 0.115199 0.664 
0.584576 0.112076 0.646 
0.59851 0.109127 0.629 
-17.0015 3.02812 17.299 
-0.630323 0.13461 0.769 
-0.606848 0.137411 0.785 
-0.584788 0.140912 0.805 
-0.564262 0.145288 0.83 
-0.539507 0.149139 0.852 
-0.517393 0.154391 0.882 
-0.489783 0.158767 0.907 
-0.448001 0.158942 0.908 
-0.42355 0.165944 0.948 
-0.410177 0.179422 1.025 
-0.376544 0.186424 1.065 
-0.337954 0.192726 1.101 
-0.307203 0.206554 1.18 
-0.254127 0.20813 1.189 
-0.198038 0.20743 1.185 
-0.144372 0.209705 1.198 
-0.0874981 0.207255 1.184 
-0.0326936 0.209705 1.198 
0.0230103 0.20848 1.191 
0.0746333 0.198152 1.132 
0.121094 0.18835 1.076 
0.166949 0.183623 1.049 
0.219754 0.185549 1.06 
0.254687 0.175571 1.003 
0.292722 0.170495 0.974 
0.33083 0.166819 0.953 
0.362256 0.161042 0.92 
0.388844 0.154566 0.883 
0.416852 0.149839 0.856 
0.441276 0.144763 0.827 
0.462997 0.139687 0.798 
0.482642 0.134786 0.77 
0.505737 0.13146 0.751 
0.52274 0.127083 0.726 
0.53818 0.122882 0.702 
0.557076 0.119907 0.685 
0.570087 0.116056 0.663 
0.585579 0.11308 0.646 
0.598534 0.109929 0.628 
-17.4644 3.13818 17.77 
-0.627596 0.136512 0.773 
-0.603046 0.139161 0.788 
-0.578534 0.142163 0.805 
-0.559831 0.147108 0.833 
-0.536015 0.151346 0.857 
-0.509963 0.155584 0.881 
-0.48114 0.159646 0.904 
-0.44289 0.161059 0.912 
-0.418381 0.1683 0.953 
