# .PCD v.7 - Point Cloud Data file format
VERSION .7
FIELDS x y z
SIZE 4 4 4
TYPE F F F
COUNT 1 1 1
WIDTH 1870
HEIGHT 1
VIEWPOINT 0 0 0 1 0 0 0
POINTS 1870
DATA ascii
0.0471361 0.144029 0.502 
0.070394 0.143742 0.501 
0.0933715 0.143168 0.499 
0.11663 0.143168 0.499 
0.139608 0.142882 0.498 
0.163147 0.143168 0.499 
0.185659 0.142595 0.497 
0.207984 0.142021 0.495 
0.230589 0.141734 0.494 
0.252588 0.14116 0.492 
0.27608 0.141447 0.493 
0.297845 0.140873 0.491 
0.320731 0.140873 0.491 
0.342217 0.140299 0.489 
0.365756 0.140586 0.49 
0.387802 0.140299 0.489 
0.409755 0.140012 0.488 
0.435666 0.140299 0.489 
0.458853 0.139726 0.487 
-0.50194 0.179713 0.623 
-0.471384 0.179136 0.621 
-0.440698 0.180002 0.624 
-0.408975 0.178848 0.62 
-0.379463 0.17856 0.619 
-0.349479 0.177983 0.617 
-0.32124 0.178271 0.618 
-0.291962 0.177983 0.617 
-0.263203 0.177983 0.617 
-0.232545 0.17654 0.612 
-0.199145 0.173944 0.603 
-0.164044 0.169617 0.588 
-0.142911 0.177406 0.615 
-0.113688 0.17654 0.612 
-0.0846062 0.175386 0.608 
-0.0510209 0.170483 0.591 
-0.00513045 0.145098 0.503 
0.0182781 0.144809 0.502 
0.0415104 0.144232 0.5 
0.0652045 0.145098 0.503 
0.0879445 0.143944 0.499 
0.111426 0.144232 0.5 
0.134192 0.143655 0.498 
0.15772 0.143944 0.499 
0.180616 0.143655 0.498 
0.2026 0.14279 0.495 
0.225216 0.142501 0.494 
0.247237 0.141925 0.492 
0.26962 0.141636 0.491 
0.292505 0.141636 0.491 
0.314749 0.141348 0.49 
0.336899 0.141059 0.489 
0.360427 0.141348 0.49 
0.382484 0.141059 0.489 
0.404447 0.140771 0.488 
0.430226 0.140771 0.488 
0.46415 0.140482 0.487 
-0.483147 0.179811 0.62 
-0.450882 0.180391 0.622 
-0.420534 0.179811 0.62 
-0.390372 0.179231 0.618 
-0.361567 0.179231 0.618 
-0.331147 0.178361 0.615 
-0.303957 0.179231 0.618 
-0.274261 0.178651 0.616 
-0.243955 0.177491 0.612 
-0.20287 0.171691 0.592 
-0.178534 0.174881 0.603 
-0.151474 0.177201 0.611 
-0.123197 0.177491 0.612 
-0.0943619 0.176911 0.61 
-0.0614098 0.169661 0.585 
-0.0144796 0.145589 0.502 
0.00893654 0.145879 0.503 
0.0321884 0.145009 0.5 
0.0556045 0.145299 0.501 
0.0787987 0.145009 0.5 
0.102104 0.145009 0.5 
0.124907 0.144429 0.498 
0.148119 0.144429 0.498 
0.171331 0.144429 0.498 
0.193762 0.143849 0.496 
0.215569 0.142979 0.493 
0.238064 0.142689 0.492 
0.260466 0.142399 0.491 
0.283351 0.142399 0.491 
0.305613 0.142109 0.49 
0.327782 0.141819 0.489 
0.351291 0.142109 0.49 
0.373367 0.141819 0.489 
0.395349 0.141529 0.488 
0.418095 0.141529 0.488 
-0.510119 0.180775 0.62 
-0.480444 0.180483 0.619 
-0.448949 0.181358 0.622 
-0.418607 0.180775 0.62 
-0.388452 0.180191 0.618 
-0.359065 0.1799 0.617 
-0.329236 0.179317 0.615 
-0.302036 0.180191 0.618 
-0.272347 0.179608 0.616 
-0.242053 0.178442 0.612 
-0.200449 0.172902 0.593 
-0.171888 0.172902 0.593 
-0.149113 0.178734 0.613 
-0.120344 0.178442 0.612 
-0.0915187 0.177859 0.61 
-0.0580704 0.171444 0.588 
-0.0121398 0.146369 0.502 
0.0112586 0.146369 0.502 
0.0345189 0.145786 0.5 
0.0579397 0.146078 0.501 
0.0811292 0.145786 0.5 
0.104225 0.145494 0.499 
0.127229 0.145203 0.498 
0.150138 0.144911 0.497 
0.173304 0.144911 0.497 
0.195678 0.144328 0.495 
0.217867 0.143745 0.493 
0.240357 0.143453 0.492 
0.262754 0.143162 0.491 
0.28564 0.143162 0.491 
0.307897 0.14287 0.49 
0.330061 0.142579 0.489 
0.352854 0.142579 0.489 
0.375646 0.142579 0.489 
0.397624 0.142287 0.488 
0.420369 0.142287 0.488 
-0.499201 0.182324 0.622 
-0.467942 0.181445 0.619 
-0.439728 0.18291 0.624 
-0.408669 0.182031 0.621 
-0.376667 0.180565 0.616 
-0.34739 0.180272 0.615 
-0.319243 0.180565 0.616 
-0.290531 0.180565 0.616 
-0.261394 0.180272 0.615 
-0.230458 0.178513 0.609 
-0.199086 0.175875 0.6 
-0.167698 0.172358 0.588 
-0.146494 0.179979 0.614 
-0.117492 0.179393 0.612 
-0.084467 0.177927 0.607 
-0.0546013 0.172944 0.59 
-0.00822362 0.146856 0.501 
0.0151281 0.146856 0.501 
0.0383263 0.14627 0.499 
0.0618317 0.146856 0.501 
0.0848434 0.14627 0.499 
0.108102 0.14627 0.499 
0.130834 0.145683 0.497 
0.153999 0.145683 0.497 
0.176808 0.14539 0.496 
0.199121 0.144804 0.494 
0.221247 0.144218 0.492 
0.243683 0.143925 0.491 
0.266025 0.143632 0.49 
0.288865 0.143632 0.49 
0.311067 0.143338 0.489 
0.333177 0.143045 0.488 
0.356652 0.143338 0.489 
0.378669 0.143045 0.488 
0.402173 0.143045 0.488 
-0.500329 0.182996 0.621 
-0.469106 0.182112 0.618 
-0.442637 0.18388 0.624 
-0.410901 0.182701 0.62 
-0.380154 0.181817 0.617 
-0.350257 0.181228 0.615 
-0.321591 0.181228 0.615 
-0.292926 0.181228 0.615 
-0.264691 0.181522 0.616 
-0.23368 0.179754 0.61 
-0.200201 0.175334 0.595 
-0.169525 0.173271 0.588 
-0.148161 0.180638 0.613 
-0.119393 0.180344 0.612 
-0.0854101 0.17887 0.607 
-0.0536846 0.173861 0.59 
-0.00668014 0.147929 0.502 
0.0166849 0.147634 0.501 
0.0398769 0.147045 0.499 
0.0633884 0.147634 0.501 
0.0862208 0.14675 0.498 
0.109652 0.147045 0.499 
0.132378 0.146456 0.497 
0.155544 0.146456 0.497 
0.178349 0.146161 0.496 
0.200656 0.145572 0.494 
0.222776 0.144982 0.492 
0.245208 0.144687 0.491 
0.267548 0.144393 0.49 
0.290387 0.144393 0.49 
0.312587 0.144098 0.489 
0.334694 0.143803 0.488 
0.358172 0.144098 0.489 
0.380185 0.143803 0.488 
0.40748 0.143803 0.488 
-0.484644 0.182776 0.617 
-0.457363 0.183368 0.619 
-0.429203 0.183664 0.62 
-0.400305 0.183664 0.62 
-0.368054 0.182479 0.616 
-0.33824 0.181887 0.614 
-0.310125 0.182183 0.615 
-0.28146 0.182183 0.615 
-0.251562 0.181295 0.612 
-0.216841 0.176259 0.595 
-0.192604 0.179517 0.606 
-0.158334 0.175962 0.594 
-0.134167 0.180702 0.61 
-0.105388 0.18011 0.608 
-0.0673087 0.172111 0.581 
-0.0167859 0.148413 0.501 
0.00659204 0.149005 0.503 
0.0298579 0.148116 0.5 
0.0530567 0.14782 0.499 
0.0763152 0.14782 0.499 
0.0995738 0.14782 0.499 
0.122586 0.147524 0.498 
0.145213 0.146932 0.496 
0.168331 0.146932 0.496 
0.190678 0.146339 0.494 
0.212838 0.145747 0.492 
0.235291 0.14545 0.491 
0.257651 0.145154 0.49 
0.28049 0.145154 0.49 
0.30271 0.144858 0.489 
0.325503 0.144858 0.489 
0.347583 0.144562 0.488 
0.370329 0.144562 0.488 
0.396052 0.144265 0.487 
-0.493111 0.184032 0.618 
-0.463554 0.183734 0.617 
-0.439728 0.185819 0.624 
-0.408669 0.184925 0.621 
-0.375444 0.182841 0.614 
-0.346261 0.182543 0.613 
-0.317688 0.182543 0.613 
-0.29006 0.183139 0.615 
-0.260969 0.182841 0.614 
-0.229323 0.180459 0.606 
-0.198484 0.17897 0.601 
-0.164677 0.174801 0.587 
-0.143165 0.182245 0.612 
-0.114452 0.181948 0.611 
-0.0810998 0.179565 0.603 
-0.0246189 0.149489 0.502 
-0.00122538 0.150084 0.504 
0.0220453 0.148595 0.499 
0.0453038 0.148595 0.499 
0.0686998 0.148893 0.5 
0.0916369 0.148298 0.498 
0.115079 0.148595 0.499 
0.137506 0.147702 0.496 
0.160625 0.147702 0.496 
0.183744 0.147702 0.496 
0.206723 0.146511 0.492 
0.229188 0.146213 0.491 
0.251561 0.145915 0.49 
0.2744 0.145915 0.49 
0.296632 0.145618 0.489 
0.319425 0.145618 0.489 
0.341517 0.14532 0.488 
0.364263 0.14532 0.488 
0.387009 0.14532 0.488 
-0.495031 0.184992 0.618 
-0.465471 0.184693 0.617 
-0.44096 0.186489 0.623 
-0.409634 0.18589 0.621 
-0.376398 0.183795 0.614 
-0.347213 0.183496 0.613 
-0.318121 0.183196 0.612 
-0.291015 0.184094 0.615 
-0.261497 0.183496 0.613 
-0.230645 0.1817 0.607 
-0.199685 0.179305 0.599 
-0.165024 0.175114 0.585 
-0.14388 0.182897 0.611 
-0.115212 0.182598 0.61 
-0.0862109 0.1814 0.606 
-0.0277939 0.150568 0.503 
-0.0043403 0.150269 0.502 
0.0189821 0.14967 0.5 
0.0422027 0.149371 0.499 
0.0655924 0.14967 0.5 
0.088542 0.149071 0.498 
0.111978 0.149371 0.499 
0.134424 0.148473 0.496 
0.157543 0.148473 0.496 
0.180661 0.148473 0.496 
0.205959 0.147275 0.492 
0.22796 0.146677 0.49 
0.250799 0.146677 0.49 
0.27308 0.146377 0.489 
0.295872 0.146377 0.489 
0.318013 0.146078 0.488 
0.340759 0.146078 0.488 
0.363505 0.146078 0.488 
-0.508473 0.185952 0.618 
-0.478892 0.185652 0.617 
-0.452322 0.186554 0.62 
-0.420692 0.185351 0.616 
-0.392616 0.185652 0.617 
-0.359227 0.184749 0.614 
-0.33007 0.184448 0.613 
-0.302481 0.18505 0.615 
-0.273371 0.184749 0.614 
-0.242759 0.183244 0.609 
-0.207333 0.177227 0.589 
-0.183544 0.180837 0.601 
-0.154001 0.182342 0.606 
-0.12617 0.182944 0.608 
-0.0975092 0.182342 0.606 
-0.0619991 0.17512 0.582 
-0.0143931 0.150146 0.499 
0.00888324 0.150447 0.5 
0.032124 0.150146 0.499 
0.0553825 0.150146 0.499 
0.0784835 0.149845 0.498 
0.101491 0.149544 0.497 
0.124406 0.149243 0.496 
0.147227 0.148942 0.495 
0.170299 0.148942 0.495 
0.19259 0.148341 0.493 
0.218509 0.147739 0.491 
0.240903 0.147438 0.49 
0.263203 0.147137 0.489 
0.285996 0.147137 0.489 
0.308157 0.146836 0.488 
0.342275 0.146836 0.488 
0.385459 0.146535 0.487 
-0.48673 0.186308 0.616 
-0.458761 0.18661 0.617 
-0.432093 0.187518 0.62 
-0.403195 0.187518 0.62 
-0.369467 0.185098 0.612 
-0.338486 0.184795 0.611 
-0.311022 0.1854 0.613 
-0.282449 0.1854 0.613 
-0.252635 0.184493 0.61 
-0.215383 0.178747 0.591 
-0.190091 0.182678 0.604 
-0.156613 0.180864 0.598 
-0.130893 0.183888 0.608 
-0.102048 0.182981 0.605 
-0.0636979 0.175722 0.581 
-0.0151683 0.150921 0.499 
0.00809019 0.150921 0.499 
0.0313487 0.150921 0.499 
0.0544978 0.150619 0.498 
0.0777098 0.150619 0.498 
0.100719 0.150316 0.497 
0.123386 0.149712 0.495 
0.146162 0.149409 0.494 
0.16953 0.149712 0.495 
0.191435 0.148804 0.492 
0.216541 0.148199 0.49 
0.238891 0.147897 0.489 
0.261684 0.147897 0.489 
0.283895 0.147594 0.488 
0.30664 0.147594 0.488 
0.386216 0.147292 0.487 
-0.476016 0.187569 0.617 
-0.449432 0.188481 0.62 
-0.416464 0.186657 0.614 
-0.388477 0.186961 0.615 
-0.356737 0.186353 0.613 
-0.324246 0.185745 0.611 
-0.29722 0.186657 0.614 
-0.267726 0.186049 0.612 
-0.237246 0.184529 0.607 
-0.199946 0.181489 0.597 
-0.165082 0.176929 0.582 
-0.144355 0.185137 0.609 
-0.115589 0.184529 0.607 
-0.0871524 0.184225 0.606 
-0.0261266 0.152305 0.501 
-0.00277487 0.152305 0.501 
0.0228206 0.151697 0.499 
0.0458944 0.151089 0.497 
0.0690598 0.151089 0.497 
0.0937694 0.151089 0.497 
0.116699 0.150785 0.496 
0.139254 0.150177 0.494 
0.162608 0.150481 0.495 
0.18493 0.149873 0.493 
0.207405 0.148961 0.49 
0.229774 0.148657 0.489 
0.252567 0.148657 0.489 
0.279345 0.148353 0.488 
0.302091 0.148353 0.488 
-0.505733 0.188527 0.617 
-0.468545 0.188222 0.616 
-0.441975 0.189139 0.619 
-0.411789 0.188527 0.617 
-0.381789 0.187916 0.615 
-0.351975 0.187305 0.613 
-0.32182 0.186389 0.61 
-0.295312 0.187611 0.614 
-0.26539 0.186694 0.611 
-0.234972 0.185166 0.606 
-0.199685 0.183027 0.599 
-0.164178 0.177833 0.582 
-0.141995 0.185472 0.607 
-0.113515 0.185166 0.606 
-0.0851287 0.184861 0.605 
-0.0261266 0.153083 0.501 
-0.00276934 0.152777 0.5 
0.0227749 0.152166 0.498 
0.0458021 0.151555 0.496 
0.0690598 0.151861 0.497 
0.0929973 0.151861 0.497 
0.115929 0.151555 0.496 
0.138487 0.150944 0.494 
0.161839 0.15125 0.495 
0.184164 0.150639 0.493 
0.205883 0.149722 0.49 
0.228255 0.149416 0.489 
0.251047 0.149416 0.489 
0.278587 0.149111 0.488 
0.301333 0.149111 0.488 
-0.49645 0.188872 0.615 
-0.458018 0.189179 0.616 
-0.430003 0.189486 0.617 
-0.403195 0.190407 0.62 
-0.369467 0.18795 0.612 
-0.340384 0.187643 0.611 
-0.312416 0.18795 0.612 
-0.283427 0.187643 0.611 
-0.253696 0.186722 0.608 
-0.220538 0.18273 0.595 
-0.191029 0.185494 0.604 
-0.156351 0.183344 0.597 
-0.130893 0.186722 0.608 
-0.102048 0.185801 0.605 
-0.0636979 0.17843 0.581 
-0.0174591 0.15294 0.498 
0.00575278 0.15294 0.498 
0.0289647 0.15294 0.498 
0.0519671 0.152326 0.496 
0.0752372 0.152633 0.497 
0.0982045 0.152326 0.496 
0.120834 0.151712 0.494 
0.143568 0.151405 0.493 
0.167223 0.152019 0.495 
0.190283 0.15079 0.491 
0.2123 0.150176 0.489 
0.235093 0.150176 0.489 
0.257358 0.149869 0.488 
0.286927 0.149869 0.488 
0.309795 0.149562 0.487 
-0.466829 0.189827 0.615 
-0.439589 0.190445 0.617 
-0.41083 0.190445 0.617 
-0.380214 0.189519 0.614 
-0.351023 0.18921 0.613 
-0.320872 0.188284 0.61 
-0.293878 0.18921 0.613 
-0.264008 0.188284 0.61 
-0.233258 0.186432 0.604 
-0.198154 0.185197 0.6 
-0.160561 0.179641 0.582 
-0.136336 0.187358 0.607 
-0.107332 0.186123 0.603 
-0.0725996 0.179024 0.58 
-0.0213278 0.153714 0.498 
0.00188413 0.153714 0.498 
0.0250961 0.153714 0.498 
0.048017 0.152788 0.495 
0.0712327 0.153097 0.496 
0.0943514 0.153097 0.496 
0.118002 0.152788 0.495 
0.140504 0.152171 0.493 
0.163815 0.152479 0.494 
0.186084 0.151862 0.492 
0.207742 0.150936 0.489 
0.230534 0.150936 0.489 
0.252809 0.150627 0.488 
0.288444 0.150627 0.488 
-0.480379 0.190473 0.614 
-0.451761 0.190473 0.614 
-0.422453 0.190162 0.613 
-0.396451 0.191403 0.617 
-0.364117 0.189542 0.611 
-0.335088 0.189232 0.61 
-0.307159 0.189542 0.611 
-0.278224 0.189232 0.61 
-0.248563 0.188301 0.607 
-0.210277 0.182097 0.587 
-0.188214 0.18737 0.604 
-0.152554 0.18737 0.604 
-0.12502 0.188301 0.607 
-0.096249 0.18737 0.604 
-0.0619991 0.180546 0.582 
-0.0112467 0.154177 0.497 
0.0118707 0.153557 0.495 
0.035084 0.154177 0.497 
0.0582493 0.154177 0.497 
0.081087 0.153557 0.495 
0.104159 0.153557 0.495 
0.126717 0.152936 0.493 
0.149392 0.152626 0.492 
0.172675 0.152936 0.493 
0.194066 0.151696 0.489 
0.217173 0.151385 0.488 
0.240411 0.151696 0.489 
0.289366 0.151075 0.487 
-0.471794 0.191427 0.614 
-0.443175 0.191427 0.614 
-0.413206 0.190803 0.612 
-0.385309 0.191115 0.613 
-0.355573 0.190491 0.611 
-0.327094 0.190491 0.611 
-0.298615 0.190491 0.611 
-0.269694 0.190179 0.61 
-0.238493 0.187997 0.603 
-0.202289 0.182385 0.585 
-0.171118 0.181138 0.581 
-0.149047 0.188621 0.605 
-0.120848 0.188621 0.605 
-0.0914053 0.187997 0.603 
-0.0559564 0.182385 0.585 
-0.00662691 0.155261 0.498 
0.0164851 0.154326 0.495 
0.0394773 0.154014 0.494 
0.0627558 0.154638 0.496 
0.0857014 0.154326 0.495 
0.108773 0.154326 0.495 
0.131313 0.153702 0.493 
0.154292 0.153702 0.493 
0.176911 0.153391 0.492 
0.198625 0.152455 0.489 
0.223997 0.152144 0.488 
0.246743 0.152144 0.488 
-0.489761 0.192694 0.615 
-0.460346 0.192381 0.614 
-0.431728 0.192381 0.614 
-0.405735 0.193634 0.618 
-0.37327 0.191754 0.612 
-0.343618 0.191127 0.61 
-0.315186 0.191127 0.61 
-0.286284 0.190814 0.609 
-0.257051 0.190187 0.607 
-0.227251 0.188934 0.603 
-0.195683 0.188307 0.601 
-0.159571 0.183294 0.585 
-0.136601 0.189247 0.604 
-0.108089 0.188621 0.602 
-0.0735008 0.181728 0.58 
-0.0158478 0.155408 0.496 
0.00725627 0.155095 0.495 
0.0304509 0.155722 0.497 
0.0532926 0.154782 0.494 
0.0764726 0.155095 0.495 
0.0995447 0.155095 0.495 
0.122121 0.154468 0.493 
0.144806 0.154155 0.492 
0.168079 0.154468 0.493 
0.189895 0.153528 0.49 
0.219448 0.152902 0.488 
0.242194 0.152902 0.488 
-0.486103 0.193334 0.614 
-0.456739 0.19302 0.613 
-0.427469 0.192705 0.612 
-0.402855 0.194594 0.618 
-0.369813 0.19239 0.611 
-0.338879 0.192075 0.61 
-0.309938 0.19176 0.609 
-0.28109 0.191445 0.608 
-0.25192 0.190815 0.606 
-0.21265 0.184518 0.586 
-0.190713 0.189871 0.603 
-0.155424 0.187982 0.597 
-0.129521 0.190815 0.606 
-0.100941 0.190186 0.604 
-0.0660631 0.181999 0.578 
-0.0104745 0.156494 0.497 
0.0126398 0.155864 0.495 
0.0357119 0.155864 0.495 
0.0589027 0.156179 0.496 
0.0816907 0.155549 0.494 
0.104716 0.155549 0.494 
0.127224 0.154919 0.492 
0.150157 0.154919 0.492 
0.173089 0.154919 0.492 
0.206559 0.15366 0.488 
0.229774 0.153975 0.489 
-0.499598 0.193972 0.613 
-0.471025 0.193972 0.613 
-0.441732 0.193656 0.612 
-0.413206 0.193656 0.612 
-0.384681 0.193656 0.612 
-0.354991 0.193023 0.61 
-0.323716 0.193023 0.61 
-0.294799 0.192706 0.609 
-0.265101 0.191757 0.606 
-0.23451 0.189858 0.6 
-0.200012 0.186378 0.589 
-0.166031 0.183213 0.579 
-0.144807 0.190808 0.603 
-0.116507 0.190491 0.602 
-0.0856419 0.190491 0.602 
-0.0196612 0.156633 0.495 
0.00341092 0.156633 0.495 
0.0280778 0.15695 0.496 
0.0508868 0.156 0.493 
0.0740155 0.156317 0.494 
0.097041 0.156317 0.494 
0.119823 0.156 0.493 
0.142223 0.155367 0.491 
0.165445 0.155684 0.492 
0.187611 0.155051 0.49 
0.218998 0.154102 0.487 
0.242194 0.154418 0.488 
-0.478815 0.194606 0.612 
-0.449553 0.194288 0.611 
-0.421075 0.194288 0.611 
-0.393881 0.194924 0.613 
-0.363521 0.19397 0.61 
-0.336187 0.194606 0.612 
-0.305651 0.193334 0.608 
-0.276856 0.193017 0.607 
-0.248154 0.192699 0.606 
-0.209561 0.186021 0.585 
-0.187279 0.191109 0.601 
-0.152222 0.190473 0.599 
-0.125548 0.192381 0.605 
-0.0968656 0.191427 0.602 
-0.0282346 0.158038 0.497 
-0.0012035 0.157402 0.495 
0.0218686 0.157402 0.495 
0.047823 0.156766 0.493 
0.0708018 0.156766 0.493 
0.0937807 0.156766 0.493 
0.11676 0.156766 0.493 
0.139172 0.15613 0.491 
0.162387 0.156448 0.492 
0.184566 0.155812 0.49 
0.211866 0.155176 0.488 
0.235852 0.155494 0.489 
-0.481667 0.195557 0.612 
-0.451661 0.194918 0.61 
-0.423922 0.195238 0.611 
-0.397385 0.196196 0.614 
-0.366364 0.194918 0.61 
-0.33904 0.195557 0.612 
-0.308485 0.194279 0.608 
-0.279224 0.19364 0.606 
-0.250564 0.193321 0.605 
-0.211017 0.18661 0.584 
-0.189147 0.192042 0.601 
-0.151968 0.191084 0.598 
-0.125133 0.192681 0.603 
-0.0967047 0.192042 0.601 
-0.063369 0.184693 0.578 
-0.0104534 0.158491 0.496 
0.0126142 0.157852 0.494 
0.0378654 0.157532 0.493 
0.0609677 0.157852 0.494 
0.0838232 0.157532 0.493 
0.106802 0.157532 0.493 
0.129254 0.156893 0.491 
0.15214 0.156893 0.491 
0.174313 0.156254 0.489 
0.196299 0.155615 0.487 
0.220512 0.155615 0.487 
-0.497018 0.196187 0.611 
-0.466454 0.196508 0.612 
-0.437213 0.196187 0.611 
-0.409403 0.196508 0.612 
-0.380877 0.196508 0.612 
-0.350624 0.195545 0.609 
-0.322239 0.195545 0.609 
-0.292888 0.194903 0.607 
-0.263724 0.19426 0.605 
-0.233578 0.192655 0.6 
-0.198855 0.189765 0.591 
-0.161113 0.187518 0.584 
-0.137332 0.192334 0.599 
-0.110143 0.193618 0.603 
-0.0767297 0.187518 0.584 
-0.0211993 0.15894 0.495 
0.00186899 0.158619 0.494 
0.0249449 0.15894 0.495 
0.047823 0.158298 0.493 
0.0706582 0.157977 0.492 
0.0935905 0.157977 0.492 
0.116523 0.157977 0.492 
0.139172 0.157656 0.491 
0.162057 0.157656 0.491 
0.18419 0.157014 0.489 
0.206559 0.156693 0.488 
-0.49512 0.197136 0.611 
-0.463601 0.197459 0.612 
-0.433654 0.196814 0.61 
-0.40655 0.197459 0.612 
-0.378025 0.197459 0.612 
-0.348357 0.196814 0.61 
-0.3194 0.196491 0.609 
-0.289581 0.195523 0.606 
-0.260473 0.194878 0.604 
-0.230781 0.193587 0.6 
-0.197759 0.192297 0.596 
-0.159476 0.189715 0.588 
-0.13454 0.193265 0.599 
-0.107154 0.194233 0.602 
-0.0736275 0.187457 0.581 
-0.0196215 0.159387 0.494 
0.00339714 0.159064 0.493 
0.026483 0.159709 0.495 
0.0492548 0.158742 0.492 
0.072187 0.158742 0.492 
0.0951193 0.158742 0.492 
0.118052 0.158742 0.492 
0.140411 0.158096 0.49 
0.16325 0.158096 0.49 
0.185709 0.157774 0.489 
0.208075 0.157451 0.488 
-0.479931 0.198086 0.611 
-0.450713 0.197761 0.61 
-0.422281 0.197761 0.61 
-0.393849 0.197761 0.61 
-0.364817 0.197437 0.609 
-0.338641 0.198734 0.613 
-0.307034 0.196789 0.607 
-0.277364 0.195816 0.604 
-0.249212 0.195816 0.604 
-0.210656 0.189008 0.583 
-0.189147 0.194844 0.601 
-0.152641 0.193547 0.597 
-0.125651 0.194844 0.601 
-0.097476 0.194519 0.6 
-0.0649396 0.186739 0.576 
-0.0157839 0.160154 0.494 
0.00722695 0.15983 0.493 
0.0302671 0.160154 0.494 
0.0530768 0.159506 0.492 
0.0760091 0.159506 0.492 
0.0991425 0.15983 0.493 
0.121626 0.159182 0.491 
0.144217 0.158858 0.49 
0.167056 0.158858 0.49 
0.189508 0.158533 0.489 
-0.503787 0.198709 0.61 
-0.471563 0.198709 0.61 
-0.443858 0.199035 0.611 
-0.414699 0.198709 0.61 
-0.384371 0.198709 0.61 
-0.354188 0.197732 0.607 
-0.32697 0.198383 0.609 
-0.296623 0.19708 0.605 
-0.268424 0.19708 0.605 
-0.239033 0.196103 0.602 
-0.201598 0.189914 0.583 
-0.169336 0.188285 0.578 
-0.147322 0.1948 0.598 
-0.119849 0.195452 0.6 
-0.0917296 0.195126 0.599 
-0.0595701 0.187634 0.576 
-0.0119463 0.160922 0.494 
0.0110568 0.160596 0.493 
0.0354954 0.16027 0.492 
0.0583089 0.159945 0.491 
0.0811946 0.159945 0.491 
0.104504 0.160596 0.493 
0.126707 0.159619 0.49 
0.149241 0.159293 0.489 
0.172034 0.159293 0.489 
0.194029 0.158642 0.487 
-0.490373 0.199984 0.611 
-0.458295 0.199657 0.61 
-0.429158 0.19933 0.609 
-0.399535 0.199657 0.61 
-0.369886 0.199002 0.608 
-0.344356 0.200639 0.613 
-0.312693 0.198675 0.607 
-0.283463 0.19802 0.605 
-0.25442 0.197366 0.603 
-0.216091 0.19082 0.583 
-0.194101 0.196057 0.599 
-0.158933 0.191802 0.586 
-0.134315 0.195729 0.598 
-0.106798 0.196384 0.6 
-0.0747867 0.19082 0.583 
-0.0242266 0.161689 0.494 
-0.00119864 0.161362 0.493 
0.0218244 0.161689 0.494 
0.0446683 0.161035 0.492 
0.0674632 0.160707 0.491 
0.0903488 0.160707 0.491 
0.113234 0.160707 0.491 
0.135566 0.160053 0.489 
0.158682 0.16038 0.49 
0.18078 0.159726 0.488 
-0.502015 0.200276 0.609 
-0.465877 0.200605 0.61 
-0.436728 0.200276 0.609 
-0.407671 0.199947 0.608 
-0.378356 0.200934 0.611 
-0.349305 0.200605 0.61 
-0.31982 0.199947 0.608 
-0.290043 0.19896 0.605 
-0.261411 0.198631 0.604 
-0.230169 0.196001 0.596 
-0.199097 0.193699 0.589 
-0.16237 0.191397 0.582 
-0.138961 0.196658 0.598 
-0.111459 0.197316 0.6 
-0.0827971 0.195672 0.595 
-0.0515158 0.189423 0.576 
-0.00579441 0.162128 0.493 
0.0171845 0.162128 0.493 
0.0400004 0.16147 0.491 
0.0628861 0.16147 0.491 
0.085597 0.161141 0.49 
0.108657 0.16147 0.491 
0.131007 0.160813 0.489 
0.1538 0.160813 0.489 
0.17587 0.160155 0.487 
0.200082 0.160155 0.487 
-0.468898 0.201222 0.609 
-0.440512 0.201222 0.609 
-0.41145 0.200892 0.608 
-0.384371 0.201552 0.61 
-0.354188 0.200561 0.607 
-0.325896 0.200561 0.607 
-0.296133 0.19957 0.604 
-0.268424 0.1999 0.605 
-0.239033 0.198909 0.602 
-0.203614 0.19197 0.581 
-0.165744 0.190979 0.578 
-0.13989 0.197587 0.598 
-0.112204 0.197918 0.599 
-0.0837216 0.196596 0.595 
-0.0524107 0.190318 0.576 
-0.00654707 0.162564 0.492 
0.0163852 0.162564 0.492 
0.0391576 0.161903 0.49 
0.0619967 0.161903 0.49 
0.0848357 0.161903 0.49 
0.107895 0.162233 0.491 
0.130247 0.161572 0.489 
0.15304 0.161572 0.489 
0.175473 0.161242 0.488 
-0.500122 0.202168 0.609 
-0.463221 0.202168 0.609 
-0.434121 0.201836 0.608 
-0.405115 0.201504 0.607 
-0.378685 0.2025 0.61 
-0.349678 0.202168 0.609 
-0.31971 0.201172 0.606 
-0.290502 0.200508 0.604 
-0.262349 0.200508 0.604 
-0.230319 0.197189 0.594 
-0.200245 0.194865 0.587 
-0.161188 0.192873 0.581 
-0.135018 0.198185 0.597 
-0.107371 0.198517 0.598 
-0.0785676 0.196193 0.591 
-0.0257094 0.16366 0.493 
-0.00271949 0.162996 0.491 
0.0202483 0.16366 0.493 
0.0430518 0.162996 0.491 
0.0658032 0.162664 0.49 
0.0888231 0.162996 0.491 
0.111481 0.162664 0.49 
0.133772 0.162 0.488 
0.158034 0.162 0.488 
0.192911 0.162 0.488 
-0.461329 0.203114 0.609 
-0.431521 0.202447 0.607 
-0.403893 0.202781 0.608 
-0.376172 0.203114 0.609 
-0.346461 0.203448 0.61 
-0.314901 0.201447 0.604 
-0.286274 0.201113 0.603 
-0.258168 0.201113 0.603 
-0.222285 0.19511 0.585 
-0.197352 0.197444 0.592 
-0.158391 0.194776 0.584 
-0.129236 0.198779 0.596 
-0.101286 0.198445 0.595 
-0.0680434 0.190774 0.572 
-0.0203064 0.164092 0.492 
0.0026205 0.163759 0.491 
0.0255581 0.164092 0.492 
0.0483918 0.163759 0.491 
0.0712775 0.163759 0.491 
0.0941631 0.163759 0.491 
0.116572 0.163092 0.489 
0.151969 0.162758 0.488 
0.191003 0.162425 0.487 
-0.461516 0.203725 0.608 
-0.433177 0.203725 0.608 
-0.404172 0.20339 0.607 
-0.376498 0.203725 0.608 
-0.345514 0.204396 0.61 
-0.313443 0.20205 0.603 
-0.285337 0.20205 0.603 
-0.256804 0.201715 0.602 
-0.220998 0.195684 0.584 
-0.196764 0.198699 0.593 
-0.160911 0.194343 0.58 
-0.132014 0.199705 0.596 
-0.104059 0.19937 0.595 
-0.0709568 0.192333 0.574 
-0.019542 0.164857 0.492 
0.00338335 0.164522 0.491 
0.026269 0.164522 0.491 
0.0490546 0.164187 0.49 
0.0720403 0.164522 0.491 
0.094926 0.164522 0.491 
0.117332 0.163852 0.489 
0.163007 0.163181 0.487 
-0.490518 0.205343 0.61 
-0.454903 0.20467 0.608 
-0.423278 0.203997 0.606 
-0.395684 0.204333 0.607 
-0.361481 0.20366 0.605 
-0.334384 0.204333 0.607 
-0.303137 0.202987 0.603 
-0.275031 0.202987 0.603 
-0.245697 0.201977 0.6 
-0.207591 0.194235 0.577 
-0.188526 0.20265 0.602 
-0.15011 0.201304 0.598 
-0.121828 0.200631 0.596 
-0.0940482 0.200631 0.596 
-0.0609338 0.192551 0.572 
-0.0111109 0.165285 0.491 
0.0117508 0.164948 0.49 
0.0345898 0.164948 0.49 
0.0574289 0.164948 0.49 
0.0802679 0.164948 0.49 
0.102897 0.164611 0.489 
0.125432 0.164275 0.488 
-0.499176 0.205953 0.609 
-0.466415 0.205277 0.607 
-0.431521 0.205277 0.607 
-0.403229 0.205277 0.607 
-0.374318 0.204938 0.606 
-0.344001 0.205953 0.609 
-0.311988 0.203586 0.602 
-0.283928 0.203586 0.602 
-0.255019 0.202909 0.6 
-0.220241 0.196822 0.582 
-0.197096 0.20088 0.594 
-0.160356 0.195469 0.578 
-0.136644 0.201557 0.596 
-0.108681 0.201218 0.595 
-0.0805401 0.200204 0.592 
-0.0233166 0.166047 0.491 
-0.000430044 0.165709 0.49 
0.022409 0.165709 0.49 
0.045248 0.165709 0.49 
0.0679481 0.165371 0.489 
0.0909261 0.165709 0.49 
0.113533 0.165371 0.489 
0.16679 0.164695 0.487 
-0.477732 0.20622 0.607 
-0.45018 0.206559 0.608 
-0.417629 0.20588 0.606 
-0.38874 0.20554 0.605 
-0.359945 0.2052 0.604 
-0.322811 0.204861 0.603 
-0.290475 0.204521 0.602 
-0.262852 0.204861 0.603 
-0.229685 0.200444 0.59 
-0.201842 0.200104 0.589 
-0.165777 0.195348 0.575 
-0.14381 0.202143 0.595 
-0.116077 0.202143 0.595 
-0.0883438 0.202143 0.595 
-0.0277801 0.166131 0.489 
-0.00347525 0.166471 0.49 
0.0193243 0.166131 0.489 
0.0422028 0.166471 0.49 
0.0649091 0.166131 0.489 
0.0916874 0.166471 0.49 
0.114293 0.166131 0.489 
-0.498356 0.207504 0.608 
-0.465472 0.207163 0.607 
-0.436459 0.206821 0.606 
-0.40754 0.20648 0.605 
-0.379341 0.20648 0.605 
-0.351141 0.20648 0.605 
-0.30544 0.205456 0.602 
-0.27692 0.205115 0.601 
-0.247251 0.20375 0.597 
-0.210445 0.196241 0.575 
-0.190351 0.203409 0.596 
-0.15372 0.202726 0.594 
-0.126246 0.203067 0.595 
-0.0981814 0.202385 0.593 
-0.0664503 0.19317 0.566 
-0.0164509 0.167573 0.491 
0.00640856 0.166891 0.489 
0.029201 0.166891 0.489 
0.0519934 0.166891 0.489 
0.0749388 0.167232 0.49 
0.10117 0.166549 0.488 
0.123916 0.166549 0.488 
-0.47412 0.207763 0.606 
-0.445875 0.207763 0.606 
-0.41694 0.20742 0.605 
-0.388098 0.207077 0.604 
-0.359349 0.206734 0.603 
-0.319873 0.206049 0.601 
-0.286734 0.206392 0.602 
-0.257386 0.205363 0.599 
-0.219863 0.199192 0.581 
-0.194327 0.203649 0.594 
-0.156469 0.201249 0.587 
-0.130648 0.203649 0.594 
-0.102788 0.203306 0.593 
-0.0663329 0.193706 0.565 
-0.0187013 0.167993 0.49 
0.00412932 0.16765 0.489 
0.029201 0.16765 0.489 
0.0518871 0.167307 0.488 
0.0747859 0.16765 0.489 
0.0988951 0.167307 0.488 
0.169817 0.166965 0.487 
-0.459998 0.208705 0.606 
-0.431039 0.20836 0.605 
-0.40284 0.20836 0.605 
-0.373402 0.207671 0.603 
-0.345296 0.207671 0.603 
-0.299331 0.206983 0.601 
-0.270866 0.206638 0.6 
-0.241686 0.205605 0.597 
-0.204315 0.200783 0.583 
-0.169652 0.197339 0.573 
-0.146583 0.204916 0.595 
-0.11865 0.204572 0.594 
-0.0908108 0.204227 0.593 
-0.0262606 0.16841 0.489 
-0.00346816 0.16841 0.489 
0.0192848 0.168066 0.488 
0.0421167 0.16841 0.489 
0.0687079 0.16841 0.489 
0.0915003 0.16841 0.489 
-0.496594 0.209992 0.607 
-0.459056 0.209646 0.606 
-0.430099 0.2093 0.605 
-0.4019 0.2093 0.605 
-0.371848 0.208262 0.602 
-0.343788 0.208262 0.602 
-0.305867 0.207916 0.601 
-0.276929 0.207224 0.599 
-0.247347 0.205841 0.595 
-0.207404 0.198576 0.574 
-0.168467 0.197884 0.572 
-0.141484 0.205149 0.593 
-0.114036 0.205495 0.594 
-0.0860588 0.204803 0.592 
-0.0262606 0.16917 0.489 
-0.00346107 0.168824 0.488 
0.0283831 0.168824 0.488 
0.0518871 0.168824 0.488 
0.0822149 0.168824 0.488 
-0.491878 0.210935 0.607 
-0.450034 0.209893 0.604 
-0.421881 0.209893 0.604 
-0.393077 0.209545 0.603 
-0.36376 0.20885 0.601 
-0.336306 0.209198 0.602 
-0.307734 0.20885 0.601 
-0.278791 0.208155 0.599 
-0.248777 0.206418 0.594 
-0.214391 0.200162 0.576 
-0.172022 0.198772 0.572 
-0.146091 0.20607 0.593 
-0.11865 0.206418 0.594 
-0.0906577 0.205722 0.592 
-0.0539183 0.19912 0.573 
-0.0072669 0.16993 0.489 
0.0253503 0.169582 0.488 
0.0480961 0.169582 0.488 
0.0875222 0.169582 0.488 
-0.462233 0.210831 0.604 
-0.434799 0.21118 0.605 
-0.405256 0.210482 0.603 
-0.375899 0.209784 0.601 
-0.347886 0.209784 0.601 
-0.318277 0.208737 0.598 
-0.29186 0.209784 0.601 
-0.262092 0.208388 0.597 
-0.231911 0.206293 0.591 
-0.196764 0.206991 0.593 
-0.155171 0.205595 0.589 
-0.125111 0.20734 0.594 
-0.0967681 0.205944 0.59 
-0.0613902 0.198265 0.568 
-0.0133449 0.170689 0.489 
0.00942823 0.17034 0.488 
0.0488543 0.17034 0.488 
-0.490126 0.212471 0.606 
-0.448352 0.211419 0.603 
-0.420246 0.211419 0.603 
-0.391489 0.211068 0.602 
-0.361619 0.210016 0.599 
-0.334256 0.210367 0.6 
-0.30629 0.210367 0.6 
-0.277396 0.209666 0.598 
-0.247437 0.207913 0.593 
-0.211863 0.201251 0.574 
-0.188154 0.207562 0.592 
-0.156087 0.20651 0.589 
-0.124188 0.208263 0.594 
-0.0958514 0.206861 0.59 
-0.0607208 0.199849 0.57 
-0.0118012 0.171098 0.488 
0.043547 0.171098 0.488 
-0.474732 0.212003 0.602 
-0.447415 0.212356 0.603 
-0.419309 0.212356 0.603 
-0.389905 0.211651 0.601 
-0.360688 0.210947 0.599 
-0.333324 0.211299 0.6 
-0.304849 0.210947 0.599 
-0.276005 0.210243 0.597 
-0.246516 0.208834 0.593 
-0.210971 0.202143 0.574 
-0.187836 0.20813 0.591 
-0.156087 0.207425 0.589 
-0.1249 0.208834 0.593 
-0.0967681 0.207778 0.59 
-0.0599401 0.201086 0.571 
-0.00421926 0.171857 0.488 
0.511684 0.188761 0.536 
-0.453973 0.213293 0.603 
-0.425867 0.213293 0.603 
-0.395782 0.212231 0.6 
-0.36348 0.211878 0.599 
-0.335561 0.211878 0.599 
-0.307127 0.211524 0.598 
-0.279254 0.211524 0.598 
-0.248859 0.209402 0.592 
-0.214019 0.203388 0.575 
-0.192753 0.209402 0.592 
-0.158753 0.205864 0.582 
-0.132518 0.208694 0.59 
-0.105196 0.209048 0.591 
-0.069597 0.199144 0.563 
-0.00573565 0.172615 0.488 
0.511684 0.189593 0.536 
-0.454155 0.213874 0.602 
-0.425867 0.214229 0.603 
-0.395122 0.212808 0.599 
-0.361015 0.212453 0.598 
-0.333142 0.212453 0.598 
-0.304759 0.212098 0.597 
-0.276932 0.212098 0.597 
-0.24702 0.210321 0.592 
-0.210971 0.203926 0.574 
-0.189673 0.209966 0.591 
-0.157112 0.20819 0.586 
-0.130685 0.209611 0.59 
-0.10336 0.209966 0.591 
-0.0687223 0.200018 0.563 
0.000329229 0.173018 0.487 
-0.472076 0.214453 0.601 
-0.441996 0.214809 0.602 
-0.409765 0.214096 0.6 
-0.377138 0.214096 0.6 
-0.348008 0.213382 0.598 
-0.317212 0.212668 0.596 
-0.288545 0.213382 0.598 
-0.258929 0.211955 0.594 
-0.229685 0.210527 0.59 
-0.197267 0.210171 0.589 
-0.161679 0.203391 0.57 
-0.140089 0.210884 0.591 
-0.112732 0.211241 0.592 
-0.0845637 0.209814 0.588 
-0.00573565 0.174131 0.488 
-0.470358 0.215028 0.6 
-0.44313 0.215386 0.601 
-0.415117 0.215386 0.601 
-0.38646 0.215028 0.6 
-0.356701 0.213953 0.597 
-0.327947 0.213953 0.597 
-0.299618 0.213594 0.596 
-0.268609 0.213236 0.595 
-0.240066 0.212519 0.593 
-0.201598 0.208935 0.583 
-0.164047 0.203918 0.569 
-0.142602 0.211444 0.59 
-0.115882 0.212878 0.594 
-0.0873044 0.210727 0.588 
-0.00572389 0.174531 0.487 
-0.468494 0.21596 0.6 
-0.440528 0.21596 0.6 
-0.412562 0.21596 0.6 
-0.383954 0.2156 0.599 
-0.354252 0.21452 0.596 
-0.324075 0.214161 0.595 
-0.296342 0.214161 0.595 
-0.265836 0.214161 0.595 
-0.236902 0.213081 0.592 
-0.196932 0.211641 0.588 
-0.153733 0.211281 0.587 
-0.127233 0.212721 0.591 
-0.0995181 0.212361 0.59 
-0.0631552 0.204442 0.568 
-0.467713 0.216531 0.599 
-0.439794 0.216531 0.599 
-0.411874 0.216531 0.599 
-0.383954 0.216531 0.599 
-0.348353 0.215808 0.597 
-0.317604 0.215085 0.595 
-0.289871 0.215085 0.595 
-0.262138 0.215085 0.595 
-0.232829 0.213639 0.591 
-0.194852 0.213278 0.59 
-0.145105 0.212916 0.589 
-0.118451 0.214362 0.593 
-0.0901982 0.212916 0.589 
-0.0565891 0.207132 0.573 
-0.461805 0.218188 0.601 
-0.43307 0.217825 0.6 
-0.403078 0.216735 0.597 
-0.375881 0.217099 0.598 
-0.337942 0.216009 0.595 
-0.309687 0.215646 0.594 
-0.282001 0.215646 0.594 
-0.253458 0.21492 0.592 
-0.221668 0.210927 0.581 
-0.169637 0.205844 0.567 
-0.14236 0.213831 0.589 
-0.115492 0.21492 0.592 
-0.0873044 0.213468 0.588 
2.81957 1.19477 3.291 
-0.464606 0.219121 0.601 
-0.43514 0.218392 0.599 
-0.405181 0.217298 0.596 
-0.378035 0.217663 0.597 
-0.349622 0.217298 0.596 
-0.320762 0.216569 0.594 
-0.291595 0.215475 0.591 
-0.264942 0.216205 0.593 
-0.236502 0.215475 0.591 
-0.201809 0.211829 0.581 
-0.154381 0.213652 0.586 
-0.128152 0.215475 0.591 
-0.100265 0.214746 0.589 
-0.0622727 0.20709 0.568 
-0.47795 0.219323 0.599 
-0.450031 0.219323 0.599 
-0.423521 0.220055 0.601 
-0.391559 0.217858 0.595 
-0.363826 0.217858 0.595 
-0.335528 0.217492 0.594 
-0.306805 0.21676 0.592 
-0.279684 0.217126 0.593 
-0.251194 0.216394 0.591 
-0.216322 0.210169 0.574 
-0.168161 0.206874 0.565 
-0.143032 0.215295 0.588 
-0.116018 0.216028 0.59 
-0.088068 0.214929 0.587 
0.671288 0.423634 1.157 
-0.481798 0.219886 0.598 
-0.454684 0.220254 0.599 
-0.427477 0.220621 0.6 
-0.391559 0.218783 0.595 
-0.359523 0.218415 0.594 
-0.331837 0.218415 0.594 
-0.303126 0.21768 0.592 
-0.275998 0.218047 0.593 
-0.247521 0.217312 0.591 
-0.210017 0.209222 0.569 
-0.162606 0.207384 0.564 
-0.141876 0.215841 0.587 
-0.114711 0.216209 0.588 
-0.0870075 0.215473 0.586 
0.668912 0.425064 1.156 
2.81596 1.20202 3.269 
-0.467562 0.221553 0.6 
-0.437398 0.220446 0.597 
-0.40222 0.218969 0.593 
-0.373995 0.219707 0.595 
-0.343834 0.219338 0.594 
-0.315615 0.218969 0.593 
-0.285602 0.217861 0.59 
-0.258977 0.218599 0.592 
-0.230211 0.217492 0.589 
-0.198654 0.216015 0.585 
-0.154762 0.215645 0.584 
-0.128633 0.217492 0.589 
-0.100664 0.216384 0.586 
-0.0683561 0.206783 0.56 
0.468866 0.241493 0.654 
-0.492731 0.222486 0.6 
-0.460871 0.222856 0.601 
-0.430698 0.221744 0.598 
-0.395516 0.220261 0.594 
-0.361369 0.220261 0.594 
-0.333121 0.21989 0.593 
-0.30445 0.219148 0.591 
-0.275533 0.219519 0.592 
-0.247102 0.218778 0.59 
-0.208766 0.21062 0.568 
-0.185294 0.216182 0.583 
-0.15256 0.217294 0.586 
-0.125888 0.218407 0.589 
-0.0979329 0.217294 0.586 
-0.0666159 0.207653 0.56 
0.673717 0.428285 1.155 
2.82464 1.21811 3.285 
-0.467407 0.22379 0.601 
-0.43647 0.222301 0.597 
-0.405221 0.220439 0.592 
-0.378904 0.221184 0.594 
-0.351217 0.221184 0.594 
-0.321897 0.220067 0.591 
-0.292856 0.218949 0.588 
-0.261769 0.219694 0.59 
-0.233871 0.219322 0.589 
-0.199659 0.215971 0.58 
-0.164067 0.20964 0.563 
-0.143211 0.217832 0.585 
-0.116142 0.218205 0.586 
-0.0886768 0.217832 0.585 
-0.0577584 0.21113 0.567 
0.68868 0.340712 0.915 
-0.484585 0.223602 0.598 
-0.459003 0.224724 0.601 
-0.427405 0.222854 0.596 
-0.398284 0.222107 0.594 
-0.371222 0.22248 0.595 
-0.341757 0.221359 0.592 
-0.312185 0.220611 0.59 
-0.28372 0.219863 0.588 
-0.252174 0.220237 0.589 
-0.213553 0.212759 0.569 
-0.188011 0.217993 0.583 
-0.157035 0.216498 0.579 
-0.131844 0.219489 0.587 
-0.10395 0.218367 0.584 
-0.0713464 0.210515 0.563 
0.281159 0.204159 0.546 
0.541043 0.251646 0.673 
-0.480065 0.224156 0.597 
-0.453753 0.224907 0.599 
-0.42299 0.223405 0.595 
-0.390243 0.222654 0.593 
-0.362603 0.222654 0.593 
-0.333834 0.221903 0.591 
-0.303935 0.221528 0.59 
-0.275967 0.221152 0.589 
-0.248091 0.220777 0.588 
-0.203471 0.213267 0.568 
-0.173121 0.211765 0.564 
-0.1523 0.21965 0.585 
-0.124336 0.220026 0.586 
-0.0938084 0.218899 0.583 
-0.0566768 0.212141 0.565 
0.682533 0.346935 0.924 
2.82899 1.2398 3.302 
-0.466314 0.226968 0.602 
-0.434615 0.225083 0.597 
-0.401542 0.223198 0.592 
-0.374581 0.223575 0.593 
-0.346941 0.223575 0.593 
-0.317147 0.222067 0.589 
-0.289202 0.22169 0.588 
-0.261349 0.221313 0.587 
-0.233989 0.221313 0.587 
-0.195592 0.220182 0.584 
-0.160544 0.213396 0.566 
-0.138429 0.220182 0.584 
-0.10758 0.220182 0.584 
-0.0775471 0.214904 0.57 
0.282007 0.205855 0.546 
0.544748 0.254491 0.675 
-0.474365 0.22639 0.598 
-0.445745 0.226011 0.597 
-0.414419 0.224118 0.592 
-0.386826 0.224118 0.592 
-0.359232 0.224118 0.592 
-0.330519 0.223361 0.59 
-0.302505 0.222982 0.589 
-0.274585 0.222604 0.588 
-0.247178 0.222604 0.588 
-0.202232 0.214654 0.567 
-0.169315 0.213139 0.563 
-0.148664 0.221468 0.585 
-0.120982 0.220711 0.583 
-0.0889731 0.219954 0.581 
0.234506 0.208975 0.552 
0.542651 0.25554 0.675 
-0.473436 0.227319 0.598 
-0.444073 0.226558 0.596 
-0.413499 0.225038 0.592 
-0.385906 0.225038 0.592 
-0.357707 0.224658 0.591 
-0.329043 0.223897 0.589 
-0.301078 0.223517 0.588 
-0.26773 0.222377 0.585 
-0.241285 0.223137 0.587 
-0.201351 0.215535 0.567 
-0.166395 0.213634 0.562 
-0.142721 0.221617 0.583 
-0.114953 0.220476 0.58 
-0.0837329 0.218956 0.576 
0.284552 0.207552 0.546 
-0.481113 0.227484 0.596 
-0.451311 0.227866 0.597 
-0.421356 0.226721 0.594 
-0.393007 0.226339 0.593 
-0.364751 0.225958 0.592 
-0.332704 0.224813 0.589 
-0.304732 0.224431 0.588 
-0.266365 0.222904 0.584 
-0.239964 0.223667 0.586 
-0.202754 0.216034 0.566 
-0.168141 0.214507 0.562 
-0.144533 0.222522 0.583 
-0.116755 0.221377 0.58 
-0.0877673 0.220996 0.579 
1.19812 0.930167 2.437 
-0.470649 0.229177 0.598 
-0.441295 0.22841 0.596 
-0.41074 0.226877 0.592 
-0.383147 0.226877 0.592 
-0.354953 0.226494 0.591 
-0.326298 0.225728 0.589 
-0.290609 0.225728 0.589 
-0.260459 0.224195 0.585 
-0.233192 0.224195 0.585 
-0.199377 0.219979 0.574 
-0.165522 0.21538 0.562 
-0.142476 0.223045 0.582 
-0.114755 0.221895 0.579 
-0.0876157 0.221512 0.578 
-0.0581222 0.21538 0.562 
-0.471578 0.230106 0.598 
-0.441479 0.228952 0.595 
-0.41166 0.227797 0.592 
-0.383418 0.227412 0.591 
-0.355871 0.227412 0.591 
-0.326658 0.226258 0.588 
-0.290115 0.226258 0.588 
-0.260921 0.224719 0.584 
-0.234101 0.225104 0.585 
-0.199177 0.22164 0.576 
-0.164356 0.215869 0.561 
-0.137522 0.224719 0.584 
-0.109546 0.22318 0.58 
-0.0800631 0.218947 0.569 
1.24087 0.968138 2.516 
-0.460429 0.231035 0.598 
-0.429662 0.22949 0.594 
-0.400622 0.228717 0.592 
-0.372399 0.228331 0.591 
-0.344269 0.227944 0.59 
-0.315158 0.226785 0.587 
-0.279152 0.227172 0.588 
-0.250889 0.226399 0.586 
-0.212803 0.219058 0.567 
-0.187945 0.224081 0.58 
-0.155935 0.226012 0.585 
-0.122583 0.224853 0.582 
-0.0951279 0.224081 0.58 
-0.0611763 0.215581 0.558 
-0.468934 0.231576 0.597 
-0.438152 0.230025 0.593 
-0.40982 0.229637 0.592 
-0.381581 0.229249 0.591 
-0.353435 0.228861 0.59 
-0.323003 0.228085 0.588 
-0.289202 0.228085 0.588 
-0.260459 0.226921 0.585 
-0.232395 0.226146 0.583 
-0.194587 0.22537 0.581 
-0.159101 0.218775 0.564 
-0.128448 0.226534 0.584 
-0.100708 0.22537 0.581 
-0.0652763 0.215672 0.556 
-0.473705 0.232114 0.596 
-0.444428 0.231335 0.594 
-0.415119 0.230946 0.593 
-0.386826 0.230556 0.592 
-0.357412 0.229388 0.589 
-0.328838 0.228609 0.587 
-0.299542 0.22783 0.585 
-0.27274 0.22822 0.586 
-0.245008 0.22783 0.585 
-0.19992 0.223157 0.573 
-0.160283 0.218873 0.562 
-0.134122 0.22783 0.585 
-0.106124 0.226272 0.581 
-0.0697207 0.216926 0.557 
-0.472779 0.23304 0.596 
-0.442012 0.231476 0.592 
-0.410964 0.231085 0.591 
-0.382769 0.230694 0.59 
-0.354667 0.230303 0.589 
-0.326102 0.229521 0.587 
-0.297724 0.228739 0.585 
-0.270457 0.228739 0.585 
-0.242774 0.228348 0.584 
-0.198282 0.22522 0.576 
-0.158785 0.22131 0.566 
-0.133213 0.228739 0.585 
-0.105221 0.227175 0.581 
-0.0725765 0.218573 0.559 
-0.476608 0.233574 0.595 
-0.447366 0.232789 0.593 
-0.414419 0.232396 0.592 
-0.385519 0.231611 0.59 
-0.356805 0.230826 0.588 
-0.328838 0.230433 0.587 
-0.300451 0.229648 0.585 
-0.273184 0.229648 0.585 
-0.244589 0.229256 0.584 
-0.204152 0.221797 0.565 
-0.173013 0.219049 0.558 
-0.149453 0.228078 0.581 
-0.122162 0.227685 0.58 
-0.0928429 0.226508 0.577 
-0.0593359 0.218656 0.557 
-0.463028 0.23371 0.593 
-0.433186 0.232528 0.59 
-0.402936 0.232528 0.59 
-0.374799 0.232133 0.589 
-0.346756 0.231739 0.588 
-0.318263 0.230951 0.586 
-0.290949 0.230951 0.586 
-0.262277 0.230557 0.585 
-0.2325 0.228981 0.581 
-0.199377 0.226222 0.574 
-0.165507 0.22031 0.559 
-0.144441 0.228192 0.579 
-0.117453 0.228192 0.579 
-0.0826941 0.226616 0.575 
0.575948 0.284551 0.722 
-0.46395 0.234631 0.593 
-0.433367 0.233049 0.589 
-0.404083 0.233049 0.589 
-0.376629 0.233049 0.589 
-0.34799 0.232257 0.587 
-0.320084 0.231862 0.586 
-0.29277 0.231862 0.586 
-0.265004 0.231466 0.585 
-0.236517 0.230279 0.582 
-0.200997 0.225927 0.571 
-0.166944 0.220783 0.558 
-0.145089 0.228696 0.578 
-0.102882 0.228696 0.578 
-0.0678678 0.219992 0.556 
0.578827 0.284881 0.72 
-0.466714 0.235553 0.593 
-0.436112 0.233964 0.589 
-0.409352 0.234361 0.59 
-0.376904 0.233566 0.588 
-0.348902 0.233169 0.587 
-0.320994 0.232772 0.586 
-0.293179 0.232375 0.585 
-0.265912 0.232375 0.585 
-0.237014 0.230786 0.581 
-0.20379 0.224033 0.564 
-0.170972 0.221253 0.557 
-0.148681 0.229594 0.578 
-0.102704 0.229197 0.577 
-0.0688553 0.221253 0.557 
0.278274 0.21728 0.547 
-0.477884 0.236075 0.592 
-0.448769 0.235278 0.59 
-0.422697 0.236075 0.592 
-0.391521 0.23448 0.588 
-0.364733 0.234879 0.589 
-0.336134 0.234081 0.587 
-0.307196 0.232885 0.584 
-0.279975 0.232885 0.584 
-0.252755 0.232885 0.584 
-0.217704 0.225707 0.566 
-0.194703 0.229695 0.576 
-0.159665 0.225707 0.566 
-0.124004 0.229695 0.576 
-0.096988 0.229296 0.575 
-0.0649241 0.220523 0.553 
0.279635 0.218529 0.548 
-0.477884 0.236995 0.592 
-0.448008 0.235794 0.589 
-0.421983 0.236595 0.591 
-0.390855 0.234993 0.587 
-0.364114 0.235394 0.588 
-0.335562 0.234593 0.586 
-0.307196 0.233792 0.584 
-0.279496 0.233392 0.583 
-0.252322 0.233392 0.583 
-0.210669 0.223784 0.559 
-0.190228 0.23059 0.576 
-0.156571 0.229789 0.574 
-0.119737 0.23099 0.577 
-0.092682 0.23059 0.576 
-0.061265 0.220581 0.551 
0.359646 0.274626 0.686 
56.1472 26.2356 65.535 
-0.45716 0.236709 0.589 
-0.428977 0.236307 0.588 
-0.400887 0.235905 0.587 
-0.373249 0.236307 0.588 
-0.34226 0.235102 0.585 
-0.31264 0.2347 0.584 
-0.28542 0.2347 0.584 
-0.257315 0.233896 0.582 
-0.215292 0.225858 0.562 
-0.190228 0.231485 0.576 
-0.152377 0.231083 0.575 
-0.121319 0.231485 0.576 
-0.0944719 0.231485 0.576 
-0.063949 0.221839 0.552 
0.280309 0.221437 0.551 
0.576902 0.282926 0.704 
-0.46082 0.237624 0.589 
-0.431895 0.236817 0.587 
-0.404535 0.236817 0.587 
-0.376532 0.236414 0.586 
-0.348622 0.23601 0.585 
-0.314455 0.235607 0.584 
-0.287234 0.235607 0.584 
-0.259123 0.2348 0.582 
-0.220731 0.228749 0.567 
-0.192913 0.232379 0.576 
-0.15327 0.231976 0.575 
-0.122002 0.231976 0.575 
-0.0944719 0.232379 0.576 
-0.063949 0.222697 0.552 
0.281327 0.2231 0.553 
0.577631 0.28765 0.713 
0.512917 0.212611 0.527 
-0.446334 0.238134 0.588 
-0.41964 0.238539 0.589 
-0.386796 0.236919 0.585 
-0.360758 0.237729 0.587 
-0.332262 0.236919 0.585 
-0.303952 0.236109 0.583 
-0.275354 0.234894 0.58 
-0.24832 0.234894 0.58 
-0.211537 0.22639 0.559 
-0.16833 0.224365 0.554 
-0.144191 0.234084 0.578 
-0.113069 0.232869 0.575 
-0.0867177 0.234084 0.578 
-0.0548114 0.22477 0.555 
0.278033 0.22477 0.555 
0.577529 0.290378 0.717 
0.481397 0.21181 0.523 
-0.460038 0.239048 0.588 
-0.431159 0.238235 0.586 
-0.403846 0.238235 0.586 
-0.373526 0.238641 0.587 
-0.343807 0.237015 0.583 
-0.316634 0.237015 0.583 
-0.28946 0.237015 0.583 
-0.261386 0.236202 0.581 
-0.232692 0.234576 0.577 
-0.202232 0.23051 0.567 
-0.161444 0.225225 0.554 
-0.130042 0.233763 0.575 
-0.102882 0.23295 0.573 
-0.0711949 0.225632 0.555 
0.0437479 0.218314 0.537 
0.28062 0.225632 0.555 
0.572249 0.283361 0.697 
0.485342 0.212216 0.522 
-0.455607 0.239553 0.587 
-0.426058 0.238329 0.584 
-0.398838 0.238329 0.584 
-0.37198 0.239145 0.586 
-0.342313 0.237513 0.582 
-0.315186 0.237513 0.582 
-0.287155 0.237513 0.582 
-0.259134 0.236697 0.58 
-0.230099 0.234656 0.575 
-0.198831 0.234656 0.575 
-0.160583 0.226086 0.554 
-0.130936 0.234656 0.575 
-0.103773 0.23384 0.573 
-0.0709383 0.225678 0.553 
-0.0236881 0.264039 0.647 
0.441353 0.377082 0.924 
0.45892 0.210578 0.516 
0.511944 0.214659 0.526 
-0.449368 0.240056 0.586 
-0.422055 0.240056 0.586 
-0.39272 0.238827 0.583 
-0.368054 0.240465 0.587 
-0.338373 0.238827 0.583 
-0.310665 0.238417 0.582 
-0.283051 0.238007 0.581 
-0.25375 0.236778 0.578 
-0.222101 0.231863 0.566 
-0.193808 0.235959 0.576 
-0.158842 0.229405 0.56 
-0.131829 0.235549 0.575 
-0.104663 0.23473 0.573 
-0.0708101 0.226128 0.552 
-0.0256986 0.265044 0.647 
0.220487 0.212609 0.519 
0.574099 0.284298 0.694 
0.510754 0.216706 0.529 
-0.4521 0.240966 0.586 
-0.423336 0.240144 0.584 
-0.395438 0.239732 0.583 
-0.370159 0.240966 0.586 
-0.34109 0.239732 0.583 
-0.313378 0.239321 0.582 
-0.285759 0.23891 0.581 
-0.257342 0.237676 0.578 
-0.228807 0.236032 0.574 
-0.196492 0.236854 0.576 
-0.159723 0.227808 0.554 
-0.136109 0.237676 0.578 
-0.108602 0.236443 0.575 
-0.0795966 0.235209 0.572 
-0.0324822 0.263994 0.642 
0.222127 0.276741 0.673 
0.568965 0.284965 0.693 
0.482675 0.213827 0.52 
-0.45301 0.241877 0.586 
-0.423517 0.240638 0.583 
-0.396343 0.240638 0.583 
-0.370436 0.241464 0.585 
-0.341409 0.240226 0.582 
-0.313742 0.239813 0.581 
-0.286661 0.239813 0.581 
-0.25824 0.238574 0.578 
-0.230099 0.237336 0.575 
-0.195598 0.237749 0.576 
-0.159434 0.228256 0.553 
-0.139701 0.238574 0.578 
-0.112175 0.237336 0.575 
-0.0852257 0.236923 0.574 
-0.037236 0.26334 0.638 
0.221467 0.276961 0.671 
0.492744 0.257974 0.625 
0.473788 0.214634 0.52 
-0.462903 0.243201 0.587 
-0.429858 0.241544 0.583 
-0.403375 0.241958 0.584 
-0.376798 0.242373 0.585 
-0.34593 0.24113 0.582 
-0.318255 0.240715 0.581 
-0.290674 0.240301 0.58 
-0.261386 0.239887 0.579 
-0.232779 0.23823 0.575 
-0.197938 0.23823 0.575 
-0.161426 0.228286 0.551 
-0.140356 0.239058 0.577 
-0.112872 0.237815 0.574 
-0.0861176 0.237815 0.574 
-0.0333753 0.26516 0.64 
0.0497729 0.223314 0.539 
0.425945 0.231601 0.559 
0.459894 0.214614 0.518 
0.502838 0.213371 0.515 
-0.447835 0.242866 0.584 
-0.419894 0.24245 0.583 
-0.39272 0.24245 0.583 
-0.366173 0.242866 0.584 
-0.336888 0.242034 0.582 
-0.308164 0.240786 0.579 
-0.277447 0.239123 0.575 
-0.250647 0.239123 0.575 
-0.212511 0.231637 0.557 
-0.18713 0.237875 0.572 
-0.155207 0.236628 0.569 
-0.12959 0.238291 0.573 
-0.0986029 0.238707 0.574 
-0.0607378 0.23039 0.554 
0.0359016 0.221241 0.532 
0.433125 0.387171 0.931 
0.498643 0.261996 0.63 
0.471264 0.215834 0.519 
-0.476377 0.24586 0.589 
-0.440421 0.24419 0.585 
-0.412448 0.243773 0.584 
-0.386547 0.244608 0.586 
-0.359233 0.244608 0.586 
-0.32762 0.242103 0.58 
-0.301104 0.242521 0.581 
-0.269779 0.238764 0.572 
-0.244393 0.240016 0.575 
-0.205588 0.232503 0.557 
-0.176077 0.23125 0.554 
-0.15327 0.240016 0.575 
-0.126249 0.239599 0.574 
-0.0941438 0.239599 0.574 
-0.0342623 0.266314 0.638 
0.045332 0.223737 0.536 
0.449502 0.386531 0.926 
0.570544 0.288437 0.691 
0.500088 0.214136 0.513 
-0.454314 0.244261 0.583 
-0.425675 0.243424 0.581 
-0.399281 0.243842 0.582 
-0.372793 0.244261 0.583 
-0.343807 0.244261 0.583 
-0.313375 0.241748 0.577 
-0.286977 0.242167 0.578 
-0.259587 0.241748 0.577 
-0.230591 0.240491 0.574 
-0.199759 0.238815 0.57 
-0.164551 0.230435 0.55 
-0.142302 0.240491 0.574 
-0.115145 0.239653 0.572 
-0.0831586 0.237139 0.566 
-0.0276662 0.270657 0.646 
0.219439 0.279874 0.668 
0.493346 0.262696 0.627 
0.47207 0.217447 0.519 
-0.469398 0.246429 0.586 
-0.440421 0.246008 0.585 
-0.411742 0.245167 0.583 
-0.382252 0.246008 0.585 
-0.35226 0.244747 0.582 
-0.322898 0.243065 0.578 
-0.296982 0.243906 0.58 
-0.267155 0.241382 0.574 
-0.24082 0.241803 0.575 
-0.204589 0.235075 0.559 
-0.173726 0.232131 0.552 
-0.150956 0.240962 0.573 
-0.124249 0.240962 0.573 
-0.0973706 0.240541 0.572 
-0.0614873 0.232551 0.553 
0.0351409 0.224141 0.533 
0.449031 0.390249 0.928 
0.467232 0.218254 0.519 
-0.470309 0.247339 0.586 
-0.437854 0.246495 0.584 
-0.40561 0.245651 0.582 
-0.379784 0.246495 0.584 
-0.346835 0.245651 0.582 
-0.316411 0.243118 0.576 
-0.290569 0.243963 0.578 
-0.262716 0.243118 0.576 
-0.23505 0.242274 0.574 
-0.20168 0.237631 0.563 
-0.168517 0.231722 0.549 
-0.147395 0.241852 0.573 
-0.120477 0.24143 0.572 
-0.0938158 0.24143 0.572 
-0.0598771 0.233833 0.554 
0.0392815 0.224969 0.533 
0.34664 0.261268 0.619 
0.464093 0.219482 0.52 
-0.47213 0.24825 0.586 
-0.439669 0.247402 0.584 
-0.411036 0.246555 0.582 
-0.380945 0.246979 0.583 
-0.34593 0.246555 0.582 
-0.314969 0.24359 0.575 
-0.289671 0.244861 0.578 
-0.261821 0.244013 0.576 
-0.23375 0.242742 0.573 
-0.20168 0.238506 0.563 
-0.167358 0.232152 0.548 
-0.145361 0.242319 0.572 
-0.1187 0.242319 0.572 
-0.0918775 0.241895 0.571 
-0.0573983 0.235117 0.555 
0.0425939 0.225797 0.533 
0.34608 0.261806 0.618 
0.464093 0.22029 0.52 
