# .PCD v.7 - Point Cloud Data file format
VERSION .7
FIELDS x y z
SIZE 4 4 4
TYPE F F F
COUNT 1 1 1
WIDTH 1793
HEIGHT 1
VIEWPOINT 0 0 0 1 0 0 0
POINTS 1793
DATA ascii
-0.134679 -0.261843 0.829 
-0.445463 -0.177894 0.566 
-0.11355 -0.256469 0.816 
-0.501658 -0.263958 0.844 
-0.448188 -0.175824 0.565 
-0.351949 -0.265447 0.853 
-0.446432 -0.174946 0.565 
-0.494649 -0.260406 0.841 
-0.449943 -0.174068 0.565 
-0.495955 -0.2591 0.841 
-0.112558 -0.252014 0.818 
-0.513789 -0.25626 0.836 
-0.154913 -0.253502 0.827 
-0.442932 -0.183597 0.602 
-0.164262 -0.248862 0.816 
-0.44731 -0.171435 0.565 
-0.174832 -0.248201 0.818 
-0.446432 -0.170557 0.565 
-0.161925 -0.246628 0.817 
-0.188229 -0.24656 0.821 
-0.151058 -0.248362 0.827 
-0.180576 -0.245284 0.821 
-0.523553 -0.24817 0.835 
-0.163658 -0.241631 0.813 
-0.246094 -0.248351 0.84 
-0.148668 -0.244803 0.828 
-0.17526 -0.241164 0.82 
-0.188229 -0.240182 0.821 
0.193229 -0.198348 0.678 
-0.168066 -0.237452 0.816 
-0.289588 -0.240236 0.83 
-0.496979 -0.23578 0.819 
-0.0774729 -0.229446 0.797 
-0.193735 -0.232503 0.812 
0.191122 -0.194134 0.678 
-0.0774729 -0.22697 0.797 
-0.194997 -0.22998 0.812 
-0.450268 -0.231535 0.822 
-0.205219 -0.222134 0.793 
-0.498192 -0.228702 0.821 
-0.44402 -0.163714 0.591 
-0.444816 -0.161418 0.586 
-0.445351 -0.162699 0.594 
-0.446334 -0.160142 0.588 
-0.0792049 -0.218425 0.802 
-0.201929 -0.212576 0.785 
-0.443328 -0.1602 0.595 
0.0362202 -0.182278 0.677 
-0.0217587 -0.182297 0.681 
-0.414513 -0.216102 0.812 
-0.147369 -0.212909 0.8 
-0.433092 -0.214047 0.809 
-0.201929 -0.207697 0.785 
0.0410505 -0.17727 0.67 
-0.419784 -0.213053 0.81 
-0.0837692 -0.209897 0.798 
0.205695 -0.172021 0.654 
-0.406697 -0.211533 0.809 
-0.0111454 -0.177541 0.679 
-0.441479 -0.154653 0.595 
-0.402887 -0.211576 0.814 
-0.0175265 -0.177006 0.681 
0.203663 -0.169988 0.654 
-0.413214 -0.208503 0.807 
-0.125777 -0.207986 0.805 
0.17348 -0.170264 0.659 
-0.438661 -0.208019 0.81 
-0.402887 -0.209046 0.814 
0.0326251 -0.171552 0.668 
0.202647 -0.167956 0.654 
-0.420523 -0.206505 0.809 
-0.0874887 -0.203698 0.798 
0.187357 -0.168727 0.661 
-0.443695 -0.205502 0.81 
-0.211686 -0.19916 0.785 
0.00770503 -0.169222 0.667 
0.203974 -0.166178 0.655 
-0.429321 -0.203992 0.809 
-0.130455 -0.202479 0.803 
0.187074 -0.166421 0.66 
-0.415722 -0.202233 0.807 
0.184743 -0.165145 0.659 
-0.420523 -0.201478 0.809 
0.184462 -0.163872 0.658 
-0.42628 -0.199973 0.808 
0.245698 -0.162107 0.655 
-0.42826 -0.198472 0.807 
0.120239 -0.162073 0.659 
-0.445801 -0.195019 0.798 
-0.414238 -0.197707 0.809 
0.244307 -0.159827 0.654 
-0.434163 -0.195236 0.804 
-0.209259 -0.188437 0.776 
0.252573 -0.15954 0.657 
-0.371377 -0.194469 0.806 
0.239875 -0.157554 0.653 
-0.374985 -0.192498 0.803 
-0.167183 -0.184827 0.771 
-0.422587 -0.190774 0.801 
-0.204173 -0.184582 0.775 
0.246339 -0.155763 0.654 
-0.370584 -0.190949 0.807 
0.1249 -0.15664 0.662 
-0.405108 -0.18711 0.796 
-0.152948 -0.184289 0.784 
-0.493532 -0.186573 0.799 
-0.154166 -0.183071 0.784 
-0.498488 -0.184868 0.797 
-0.156403 -0.181621 0.783 
0.252523 -0.150539 0.649 
-0.315667 -0.183169 0.795 
0.241803 -0.149761 0.65 
-0.316536 -0.181018 0.791 
0.0106842 -0.150811 0.659 
-0.413765 -0.180926 0.796 
-0.00159494 -0.149105 0.656 
0.251355 -0.146832 0.646 
-0.312802 -0.179238 0.794 
0.012732 -0.148763 0.659 
-0.417839 -0.177556 0.792 
-0.006691 -0.147066 0.656 
-0.417839 -0.176325 0.792 
-0.0066808 -0.145825 0.655 
-0.415378 -0.175095 0.792 
0.0158276 -0.145912 0.66 
-0.413959 -0.174303 0.794 
0.192343 -0.140496 0.64 
-0.128423 -0.170672 0.783 
0.252603 -0.139284 0.639 
-0.105709 -0.168157 0.777 
0.348802 -0.137858 0.637 
0.193035 -0.137298 0.639 
-0.115515 -0.165956 0.778 
0.348802 -0.135879 0.637 
0.192042 -0.135313 0.639 
-0.196548 -0.164589 0.783 
0.19075 -0.13411 0.638 
-0.199871 -0.162121 0.777 
-0.103029 -0.161704 0.775 
0.491643 -0.133536 0.64 
-0.129639 -0.162156 0.783 
0.348456 -0.132542 0.64 
-0.131904 -0.160734 0.782 
-0.0743657 -0.154773 0.753 
-0.13969 -0.158703 0.778 
-0.0915882 -0.155031 0.76 
-0.350599 -0.158304 0.782 
-0.126394 -0.157495 0.778 
-0.0744645 -0.152636 0.754 
-0.346511 -0.156888 0.781 
-0.14156 -0.155683 0.775 
-0.0997116 -0.154277 0.768 
-0.482357 -0.154878 0.777 
-0.345623 -0.155276 0.779 
-0.201765 -0.154479 0.775 
-0.112371 -0.15408 0.773 
-0.491171 -0.152286 0.77 
-0.419558 -0.15545 0.786 
-0.204847 -0.152879 0.773 
-0.111026 -0.152682 0.772 
-0.440187 -0.111061 0.566 
-0.437045 -0.152659 0.778 
-0.206315 -0.151875 0.774 
-0.104757 -0.15109 0.77 
0.325724 -0.122638 0.625 
-0.439463 -0.151451 0.778 
-0.315746 -0.150672 0.774 
-0.107149 -0.149893 0.77 
0.322408 -0.122251 0.628 
-0.428786 -0.14947 0.774 
-0.311735 -0.149276 0.773 
-0.10701 -0.148504 0.769 
0.321008 -0.121854 0.631 
-0.445621 -0.148267 0.774 
-0.311735 -0.148075 0.773 
-0.0968182 -0.146351 0.764 
-0.490683 -0.146874 0.773 
-0.443216 -0.147064 0.774 
-0.20454 -0.148394 0.781 
0.222971 -0.119894 0.631 
-0.483477 -0.145673 0.773 
-0.438972 -0.14605 0.775 
-0.100511 -0.144166 0.765 
-0.48771 -0.144659 0.774 
-0.441442 -0.144472 0.773 
0.192274 -0.117746 0.63 
-0.483477 -0.143271 0.773 
-0.429988 -0.143457 0.774 
0.200422 -0.116952 0.631 
-0.462406 -0.143357 0.78 
-0.205377 -0.142438 0.775 
-0.470891 -0.141781 0.778 
-0.142924 -0.139047 0.763 
-0.46968 -0.140211 0.776 
0.196501 -0.114011 0.631 
-0.437963 -0.137751 0.769 
0.222617 -0.112852 0.63 
-0.160074 -0.134958 0.76 
0.225554 -0.111873 0.63 
-0.432475 -0.135889 0.772 
0.220309 -0.110718 0.629 
-0.433113 -0.134516 0.771 
0.224575 -0.109915 0.63 
-0.149835 -0.130724 0.756 
-0.451106 -0.131777 0.769 
0.203372 -0.107615 0.628 
-0.156883 -0.128375 0.756 
-0.458849 -0.130229 0.774 
0.197545 -0.105159 0.625 
-0.455242 -0.129026 0.774 
-0.154125 -0.125692 0.754 
0.418248 -0.102354 0.614 
-0.343549 -0.125677 0.761 
0.199487 -0.103217 0.625 
0.414433 -0.1014 0.614 
-0.345271 -0.12384 0.757 
-0.154884 -0.123022 0.752 
0.412525 -0.100446 0.614 
-0.344095 -0.122664 0.757 
-0.150211 -0.121854 0.752 
0.415108 -0.0996543 0.615 
-0.314276 -0.121327 0.756 
-0.129352 -0.120846 0.753 
-0.45708 -0.122219 0.769 
-0.205484 -0.121106 0.762 
0.196913 -0.0990147 0.623 
-0.461247 -0.120552 0.766 
-0.292751 -0.118349 0.752 
-0.111358 -0.118034 0.75 
0.41852 -0.096473 0.613 
-0.311514 -0.117648 0.755 
-0.137724 -0.117492 0.754 
0.2024 -0.0973905 0.625 
-0.455891 -0.118017 0.765 
-0.294695 -0.115858 0.751 
-0.131692 -0.116166 0.753 
0.410617 -0.0947225 0.614 
-0.319302 -0.115149 0.754 
-0.200221 -0.116065 0.76 
-0.0861741 -0.112095 0.734 
-0.457634 -0.114884 0.76 
-0.294695 -0.113524 0.751 
-0.0884549 -0.110954 0.734 
0.425186 -0.0926634 0.613 
-0.313445 -0.112806 0.754 
-0.127842 -0.112357 0.751 
0.407755 -0.0918606 0.614 
-0.40482 -0.111635 0.754 
-0.162359 -0.108525 0.733 
0.0568833 -0.0912028 0.616 
-0.483075 -0.109877 0.75 
-0.314692 -0.110903 0.757 
0.0500209 -0.0899527 0.614 
0.420409 -0.0908317 0.62 
-0.389725 -0.109002 0.752 
0.0480346 -0.0888538 0.613 
0.411285 -0.0891437 0.615 
-0.385564 -0.107977 0.753 
0.0548799 -0.0881882 0.615 
-0.489553 -0.106523 0.751 
-0.317463 -0.107516 0.758 
0.0539244 -0.0872327 0.615 
-0.499046 -0.105637 0.753 
-0.428619 -0.10704 0.763 
-0.125007 -0.104935 0.748 
0.278971 -0.0861369 0.614 
-0.470067 -0.103496 0.746 
-0.388689 -0.104051 0.75 
0.0490669 -0.0851829 0.614 
-1.09566 -0.167498 1.221 
-0.464975 -0.102748 0.749 
-0.388171 -0.102748 0.749 
0.0538367 -0.084229 0.614 
-0.498537 -0.102263 0.754 
-0.457439 -0.10172 0.75 
-0.267746 -0.1005 0.741 
0.0634795 -0.0834106 0.615 
-0.471752 -0.0998847 0.745 
-0.433555 -0.100421 0.749 
-0.145318 -0.0990802 0.739 
0.117752 -0.082321 0.614 
-0.460383 -0.0995223 0.751 
-0.314017 -0.0989922 0.747 
-0.00248265 -0.0825598 0.623 
-0.465964 -0.0975697 0.745 
-0.430064 -0.0980935 0.749 
-0.200214 -0.096129 0.734 
0.0603173 -0.0801512 0.612 
-0.461549 -0.0971887 0.751 
-0.42244 -0.0973181 0.752 
-0.269623 -0.0961534 0.743 
0.0529689 -0.0795886 0.615 
-0.472035 -0.0946154 0.74 
-0.435296 -0.0953825 0.746 
-0.332666 -0.0948711 0.742 
-0.2048 -0.0928254 0.726 
0.0565139 -0.0782495 0.612 
0.439798 -0.0770988 0.603 
-0.454549 -0.094855 0.751 
-0.380821 -0.0942235 0.746 
-0.25669 -0.0933394 0.739 
-0.140143 -0.0937183 0.742 
0.276733 -0.0766671 0.607 
-1.08938 -0.151448 1.214 
-0.421355 -0.093314 0.748 
-0.310114 -0.0916922 0.735 
-0.224689 -0.0913179 0.732 
0.0593664 -0.0763478 0.612 
0.288517 -0.0755993 0.606 
-0.467436 -0.0911662 0.74 
-0.335671 -0.0912894 0.741 
-0.262343 -0.0914126 0.742 
-0.199123 -0.0899343 0.73 
0.258388 -0.0746578 0.606 
-1.0866 -0.147554 1.213 
-0.422517 -0.0909897 0.748 
-0.310114 -0.0894083 0.735 
-0.232968 -0.089165 0.733 
-0.119246 -0.0892867 0.734 
0.282868 -0.0737162 0.606 
-0.481012 -0.0894672 0.745 
-0.413877 -0.0894672 0.745 
-0.316683 -0.0885065 0.737 
-0.250609 -0.0886266 0.738 
-0.123639 -0.0880262 0.733 
0.260271 -0.0727747 0.606 
-0.486146 -0.0881912 0.744 
-0.422026 -0.0875985 0.739 
-0.331569 -0.0873615 0.737 
-0.258636 -0.08748 0.738 
-0.159426 -0.0865317 0.73 
0.180585 -0.0715961 0.604 
-0.485642 -0.0871523 0.745 
-0.418563 -0.0866843 0.741 
-0.327689 -0.0860994 0.736 
-0.224592 -0.0851636 0.728 
-0.121361 -0.0857485 0.733 
0.432737 -0.0703067 0.601 
-0.450917 -0.0859948 0.745 
-0.366261 -0.0854176 0.74 
-0.261795 -0.0847251 0.734 
-0.164188 -0.0843788 0.731 
0.280067 -0.0692575 0.6 
-0.457787 -0.0846095 0.743 
-0.3325 -0.0835847 0.734 
-0.262578 -0.0834708 0.733 
-0.200586 -0.081421 0.715 
-0.116805 -0.0834708 0.733 
0.439673 -0.0682115 0.599 
-0.410067 -0.0822196 0.732 
-0.311256 -0.0825566 0.735 
-0.222233 -0.081321 0.724 
-0.126362 -0.0818826 0.729 
0.426861 -0.0671685 0.598 
-0.436394 -0.0819685 0.74 
-0.329769 -0.0811931 0.733 
-0.253467 -0.0811931 0.733 
-0.150657 -0.0804177 0.726 
0.277734 -0.0659071 0.595 
-0.446796 -0.0810372 0.742 
-0.370133 -0.0801635 0.734 
-0.261558 -0.079399 0.727 
-0.153124 -0.079399 0.727 
-0.0949924 -0.0789621 0.723 
-0.42603 -0.0792384 0.736 
-0.322936 -0.0789154 0.733 
-0.250847 -0.0788077 0.732 
-0.106226 -0.0778388 0.723 
-0.450574 -0.0779888 0.735 
-0.364928 -0.0779888 0.735 
-0.263454 -0.0770338 0.726 
-0.107349 -0.0767155 0.723 
0.421449 -0.0629216 0.593 
-0.420303 -0.0765332 0.732 
-0.316809 -0.0765332 0.732 
-0.245624 -0.0763241 0.73 
0.312173 -0.0626275 0.599 
0.447246 -0.0620002 0.593 
-0.413482 -0.0749839 0.728 
-0.278501 -0.0748809 0.727 
-0.24382 -0.0749839 0.728 
0.312173 -0.0616969 0.599 
0.445403 -0.0610789 0.593 
-0.414613 -0.0738528 0.728 
-0.278118 -0.0736499 0.726 
-0.125495 -0.073447 0.724 
0.31444 -0.0606648 0.598 
0.445572 -0.0600561 0.592 
-0.412917 -0.0728216 0.729 
-0.275862 -0.0725219 0.726 
-0.122289 -0.072422 0.725 
0.320796 -0.0595359 0.596 
-0.456072 -0.0718857 0.731 
-0.311685 -0.0715906 0.728 
-0.127745 -0.0711973 0.724 
0.319333 -0.0585116 0.595 
-0.417986 -0.070266 0.726 
-0.270602 -0.0700724 0.724 
-0.0985224 -0.0692981 0.716 
-0.433899 -0.069519 0.73 
-0.312914 -0.0688523 0.723 
-0.245957 -0.0686619 0.721 
0.274494 -0.056377 0.592 
-0.430448 -0.0681974 0.728 
-0.310238 -0.0676353 0.722 
-0.203613 -0.065106 0.695 
0.176933 -0.0560193 0.598 
-0.42701 -0.0668821 0.726 
-0.377899 -0.0669742 0.727 
-0.107052 -0.0664215 0.721 
0.224284 -0.0546296 0.593 
-0.416315 -0.0660258 0.729 
-0.309635 -0.0650296 0.718 
-0.00145393 -0.0541611 0.598 
0.225205 -0.0537083 0.593 
-0.403856 -0.0648932 0.729 
-0.302941 -0.063914 0.718 
0.152265 -0.053054 0.596 
0.222066 -0.0526979 0.592 
-0.41802 -0.063848 0.73 
-0.273904 -0.0625361 0.715 
0.152265 -0.052128 0.596 
0.216182 -0.0516907 0.591 
-0.416886 -0.0627138 0.73 
-0.306547 -0.0615111 0.716 
-0.128917 -0.0616829 0.718 
0.17816 -0.0514597 0.599 
-0.42137 -0.0612422 0.726 
-0.389132 -0.0614953 0.729 
-0.209728 -0.0591333 0.701 
0.162451 -0.050276 0.596 
0.271734 -0.0499386 0.592 
-0.395385 -0.0602799 0.728 
-0.2576 -0.0592862 0.716 
0.161525 -0.04935 0.596 
0.219483 -0.0488532 0.59 
-0.397101 -0.0590676 0.727 
-0.259844 -0.0579301 0.713 
0.155184 -0.0481803 0.593 
-0.431648 -0.0569817 0.715 
-0.39936 -0.057938 0.727 
-0.260586 -0.0567426 0.712 
0.158481 -0.0474183 0.595 
-0.43114 -0.055949 0.716 
-0.396554 -0.0567304 0.726 
-0.259115 -0.0555582 0.711 
0.209189 -0.0462595 0.592 
-0.422362 -0.0551429 0.72 
-0.275739 -0.0546834 0.714 
0.150477 -0.0451099 0.589 
-0.424009 -0.0539492 0.719 
-0.384147 -0.0544744 0.726 
0.147481 -0.0441198 0.588 
0.362089 -0.0436696 0.582 
-0.387588 -0.0531995 0.724 
0.196313 -0.0435001 0.592 
0.364802 -0.0427653 0.582 
-0.418424 -0.051715 0.719 
-0.250225 -0.0513554 0.714 
0.355463 -0.0423646 0.589 
-0.439037 -0.0505275 0.718 
-0.386517 -0.050809 0.722 
0.0215551 -0.0416606 0.592 
0.358502 -0.041168 0.585 
-0.463024 -0.0489991 0.712 
-0.387684 -0.0495496 0.72 
-0.252843 -0.0489991 0.712 
0.21143 -0.0404655 0.588 
0.439235 -0.0403279 0.586 
-0.421189 -0.0482965 0.718 
-0.305263 -0.0479601 0.713 
-0.013487 -0.0400901 0.596 
0.361806 -0.0392156 0.583 
0.438486 -0.0393502 0.585 
-0.426172 -0.0471152 0.717 
-0.324938 -0.0466552 0.71 
-0.0188831 -0.0388355 0.591 
0.362426 -0.0383756 0.584 
0.431133 -0.0381127 0.58 
-0.424465 -0.0459371 0.716 
-0.257648 -0.0455521 0.71 
0.0197488 -0.0380456 0.593 
0.366335 -0.0374041 0.583 
0.434429 -0.0373399 0.582 
-0.436092 -0.044762 0.715 
-0.322081 -0.0445116 0.711 
-0.159246 -0.0443864 0.709 
0.209443 -0.0366235 0.585 
0.393061 -0.0363731 0.581 
-0.55418 -0.0435901 0.714 
-0.424983 -0.0436511 0.715 
-0.325122 -0.0432238 0.708 
-0.16145 -0.0432848 0.709 
0.21126 -0.0357146 0.585 
0.395769 -0.0354704 0.581 
-0.47586 -0.0424213 0.713 
-0.424389 -0.0424808 0.714 
-0.37616 -0.0424213 0.713 
-0.268262 -0.0420048 0.706 
-0.0161285 -0.0351627 0.591 
0.364865 -0.0348057 0.585 
0.437141 -0.0346272 0.582 
-0.440411 -0.0413135 0.713 
-0.403288 -0.0412556 0.712 
-0.309694 -0.0413135 0.713 
-0.206257 -0.0401546 0.693 
-0.0198014 -0.0342444 0.591 
0.266249 -0.0339547 0.586 
0.437293 -0.033665 0.581 
-0.442627 -0.0402057 0.713 
-0.405501 -0.0401493 0.712 
-0.321368 -0.0398674 0.707 
-0.270456 -0.039811 0.706 
-0.110465 -0.0398674 0.707 
0.215805 -0.0329879 0.585 
0.433837 -0.0327059 0.58 
-0.438687 -0.0390431 0.712 
-0.378487 -0.0387689 0.707 
-0.30993 -0.0389883 0.711 
-0.258752 -0.0386044 0.704 
-0.108575 -0.0388786 0.709 
0.265338 -0.0321338 0.586 
-0.467449 -0.0379369 0.712 
-0.410501 -0.0379902 0.713 
-0.317622 -0.0376172 0.706 
-0.260939 -0.0375107 0.704 
-0.106522 -0.0378303 0.71 
0.388784 -0.0306905 0.576 
-0.430441 -0.0368824 0.713 
-0.366856 -0.0367272 0.71 
-0.302098 -0.0370376 0.716 
-0.203906 -0.036003 0.696 
0.28016 -0.0299508 0.579 
-0.437581 -0.0357245 0.712 
-0.368542 -0.0355739 0.709 
-0.307047 -0.0357245 0.712 
-0.257658 -0.0353231 0.704 
-0.106522 -0.0356241 0.71 
0.427851 -0.029001 0.578 
-0.43598 -0.0346669 0.713 
-0.365238 -0.0344724 0.709 
-0.305941 -0.0346183 0.712 
-0.252906 -0.0343265 0.706 
-0.0786603 -0.0325762 0.67 
0.424259 -0.028103 0.578 
-0.443594 -0.033465 0.711 
-0.371322 -0.0333238 0.708 
-0.307721 -0.033465 0.711 
-0.209012 -0.0327119 0.695 
-0.00873811 -0.0276757 0.588 
0.422628 -0.0271579 0.577 
-0.464166 -0.0321782 0.707 
-0.428826 -0.0324968 0.714 
-0.323918 -0.0319962 0.703 
-0.205282 -0.0317231 0.697 
-0.00324566 -0.0266711 0.586 
0.417972 -0.026307 0.578 
-0.522025 -0.0312556 0.711 
-0.435249 -0.0312117 0.71 
-0.357022 -0.0311238 0.708 
-0.258017 -0.03086 0.702 
-0.0221362 -0.0254969 0.58 
0.420666 -0.0254089 0.578 
-0.467665 -0.0298541 0.704 
-0.376346 -0.0298117 0.703 
-0.313235 -0.0299389 0.706 
-0.107625 -0.0301086 0.71 
0.216135 -0.0246381 0.581 
0.422628 -0.0244685 0.577 
-0.459971 -0.0289646 0.709 
-0.370165 -0.0290055 0.71 
-0.312791 -0.0288012 0.705 
-0.209313 -0.0284335 0.696 
-0.0212351 -0.0236946 0.58 
0.217565 -0.0236946 0.58 
0.422628 -0.023572 0.577 
-0.461523 -0.0278237 0.708 
-0.367441 -0.0278631 0.709 
-0.311254 -0.0276666 0.704 
-0.24672 -0.0276666 0.704 
-0.0221362 -0.0227935 0.58 
0.209993 -0.0227542 0.579 
0.326791 -0.0225577 0.574 
0.443074 -0.0224398 0.571 
-0.441099 -0.026686 0.707 
-0.326103 -0.026535 0.703 
-0.258738 -0.0264595 0.701 
-0.0230373 -0.0218923 0.58 
0.125 -0.0217791 0.577 
0.309655 -0.0215904 0.572 
0.425475 -0.0217414 0.576 
-0.462623 -0.0256237 0.708 
-0.35551 -0.0255152 0.705 
-0.26963 -0.0253704 0.701 
-0.19907 -0.0252618 0.698 
0.119682 -0.0207379 0.573 
0.246023 -0.0208826 0.577 
0.339857 -0.0205931 0.569 
0.434888 -0.020955 0.579 
-0.433758 -0.0243852 0.704 
-0.32201 -0.0244545 0.706 
-0.251844 -0.0242466 0.7 
0.0576641 -0.0199515 0.576 
0.177608 -0.0200554 0.579 
0.248282 -0.0199515 0.576 
0.340424 -0.0196398 0.567 
-0.46329 -0.0232914 0.704 
-0.421127 -0.0232583 0.703 
-0.32201 -0.0233576 0.706 
-0.21222 -0.0221996 0.671 
0.0640395 -0.0190897 0.577 
0.180619 -0.0191889 0.58 
0.304145 -0.0188581 0.57 
0.344554 -0.0187919 0.568 
-0.438907 -0.0220715 0.7 
-0.354501 -0.0221661 0.703 
-0.254013 -0.0219769 0.697 
0.0566707 -0.0181302 0.575 
0.173409 -0.0181932 0.577 
0.304145 -0.0179725 0.57 
0.348697 -0.017941 0.569 
-0.424639 -0.020924 0.698 
-0.345763 -0.0210738 0.703 
-0.25292 -0.0208041 0.694 
-0.172353 -0.0199647 0.666 
0.114627 -0.0170869 0.57 
0.187629 -0.0175366 0.585 
0.314648 -0.0171768 0.573 
0.411336 -0.0172368 0.575 
-0.421505 -0.0198963 0.7 
-0.320459 -0.0200385 0.705 
-0.239322 -0.0195837 0.689 
0.0583557 -0.016315 0.574 
0.123243 -0.0162866 0.573 
0.244702 -0.0163718 0.576 
0.325331 -0.0162866 0.573 
-0.578138 -0.0189162 0.704 
-0.41933 -0.0188088 0.7 
-0.269869 -0.0187013 0.696 
-0.211271 -0.0179489 0.668 
0.0654902 -0.0154232 0.574 
0.170724 -0.0154232 0.574 
0.312867 -0.0153963 0.573 
0.348967 -0.015262 0.568 
-0.440274 -0.0176452 0.697 
-0.363947 -0.0176199 0.696 
-0.263759 -0.0176452 0.697 
-0.204293 -0.017468 0.69 
0.0643733 -0.0144807 0.572 
0.171616 -0.0145314 0.574 
0.323308 -0.0144554 0.571 
-0.575951 -0.0167287 0.704 
-0.433777 -0.0165623 0.697 
-0.359622 -0.0165386 0.696 
-0.260137 -0.0165386 0.696 
-0.206272 -0.0159683 0.672 
0.0505048 -0.0136871 0.576 
0.121925 -0.0135683 0.571 
0.347202 -0.013497 0.568 
-0.468839 -0.0154572 0.696 
-0.415853 -0.0154572 0.696 
-0.343304 -0.0155016 0.698 
-0.23967 -0.015324 0.69 
-0.0146955 -0.0126811 0.571 
0.113742 -0.0126589 0.57 
0.338377 -0.0126145 0.568 
-0.47406 -0.0142726 0.691 
-0.438737 -0.0144172 0.698 
-0.375299 -0.0143139 0.693 
-0.259763 -0.0143552 0.695 
-0.167179 -0.0137562 0.666 
0.0504171 -0.0118766 0.575 
0.171317 -0.0118353 0.573 
0.349849 -0.011732 0.568 
-0.455305 -0.0131226 0.687 
-0.417415 -0.0132754 0.695 
-0.264082 -0.0132754 0.695 
-0.108997 -0.0130653 0.684 
0.0648056 -0.0108495 0.568 
0.324828 -0.0108686 0.569 
-0.574857 -0.0123535 0.704 
-0.440906 -0.0122482 0.698 
-0.373682 -0.0121429 0.692 
-0.246447 -0.0120201 0.685 
-0.0361132 -0.0100548 0.573 
0.0674531 -0.00996704 0.568 
0.324257 -0.00996704 0.568 
-0.471125 -0.0110838 0.693 
-0.419574 -0.0111158 0.695 
-0.305692 -0.0110198 0.689 
-0.243251 -0.0110038 0.688 
-0.024497 -0.00914853 0.572 
0.0648056 -0.00908456 0.568 
0.228545 -0.00906856 0.567 
-0.577044 -0.0101659 0.704 
-0.436568 -0.0100793 0.698 
-0.361882 -0.00996378 0.69 
-0.238598 -0.00996378 0.69 
-0.0262285 -0.00824539 0.571 
0.0578474 -0.00821651 0.569 
0.156584 -0.00820207 0.568 
-1.62763 -0.0226675 1.759 
-0.429753 -0.00894329 0.694 
-0.303111 -0.00886597 0.688 
-0.171318 -0.00858246 0.666 
-0.0342727 -0.00737113 0.572 
0.0491792 -0.00735824 0.571 
0.0812587 -0.00737113 0.572 
0.263263 -0.00726803 0.564 
-1.62313 -0.0200139 1.766 
-0.362931 -0.00784237 0.692 
-0.241113 -0.00779704 0.688 
-0.0930565 -0.00775171 0.684 
-0.00755841 -0.00643709 0.568 
0.0719921 -0.00644842 0.569 
0.235177 -0.00641442 0.566 
0.325178 -0.00640309 0.565 
-0.303296 -0.00670855 0.686 
-0.242182 -0.00672811 0.688 
-0.109416 -0.00664988 0.68 
-0.00667592 -0.0055546 0.568 
0.0719921 -0.00556438 0.569 
0.233419 -0.00553504 0.566 
0.290578 -0.00553504 0.566 
-0.369921 -0.00566741 0.689 
-0.254157 -0.00559338 0.68 
-0.167179 -0.00547822 0.666 
-0.0279047 -0.00468034 0.569 
0.0490931 -0.00468857 0.57 
0.154547 -0.00466389 0.567 
0.280026 -0.00465566 0.566 
-1.63415 -0.0118226 1.772 
-0.27425 -0.00459025 0.688 
-0.237933 -0.00457024 0.685 
-0.1082 -0.0045302 0.679 
-0.0101699 -0.00377628 0.566 
0.0757937 -0.00380964 0.571 
0.27964 -0.00378295 0.567 
-0.36778 -0.00352644 0.689 
-0.258963 -0.0034599 0.676 
-0.170028 -0.0034036 0.665 
-0.093844 -0.00349061 0.682 
0.0524508 -0.00290714 0.568 
0.263365 -0.00290714 0.568 
0.450264 -0.00286107 0.559 
-0.29349 -0.00245239 0.688 
-0.242897 -0.00244883 0.687 
-0.118215 -0.002431 0.682 
-0.0269257 -0.00202108 0.567 
0.0588347 -0.00203178 0.57 
0.275235 -0.00202108 0.567 
0.455361 -0.0019997 0.561 
-0.287494 -0.00138547 0.689 
-0.241478 -0.00137944 0.686 
-0.116096 -0.0013714 0.682 
-0.0278066 -0.00114015 0.567 
0.0588347 -0.00114618 0.57 
0.264713 -0.00114417 0.569 
0.449395 -0.00112406 0.559 
-0.366178 -0.000314533 0.688 
-0.256191 -0.000309504 0.677 
-0.167978 -0.000302189 0.661 
-0.0269257 -0.000259215 0.567 
0.0543112 -0.00026013 0.569 
0.228334 -0.000256015 0.56 
0.3243 -0.000258301 0.565 
-0.491582 0.000759879 0.693 
-0.288565 0.000755493 0.689 
-0.185247 0.00072808 0.664 
-0.0304494 0.000621719 0.567 
0.0443517 0.000620623 0.566 
0.162789 0.000616237 0.562 
0.236975 0.00061843 0.564 
0.462233 0.000617333 0.563 
-0.400071 0.00180742 0.682 
-0.255516 0.00179682 0.678 
-0.123151 0.00180212 0.68 
-0.0127402 0.00149205 0.563 
0.150629 0.00148145 0.559 
0.202955 0.0014894 0.562 
0.323152 0.00149205 0.563 
-0.493736 0.00291327 0.693 
-0.41947 0.00288385 0.686 
-0.277053 0.00288805 0.687 
-0.199686 0.00285022 0.678 
-0.113579 0.00288385 0.686 
-0.00574243 0.00236677 0.563 
0.153235 0.00234996 0.559 
0.178649 0.00234155 0.557 
0.245302 0.00236677 0.563 
-0.485166 0.0039727 0.69 
-0.420987 0.00394391 0.685 
-0.354507 0.00392664 0.682 
-0.246761 0.00391512 0.68 
-0.123151 0.00391512 0.68 
-0.0144896 0.00324149 0.563 
0.0610599 0.00325877 0.566 
0.173456 0.00320695 0.557 
0.227464 0.00322422 0.56 
0.452809 0.00322422 0.56 
-0.448409 0.00499356 0.683 
-0.413537 0.00500818 0.685 
-0.353988 0.00497894 0.681 
-0.260879 0.00497894 0.681 
-0.169003 0.00480347 0.657 
-0.0267832 0.00412352 0.564 
0.0467408 0.00411621 0.563 
0.165394 0.00408697 0.559 
0.208323 0.00409428 0.56 
0.27115 0.00412352 0.564 
0.458734 0.00411621 0.563 
-0.471383 0.00606358 0.684 
-0.421435 0.00606358 0.684 
-0.367742 0.00603699 0.681 
-0.28387 0.00609904 0.688 
-0.169765 0.00581537 0.656 
-0.0092249 0.00498207 0.562 
0.147759 0.00494661 0.558 
0.173456 0.00493774 0.557 
0.242678 0.00499093 0.563 
0.307278 0.00494661 0.558 
0.526372 0.00492001 0.555 
-0.470694 0.00711588 0.683 
-0.41931 0.0071263 0.684 
-0.351872 0.00709504 0.681 
-0.265111 0.00709504 0.681 
-0.122094 0.00708462 0.68 
0.0457846 0.00585523 0.562 
0.157859 0.0058344 0.56 
0.188506 0.00581356 0.558 
0.247475 0.0058344 0.56 
0.319998 0.00579272 0.556 
-0.560071 0.00816507 0.682 
-0.480553 0.0082369 0.688 
-0.439501 0.00818901 0.684 
-0.358749 0.00811718 0.678 
-0.278216 0.00816507 0.682 
-0.164366 0.0079376 0.663 
0.0371188 0.00674037 0.563 
0.158729 0.00670446 0.56 
0.207823 0.00671643 0.561 
0.251793 0.00668051 0.558 
0.319998 0.00665657 0.556 
0.523786 0.00664459 0.555 
-0.484829 0.00930583 0.688 
-0.435251 0.00925173 0.684 
-0.352948 0.0091841 0.679 
-0.260496 0.00919762 0.68 
-0.12297 0.0091841 0.679 
0.0510236 0.00760157 0.562 
0.160183 0.00756099 0.559 
0.226999 0.00758804 0.561 
0.263535 0.00756099 0.559 
0.356289 0.00746631 0.552 
0.521415 0.00754746 0.558 
-0.487596 0.0102089 0.677 
-0.451593 0.0102994 0.683 
-0.351355 0.0102541 0.68 
-0.261552 0.0102541 0.68 
-0.157668 0.0101636 0.674 
0.0318139 0.00847473 0.562 
0.149821 0.00838425 0.556 
0.191107 0.00841441 0.558 
0.250926 0.00841441 0.558 
0.314835 0.00833902 0.553 
0.459817 0.00842949 0.559 
-0.505331 0.0112108 0.674 
-0.468626 0.0113106 0.68 
-0.37499 0.0112275 0.675 
-0.284795 0.0113106 0.68 
-0.244666 0.0113605 0.683 
-0.0214874 0.00936453 0.563 
0.0569324 0.00931463 0.56 
0.159896 0.00928137 0.558 
0.209193 0.00931463 0.56 
0.2574 0.00926473 0.557 
0.352435 0.0091483 0.55 
0.522282 0.00928137 0.558 
-0.488647 0.0123126 0.677 
-0.453051 0.0124035 0.682 
-0.373941 0.0122762 0.675 
-0.285011 0.0123308 0.678 
-0.247487 0.0124035 0.682 
-0.119805 0.0123489 0.679 
0.0595426 0.0101847 0.56 
0.155283 0.0101301 0.557 
0.191107 0.0101483 0.558 
0.25266 0.0101483 0.558 
0.361435 0.0100392 0.552 
0.49788 0.0100756 0.554 
-0.488316 0.0133841 0.678 
-0.440336 0.0134631 0.682 
-0.377087 0.0133249 0.675 
-0.282701 0.0133249 0.675 
-0.245025 0.0135026 0.684 
-0.0258151 0.0110942 0.562 
0.0714673 0.0110153 0.558 
0.160475 0.0109955 0.557 
0.207453 0.0110547 0.56 
0.251342 0.0109955 0.557 
0.32201 0.010956 0.555 
0.437887 0.0108573 0.55 
-0.501886 0.0143737 0.675 
-0.441806 0.0145014 0.681 
-0.380717 0.0143524 0.674 
-0.275813 0.0142885 0.671 
-0.164814 0.0142459 0.669 
-0.0162102 0.0119674 0.562 
0.131917 0.0118609 0.557 
0.169384 0.0118183 0.555 
0.213647 0.0118822 0.558 
0.253527 0.0118822 0.558 
0.312257 0.0117757 0.553 
0.410433 0.0117332 0.551 
0.466924 0.0117545 0.552 
-0.452387 0.0155595 0.681 
-0.39035 0.0154909 0.678 
-0.289422 0.0154452 0.676 
-0.186072 0.0149883 0.656 
-0.0171138 0.0128634 0.563 
0.128225 0.0127035 0.556 
0.159323 0.0127035 0.556 
0.190079 0.0126806 0.555 
0.237035 0.0127949 0.56 
0.267954 0.0126121 0.552 
0.357562 0.0125664 0.55 
0.447097 0.0126578 0.554 
-0.48201 0.0166907 0.684 
-0.435038 0.0166419 0.682 
-0.351893 0.0165687 0.679 
-0.264997 0.0165443 0.678 
-0.00573223 0.0137137 0.562 
0.124545 0.0135429 0.555 
0.152725 0.0135185 0.554 
0.183181 0.0135429 0.555 
0.234006 0.0136405 0.559 
0.26918 0.0134453 0.551 
0.398448 0.0134453 0.551 
0.47805 0.0134209 0.55 
-0.468663 0.0175718 0.677 
-0.409598 0.0175198 0.675 
-0.280607 0.0173901 0.67 
-0.0197029 0.0145869 0.562 
0.0714673 0.0144831 0.558 
0.146102 0.0144052 0.555 
0.175868 0.0143014 0.551 
0.229663 0.014509 0.559 
0.270036 0.0143014 0.551 
0.318833 0.0143014 0.551 
0.407237 0.0142495 0.549 
0.467795 0.0142754 0.55 
-0.521812 0.0185686 0.675 
-0.439044 0.0187061 0.68 
-0.342479 0.0185686 0.675 
-0.167179 0.018321 0.666 
0.0638929 0.015405 0.56 
0.143515 0.0152675 0.555 
0.174156 0.0151575 0.551 
0.220503 0.015405 0.56 
0.267468 0.0151575 0.551 
0.316545 0.01513 0.55 
0.397854 0.0151024 0.549 
0.440451 0.01513 0.55 
0.478904 0.01513 0.55 
-0.464088 0.0197045 0.678 
-0.389297 0.0197045 0.678 
-0.281648 0.019472 0.67 
0.0125145 0.016217 0.558 
0.12346 0.0161007 0.554 
0.154446 0.0161007 0.554 
0.184429 0.0160135 0.551 
0.224854 0.0162751 0.56 
0.279801 0.0159845 0.55 
0.354353 0.0159554 0.549 
0.404792 0.0159264 0.548 
0.464377 0.0159845 0.55 
0.521335 0.0158973 0.547 
-0.433762 0.0208191 0.68 
-0.345113 0.0206354 0.674 
-0.274169 0.0204211 0.667 
0.0194153 0.0170533 0.557 
0.143515 0.0169921 0.555 
0.169567 0.016839 0.55 
0.20471 0.0167778 0.548 
0.265274 0.016839 0.55 
0.311137 0.0167778 0.548 
0.392021 0.0167778 0.548 
0.436238 0.0168084 0.549 
0.47718 0.0168084 0.549 
-0.474272 0.0217469 0.676 
-0.403755 0.0216826 0.674 
-0.310556 0.0216826 0.674 
-0.165396 0.0213287 0.663 
0.0211461 0.0179187 0.557 
0.1467 0.0178222 0.554 
0.18324 0.0176935 0.55 
0.231526 0.0176613 0.549 
0.273321 0.0176613 0.549 
0.3535 0.0176613 0.549 
0.40309 0.0176292 0.548 
0.449679 0.0178222 0.554 
-0.526514 0.022831 0.677 
-0.395501 0.0227972 0.676 
-0.297106 0.0226623 0.672 
-0.0301272 0.018919 0.561 
0.0228769 0.0187841 0.557 
0.154446 0.0186829 0.554 
0.185465 0.0185143 0.549 
0.234931 0.0184469 0.547 
0.279801 0.018548 0.55 
0.378714 0.0184131 0.546 
0.427 0.0184469 0.547 
0.4695 0.0184806 0.548 
-0.527566 0.0238828 0.677 
-0.397472 0.023777 0.674 
-0.302467 0.0236359 0.67 
-0.159762 0.0233184 0.661 
0.0159537 0.0196495 0.557 
0.13514 0.0193673 0.549 
0.173208 0.019332 0.548 
0.228564 0.0192615 0.546 
0.277586 0.0193673 0.549 
0.376169 0.0192615 0.546 
0.421978 0.0192615 0.546 
0.469493 0.0192967 0.547 
0.521122 0.0192262 0.545 
-0.50983 0.0250451 0.68 
-0.342534 0.0247136 0.671 
-0.29293 0.0247505 0.672 
-0.0238118 0.0204781 0.556 
0.0237423 0.0205149 0.557 
0.139309 0.0203307 0.552 
0.173208 0.0201834 0.548 
0.229412 0.0201098 0.546 
0.276229 0.0201834 0.548 
0.377018 0.0201098 0.546 
0.42445 0.0201466 0.547 
0.477992 0.0201466 0.547 
0.518475 0.0200361 0.544 
-0.508773 0.0261016 0.68 
-0.396882 0.0258329 0.673 
-0.315429 0.0257562 0.671 
-0.278932 0.0255642 0.666 
0.00385882 0.0214955 0.56 
0.117868 0.0211884 0.552 
0.161022 0.0211116 0.55 
0.206886 0.0209965 0.547 
0.254861 0.0209581 0.546 
0.325352 0.0210732 0.549 
0.39059 0.0209581 0.546 
0.437247 0.0209581 0.546 
0.494084 0.0209581 0.546 
-0.518099 0.0270383 0.677 
-0.411341 0.0267987 0.671 
-0.340983 0.0267587 0.67 
-0.292494 0.0267987 0.671 
-0.157708 0.0263993 0.661 
0.11141 0.0221259 0.554 
0.159313 0.0219661 0.55 
0.205659 0.0218064 0.546 
0.252237 0.0217265 0.544 
0.325352 0.0219262 0.549 
0.392287 0.0218064 0.546 
0.481325 0.0217664 0.545 
-0.525736 0.0280487 0.676 
-0.435816 0.0280072 0.675 
-0.359642 0.0276337 0.666 
-0.303508 0.0277997 0.67 
-0.267951 0.0276752 0.667 
-0.141522 0.0276752 0.667 
0.116153 0.0229036 0.552 
0.167792 0.0226962 0.547 
0.20867 0.0226132 0.545 
0.254773 0.0225717 0.544 
0.330966 0.0226962 0.547 
0.436491 0.0225717 0.544 
0.499036 0.0225717 0.544 
-0.513597 0.029185 0.678 
-0.413233 0.0287976 0.669 
-0.359642 0.0286685 0.666 
-0.299489 0.0287546 0.668 
-0.267951 0.0287115 0.667 
-0.144631 0.0287115 0.667 
0.131488 0.0235891 0.548 
0.199966 0.0236321 0.549 
0.255992 0.0233739 0.543 
0.328664 0.023503 0.546 
0.468609 0.0234169 0.544 
0.505622 0.0233308 0.542 
-0.496217 0.0300154 0.673 
-0.413233 0.029837 0.669 
-0.360677 0.0297032 0.666 
-0.302016 0.029837 0.669 
-0.246189 0.0297478 0.667 
-0.14131 0.0297032 0.666 
0.114878 0.0245297 0.55 
0.174272 0.0243513 0.546 
0.268434 0.0243513 0.546 
0.326119 0.0243513 0.546 
0.443221 0.0243067 0.545 
0.50637 0.0241283 0.541 
-0.469326 0.030738 0.666 
-0.410728 0.0309226 0.67 
-0.361219 0.0307841 0.667 
-0.303055 0.0308764 0.669 
-0.165688 0.0302765 0.656 
-0.0996203 0.0306457 0.664 
0.132948 0.0252458 0.547 
0.244963 0.0249688 0.541 
0.298757 0.0249688 0.541 
0.39085 0.0251073 0.544 
0.434001 0.0250611 0.543 
0.495443 0.0249688 0.541 
-0.498001 0.0321544 0.674 
-0.432191 0.0320113 0.671 
-0.395703 0.0320113 0.671 
-0.353434 0.0317727 0.666 
-0.287464 0.0319159 0.669 
-0.166707 0.0312957 0.656 
-0.1005 0.0316296 0.663 
0.117014 0.0261433 0.548 
0.230673 0.0258094 0.541 
0.3024 0.0257617 0.54 
0.389288 0.0259048 0.543 
0.429613 0.0260479 0.546 
0.475421 0.0260479 0.546 
0.521247 0.025714 0.539 
-0.436361 0.0330538 0.671 
-0.400318 0.0330045 0.67 
-0.359146 0.0328567 0.667 
-0.303055 0.0329553 0.669 
-0.266277 0.032906 0.668 
-0.149 0.032906 0.668 
0.11211 0.027044 0.549 
0.174158 0.0267484 0.543 
0.2948 0.0267484 0.543 
0.366838 0.0268962 0.546 
0.430461 0.0268962 0.546 
0.475421 0.0268962 0.546 
0.5161 0.0265021 0.538 
-0.442422 0.0338422 0.666 
-0.401958 0.0340963 0.671 
-0.363291 0.033893 0.667 
-0.309174 0.0340963 0.671 
-0.266277 0.0339439 0.668 
-0.0262133 0.0280494 0.552 
0.121628 0.0275413 0.542 
0.210435 0.0275921 0.543 
0.27641 0.0276937 0.545 
0.323234 0.0276429 0.544 
0.418585 0.0277445 0.546 
0.466044 0.0275413 0.542 
0.502917 0.0274396 0.54 
-0.460667 0.0346151 0.661 
-0.410114 0.0350341 0.669 
-0.338438 0.0348246 0.665 
-0.265879 0.0349293 0.667 
0.079552 0.0286976 0.548 
0.125457 0.0284881 0.544 
0.205077 0.0282786 0.54 
0.294257 0.0283834 0.542 
0.328305 0.0284881 0.544 
0.435646 0.0284881 0.544 
0.489559 0.028331 0.541 
0.522084 0.0282263 0.539 
-0.428183 0.0360196 0.668 
-0.351892 0.0359656 0.667 
-0.292384 0.0359117 0.666 
-0.103278 0.0356421 0.661 
0.119944 0.0292255 0.542 
0.173838 0.0292255 0.542 
0.236917 0.0290098 0.538 
0.311941 0.0292255 0.542 
0.408781 0.0292255 0.542 
0.444149 0.0292255 0.542 
0.499561 0.0291176 0.54 
-0.442125 0.0368355 0.664 
-0.380337 0.0369465 0.666 
-0.309292 0.0371129 0.669 
-0.240893 0.0366691 0.661 
0.119944 0.0300676 0.542 
0.199303 0.0298457 0.538 
0.292873 0.0300121 0.541 
0.325171 0.030123 0.543 
0.417897 0.0301785 0.544 
0.471144 0.0301785 0.544 
0.517772 0.0298457 0.538 
-0.425469 0.0380383 0.667 
-0.359684 0.0380953 0.668 
-0.296523 0.0379812 0.666 
0.0292651 0.0311948 0.547 
0.122696 0.0309667 0.543 
0.201348 0.0307386 0.539 
0.289511 0.0308526 0.541 
0.32373 0.0309096 0.542 
0.422255 0.0309096 0.542 
0.489559 0.0308526 0.541 
0.523892 0.0307956 0.54 
-0.420288 0.0390746 0.667 
-0.337929 0.0388988 0.664 
-0.278892 0.0387231 0.661 
0.0677556 0.0321618 0.549 
0.120165 0.0318103 0.543 
0.191423 0.0314588 0.537 
0.236917 0.0315174 0.538 
0.307162 0.0316932 0.541 
0.415441 0.0318103 0.543 
0.473653 0.0318103 0.543 
0.505336 0.031576 0.539 
-0.437248 0.0400507 0.666 
-0.339993 0.0399304 0.664 
-0.287976 0.0398703 0.663 
-0.249959 0.0400507 0.666 
0.0728735 0.0330148 0.549 
0.133064 0.0327141 0.544 
0.199303 0.0323533 0.538 
0.242382 0.0324134 0.539 
0.309684 0.0325337 0.541 
0.440832 0.0324736 0.54 
0.482665 0.0323533 0.538 
0.52557 0.0324736 0.54 
-0.431296 0.0412088 0.668 
-0.303766 0.0410855 0.666 
-0.269649 0.040777 0.661 
0.0284152 0.0337444 0.547 
0.0796972 0.0338678 0.549 
0.151663 0.0333742 0.541 
0.199303 0.0331892 0.538 
0.241545 0.0332508 0.539 
0.305481 0.0333742 0.541 
0.42219 0.0334976 0.543 
0.465976 0.0332508 0.539 
0.497799 0.0332508 0.539 
-0.481207 0.041804 0.661 
-0.339481 0.0419305 0.663 
-0.289599 0.0418672 0.662 
-0.248924 0.0421202 0.666 
0.0634908 0.0347207 0.549 
0.12247 0.034278 0.542 
0.175388 0.0340883 0.539 
0.208047 0.0340883 0.539 
0.258047 0.034278 0.542 
0.326256 0.034278 0.542 
0.448383 0.0341515 0.54 
0.483501 0.034025 0.538 
-0.554801 0.0432846 0.668 
-0.431687 0.0432198 0.667 
-0.299307 0.0429606 0.663 
-0.257074 0.0429606 0.663 
0.0589023 0.0353793 0.546 
0.121403 0.0350553 0.541 
0.17339 0.0348609 0.538 
0.199303 0.0348609 0.538 
0.242382 0.0349257 0.539 
0.307434 0.0349905 0.54 
0.416433 0.0350553 0.541 
0.46344 0.0348609 0.538 
0.498455 0.0347961 0.537 
-0.477403 0.0437916 0.66 
-0.332771 0.044057 0.664 
-0.269857 0.0437253 0.659 
0.0283633 0.0362276 0.546 
0.114679 0.0358958 0.541 
0.155025 0.0358958 0.541 
0.183914 0.0356304 0.537 
0.217692 0.0356968 0.538 
0.2529 0.0358295 0.54 
0.318341 0.0358295 0.54 
0.4392 0.0356968 0.538 
0.47754 0.0355641 0.536 
0.508235 0.0354977 0.535 
-0.527272 0.0452245 0.666 
-0.33174 0.0450887 0.664 
-0.259772 0.0449528 0.662 
0.0711675 0.0372796 0.549 
0.155025 0.0367364 0.541 
0.182246 0.0364648 0.537 
0.213116 0.0364648 0.537 
0.246569 0.0366006 0.539 
0.306864 0.0366006 0.539 
0.414676 0.0368043 0.542 
0.457553 0.0363969 0.536 
0.489277 0.0364648 0.537 
-0.543438 0.0460508 0.663 
-0.435179 0.0462592 0.666 
-0.32918 0.0460508 0.663 
-0.269038 0.0456341 0.657 
-0.117656 0.0459119 0.661 
0.136426 0.0370907 0.534 
0.180241 0.0372296 0.536 
0.20599 0.0373686 0.538 
0.233102 0.0371602 0.535 
0.261507 0.0372991 0.537 
0.318588 0.037438 0.539 
0.452567 0.0372991 0.537 
0.483369 0.0372296 0.536 
-0.553971 0.047365 0.667 
-0.475655 0.0467969 0.659 
-0.336898 0.0471519 0.664 
-0.165624 0.0454476 0.64 
0.112998 0.0384175 0.541 
0.166916 0.0380624 0.536 
0.197264 0.0381334 0.537 
0.222293 0.0381334 0.537 
0.248619 0.0382044 0.538 
0.307702 0.0382754 0.539 
0.434212 0.0381334 0.537 
0.470922 0.0381334 0.537 
0.493914 0.0378494 0.533 
-0.534167 0.048111 0.663 
-0.354397 0.0480384 0.662 
-0.287699 0.0478933 0.66 
-0.130412 0.0477482 0.658 
0.117605 0.0391129 0.539 
0.166084 0.0388952 0.536 
0.196063 0.0388952 0.536 
0.226465 0.0389677 0.537 
0.253635 0.0390403 0.538 
0.361565 0.0386049 0.532 
0.4567 0.0388226 0.535 
0.487289 0.0386775 0.533 
-0.551071 0.0493635 0.666 
-0.401521 0.0489187 0.66 
-0.27289 0.048474 0.654 
-0.130412 0.0487705 0.658 
0.116767 0.0399503 0.539 
0.161388 0.0398021 0.537 
0.195231 0.0397279 0.536 
0.230207 0.0397279 0.536 
0.257335 0.0398021 0.537 
0.35841 0.0393573 0.531 
0.440898 0.0397279 0.536 
0.479906 0.0395797 0.534 
0.504679 0.0395056 0.533 
-0.442219 0.0497928 0.658 
-0.336912 0.0500955 0.662 
-0.157384 0.0489604 0.647 
-0.0990802 0.0489604 0.647 
0.139435 0.0405607 0.536 
0.183229 0.040485 0.535 
0.213552 0.0405607 0.536 
0.247323 0.0406364 0.537 
0.314654 0.0407121 0.538 
0.415193 0.0404094 0.534 
0.452527 0.0404094 0.534 
0.484721 0.040258 0.532 
0.512391 0.040485 0.535 
-0.444264 0.0508151 0.658 
-0.329781 0.0506607 0.656 
-0.159394 0.0499656 0.647 
-0.102412 0.0501201 0.649 
0.137192 0.0414707 0.537 
0.186554 0.0413163 0.535 
0.222297 0.0413163 0.535 
0.249727 0.0413163 0.535 
0.360885 0.0410074 0.531 
0.435934 0.041239 0.534 
0.474867 0.0411618 0.533 
0.497835 0.0410074 0.531 
-0.547558 0.0522314 0.663 
-0.43813 0.0518375 0.658 
-0.328776 0.0515223 0.654 
-0.164173 0.0512072 0.65 
-0.101403 0.0511284 0.649 
0.1425 0.0421475 0.535 
0.189048 0.0421475 0.535 
0.226043 0.0422263 0.536 
0.250919 0.0420687 0.534 
0.36171 0.0418324 0.531 
0.437594 0.0420687 0.534 
0.484635 0.0418324 0.531 
0.513923 0.0420687 0.534 
-0.471904 0.0522974 0.651 
-0.401737 0.0527794 0.657 
-0.321715 0.0522171 0.65 
-0.109301 0.0520564 0.648 
0.141101 0.043059 0.536 
0.189879 0.0429787 0.535 
0.22479 0.0429787 0.535 
0.250919 0.0428984 0.534 
0.357585 0.0426574 0.531 
0.419295 0.0429787 0.535 
0.459994 0.0428984 0.534 
0.495251 0.042577 0.53 
-0.535852 0.0540459 0.66 
-0.43813 0.0538821 0.658 
-0.380597 0.0535545 0.654 
-0.170967 0.0519168 0.634 
-0.101403 0.0531451 0.649 
0.14666 0.0435642 0.532 
0.186206 0.043728 0.534 
0.212755 0.043728 0.534 
0.243908 0.0438099 0.535 
0.3124 0.0439737 0.537 
0.397106 0.0435642 0.532 
0.435128 0.0435642 0.532 
0.483632 0.0433186 0.529 
0.513651 0.0435642 0.532 
-0.527648 0.0550713 0.66 
-0.4347 0.0549879 0.659 
-0.377108 0.0546541 0.655 
-0.281019 0.0545707 0.654 
-0.105437 0.0541534 0.649 
0.141933 0.0447246 0.536 
0.177411 0.0446411 0.535 
0.209044 0.0444743 0.533 
0.241415 0.0446411 0.535 
0.307081 0.0446411 0.535 
0.380575 0.0443908 0.532 
0.425209 0.0443908 0.532 
0.48216 0.0443074 0.531 
0.50856 0.0443074 0.531 
-0.460297 0.0560117 0.659 
-0.428831 0.0561817 0.661 
-0.368855 0.0555018 0.653 
-0.285083 0.0555868 0.654 
-0.110138 0.0549918 0.647 
0.13494 0.0457273 0.538 
0.164844 0.0452174 0.532 
0.202866 0.0452174 0.532 
0.234715 0.0453024 0.533 
0.294329 0.0450474 0.53 
0.371734 0.0450474 0.53 
0.405435 0.0451324 0.531 
0.441743 0.0453024 0.533 
0.485078 0.0447924 0.527 
-0.539136 0.0570356 0.659 
-0.443589 0.0568625 0.657 
-0.397871 0.0566029 0.654 
-0.349632 0.0566894 0.655 
-0.157384 0.055997 0.647 
0.00121296 0.0470825 0.544 
0.152189 0.046217 0.534 
0.185857 0.0461305 0.533 
0.21321 0.0459574 0.531 
0.24291 0.0459574 0.531 
0.310406 0.0463036 0.535 
0.379035 0.0459574 0.531 
0.412035 0.0459574 0.531 
0.452432 0.0458708 0.53 
0.492562 0.0456977 0.528 
-0.472915 0.0573547 0.651 
-0.424723 0.0582357 0.661 
-0.373038 0.0577071 0.655 
-0.317676 0.0572666 0.65 
-0.102254 0.0570903 0.648 
0.135776 0.0473991 0.538 
0.164844 0.0468705 0.532 
0.199185 0.0467824 0.531 
0.225585 0.0467824 0.531 
0.281734 0.0465181 0.528 
0.353772 0.0466062 0.529 
0.388203 0.0466943 0.53 
0.418731 0.0465181 0.528 
0.460789 0.0469586 0.533 
0.49866 0.0467824 0.531 
-0.472629 0.0584558 0.652 
-0.404364 0.0585454 0.653 
-0.36716 0.0582764 0.65 
-0.286237 0.0584558 0.652 
-0.101091 0.0580075 0.647 
0.133606 0.0480556 0.536 
0.164844 0.047697 0.532 
0.202103 0.0475177 0.53 
0.230535 0.0476074 0.531 
0.294329 0.0475177 0.53 
0.365535 0.0472487 0.527 
0.397185 0.0476074 0.531 
0.426099 0.0474281 0.529 
0.4787 0.0474281 0.529 
0.509932 0.0474281 0.529 
-0.44801 0.0598336 0.656 
-0.375817 0.0593775 0.651 
-0.285798 0.0593775 0.651 
-0.154129 0.0589215 0.646 
-0.000477437 0.0496181 0.544 
0.143893 0.048706 0.534 
0.178896 0.0485236 0.532 
0.208691 0.0483412 0.53 
0.239529 0.04825 0.529 
0.353104 0.0481587 0.528 
0.380792 0.0483412 0.53 
0.417119 0.0480675 0.527 
0.454078 0.0483412 0.53 
0.491629 0.0480675 0.527 
-0.427157 0.0612239 0.66 
-0.35697 0.0601107 0.648 
-0.209958 0.0578844 0.624 
-0.0999308 0.0599252 0.646 
0.0455857 0.0499995 0.539 
0.153561 0.0494429 0.533 
0.187281 0.0491646 0.53 
0.213228 0.0490719 0.529 
0.250335 0.0492574 0.531 
0.357882 0.0490719 0.529 
0.39306 0.0492574 0.531 
0.426114 0.0489791 0.528 
0.480985 0.0488863 0.527 
-0.454125 0.061872 0.656 
-0.359434 0.0610232 0.647 
-0.27627 0.0613061 0.65 
-0.114512 0.0612118 0.649 
-0.000477437 0.0513085 0.544 
0.141101 0.050554 0.536 
0.16681 0.050271 0.533 
0.196339 0.0499881 0.53 
0.223091 0.0498937 0.529 
0.254847 0.0495165 0.525 
0.350643 0.0497994 0.528 
0.380895 0.0498937 0.529 
0.412206 0.0497051 0.527 
0.441683 0.0497051 0.527 
-0.490068 0.0627954 0.655 
-0.379704 0.0622201 0.649 
-0.323746 0.0621243 0.648 
-0.208045 0.060111 0.627 
-0.114512 0.0622201 0.649 
-0.00466021 0.0516743 0.539 
0.140268 0.0513867 0.536 
0.168783 0.051195 0.534 
0.194325 0.0507156 0.529 
0.221447 0.0507156 0.529 
0.253216 0.0503322 0.525 
0.354744 0.0506198 0.528 
0.38976 0.0509074 0.531 
0.414693 0.050428 0.526 
0.450756 0.0507156 0.529 
-0.489051 0.063813 0.655 
-0.381721 0.0632285 0.649 
-0.343824 0.0629362 0.646 
-0.26713 0.0628388 0.645 
-0.202488 0.0617671 0.634 
-0.109133 0.0630336 0.647 
0.0061802 0.0521221 0.535 
0.147487 0.0521221 0.535 
0.174106 0.051635 0.53 
0.198503 0.0513427 0.527 
0.22431 0.0514401 0.528 
0.250769 0.0511478 0.525 
0.311034 0.0515375 0.529 
0.379251 0.0515375 0.529 
0.406475 0.0513427 0.527 
0.438393 0.0512453 0.526 
0.489172 0.0513427 0.527 
-0.383737 0.0642368 0.649 
-0.34282 0.0639399 0.646 
-0.257711 0.0637419 0.644 
-0.173934 0.0613664 0.62 
-0.104949 0.0639399 0.646 
0.0185439 0.0526564 0.532 
0.156814 0.0524584 0.53 
0.18234 0.0524584 0.53 
0.207475 0.0523594 0.529 
0.234154 0.0522605 0.528 
0.282019 0.0521615 0.527 
0.354072 0.0521615 0.527 
0.393223 0.0523594 0.529 
0.417145 0.0520625 0.526 
0.4524 0.0523594 0.529 
-0.509692 0.0661499 0.658 
-0.374513 0.0650441 0.647 
-0.323246 0.0650441 0.647 
-0.208709 0.0632345 0.629 
-0.163601 0.0639382 0.636 
-0.00466021 0.0541866 0.539 
0.1497 0.053684 0.534 
0.179531 0.0531813 0.529 
0.204622 0.0530808 0.528 
0.232514 0.0530808 0.528 
0.287476 0.0530808 0.528 
0.355852 0.0528797 0.526 
0.397531 0.0528797 0.526 
0.422866 0.0528797 0.526 
0.475804 0.0526787 0.524 
-0.394008 0.0659472 0.646 
-0.339809 0.0659472 0.646 
-0.253101 0.0658451 0.645 
-0.174051 0.0629867 0.617 
-0.102942 0.0659472 0.646 
0.10139 0.0544116 0.533 
0.176243 0.0540032 0.529 
0.20014 0.053799 0.527 
0.229617 0.053799 0.527 
0.288297 0.0539011 0.528 
0.353401 0.053697 0.526 
0.397468 0.053799 0.527 
0.422048 0.053697 0.526 
0.481606 0.0535949 0.525 
-0.385381 0.0668473 0.645 
-0.276149 0.0668473 0.645 
-0.206102 0.0656036 0.633 
-0.142531 0.0662254 0.639 
0.00781331 0.0552397 0.533 
0.161449 0.0548251 0.529 
0.189035 0.0547215 0.528 
0.21405 0.0548251 0.529 
0.24108 0.0546178 0.527 
0.302395 0.0543069 0.524 
0.381717 0.0548251 0.529 
0.413116 0.0543069 0.524 
0.484053 0.0544106 0.525 
-0.369347 0.0678494 0.645 
-0.260308 0.067639 0.643 
-0.176733 0.0644832 0.613 
-0.111975 0.0679546 0.646 
0.102026 0.0559626 0.532 
0.177887 0.055647 0.529 
0.202597 0.0554366 0.527 
0.230436 0.0554366 0.527 
0.286932 0.0554366 0.527 
0.347835 0.0552262 0.525 
0.393374 0.0554366 0.527 
0.425317 0.0553314 0.526 
0.484053 0.0552262 0.525 
-0.380126 0.0691717 0.648 
-0.336798 0.0689582 0.646 
-0.207086 0.0675705 0.633 
-0.144291 0.0681043 0.638 
0.137094 0.0562554 0.527 
0.166886 0.0563622 0.528 
0.194409 0.0562554 0.527 
0.218557 0.0561487 0.526 
0.247506 0.0560419 0.525 
0.30728 0.0559352 0.524 
0.366476 0.0561487 0.526 
0.403347 0.0559352 0.524 
0.466849 0.0559352 0.524 
-0.50228 0.0709366 0.655 
-0.372353 0.0698536 0.645 
-0.336314 0.0700702 0.647 
-0.208069 0.068554 0.633 
-0.146044 0.0689872 0.637 
0.103679 0.0576157 0.532 
0.161657 0.0570742 0.527 
0.189496 0.0570742 0.527 
0.216516 0.0570742 0.527 
0.245059 0.0568576 0.525 
0.305881 0.056641 0.523 
0.365659 0.0569659 0.526 
0.397591 0.0568576 0.525 
0.4245 0.0569659 0.526 
-0.511439 0.0719543 0.655 
-0.378112 0.0711853 0.648 
-0.339283 0.0708557 0.645 
-0.178711 0.0670109 0.61 
-0.145054 0.0699769 0.637 
0.0619997 0.0581127 0.529 
0.155926 0.057893 0.527 
0.180832 0.0580028 0.528 
0.209966 0.057893 0.527 
0.237265 0.0575634 0.524 
0.297263 0.0576733 0.525 
0.355035 0.0577831 0.526 
0.382636 0.0580028 0.528 
0.40986 0.0575634 0.524 
0.466035 0.0575634 0.524 
-0.483824 0.0721921 0.648 
-0.350764 0.0717465 0.644 
-0.259498 0.0714122 0.641 
-0.144826 0.0708552 0.636 
0.0459064 0.0593802 0.533 
0.146919 0.0587118 0.527 
0.171808 0.0588232 0.528 
0.201012 0.058489 0.525 
0.226249 0.0582661 0.523 
0.289921 0.058489 0.525 
0.334321 0.0582661 0.523 
0.36578 0.058489 0.525 
0.396714 0.0586004 0.526 
0.419629 0.0583776 0.524 
0.480791 0.058489 0.525 
-0.356767 0.072747 0.644 
-0.266786 0.0719563 0.637 
-0.14285 0.0718433 0.636 
0.0619997 0.0597565 0.529 
0.147458 0.0594176 0.526 
0.17509 0.0596435 0.528 
0.199001 0.0591917 0.524 
0.226249 0.0590787 0.523 
0.28829 0.0593046 0.525 
0.317049 0.0591917 0.524 
0.368449 0.0590787 0.523 
0.398514 0.0590787 0.523 
0.429382 0.0589658 0.522 
-0.489865 0.0742056 0.648 
-0.352765 0.0737476 0.644 
-0.266214 0.0730605 0.638 
-0.140106 0.072946 0.637 
0.0766487 0.0604639 0.528 
0.142554 0.0602348 0.526 
0.177695 0.0602348 0.526 
0.207538 0.0601203 0.525 
0.231566 0.0600058 0.524 
0.285027 0.0601203 0.525 
0.309944 0.0598913 0.523 
0.346358 0.0600058 0.524 
0.39025 0.0601203 0.525 
0.42776 0.0597768 0.522 
-0.497679 0.0753285 0.649 
-0.374938 0.0749803 0.646 
-0.336798 0.0749803 0.646 
-0.155941 0.0739357 0.637 
0.0433406 0.0617485 0.532 
0.127601 0.060936 0.525 
0.169027 0.0611681 0.527 
0.200675 0.0605878 0.522 
0.230752 0.0608199 0.524 
0.265759 0.0608199 0.524 
0.312165 0.0608199 0.524 
0.364964 0.060936 0.525 
0.393513 0.060936 0.525 
0.429382 0.0605878 0.522 
0.476521 0.0607039 0.523 
-0.428133 0.075984 0.646 
-0.344761 0.0757487 0.644 
-0.210663 0.0739844 0.629 
0.0217269 0.0622222 0.529 
0.0894341 0.0618693 0.526 
0.138491 0.0615164 0.523 
0.190771 0.0618693 0.526 
0.222955 0.0612812 0.521 
0.249336 0.0613988 0.522 
0.298471 0.0611636 0.52 
0.344072 0.0615164 0.523 
0.391066 0.0617517 0.525 
0.429382 0.0613988 0.522 
0.474799 0.0613988 0.522 
-0.428472 0.0768685 0.645 
-0.344225 0.0766301 0.643 
-0.208722 0.0753192 0.632 
0.0317091 0.0632824 0.531 
0.101886 0.0628057 0.527 
0.143915 0.0625674 0.525 
0.2011 0.0620907 0.521 
0.228687 0.062329 0.523 
0.259879 0.0622098 0.522 
0.314392 0.0625674 0.525 
0.369468 0.0620907 0.521 
0.404275 0.0620907 0.521 
0.463592 0.0624482 0.524 
-0.493371 0.0779913 0.646 
-0.357654 0.0775084 0.642 
-0.318753 0.0775084 0.642 
-0.000464272 0.063866 0.529 
0.0741877 0.0637452 0.528 
0.133616 0.0631416 0.523 
0.177625 0.0629001 0.521 
0.213651 0.0630208 0.522 
0.241336 0.0632623 0.524 
0.294672 0.0626587 0.519 
0.335304 0.0630208 0.522 
0.389507 0.0632623 0.524 
0.435893 0.0631416 0.523 
0.487522 0.0627794 0.52 
-0.383783 0.0787504 0.644 
-0.338757 0.0787504 0.644 
-0.205119 0.0774053 0.633 
0.029179 0.0648101 0.53 
0.0814162 0.0644433 0.527 
0.135241 0.0639542 0.523 
0.182021 0.0638319 0.522 
0.211623 0.0637096 0.521 
0.239707 0.0640764 0.524 
0.289027 0.063465 0.519 
0.332233 0.0637096 0.521 
0.376575 0.0639542 0.523 
0.404362 0.0633427 0.518 
0.466035 0.0640764 0.524 
-0.498073 0.0796272 0.643 
-0.383783 0.079751 0.644 
-0.338757 0.079751 0.644 
-0.208722 0.078265 0.632 
-0.00128617 0.0655098 0.529 
0.0415307 0.0656336 0.53 
0.110472 0.0650144 0.525 
0.15044 0.0650144 0.525 
0.186887 0.0646429 0.522 
0.220104 0.0643952 0.52 
0.249188 0.0643952 0.52 
0.293299 0.0641475 0.518 
0.335471 0.0645191 0.521 
0.3782 0.0647667 0.523 
0.403557 0.0641475 0.518 
0.466849 0.0648906 0.524 
0.493546 0.0640237 0.517 
-0.423147 0.0806262 0.643 
-0.351122 0.0803754 0.641 
-0.268461 0.0803754 0.641 
-0.158161 0.0794977 0.634 
0.00199763 0.0662062 0.528 
0.0332962 0.066457 0.53 
0.0886168 0.0659555 0.526 
0.137942 0.0657047 0.524 
