# .PCD v.7 - Point Cloud Data file format
VERSION .7
FIELDS x y z
SIZE 4 4 4
TYPE F F F
COUNT 1 1 1
WIDTH 1938
HEIGHT 1
VIEWPOINT 0 0 0 1 0 0 0
POINTS 1938
DATA ascii
3.69246 1.72119 6.166 
4.38068 1.89454 6.787 
4.40636 1.7773 6.367 
5.29186 1.9914 7.134 
7.37381 2.61082 9.353 
8.16129 2.72834 9.774 
8.20603 2.59826 9.308 
8.06438 2.42519 8.688 
8.90411 2.54969 9.134 
-0.459398 0.162242 0.578 
-0.442184 0.165891 0.591 
-0.426564 0.170663 0.608 
-0.407395 0.174593 0.622 
-0.389354 0.179646 0.64 
-0.367768 0.185821 0.662 
-0.344546 0.190031 0.677 
-0.322699 0.195926 0.698 
-0.289909 0.196487 0.7 
-0.267205 0.204066 0.727 
-0.241022 0.210803 0.751 
-0.21315 0.218101 0.777 
-0.182172 0.224557 0.8 
-0.149745 0.234101 0.834 
-0.114993 0.242802 0.865 
-0.0781285 0.25403 0.905 
-0.0372172 0.263012 0.937 
0.00682183 0.277889 0.99 
0.0557481 0.292485 1.042 
0.10832 0.303713 1.082 
0.165649 0.316906 1.129 
0.237992 0.345537 1.231 
0.311205 0.364063 1.297 
0.398881 0.390729 1.392 
0.47609 0.401115 1.429 
2.34233 1.68305 5.996 
2.34984 1.50313 5.355 
2.94356 1.59492 5.682 
3.47097 1.72544 6.147 
3.7691 1.73077 6.166 
4.65911 1.98789 7.082 
4.54467 1.81077 6.451 
5.59374 2.08613 7.432 
7.77286 2.72977 9.725 
8.30904 2.75728 9.823 
8.00292 2.517 8.967 
8.91109 2.66353 9.489 
8.92065 2.5403 9.05 
-0.456248 0.164269 0.582 
-0.438706 0.167939 0.595 
-0.422024 0.172455 0.611 
-0.403851 0.176971 0.627 
-0.383588 0.181204 0.642 
-0.361657 0.187414 0.664 
-0.340669 0.193059 0.684 
-0.318268 0.198986 0.705 
-0.284598 0.198422 0.703 
-0.261503 0.206042 0.73 
-0.234405 0.213381 0.756 
-0.206281 0.221002 0.783 
-0.173905 0.226364 0.802 
-0.141012 0.235961 0.836 
-0.106562 0.246404 0.873 
-0.0688142 0.257412 0.912 
-0.0271709 0.265879 0.942 
0.0178908 0.284226 1.007 
0.0674669 0.295798 1.048 
0.120865 0.30737 1.089 
0.179503 0.321483 1.139 
0.253626 0.350554 1.242 
0.328572 0.369747 1.31 
0.4164 0.39515 1.4 
2.21563 1.72426 6.109 
2.38127 1.64213 5.818 
2.71403 1.60374 5.682 
3.09481 1.63705 5.8 
3.38545 1.64693 5.835 
4.01721 1.80894 6.409 
4.61897 1.93595 6.859 
5.06629 1.97744 7.006 
6.29575 2.30852 8.179 
7.93906 2.74488 9.725 
8.26895 2.70452 9.582 
7.4085 2.29892 8.145 
8.90019 2.62718 9.308 
-0.467888 0.162619 0.573 
-0.449988 0.166876 0.588 
-0.432643 0.17085 0.602 
-0.413993 0.174823 0.616 
-0.395288 0.179364 0.632 
-0.37524 0.184472 0.65 
-0.355026 0.189865 0.669 
-0.334009 0.195824 0.69 
-0.31016 0.201217 0.709 
-0.279458 0.202919 0.715 
-0.252328 0.208028 0.733 
-0.225018 0.215691 0.76 
-0.195355 0.223637 0.788 
-0.164061 0.2313 0.815 
-0.129861 0.240665 0.848 
-0.0949161 0.252869 0.891 
-0.0553636 0.262234 0.924 
-0.0127615 0.272168 0.959 
0.0338028 0.288061 1.015 
0.084149 0.298845 1.053 
0.140188 0.314454 1.108 
0.199797 0.327509 1.154 
0.277098 0.357876 1.261 
0.357981 0.381432 1.344 
0.444723 0.403285 1.421 
2.18396 1.70169 5.996 
2.41167 1.66593 5.87 
2.73027 1.62222 5.716 
3.09481 1.64606 5.8 
3.38545 1.65599 5.835 
4.03037 1.82486 6.43 
4.6513 1.96023 6.907 
5.0916 1.98123 6.981 
6.59489 2.41205 8.499 
8.08011 2.7878 9.823 
8.20768 2.67996 9.443 
7.10379 2.20146 7.757 
9.1765 2.70607 9.535 
-0.465217 0.16351 0.573 
-0.449223 0.167505 0.587 
-0.432643 0.171785 0.602 
-0.413993 0.17578 0.616 
-0.395288 0.180346 0.632 
-0.375092 0.184911 0.648 
-0.355533 0.190619 0.668 
-0.33411 0.196326 0.688 
-0.310822 0.202033 0.708 
-0.279784 0.20346 0.713 
-0.253121 0.208881 0.732 
-0.22708 0.216586 0.759 
-0.198017 0.22372 0.784 
-0.167242 0.23171 0.812 
-0.133025 0.240556 0.843 
-0.098402 0.252541 0.885 
-0.0594121 0.262529 0.92 
-0.0170876 0.271375 0.951 
0.0288427 0.287355 1.007 
0.0788646 0.299054 1.048 
0.133318 0.312181 1.094 
0.193239 0.327305 1.147 
0.268639 0.356411 1.249 
0.348576 0.380096 1.332 
0.435634 0.40321 1.413 
2.12633 1.68018 5.888 
2.53043 1.77093 6.206 
2.65681 1.60285 5.617 
3.04962 1.63567 5.732 
3.36655 1.66021 5.818 
4.02038 1.83485 6.43 
4.70708 1.99921 7.006 
5.07717 1.99921 7.006 
6.38867 2.36361 8.283 
8.07441 2.81705 9.872 
8.28383 2.73429 9.582 
7.03939 2.20467 7.726 
9.17707 2.73429 9.582 
-0.467071 0.164113 0.572 
-0.451189 0.16813 0.586 
-0.433279 0.17186 0.599 
-0.41551 0.176163 0.614 
-0.397604 0.181041 0.631 
-0.376945 0.185344 0.646 
-0.357073 0.19137 0.667 
-0.334781 0.196534 0.685 
-0.31258 0.202846 0.707 
-0.280813 0.203707 0.71 
-0.254698 0.209445 0.73 
-0.228834 0.217191 0.757 
-0.199942 0.224364 0.782 
-0.169138 0.232111 0.809 
-0.135322 0.241292 0.841 
-0.100809 0.253055 0.882 
-0.0606431 0.263097 0.917 
-0.0185066 0.271991 0.948 
0.0271427 0.287485 1.002 
0.077089 0.300109 1.046 
0.131017 0.312446 1.089 
0.190956 0.328226 1.144 
0.265631 0.356917 1.244 
0.345466 0.381018 1.328 
0.432518 0.404544 1.41 
2.08906 1.67412 5.835 
2.61918 1.85717 6.473 
2.64808 1.61158 5.617 
2.91215 1.58432 5.522 
3.41003 1.70454 5.941 
3.95132 1.82676 6.367 
4.79519 2.06203 7.187 
4.98313 2.00292 6.981 
5.99366 2.26143 7.882 
7.9275 2.81833 9.823 
8.38535 2.81833 9.823 
7.52073 2.39685 8.354 
9.44309 2.86136 9.973 
9.15984 2.64532 9.22 
-0.454439 0.167886 0.582 
-0.436123 0.171348 0.594 
-0.420125 0.176252 0.611 
-0.401902 0.180867 0.627 
-0.381593 0.185194 0.642 
-0.360568 0.190964 0.662 
-0.339175 0.196444 0.681 
-0.316914 0.202502 0.702 
-0.283788 0.202214 0.701 
-0.260787 0.210002 0.728 
-0.234021 0.216637 0.751 
-0.205642 0.223848 0.776 
-0.174277 0.230195 0.798 
-0.143094 0.240291 0.833 
-0.108649 0.250387 0.868 
-0.0707053 0.259618 0.9 
-0.0299382 0.270291 0.937 
0.0146298 0.287888 0.998 
0.0637202 0.300003 1.04 
0.116726 0.312119 1.082 
0.174883 0.326542 1.132 
0.246951 0.354234 1.228 
0.324005 0.377312 1.308 
0.407929 0.399812 1.386 
2.00456 1.68838 5.853 
2.57814 1.91137 6.626 
2.58656 1.68838 5.853 
3.29359 1.87329 6.494 
3.50324 1.82483 6.326 
3.67922 1.76771 6.128 
4.45334 1.9855 6.883 
4.53486 1.88598 6.538 
5.69678 2.22002 7.696 
7.05556 2.58666 8.967 
8.39781 2.90657 10.076 
8.27078 2.71099 9.398 
7.70802 2.39945 8.318 
9.32595 2.76407 9.582 
-0.460587 0.16676 0.575 
-0.444348 0.170821 0.589 
-0.428219 0.175461 0.605 
-0.409277 0.179521 0.619 
-0.390873 0.184452 0.636 
-0.370884 0.189382 0.653 
-0.347738 0.195182 0.673 
-0.326241 0.201273 0.694 
-0.296011 0.202723 0.699 
-0.270968 0.208523 0.719 
-0.243069 0.213453 0.736 
-0.21699 0.221864 0.765 
-0.188918 0.231145 0.797 
-0.15634 0.238105 0.821 
-0.122531 0.247095 0.852 
-0.0868046 0.258986 0.893 
-0.0456577 0.270007 0.931 
-0.0023754 0.283348 0.977 
0.0448417 0.294368 1.015 
0.0967814 0.309159 1.066 
0.153475 0.32395 1.117 
0.215476 0.339611 1.171 
0.297961 0.374703 1.292 
0.375647 0.392975 1.355 
0.458235 0.410376 1.415 
2.39414 1.85873 6.409 
2.21246 1.51593 5.227 
2.95477 1.79405 6.186 
2.8552 1.5748 5.43 
3.47522 1.7607 6.071 
3.94142 1.84655 6.367 
4.85525 2.11539 7.294 
5.03736 2.02462 6.981 
6.50044 2.45413 8.462 
8.16758 2.90714 10.024 
8.46166 2.84885 9.823 
7.1861 2.2952 7.914 
9.28381 2.82043 9.725 
-0.467142 0.166488 0.571 
-0.450557 0.170278 0.584 
-0.433485 0.17436 0.598 
-0.415786 0.178734 0.613 
-0.396689 0.183107 0.628 
-0.376779 0.187772 0.644 
-0.356037 0.194478 0.667 
-0.332743 0.199144 0.683 
-0.311482 0.206141 0.707 
-0.278922 0.206433 0.708 
-0.253216 0.212556 0.729 
-0.227357 0.220428 0.756 
-0.198219 0.227426 0.78 
-0.168919 0.237339 0.814 
-0.135161 0.24492 0.84 
-0.100238 0.255709 0.877 
-0.0616617 0.265622 0.911 
-0.0199795 0.27641 0.948 
0.0254583 0.290697 0.997 
0.0753195 0.304401 1.044 
0.128493 0.315481 1.082 
0.188021 0.331517 1.137 
0.262214 0.360674 1.237 
0.342368 0.386041 1.324 
0.428496 0.409367 1.404 
2.05539 1.6812 5.766 
2.77439 2.00689 6.883 
3.01064 1.93866 6.649 
2.8929 1.63309 5.601 
3.60895 1.86868 6.409 
3.81988 1.8267 6.265 
4.73409 2.10311 7.213 
4.51989 1.87481 6.43 
6.51566 2.47807 8.499 
8.19429 2.93788 10.076 
8.53238 2.89327 9.923 
7.38319 2.37485 8.145 
9.3154 2.84982 9.774 
-0.467142 0.167375 0.571 
-0.450557 0.171185 0.584 
-0.433485 0.175289 0.598 
-0.415786 0.179686 0.613 
-0.396689 0.184083 0.628 
-0.376194 0.18848 0.643 
-0.357036 0.194928 0.665 
-0.332904 0.199032 0.679 
-0.313235 0.206947 0.706 
-0.279931 0.206653 0.705 
-0.255131 0.213395 0.728 
-0.229099 0.221017 0.754 
-0.199871 0.227759 0.777 
-0.170395 0.237139 0.809 
-0.137115 0.245053 0.836 
-0.102611 0.256192 0.874 
-0.0639262 0.264692 0.903 
-0.0214524 0.277883 0.948 
0.0238853 0.291953 0.996 
0.0734857 0.305144 1.041 
0.126812 0.317162 1.082 
0.185927 0.332697 1.135 
0.260082 0.362303 1.236 
0.33954 0.387219 1.321 
0.425404 0.410669 1.401 
2.03437 1.6802 5.732 
2.81308 2.05364 7.006 
3.00092 1.9229 6.56 
2.80744 1.56969 5.355 
3.54285 1.81914 6.206 
3.90621 1.85431 6.326 
4.91697 2.1703 7.404 
5.03013 2.03898 6.956 
6.74469 2.55811 8.727 
8.29953 2.96878 10.128 
8.46501 2.86501 9.774 
7.55976 2.42796 8.283 
9.28309 2.83658 9.677 
-0.463593 0.168262 0.571 
-0.447693 0.172387 0.585 
-0.431924 0.177102 0.601 
-0.412648 0.180933 0.614 
-0.391979 0.186532 0.633 
-0.371637 0.191247 0.649 
-0.35296 0.19773 0.671 
-0.330793 0.203329 0.69 
-0.303825 0.206865 0.702 
-0.273808 0.208928 0.709 
-0.247893 0.215116 0.73 
-0.222656 0.223956 0.76 
-0.194377 0.232502 0.789 
-0.163794 0.241637 0.82 
-0.128942 0.24812 0.842 
-0.0937443 0.259318 0.88 
-0.053928 0.272284 0.924 
-0.0112715 0.282597 0.959 
0.0351009 0.296742 1.007 
0.0855406 0.309413 1.05 
0.139733 0.321495 1.091 
0.199668 0.336818 1.143 
0.278614 0.371001 1.259 
0.357926 0.393691 1.336 
0.442842 0.414908 1.408 
2.33888 1.87622 6.367 
2.71554 1.9331 6.56 
3.68445 2.2154 7.518 
3.03232 1.66494 5.65 
3.37325 1.70413 5.783 
4.01067 1.87622 6.367 
4.80874 2.09458 7.108 
6.02889 2.41018 8.179 
6.99556 2.63031 8.926 
8.40968 2.98451 10.128 
8.32137 2.79621 9.489 
8.13194 2.59465 8.805 
9.38834 2.85161 9.677 
-0.459694 0.170334 0.575 
-0.44268 0.174185 0.588 
-0.426573 0.178925 0.604 
-0.407655 0.183072 0.618 
-0.387146 0.188997 0.638 
-0.367492 0.194329 0.656 
-0.345647 0.199365 0.673 
-0.324085 0.205586 0.694 
-0.292157 0.205882 0.695 
-0.26836 0.212695 0.718 
-0.239801 0.217139 0.733 
-0.214332 0.226322 0.764 
-0.186208 0.235801 0.796 
-0.153789 0.243207 0.821 
-0.119884 0.25239 0.852 
-0.0836533 0.263351 0.889 
-0.0441638 0.275497 0.93 
-0.000857456 0.28942 0.977 
0.0462357 0.299491 1.011 
0.0979759 0.314303 1.061 
0.154655 0.329707 1.113 
0.216738 0.346 1.168 
0.307648 0.384807 1.299 
0.383785 0.401099 1.354 
0.467028 0.41917 1.415 
2.75557 2.09792 7.082 
2.3121 1.56085 5.269 
3.5004 2.08281 7.031 
3.23324 1.74422 5.888 
3.58334 1.78184 6.015 
4.22791 1.9498 6.582 
4.61186 1.98298 6.694 
6.50972 2.56212 8.649 
7.77286 2.88086 9.725 
8.56703 3.00025 10.128 
8.34743 2.77067 9.353 
9.08764 2.86665 9.677 
9.13159 2.7443 9.264 
-0.453896 0.172418 0.579 
-0.437231 0.176587 0.593 
-0.419952 0.181054 0.608 
-0.40063 0.185223 0.622 
-0.380803 0.190286 0.639 
-0.362555 0.196539 0.66 
-0.339835 0.201304 0.676 
-0.316993 0.206962 0.695 
-0.285827 0.207855 0.698 
-0.26164 0.214704 0.721 
-0.234043 0.220362 0.74 
-0.207102 0.2287 0.768 
-0.177774 0.237336 0.797 
-0.145566 0.245674 0.825 
-0.112435 0.257883 0.866 
-0.0744841 0.266519 0.895 
-0.0127215 0.284684 0.956 
0.0335031 0.299573 1.006 
0.0835096 0.311187 1.045 
0.137784 0.32429 1.089 
0.197027 0.338881 1.138 
0.293892 0.38206 1.283 
0.369131 0.398736 1.339 
0.453458 0.418986 1.407 
2.82993 2.14019 7.187 
2.41951 1.63038 5.475 
3.69351 2.23012 7.489 
3.13867 1.70691 5.732 
3.54132 1.77481 5.96 
4.18949 1.94693 6.538 
4.63308 2.00708 6.74 
6.64081 2.62201 8.805 
8.06906 3.0005 10.076 
8.58277 3.01598 10.128 
8.44242 2.812 9.443 
9.10267 2.88168 9.677 
9.01764 2.71998 9.134 
-0.451976 0.173617 0.58 
-0.435932 0.178107 0.595 
-0.417804 0.182298 0.609 
-0.39837 0.186489 0.623 
-0.37941 0.191578 0.64 
-0.359479 0.197565 0.66 
-0.336685 0.202354 0.676 
-0.315108 0.208939 0.698 
-0.283383 0.209538 0.7 
-0.258637 0.216124 0.722 
-0.23184 0.222709 0.744 
-0.204317 0.230791 0.771 
-0.173254 0.239173 0.799 
-0.140949 0.247854 0.828 
-0.1073 0.259827 0.868 
-0.069076 0.268508 0.897 
-0.000853945 0.291258 0.973 
0.0460985 0.301735 1.008 
0.0975142 0.316103 1.056 
0.154099 0.331968 1.109 
0.21581 0.348133 1.163 
0.301275 0.38585 1.289 
0.376494 0.402014 1.343 
0.46067 0.42177 1.409 
2.85226 2.15136 7.187 
2.45551 1.65745 5.537 
3.35154 1.99031 6.649 
3.33102 1.80053 6.015 
3.65641 1.82298 6.09 
4.28706 1.98343 6.626 
4.47452 1.93104 6.451 
6.82191 2.69646 9.008 
8.22739 3.06345 10.234 
8.57001 3.01615 10.076 
8.51303 2.84044 9.489 
9.13274 2.89672 9.677 
8.88063 2.68418 8.967 
-0.45095 0.174819 0.581 
-0.434813 0.179333 0.596 
-0.416594 0.183545 0.61 
-0.397071 0.187758 0.624 
-0.377421 0.192572 0.64 
-0.357482 0.199192 0.662 
-0.333534 0.203404 0.676 
-0.313195 0.210927 0.701 
-0.279137 0.211528 0.703 
-0.25408 0.218148 0.725 
-0.228187 0.225971 0.751 
-0.199871 0.233795 0.777 
-0.170395 0.243423 0.809 
-0.136295 0.250043 0.831 
-0.102024 0.261477 0.869 
-0.0638554 0.271406 0.902 
0.0082502 0.293973 0.977 
0.0625561 0.307213 1.021 
0.116186 0.324063 1.077 
0.174265 0.339408 1.128 
0.246348 0.368595 1.225 
0.321528 0.39056 1.298 
0.405574 0.414632 1.378 
0.487873 0.430579 1.431 
2.85549 2.12341 7.057 
2.74807 1.83244 6.09 
3.39373 2.00726 6.671 
3.45455 1.86133 6.186 
3.74288 1.86133 6.186 
4.36226 2.01418 6.694 
4.29231 1.84959 6.147 
7.03017 2.78748 9.264 
8.33108 3.11215 10.343 
8.54136 3.01616 10.024 
8.56911 2.86902 9.535 
9.14778 2.91175 9.677 
8.85389 2.68578 8.926 
-0.450048 0.175722 0.581 
-0.433887 0.180259 0.596 
-0.414965 0.184191 0.609 
-0.396736 0.18903 0.625 
-0.376427 0.193566 0.64 
-0.355962 0.200523 0.663 
-0.332414 0.205059 0.678 
-0.31146 0.212318 0.702 
-0.277346 0.212923 0.704 
-0.252174 0.219577 0.726 
-0.226455 0.227743 0.753 
-0.198473 0.236212 0.781 
-0.168296 0.245285 0.811 
-0.134035 0.251939 0.833 
-0.0994375 0.263129 0.87 
-0.0341592 0.282184 0.933 
0.00975814 0.295189 0.976 
0.0710399 0.311219 1.029 
0.125247 0.327551 1.083 
0.183839 0.342673 1.133 
0.258162 0.373825 1.236 
0.3334 0.394694 1.305 
0.4193 0.419797 1.388 
2.90429 2.44287 8.077 
2.83558 2.11139 6.981 
3.03111 2.00402 6.626 
3.05008 1.77537 5.87 
3.55866 1.90088 6.285 
3.86447 1.90723 6.306 
4.55472 2.08901 6.907 
4.15719 1.78081 5.888 
7.44045 2.9413 9.725 
8.76631 3.26643 10.8 
8.43114 2.97094 9.823 
8.5044 2.8424 9.398 
9.16224 2.91227 9.629 
-0.464621 0.172977 0.569 
-0.445256 0.177233 0.583 
-0.429556 0.182097 0.599 
-0.410354 0.186049 0.612 
-0.393058 0.191521 0.63 
-0.37019 0.197601 0.65 
-0.349829 0.203377 0.669 
-0.328649 0.209761 0.69 
-0.295844 0.210065 0.691 
-0.270885 0.215841 0.71 
-0.24583 0.223137 0.734 
-0.219114 0.231041 0.76 
-0.191424 0.240769 0.792 
-0.158996 0.247761 0.815 
-0.124572 0.255057 0.839 
-0.0894389 0.266913 0.878 
-0.0326745 0.283329 0.932 
0.0207695 0.302481 0.995 
0.0691712 0.311601 1.025 
0.123336 0.328625 1.081 
0.181918 0.344129 1.132 
0.256034 0.375442 1.235 
0.330103 0.395202 1.3 
0.416242 0.421042 1.385 
2.9651 2.52868 8.318 
2.81389 2.12223 6.981 
2.54074 1.71761 5.65 
3.46024 2.04897 6.74 
3.486 1.89241 6.225 
3.72883 1.8687 6.147 
4.31387 2.00762 6.604 
4.27526 1.85714 6.109 
7.24172 2.91294 9.582 
8.61749 3.26497 10.74 
8.51021 3.04731 10.024 
8.66666 2.94182 9.677 
9.25527 2.9862 9.823 
8.8667 2.72598 8.967 
-0.44734 0.177527 0.581 
-0.431832 0.182416 0.597 
-0.412803 0.186389 0.61 
-0.395083 0.191583 0.627 
-0.374028 0.195861 0.641 
-0.354932 0.202583 0.663 
-0.331769 0.208083 0.681 
-0.309279 0.2145 0.702 
-0.277346 0.215111 0.704 
-0.251827 0.221527 0.725 
-0.226154 0.229777 0.752 
-0.198219 0.238333 0.78 
-0.167881 0.247194 0.809 
-0.133874 0.254222 0.832 
-0.099209 0.265222 0.868 
-0.061391 0.277138 0.907 
-0.0198741 0.288138 0.943 
0.0254838 0.304944 0.998 
0.0742374 0.314416 1.029 
0.128968 0.331833 1.086 
0.18769 0.346805 1.135 
0.263698 0.38011 1.244 
0.336938 0.398138 1.303 
0.423308 0.423805 1.387 
2.86953 2.42794 7.946 
2.77711 2.08113 6.811 
3.75477 2.45788 8.044 
3.63582 2.16394 7.082 
3.61698 1.95188 6.388 
3.83935 1.9143 6.265 
4.42942 2.05241 6.717 
4.23345 1.83211 5.996 
7.66921 3.06288 10.024 
9.06664 3.41305 11.17 
8.43114 3.00147 9.823 
8.42632 2.83066 9.264 
9.25302 2.95686 9.677 
-0.461969 0.174745 0.569 
-0.44435 0.179044 0.583 
-0.42791 0.183651 0.598 
-0.409403 0.18795 0.612 
-0.391101 0.193478 0.63 
-0.370923 0.198392 0.646 
-0.351364 0.204534 0.666 
-0.328173 0.211598 0.689 
-0.295844 0.212212 0.691 
-0.270885 0.218047 0.71 
-0.246165 0.225725 0.735 
-0.218826 0.233095 0.759 
-0.190699 0.242309 0.789 
-0.158606 0.249679 0.813 
-0.124572 0.257664 0.839 
-0.0892352 0.269027 0.876 
-0.0507253 0.281926 0.918 
-0.00827424 0.293903 0.957 
0.0378504 0.306187 0.997 
0.0882113 0.320314 1.043 
0.143516 0.335977 1.094 
0.203398 0.351332 1.144 
0.281853 0.385728 1.256 
0.358554 0.406305 1.323 
0.445312 0.430566 1.402 
2.67468 2.1989 7.16 
2.62395 1.91789 6.245 
3.9397 2.53303 8.248 
2.98819 1.72994 5.633 
3.45913 1.8359 5.978 
4.00725 1.96826 6.409 
4.65736 2.12888 6.932 
4.77714 2.04197 6.649 
8.06844 3.19332 10.398 
8.98247 3.35363 10.92 
8.66834 3.06279 9.973 
9.07243 3.00168 9.774 
9.1176 2.87239 9.353 
-0.453334 0.177789 0.576 
-0.437593 0.182419 0.591 
-0.416687 0.187049 0.606 
-0.39837 0.192297 0.623 
-0.378817 0.197235 0.639 
-0.358865 0.202791 0.657 
-0.338235 0.208964 0.677 
-0.31438 0.214212 0.694 
-0.282979 0.215755 0.699 
-0.257921 0.222237 0.72 
-0.231528 0.229336 0.743 
-0.205112 0.238905 0.774 
-0.174932 0.247239 0.801 
-0.141548 0.254338 0.824 
-0.107898 0.266067 0.862 
-0.0703125 0.276253 0.895 
-0.0296826 0.286747 0.929 
0.0143659 0.302489 0.98 
0.0622497 0.313601 1.016 
0.115539 0.330577 1.071 
0.17411 0.347862 1.127 
0.246348 0.378111 1.225 
0.318308 0.396631 1.285 
0.402337 0.421941 1.367 
0.48685 0.44077 1.428 
2.72209 2.11711 6.859 
2.3137 1.60474 5.199 
4.0588 2.49307 8.077 
3.36409 1.88562 6.109 
3.53774 1.82821 5.923 
4.16795 1.99797 6.473 
4.54493 2.03162 6.582 
7.63143 3.17552 10.288 
8.28519 3.24373 10.509 
8.63641 3.19249 10.343 
8.74822 3.06286 9.923 
9.46396 3.12613 10.128 
9.00306 2.83259 9.177 
-0.452328 0.178995 0.577 
-0.436494 0.183648 0.592 
-0.41788 0.187681 0.605 
-0.399342 0.192334 0.62 
-0.380601 0.197608 0.637 
-0.360826 0.203191 0.655 
-0.340381 0.209396 0.675 
-0.317157 0.21498 0.693 
-0.28609 0.21591 0.696 
-0.261666 0.222735 0.718 
-0.235192 0.22956 0.74 
-0.208295 0.238246 0.768 
-0.179461 0.247863 0.799 
-0.146135 0.254687 0.821 
-0.112335 0.265235 0.855 
-0.0752812 0.275472 0.888 
-0.0353416 0.28726 0.926 
0.00815731 0.299669 0.966 
0.0556053 0.313318 1.01 
0.107155 0.326968 1.054 
0.166513 0.348373 1.123 
0.233083 0.371018 1.196 
0.308149 0.395836 1.276 
0.387791 0.417551 1.346 
0.476636 0.441748 1.424 
2.65013 2.11288 6.811 
2.21996 1.57497 5.077 
4.05501 2.52671 8.145 
3.22409 1.82655 5.888 
3.58762 1.84889 5.96 
4.17024 1.99469 6.43 
4.48454 2.0012 6.451 
7.7863 3.24269 10.453 
8.50068 3.33172 10.74 
8.62245 3.1915 10.288 
8.69454 3.01685 9.725 
9.72915 3.20856 10.343 
8.93471 2.80745 9.05 
-0.450298 0.180515 0.579 
-0.434277 0.185191 0.594 
-0.415489 0.189244 0.607 
-0.397402 0.194232 0.623 
-0.378416 0.199533 0.64 
-0.357845 0.204833 0.657 
-0.337681 0.21138 0.678 
-0.313302 0.216368 0.694 
-0.282574 0.217615 0.698 
-0.257921 0.224474 0.72 
-0.231528 0.231645 0.743 
-0.204847 0.240998 0.773 
-0.175151 0.250039 0.802 
-0.141548 0.256898 0.824 
-0.107397 0.267498 0.858 
-0.0700768 0.278099 0.892 
-0.0295868 0.288699 0.926 
0.014322 0.304599 0.977 
0.0621272 0.316134 1.014 
0.115216 0.33297 1.068 
0.173801 0.350741 1.125 
0.246549 0.38223 1.226 
0.317813 0.4 1.283 
0.400865 0.42463 1.362 
0.486509 0.444895 1.427 
2.67857 2.07982 6.671 
3.72443 2.48761 7.979 
4.28885 2.60452 8.354 
3.47872 1.83009 5.87 
4.16527 2.03149 6.516 
4.65485 2.11598 6.787 
7.45715 3.17413 10.181 
8.23163 3.29416 10.566 
8.77201 3.31224 10.624 
9.16688 3.27639 10.509 
8.71943 2.95838 9.489 
9.20613 2.97272 9.535 
-0.455696 0.178594 0.57 
-0.441174 0.183607 0.586 
-0.422336 0.187367 0.598 
-0.405676 0.192694 0.615 
-0.38682 0.197707 0.631 
-0.367037 0.203034 0.648 
-0.34723 0.2093 0.668 
-0.325558 0.215566 0.688 
-0.295623 0.217133 0.693 
-0.270162 0.222773 0.711 
-0.245023 0.230293 0.735 
-0.217646 0.237812 0.759 
-0.188273 0.245645 0.784 
-0.157149 0.254419 0.812 
-0.123562 0.263505 0.841 
-0.0877738 0.274158 0.875 
-0.0491379 0.286691 0.915 
-0.00528389 0.29891 0.954 
0.040702 0.310503 0.991 
0.0913646 0.326483 1.042 
0.146513 0.341836 1.091 
0.208219 0.360635 1.151 
0.282798 0.389461 1.243 
0.361843 0.413587 1.32 
0.45031 0.439906 1.404 
2.5712 2.1566 6.883 
2.74706 2.04851 6.538 
3.96247 2.54137 8.111 
2.96392 1.71545 5.475 
3.52598 1.84485 5.888 
4.1367 2.00809 6.409 
4.5856 2.07608 6.626 
7.64009 3.2407 10.343 
8.25254 3.29272 10.509 
8.55851 3.22347 10.288 
9.28227 3.31057 10.566 
9.51757 3.22347 10.288 
9.08853 2.93051 9.353 
-0.453834 0.179795 0.571 
-0.439191 0.184833 0.587 
-0.42025 0.188611 0.599 
-0.40281 0.193649 0.615 
-0.384487 0.199002 0.632 
-0.365141 0.20467 0.65 
-0.344632 0.210653 0.669 
-0.32282 0.21695 0.689 
-0.291971 0.217895 0.692 
-0.267974 0.224822 0.714 
-0.241597 0.231435 0.735 
-0.214673 0.239621 0.761 
-0.185325 0.247808 0.787 
-0.15412 0.25694 0.816 
-0.119785 0.265126 0.842 
-0.0838867 0.276147 0.877 
-0.0450202 0.289057 0.918 
-0.00083727 0.300393 0.954 
0.0454583 0.312988 0.994 
0.096406 0.328732 1.044 
0.152293 0.345105 1.096 
0.214697 0.364313 1.157 
0.289985 0.393281 1.249 
0.36911 0.416897 1.324 
0.458155 0.443347 1.408 
2.65813 2.22209 7.057 
2.76738 2.05867 6.538 
4.05058 2.58608 8.213 
3.50938 2.01805 6.409 
3.53344 1.84833 5.87 
4.143 2.01143 6.388 
4.60619 2.08638 6.626 
7.67223 3.25677 10.343 
8.28519 3.30904 10.509 
8.50114 3.20576 10.181 
9.36623 3.34525 10.624 
9.86142 3.34525 10.624 
9.03084 2.91702 9.264 
-0.453741 0.180998 0.572 
-0.439026 0.186061 0.588 
-0.419319 0.189542 0.599 
-0.401854 0.194605 0.615 
-0.383505 0.199984 0.632 
-0.364691 0.205996 0.651 
-0.343592 0.211692 0.669 
-0.32175 0.218021 0.689 
-0.290896 0.21897 0.692 
-0.267238 0.226248 0.715 
-0.240455 0.232577 0.735 
-0.213771 0.24112 0.762 
-0.184102 0.249031 0.787 
-0.153039 0.258524 0.817 
-0.118617 0.266751 0.843 
-0.0825242 0.27751 0.877 
-0.0436414 0.2908 0.919 
-0.000835515 0.301242 0.952 
0.0454125 0.314216 0.993 
0.0963137 0.330037 1.043 
0.152015 0.346175 1.094 
0.214511 0.365794 1.156 
0.289521 0.394589 1.247 
0.368831 0.418638 1.323 
0.45783 0.445218 1.407 
2.71689 2.28241 7.213 
2.786 2.08275 6.582 
4.03782 2.59885 8.213 
4.8624 2.78617 8.805 
3.51237 1.84637 5.835 
4.1164 2.00839 6.347 
4.62218 2.10395 6.649 
7.71303 3.29025 10.398 
8.19768 3.29025 10.398 
8.45688 3.20481 10.128 
9.4685 3.39847 10.74 
9.96909 3.39847 10.74 
9.03084 2.93141 9.264 
-0.453925 0.181251 0.57 
-0.439353 0.186339 0.586 
-0.420477 0.190155 0.598 
-0.403109 0.195242 0.614 
-0.384859 0.200648 0.631 
-0.365587 0.206372 0.649 
-0.345154 0.212414 0.668 
-0.323421 0.218773 0.688 
-0.293047 0.220045 0.692 
-0.26833 0.226405 0.712 
-0.242078 0.233083 0.733 
-0.215855 0.241986 0.761 
-0.185837 0.2493 0.784 
-0.155007 0.258839 0.814 
-0.120949 0.267425 0.841 
-0.0848605 0.2776 0.873 
-0.0462947 0.290956 0.915 
-0.00378176 0.301767 0.949 
0.0421138 0.314169 0.988 
0.0928943 0.331022 1.041 
0.147936 0.346285 1.089 
0.21019 0.366318 1.152 
0.283355 0.393347 1.237 
0.363893 0.419739 1.32 
0.451524 0.445496 1.401 
2.77829 2.34545 7.376 
2.76819 2.07199 6.516 
4.06784 2.62273 8.248 
5.40067 3.0924 9.725 
3.5608 1.86657 5.87 
4.15905 2.02461 6.367 
4.73365 2.15085 6.764 
7.97348 3.39671 10.682 
8.37938 3.35982 10.566 
8.41677 3.18748 10.024 
9.46715 3.39671 10.682 
10.1311 3.45331 10.86 
8.9888 2.91814 9.177 
-0.452852 0.182776 0.572 
-0.437027 0.188208 0.589 
-0.417223 0.191723 0.6 
-0.398988 0.196516 0.615 
-0.381763 0.202587 0.634 
-0.363323 0.208978 0.654 
-0.340474 0.213771 0.669 
-0.319001 0.220481 0.69 
-0.287671 0.22112 0.692 
-0.265013 0.229428 0.718 
-0.237352 0.23518 0.736 
-0.210771 0.244127 0.764 
-0.181122 0.252435 0.79 
-0.149414 0.261382 0.818 
-0.114688 0.269371 0.843 
-0.0786153 0.280874 0.879 
-0.0381365 0.295253 0.924 
0.00510223 0.305478 0.956 
0.0519474 0.319538 1 
0.105117 0.335515 1.05 
0.162274 0.353409 1.106 
0.226972 0.375138 1.174 
0.303527 0.404216 1.265 
0.382261 0.426264 1.334 
0.46976 0.450549 1.41 
2.97056 2.45916 7.696 
2.20712 1.60152 5.012 
4.17519 2.64673 8.283 
5.1718 2.91866 9.134 
3.66657 1.89262 5.923 
4.56569 2.19171 6.859 
6.0015 2.69243 8.426 
8.24133 3.47018 10.86 
8.60414 3.41331 10.682 
8.58567 3.21967 10.076 
9.49568 3.37624 10.566 
10.5591 3.56924 11.17 
9.10286 2.9324 9.177 
-0.447724 0.185591 0.578 
-0.431703 0.190407 0.593 
-0.410773 0.194903 0.607 
-0.393193 0.200361 0.624 
-0.372861 0.205178 0.639 
-0.353278 0.211278 0.658 
-0.333394 0.218342 0.68 
-0.307023 0.222195 0.692 
-0.276754 0.223801 0.697 
-0.252678 0.231507 0.721 
-0.226668 0.239534 0.746 
-0.198585 0.247883 0.772 
-0.169552 0.258479 0.805 
-0.135475 0.265222 0.826 
-0.101319 0.277102 0.863 
-0.0631474 0.286414 0.892 
-0.0222724 0.295725 0.921 
0.021822 0.312422 0.973 
0.0825507 0.331688 1.033 
0.155698 0.351917 1.096 
0.218292 0.371503 1.157 
0.29316 0.40008 1.246 
0.37407 0.426089 1.327 
0.460231 0.449849 1.401 
2.95767 2.50066 7.788 
2.67982 2.01806 6.285 
4.11438 2.63713 8.213 
5.05403 2.86606 8.926 
3.61746 1.89059 5.888 
4.307 2.09223 6.516 
5.31973 2.41397 7.518 
8.28272 3.52623 10.982 
8.50791 3.41128 10.624 
8.45142 3.20225 9.973 
9.65563 3.46779 10.8 
10.4469 3.56604 11.106 
9.14598 2.97459 9.264 
-0.450649 0.185844 0.576 
-0.434838 0.190683 0.591 
-0.414183 0.19391 0.601 
-0.394525 0.20004 0.62 
-0.376242 0.205848 0.638 
-0.356281 0.211655 0.656 
-0.335634 0.218108 0.676 
-0.310874 0.222948 0.691 
-0.28028 0.224239 0.695 
-0.255328 0.231982 0.719 
-0.228603 0.23908 0.741 
-0.201659 0.248437 0.77 
-0.172443 0.258439 0.801 
-0.138313 0.264569 0.82 
-0.104243 0.275539 0.854 
-0.0668523 0.285864 0.886 
-0.0266228 0.297802 0.923 
0.0172157 0.312643 0.969 
0.110849 0.341359 1.058 
0.171793 0.358782 1.112 
0.242125 0.388465 1.204 
0.315831 0.411373 1.275 
0.397922 0.436217 1.352 
0.482077 0.456221 1.414 
3.22207 2.66118 8.248 
3.58037 2.48308 7.696 
4.38797 2.76604 8.573 
3.58557 1.9833 6.147 
3.67555 1.88264 5.835 
4.82633 2.30175 7.134 
7.03249 3.13773 9.725 
7.96148 3.33712 10.343 
8.53337 3.37261 10.453 
9.32004 3.48457 10.8 
9.82343 3.48457 10.8 
10.6194 3.5833 11.106 
-0.461292 0.183497 0.566 
-0.443101 0.187711 0.579 
-0.427612 0.192898 0.595 
-0.40645 0.197437 0.609 
-0.389238 0.203273 0.627 
-0.368626 0.208136 0.642 
-0.349254 0.21462 0.662 
-0.328498 0.221428 0.683 
-0.300573 0.224346 0.692 
-0.270645 0.226291 0.698 
-0.245288 0.236341 0.729 
-0.220005 0.246067 0.759 
-0.189493 0.252551 0.779 
-0.158689 0.261629 0.807 
-0.125876 0.272003 0.839 
-0.0897688 0.281405 0.868 
-0.0512994 0.292752 0.903 
-0.00952652 0.302802 0.934 
0.0355732 0.316742 0.977 
0.135593 0.351756 1.085 
0.195945 0.370235 1.142 
0.26532 0.394226 1.216 
0.344506 0.421783 1.301 
0.426945 0.444477 1.371 
3.01679 2.69669 8.318 
2.77787 2.20034 6.787 
3.70236 2.50476 7.726 
3.12346 1.90888 5.888 
3.35577 1.82621 5.633 
3.87526 1.95589 6.033 
4.70901 2.2159 6.835 
7.52777 3.31785 10.234 
7.84053 3.24977 10.024 
8.48179 3.31785 10.234 
9.6136 3.56035 10.982 
10.3578 3.64205 11.234 
9.3733 3.13727 9.677 
-0.456665 0.185353 0.569 
-0.438459 0.188937 0.58 
-0.422066 0.193823 0.595 
-0.402089 0.199035 0.611 
-0.384005 0.204573 0.628 
-0.366031 0.211088 0.648 
-0.344119 0.2163 0.664 
-0.323075 0.223141 0.685 
-0.291128 0.224769 0.69 
-0.260573 0.232913 0.715 
-0.233603 0.239428 0.735 
-0.207481 0.249201 0.765 
-0.178113 0.258322 0.793 
-0.145067 0.265489 0.815 
-0.110759 0.27461 0.843 
-0.0746878 0.286988 0.881 
-0.0352653 0.300996 0.924 
0.00810664 0.312723 0.96 
0.0551098 0.326079 1.001 
0.108792 0.343343 1.054 
0.165711 0.360283 1.106 
0.231602 0.384062 1.179 
0.307701 0.412403 1.266 
0.389303 0.437812 1.344 
0.471114 0.45638 1.401 
3.1848 2.70961 8.318 
2.25108 1.68903 5.185 
4.09297 2.65326 8.145 
3.82413 2.18808 6.717 
3.59396 1.90077 5.835 
4.31713 2.1226 6.516 
5.45764 2.50699 7.696 
8.44187 3.63866 11.17 
8.43214 3.42334 10.509 
8.51021 3.26535 10.024 
10.0611 3.65951 11.234 
10.5244 3.63866 11.17 
9.42834 3.10605 9.535 
-0.448859 0.188528 0.576 
-0.433002 0.193438 0.591 
-0.411131 0.197038 0.602 
-0.393889 0.202603 0.619 
-0.374473 0.20784 0.635 
-0.355194 0.214058 0.654 
-0.334089 0.220932 0.675 
-0.307208 0.225841 0.69 
-0.27596 0.227478 0.695 
-0.251209 0.235661 0.72 
-0.225509 0.244171 0.746 
-0.197641 0.253008 0.773 
-0.167883 0.262827 0.803 
-0.133705 0.269373 0.823 
-0.0997466 0.281811 0.861 
-0.0614846 0.290648 0.888 
-0.020864 0.301776 0.922 
0.0232617 0.317487 0.97 
0.0724269 0.335816 1.026 
0.126461 0.353164 1.079 
0.18478 0.369202 1.128 
0.253559 0.394404 1.205 
0.33003 0.420261 1.284 
0.413865 0.446119 1.363 
2.95197 2.73432 8.354 
3.28496 2.68817 8.213 
3.713 2.56936 7.85 
4.14592 2.61158 7.979 
3.3026 1.83848 5.617 
3.70275 1.90983 5.835 
4.70495 2.26071 6.907 
7.22193 3.24786 9.923 
8.00969 3.38533 10.343 
8.49178 3.38533 10.343 
9.52829 3.59448 10.982 
10.6372 3.80821 11.635 
10.0976 3.43966 10.509 
-0.457703 0.186464 0.567 
-0.439642 0.190081 0.578 
-0.424125 0.195343 0.594 
-0.405782 0.199947 0.608 
-0.388617 0.205866 0.626 
-0.368626 0.211128 0.642 
-0.34514 0.217705 0.662 
-0.324254 0.224611 0.683 
-0.294344 0.226913 0.69 
-0.260586 0.234148 0.712 
-0.234107 0.241054 0.733 
-0.205372 0.251907 0.766 
-0.176092 0.261444 0.795 
-0.142535 0.268021 0.815 
-0.108652 0.278545 0.847 
-0.0719502 0.289726 0.881 
-0.032324 0.303209 0.922 
0.0111475 0.31735 0.965 
0.0585692 0.331162 1.007 
0.110535 0.346947 1.055 
0.167883 0.364706 1.109 
0.234226 0.389041 1.183 
0.312619 0.417652 1.27 
0.396114 0.444948 1.353 
0.475807 0.461062 1.402 
3.39563 2.86996 8.727 
3.66422 2.58155 7.85 
4.18156 2.67857 8.145 
3.38234 1.95376 5.941 
3.59253 1.91331 5.818 
4.31264 2.13562 6.494 
5.44827 2.52104 7.666 
8.6069 3.73749 11.365 
8.49429 3.47474 10.566 
8.57001 3.31359 10.076 
10.0786 3.69441 11.234 
10.6635 3.71579 11.299 
9.72838 3.23039 9.823 
-0.446053 0.190649 0.577 
-0.426175 0.195935 0.593 
-0.407944 0.200561 0.607 
-0.389659 0.205848 0.623 
-0.369882 0.211134 0.639 
-0.349224 0.218073 0.66 
-0.328112 0.224681 0.68 
-0.300776 0.227986 0.69 
-0.270645 0.230629 0.698 
-0.246195 0.23955 0.725 
-0.217073 0.250123 0.757 
-0.187072 0.257392 0.779 
-0.155601 0.265653 0.804 
-0.123562 0.277878 0.841 
-0.0873726 0.28779 0.871 
-0.0473513 0.300016 0.908 
-0.00516758 0.308276 0.933 
0.040127 0.322814 0.977 
0.0908385 0.342309 1.036 
0.145573 0.358169 1.084 
0.207314 0.378654 1.146 
0.276883 0.402114 1.217 
0.365113 0.435155 1.317 
0.446253 0.45531 1.378 
3.01723 2.66875 8.077 
2.86223 2.24252 6.787 
4.15406 2.74838 8.318 
2.88651 1.72707 5.227 
3.37327 1.86122 5.633 
3.9308 2.01222 6.09 
4.68111 2.23492 6.764 
8.02198 3.58829 10.86 
8.16537 3.43564 10.398 
8.55851 3.3993 10.288 
9.59326 3.60812 10.92 
10.217 3.64909 11.044 
9.31106 3.16602 9.582 
-0.450973 0.190217 0.573 
-0.432083 0.196193 0.591 
-0.412066 0.199844 0.602 
-0.393575 0.204824 0.617 
-0.374277 0.210135 0.633 
-0.355121 0.216443 0.652 
-0.333696 0.222418 0.67 
-0.309974 0.228726 0.689 
-0.278666 0.22939 0.691 
-0.255732 0.238021 0.717 
-0.225689 0.245324 0.739 
-0.195492 0.256943 0.774 
-0.164976 0.265906 0.801 
-0.131307 0.273541 0.824 
-0.0972967 0.286488 0.863 
-0.0586591 0.294455 0.887 
-0.0137462 0.30707 0.925 
0.0323708 0.322672 0.972 
0.0819913 0.340599 1.026 
0.136519 0.358193 1.079 
0.218948 0.382095 1.151 
0.292017 0.409316 1.233 
0.385413 0.446496 1.345 
0.460431 0.458779 1.382 
3.28243 2.84596 8.573 
2.53799 1.95462 5.888 
3.98692 2.55482 7.696 
3.25342 1.89188 5.699 
3.60303 1.93703 5.835 
4.24224 2.12061 6.388 
5.26207 2.45789 7.404 
8.70762 3.81696 11.498 
8.54092 3.52682 10.624 
8.57001 3.3449 10.076 
10.1369 3.7509 11.299 
10.7258 3.77281 11.365 
9.92745 3.32764 10.024 
-0.442336 0.192775 0.578 
-0.423202 0.198112 0.594 
-0.404838 0.202781 0.608 
-0.387026 0.208451 0.625 
-0.367629 0.214121 0.642 
-0.347173 0.220124 0.66 
-0.325519 0.226461 0.679 
-0.297766 0.229463 0.688 
-0.26956 0.232798 0.698 
-0.246195 0.241803 0.725 
-0.216807 0.250808 0.752 
-0.187799 0.259146 0.777 
-0.15646 0.267484 0.802 
-0.124127 0.278824 0.836 
-0.088624 0.290163 0.87 
-0.0458899 0.302504 0.907 
-0.00371401 0.310842 0.932 
0.0432954 0.326851 0.98 
0.0939669 0.345194 1.035 
0.148941 0.361537 1.084 
0.246091 0.398891 1.196 
0.323247 0.424572 1.273 
0.409029 0.453922 1.361 
0.489823 0.470598 1.411 
3.44795 2.89763 8.688 
4.49657 3.11942 9.353 
3.6684 2.31997 6.956 
3.20458 1.85204 5.553 
3.67235 1.96377 5.888 
4.3101 2.14454 6.43 
5.83932 2.71653 8.145 
8.52864 3.72543 11.17 
8.60694 3.54333 10.624 
8.86138 3.44961 10.343 
10.5739 3.90386 11.705 
11.1194 3.90386 11.705 
-0.459599 0.189317 0.565 
-0.438603 0.194008 0.579 
-0.422279 0.199034 0.594 
-0.401796 0.205066 0.612 
-0.382419 0.210092 0.627 
-0.363334 0.216123 0.645 
-0.341538 0.221484 0.661 
-0.32107 0.228856 0.683 
-0.290929 0.230196 0.687 
-0.264561 0.235223 0.702 
-0.241088 0.244605 0.73 
-0.213302 0.251976 0.752 
-0.184651 0.261023 0.779 
-0.152912 0.269065 0.803 
-0.120805 0.281463 0.84 
-0.0849577 0.292855 0.874 
-0.0444807 0.303913 0.907 
-0.00226842 0.312625 0.933 
0.0432512 0.328038 0.979 
0.0938761 0.346467 1.034 
0.148529 0.362216 1.081 
0.241158 0.398739 1.19 
0.315319 0.42387 1.265 
0.402981 0.456372 1.362 
0.479136 0.46877 1.399 
3.4056 2.89806 8.649 
4.5395 3.22644 9.629 
3.8947 2.51909 7.518 
3.16144 1.86067 5.553 
3.58349 1.94947 5.818 
4.13758 2.09254 6.245 
4.93287 2.33078 6.956 
8.7933 3.8986 11.635 
8.52441 3.55983 10.624 
8.46691 3.3417 9.973 
10.2375 3.83024 11.431 
10.8335 3.85269 11.498 
10.0147 3.39364 10.128 
-0.443363 0.194235 0.577 
-0.427296 0.199284 0.592 
-0.404838 0.20467 0.608 
-0.385787 0.20972 0.623 
-0.365634 0.216115 0.642 
-0.345123 0.222175 0.66 
-0.323409 0.228571 0.679 
-0.295199 0.231264 0.687 
-0.267774 0.235303 0.699 
-0.244615 0.244729 0.727 
-0.217106 0.252135 0.749 
-0.188763 0.261224 0.776 
-0.157313 0.269303 0.8 
-0.124675 0.279738 0.831 
-0.0899757 0.292867 0.87 
-0.0510154 0.302292 0.898 
-0.00945512 0.312055 0.927 
0.0354639 0.327876 0.974 
0.0849304 0.344371 1.023 
0.139354 0.361876 1.075 
0.20392 0.382747 1.137 
0.275218 0.410013 1.218 
0.355976 0.439637 1.306 
0.43568 0.459498 1.365 
2.99201 2.74184 8.145 
2.85918 2.32509 6.907 
4.29835 2.92463 8.688 
2.81635 1.73633 5.158 
3.22685 1.83294 5.445 
3.86866 2.03728 6.052 
4.45389 2.18607 6.494 
7.6974 3.53763 10.509 
8.23163 3.55682 10.566 
8.72412 3.55682 10.566 
9.31779 3.59587 10.682 
10.821 3.96414 11.776 
9.59103 3.3067 9.823 
-0.450286 0.193102 0.571 
-0.433317 0.197498 0.584 
-0.412315 0.203247 0.601 
-0.392937 0.20832 0.616 
-0.37231 0.214069 0.633 
-0.353095 0.220495 0.652 
-0.331119 0.226244 0.669 
-0.308904 0.233008 0.689 
-0.277593 0.233684 0.691 
-0.254973 0.242815 0.718 
-0.22706 0.248902 0.736 
-0.200088 0.258371 0.764 
-0.171152 0.268855 0.795 
-0.137639 0.275957 0.816 
-0.104243 0.288808 0.854 
-0.0661733 0.296586 0.877 
-0.0265075 0.310789 0.919 
0.0171269 0.326008 0.964 
0.0649562 0.341226 1.009 
0.117424 0.357797 1.058 
0.174303 0.374029 1.106 
0.243007 0.402437 1.19 
0.316031 0.42611 1.26 
0.404502 0.459928 1.36 
0.480278 0.472102 1.396 
3.31882 2.8617 8.462 
4.85652 3.46096 10.234 
3.78725 2.45757 7.267 
3.1787 1.87793 5.553 
3.59043 1.96146 5.8 
4.14367 2.10518 6.225 
4.95448 2.3524 6.956 
8.62456 3.84344 11.365 
8.65086 3.63208 10.74 
8.41184 3.33853 9.872 
10.4564 3.93475 11.635 
11.3362 4.05548 11.992 
-0.456966 0.191951 0.565 
-0.44054 0.196367 0.578 
-0.423617 0.201124 0.592 
-0.40019 0.207579 0.611 
-0.380837 0.212675 0.626 
-0.361208 0.21845 0.643 
-0.33743 0.224565 0.661 
-0.316825 0.23204 0.683 
-0.286242 0.233059 0.686 
-0.260939 0.239174 0.704 
-0.236551 0.248007 0.73 
-0.208906 0.255821 0.753 
-0.180503 0.265673 0.782 
-0.148659 0.274167 0.807 
-0.115447 0.285038 0.839 
-0.079526 0.296929 0.874 
-0.0402532 0.30814 0.907 
0.00209816 0.319691 0.941 
0.0480586 0.3343 0.984 
0.0986002 0.350947 1.033 
0.15371 0.367594 1.082 
0.21433 0.38594 1.136 
0.289866 0.418555 1.232 
0.372942 0.44947 1.323 
0.449719 0.465098 1.369 
3.23009 2.92547 8.611 
2.94404 2.3717 6.981 
4.08032 2.76715 8.145 
2.91789 1.79007 5.269 
3.33399 1.88655 5.553 
3.97714 2.08836 6.147 
4.50434 2.20624 6.494 
8.03886 3.68953 10.86 
8.18152 3.53257 10.398 
8.71202 3.55126 10.453 
9.55742 3.68953 10.86 
10.8466 3.97661 11.705 
10.125 3.4952 10.288 
-0.447412 0.195559 0.573 
-0.430983 0.200337 0.587 
-0.410196 0.205456 0.602 
-0.391023 0.210234 0.616 
-0.37231 0.216036 0.633 
-0.350114 0.223203 0.654 
-0.328428 0.229347 0.672 
-0.30418 0.234807 0.688 
-0.274089 0.236514 0.693 
-0.251209 0.245728 0.72 
-0.2243 0.253237 0.742 
-0.195596 0.261086 0.765 
-0.16642 0.271666 0.796 
-0.133055 0.279516 0.819 
-0.100094 0.294874 0.864 
-0.0608614 0.299993 0.879 
-0.0208188 0.313986 0.92 
0.0246156 0.329003 0.964 
0.0728666 0.344702 1.01 
0.126237 0.362791 1.063 
0.18521 0.382244 1.12 
0.253099 0.4075 1.194 
0.327112 0.431731 1.265 
0.413541 0.462447 1.355 
0.497455 0.482583 1.414 
3.37015 2.87571 8.426 
4.37269 3.07434 9.008 
3.07666 1.96788 5.766 
3.21243 1.8846 5.522 
3.72178 2.02146 5.923 
4.2422 2.145 6.285 
6.10603 2.88799 8.462 
8.20583 3.64565 10.682 
8.84876 3.7064 10.86 
8.72439 3.45658 10.128 
10.9562 4.118 12.066 
11.5186 4.118 12.066 
-0.454097 0.194735 0.568 
-0.436657 0.198849 0.58 
-0.419511 0.203649 0.594 
-0.401719 0.208792 0.609 
-0.381302 0.213248 0.622 
-0.363073 0.219762 0.641 
-0.336912 0.226962 0.662 
-0.315764 0.234162 0.683 
-0.285177 0.23519 0.686 
-0.259846 0.241362 0.704 
-0.234772 0.24959 0.728 
-0.207736 0.258161 0.753 
-0.179288 0.268103 0.782 
-0.147405 0.276674 0.807 
-0.114008 0.287303 0.838 
-0.0780787 0.299302 0.873 
-0.038844 0.310959 0.907 
0.00356773 0.323301 0.943 
0.0496882 0.338043 0.986 
0.0999141 0.353128 1.03 
0.155678 0.371642 1.084 
0.215715 0.388784 1.134 
0.291781 0.422383 1.232 
0.374431 0.452896 1.321 
0.451846 0.469352 1.369 
3.29947 2.97862 8.688 
4.70326 3.45449 10.076 
3.85966 2.5775 7.518 
3.10047 1.88769 5.506 
3.42478 1.92575 5.617 
4.0095 2.09443 6.109 
4.56488 2.22642 6.494 
8.27801 3.78636 11.044 
8.27846 3.56488 10.398 
8.27852 3.36775 9.823 
10.0491 3.87379 11.299 
11.0887 4.06166 11.847 
9.65208 3.36775 9.823 
-0.446631 0.196995 0.572 
-0.428791 0.20285 0.589 
-0.409514 0.206983 0.601 
-0.391023 0.212148 0.616 
-0.37231 0.218003 0.633 
-0.348614 0.22558 0.655 
-0.327311 0.232123 0.674 
-0.300725 0.235912 0.685 
-0.272328 0.239011 0.694 
-0.248626 0.247621 0.719 
-0.222293 0.255887 0.743 
-0.193471 0.263808 0.766 
-0.163741 0.273796 0.795 
-0.13051 0.282061 0.819 
-0.0978604 0.298936 0.868 
-0.0583285 0.303758 0.882 
-0.0179795 0.31719 0.921 
0.0260592 0.33131 0.962 
0.0744358 0.347841 1.01 
0.127167 0.364028 1.057 
0.18745 0.386758 1.123 
0.254954 0.41121 1.194 
0.328297 0.434629 1.262 
0.415033 0.465969 1.353 
0.499652 0.486977 1.414 
3.31177 2.84059 8.248 
4.31099 3.08821 8.967 
3.76227 2.45693 7.134 
3.24151 1.93448 5.617 
3.60686 1.99165 5.783 
4.15995 2.13733 6.206 
5.09587 2.44797 7.108 
8.21701 3.69882 10.74 
8.86371 3.76081 10.92 
8.38908 3.36613 9.774 
10.8518 4.13001 11.992 
11.6248 4.2075 12.217 
-0.458786 0.195116 0.564 
-0.4417 0.199268 0.576 
-0.421777 0.204803 0.592 
-0.403506 0.209646 0.606 
-0.383929 0.214489 0.62 
-0.364766 0.22037 0.637 
-0.341528 0.227981 0.659 
-0.319773 0.234554 0.678 
-0.290721 0.23663 0.684 
-0.264895 0.242165 0.7 
-0.239899 0.250122 0.723 
-0.212474 0.257733 0.745 
-0.185623 0.26915 0.778 
-0.153008 0.275723 0.797 
-0.120366 0.286447 0.828 
-0.085723 0.300285 0.868 
-0.0468819 0.31101 0.899 
-0.00514543 0.321388 0.929 
0.0399627 0.33661 0.973 
0.0892602 0.352178 1.018 
0.144096 0.371205 1.073 
0.203515 0.389194 1.125 
0.277338 0.421714 1.219 
0.353619 0.446276 1.29 
0.436197 0.470493 1.36 
3.21848 3.00562 8.688 
2.87128 2.37287 6.859 
3.99223 2.78283 8.044 
2.87068 1.80344 5.213 
3.27015 1.89408 5.475 
3.90911 2.10027 6.071 
4.39647 2.20267 6.367 
7.83115 3.67538 10.624 
8.28088 3.65531 10.566 
8.82152 3.67538 10.624 
9.16675 3.61622 10.453 
10.8103 4.04935 11.705 
9.38834 3.34776 9.677 
-0.450568 0.197382 0.568 
-0.432737 0.202247 0.582 
-0.414209 0.20746 0.597 
-0.395444 0.212325 0.611 
-0.376574 0.217885 0.627 
-0.356213 0.223445 0.643 
-0.335883 0.230048 0.662 
-0.314703 0.237345 0.683 
-0.283697 0.23804 0.685 
-0.258752 0.244643 0.704 
-0.232999 0.252288 0.726 
-0.206292 0.261323 0.752 
-0.177845 0.271401 0.781 
-0.145608 0.279393 0.804 
-0.111537 0.291556 0.839 
-0.0750206 0.301981 0.869 
-0.0360256 0.315186 0.907 
0.00650486 0.328044 0.944 
0.052966 0.344029 0.99 
0.103015 0.357582 1.029 
0.159046 0.376695 1.084 
0.219625 0.394765 1.136 
0.296809 0.429863 1.237 
0.377963 0.458358 1.319 
0.455767 0.475386 1.368 
3.2981 3.00556 8.649 
2.98827 2.39187 6.883 
3.84235 2.63269 7.576 
3.04074 1.89216 5.445 
3.32236 1.90815 5.491 
3.95627 2.1097 6.071 
4.46059 2.21986 6.388 
8.08947 3.7739 10.86 
8.45477 3.71204 10.682 
8.57719 3.55636 10.234 
9.93892 3.90386 11.234 
10.7717 4.01923 11.566 
9.3855 3.32979 9.582 
-0.44585 0.199312 0.571 
-0.429515 0.204199 0.585 
-0.411874 0.209086 0.599 
-0.392928 0.213972 0.613 
-0.373866 0.219557 0.629 
-0.354408 0.22584 0.647 
-0.332771 0.231774 0.664 
-0.310913 0.238756 0.684 
-0.279847 0.239454 0.686 
-0.255822 0.247133 0.708 
-0.228802 0.253765 0.727 
-0.202155 0.26319 0.754 
-0.173656 0.273661 0.784 
-0.141311 0.282039 0.808 
-0.108139 0.294256 0.843 
-0.0710519 0.30368 0.87 
-0.0319033 0.317643 0.91 
0.0109511 0.330907 0.948 
0.0578713 0.347313 0.995 
0.10823 0.360577 1.033 
0.164704 0.379775 1.088 
0.228286 0.402464 1.153 
0.303553 0.433181 1.241 
0.38644 0.4632 1.327 
0.463156 0.478558 1.371 
3.32497 3.019 8.649 
2.96719 2.39419 6.859 
3.82765 2.63434 7.547 
3.04074 1.90062 5.445 
3.32236 1.91668 5.491 
3.95627 2.11913 6.071 
4.46059 2.22978 6.388 
8.15113 3.81171 10.92 
8.61253 3.79077 10.86 
8.41677 3.49896 10.024 
9.89965 3.89898 11.17 
10.48 3.92132 11.234 
9.26402 3.29615 9.443 
-0.443851 0.2009 0.573 
-0.427335 0.205809 0.587 
-0.409514 0.210718 0.601 
-0.390388 0.215626 0.615 
-0.371134 0.221236 0.631 
-0.352554 0.228248 0.651 
-0.33013 0.233858 0.667 
-0.30711 0.240169 0.685 
-0.276789 0.241571 0.689 
-0.252132 0.248934 0.71 
-0.225209 0.255946 0.73 
-0.197993 0.265062 0.756 
-0.16986 0.276633 0.789 
-0.136627 0.283995 0.81 
-0.103389 0.296968 0.847 
-0.065796 0.305733 0.872 
-0.0263921 0.32081 0.915 
0.0169137 0.333782 0.952 
0.0641836 0.34956 0.997 
0.114983 0.363234 1.036 
0.17383 0.386725 1.103 
0.240557 0.41302 1.178 
0.31277 0.437213 1.247 
0.397364 0.468417 1.336 
0.475461 0.484545 1.382 
3.51897 3.15831 9.008 
2.1619 1.67978 4.791 
3.81294 2.6359 7.518 
3.03236 1.90382 5.43 
3.31268 1.9196 5.475 
3.95627 2.12856 6.071 
4.44593 2.23234 6.367 
8.15113 3.82868 10.92 
8.75846 3.87215 11.044 
8.41677 3.51453 10.024 
9.62491 3.80764 10.86 
10.1871 3.82868 10.92 
-0.455348 0.198269 0.563 
-0.439015 0.202847 0.576 
-0.42147 0.207425 0.589 
-0.403382 0.212356 0.603 
-0.384611 0.217638 0.618 
-0.365018 0.223273 0.634 
-0.347637 0.231373 0.657 
-0.323769 0.236303 0.671 
-0.297289 0.240177 0.682 
-0.269783 0.244051 0.693 
-0.244678 0.251446 0.714 
-0.219096 0.260602 0.74 
-0.192089 0.271167 0.77 
-0.160662 0.278915 0.792 
-0.127809 0.288071 0.818 
-0.0941765 0.30251 0.859 
-0.0509018 0.31554 0.896 
-0.00944492 0.326105 0.926 
0.0349178 0.337726 0.959 
0.0838511 0.355687 1.01 
0.137668 0.373999 1.062 
0.197919 0.395482 1.123 
0.268759 0.424711 1.206 
0.340331 0.444785 1.263 
0.427014 0.475775 1.351 
3.2071 3.10081 8.805 
2.86062 2.4155 6.859 
3.97402 2.89233 8.213 
3.55103 2.35739 6.694 
3.21243 1.94466 5.522 
3.6778 2.06122 5.853 
4.26617 2.22075 6.306 
6.05405 2.94199 8.354 
8.71491 3.97912 11.299 
9.08371 3.91115 11.106 
8.53454 3.47658 9.872 
10.119 3.91115 11.106 
9.50366 3.49454 9.923 
-0.444076 0.201974 0.571 
-0.426966 0.206572 0.584 
-0.410013 0.211878 0.599 
-0.390386 0.216476 0.612 
-0.371912 0.222489 0.629 
-0.353487 0.229564 0.649 
-0.331206 0.235223 0.665 
-0.308788 0.241944 0.684 
-0.278121 0.243005 0.687 
-0.253264 0.250079 0.707 
-0.226543 0.257154 0.727 
-0.199812 0.266704 0.754 
-0.17122 0.277316 0.784 
-0.137885 0.286512 0.81 
-0.104086 0.297831 0.842 
-0.061944 0.309504 0.875 
-0.0221273 0.323653 0.915 
0.0213286 0.336387 0.951 
0.0688997 0.353011 0.998 
0.119696 0.366099 1.035 
0.180431 0.393335 1.112 
0.24918 0.421987 1.193 
0.318838 0.441441 1.248 
0.404195 0.473276 1.338 
0.48539 0.492377 1.392 
3.97341 3.52764 9.973 
2.19168 1.69467 4.791 
3.8326 2.60903 7.376 
3.16094 1.95854 5.537 
3.46842 1.98684 5.617 
4.0822 2.17431 6.147 
4.61533 2.29705 6.494 
8.5426 3.97368 11.234 
9.06622 3.97368 11.234 
7.8339 3.24608 9.177 
9.83078 3.86261 10.92 
9.44309 3.52764 9.973 
-0.448803 0.201795 0.568 
-0.43125 0.206058 0.58 
-0.41467 0.211387 0.595 
-0.395391 0.216006 0.608 
-0.375974 0.222401 0.626 
-0.356767 0.228796 0.644 
-0.334868 0.23448 0.66 
-0.314703 0.242651 0.683 
-0.283282 0.243006 0.684 
-0.257649 0.249046 0.701 
-0.232357 0.257217 0.724 
-0.205469 0.266099 0.749 
-0.17739 0.276757 0.779 
-0.145608 0.285639 0.804 
-0.112302 0.296653 0.835 
-0.0760193 0.307311 0.865 
-0.0357476 0.319745 0.9 
0.00647041 0.333601 0.939 
0.0524845 0.348522 0.981 
0.102514 0.363799 1.024 
0.160286 0.38405 1.081 
0.221585 0.403945 1.137 
0.299455 0.440538 1.24 
0.378572 0.466828 1.314 
0.460354 0.486368 1.369 
3.86495 3.54313 9.973 
2.53019 2.0485 5.766 
3.8363 2.67094 7.518 
2.98266 1.89751 5.341 
3.29453 1.93446 5.445 
3.9315 2.14336 6.033 
4.43196 2.25492 6.347 
8.26085 3.92363 11.044 
8.97824 4.01423 11.299 
8.22204 3.47243 9.774 
8.99189 3.5982 10.128 
9.46396 3.5982 10.128 
-0.451619 0.201964 0.566 
-0.435005 0.206602 0.579 
-0.417178 0.211241 0.592 
-0.398798 0.216237 0.606 
-0.379113 0.221232 0.62 
-0.358961 0.228012 0.639 
-0.337429 0.234435 0.657 
-0.316613 0.241928 0.678 
-0.286272 0.242999 0.681 
-0.260884 0.249065 0.698 
-0.236529 0.257985 0.723 
-0.209002 0.265836 0.745 
-0.182231 0.277968 0.779 
-0.149106 0.284034 0.796 
-0.116225 0.294739 0.826 
-0.0772737 0.308298 0.864 
-0.0371046 0.320787 0.899 
0.00500083 0.334346 0.937 
0.0506487 0.347906 0.975 
0.102414 0.365033 1.023 
0.161965 0.385729 1.081 
0.223941 0.406782 1.14 
0.301625 0.442821 1.241 
0.380323 0.468513 1.313 
0.459681 0.487782 1.367 
3.99227 3.69065 10.343 
2.80021 2.30974 6.473 
3.84798 2.68262 7.518 
2.96646 1.89546 5.312 
3.28546 1.93757 5.43 
3.9315 2.15273 6.033 
4.4173 2.25728 6.326 
8.38981 3.98575 11.17 
9.11865 4.07888 11.431 
8.05061 3.40234 9.535 
8.84072 3.54079 9.923 
9.0726 3.45301 9.677 
-0.448893 0.203201 0.567 
-0.432151 0.20786 0.58 
-0.414896 0.212878 0.594 
-0.395684 0.217537 0.607 
-0.37647 0.222912 0.622 
-0.355317 0.231155 0.645 
-0.333322 0.236889 0.661 
-0.312581 0.244774 0.683 
-0.281157 0.245132 0.684 
-0.255835 0.251583 0.702 
-0.230425 0.259825 0.725 
-0.203413 0.268785 0.75 
-0.174744 0.27882 0.778 
-0.143999 0.289929 0.809 
-0.10854 0.299606 0.836 
-0.0720707 0.310357 0.866 
-0.0329876 0.3229 0.901 
0.00940821 0.337236 0.941 
0.0588797 0.353363 0.986 
0.111116 0.369131 1.03 
0.181012 0.39601 1.105 
0.250403 0.426472 1.19 
0.32052 0.4469 1.247 
0.403542 0.476287 1.329 
0.485801 0.497073 1.387 
4.13088 3.68701 10.288 
2.15152 1.70876 4.768 
3.78725 2.60435 7.267 
3.0658 1.92988 5.385 
3.42027 1.99008 5.553 
4.04747 2.18934 6.109 
4.54496 2.29686 6.409 
8.81303 4.14502 11.566 
9.35213 4.14502 11.566 
7.88493 3.30426 9.22 
8.64113 3.434 9.582 
8.0957 3.05913 8.536 
-0.444288 0.204802 0.569 
-0.427312 0.209481 0.582 
-0.410499 0.21488 0.597 
-0.390364 0.2192 0.609 
-0.372678 0.225678 0.627 
-0.351002 0.233957 0.65 
-0.3286 0.239716 0.666 
-0.305599 0.246195 0.684 
-0.274919 0.247274 0.687 
-0.249615 0.254113 0.706 
-0.223461 0.262032 0.728 
-0.197339 0.27283 0.758 
-0.16671 0.280748 0.78 
-0.135535 0.291906 0.811 
-0.101229 0.302344 0.84 
-0.0643673 0.313502 0.871 
