# .PCD v.7 - Point Cloud Data file format
VERSION .7
FIELDS x y z
SIZE 4 4 4
TYPE F F F
COUNT 1 1 1
WIDTH 1832
HEIGHT 1
VIEWPOINT 0 0 0 1 0 0 0
POINTS 1832
DATA ascii
-0.256194 -0.152624 0.7 
0.00280349 -0.161563 0.741 
0.368167 -0.15088 0.692 
0.413858 -0.149135 0.684 
0.455302 -0.146737 0.673 
0.504566 -0.145865 0.669 
0.567583 -0.146301 0.671 
-0.615658 -0.157814 0.729 
-0.534602 -0.155649 0.719 
-0.467239 -0.153701 0.71 
-0.425982 -0.151969 0.702 
-0.394964 -0.153052 0.707 
-0.360401 -0.152835 0.706 
-0.324086 -0.151753 0.701 
-0.285284 -0.151969 0.702 
-0.0201947 -0.160195 0.74 
0.0199913 -0.159763 0.738 
0.38812 -0.150454 0.695 
0.422624 -0.147423 0.681 
0.46299 -0.144825 0.669 
0.509484 -0.145042 0.67 
0.561733 -0.144825 0.669 
-0.614234 -0.156896 0.73 
-0.529752 -0.154747 0.72 
-0.466581 -0.152383 0.709 
-0.424891 -0.150879 0.702 
-0.394964 -0.151953 0.707 
-0.361498 -0.151738 0.706 
-0.325799 -0.150449 0.7 
-0.29359 -0.150664 0.701 
-0.24672 -0.151308 0.704 
0.00852521 -0.158616 0.738 
0.38217 -0.149159 0.694 
0.41067 -0.14701 0.684 
0.458146 -0.143571 0.668 
0.498476 -0.144431 0.672 
0.543693 -0.143141 0.666 
0.594412 -0.141422 0.658 
-0.607372 -0.158109 0.741 
-0.51601 -0.153202 0.718 
-0.460423 -0.151068 0.708 
-0.414574 -0.150001 0.703 
-0.383436 -0.150641 0.706 
-0.351026 -0.150855 0.707 
-0.316526 -0.150641 0.706 
-0.0156801 -0.15875 0.744 
0.0200455 -0.157896 0.74 
0.384327 -0.148081 0.694 
0.413253 -0.145734 0.683 
0.458146 -0.142533 0.668 
0.497432 -0.143387 0.672 
0.537485 -0.142106 0.666 
0.604932 -0.139759 0.655 
-0.607039 -0.15717 0.742 
-0.511143 -0.152298 0.719 
-0.457123 -0.149968 0.708 
-0.414574 -0.148909 0.703 
-0.383979 -0.149756 0.707 
-0.351026 -0.149756 0.707 
-0.318072 -0.149756 0.707 
-0.00295687 -0.15717 0.742 
0.0510189 -0.156534 0.739 
0.391693 -0.145732 0.688 
0.424304 -0.144461 0.682 
0.478678 -0.142978 0.675 
0.510244 -0.142131 0.671 
0.563163 -0.141284 0.667 
-0.60773 -0.153284 0.729 
-0.523431 -0.151181 0.719 
-0.486511 -0.15013 0.714 
-0.429254 -0.147606 0.702 
-0.398228 -0.148237 0.705 
-0.365368 -0.148237 0.705 
-0.331564 -0.147817 0.703 
-0.298552 -0.148237 0.705 
0.0119975 -0.155597 0.74 
0.367641 -0.144873 0.689 
0.409608 -0.143822 0.684 
0.45746 -0.140247 0.667 
0.49399 -0.141509 0.673 
0.526404 -0.141509 0.673 
0.591925 -0.137303 0.653 
-0.563978 -0.149855 0.718 
-0.518241 -0.149855 0.718 
-0.472316 -0.148394 0.711 
-0.428163 -0.146516 0.702 
-0.396599 -0.147351 0.706 
-0.363692 -0.147351 0.706 
-0.32938 -0.146725 0.703 
-0.0133503 -0.155073 0.743 
0.0212239 -0.154656 0.741 
0.365501 -0.143803 0.689 
0.423244 -0.142342 0.682 
0.474483 -0.140881 0.675 
0.506361 -0.139837 0.67 
0.563056 -0.138167 0.662 
0.61299 -0.136915 0.656 
-0.537953 -0.148947 0.719 
-0.494692 -0.147704 0.713 
-0.447338 -0.148532 0.717 
-0.402038 -0.145839 0.704 
-0.370273 -0.146254 0.706 
-0.334223 -0.145839 0.704 
-0.0122123 -0.154126 0.744 
0.0223752 -0.153504 0.741 
0.361716 -0.143354 0.692 
0.4327 -0.13921 0.672 
0.477629 -0.139832 0.675 
0.512526 -0.139625 0.674 
0.566647 -0.136517 0.659 
-0.56588 -0.14783 0.719 
-0.527545 -0.147419 0.717 
-0.458599 -0.14639 0.712 
-0.403705 -0.144951 0.705 
-0.371896 -0.145362 0.707 
-0.325301 -0.145157 0.706 
0.00279592 -0.151942 0.739 
0.0371401 -0.151531 0.737 
0.402279 -0.141045 0.686 
0.449477 -0.13755 0.669 
0.484252 -0.138578 0.674 
0.521712 -0.137961 0.671 
0.591018 -0.134054 0.652 
-0.549824 -0.146305 0.717 
-0.513778 -0.146509 0.718 
-0.452432 -0.14508 0.711 
-0.399323 -0.143856 0.705 
-0.366983 -0.14406 0.706 
0.00854831 -0.150998 0.74 
0.0429236 -0.15059 0.738 
0.407014 -0.139775 0.685 
0.453635 -0.13651 0.669 
0.488352 -0.136918 0.671 
0.526645 -0.136306 0.668 
0.630127 -0.13447 0.659 
-0.537953 -0.145596 0.719 
-0.479855 -0.144583 0.714 
-0.412083 -0.143773 0.71 
-0.379524 -0.143976 0.711 
0.00049959 -0.149645 0.739 
0.0371401 -0.14924 0.737 
0.370856 -0.139926 0.691 
0.439875 -0.136686 0.675 
0.475874 -0.136483 0.674 
0.51462 -0.136483 0.674 
0.56272 -0.133243 0.658 
-0.561412 -0.144478 0.719 
-0.525317 -0.144077 0.717 
-0.454341 -0.143474 0.714 
-0.401554 -0.142067 0.707 
-0.368601 -0.142067 0.707 
0.0154466 -0.148698 0.74 
0.378371 -0.138852 0.691 
0.450073 -0.135235 0.673 
0.480727 -0.135034 0.672 
0.516771 -0.134632 0.67 
0.55997 -0.133025 0.662 
0.628215 -0.13202 0.657 
-0.540187 -0.143361 0.719 
-0.49593 -0.143162 0.718 
-0.436702 -0.142763 0.716 
-0.391124 -0.141567 0.71 
0.00508537 -0.14715 0.738 
0.390057 -0.136981 0.687 
0.438176 -0.134389 0.674 
0.475168 -0.134189 0.673 
0.509961 -0.13399 0.672 
0.544948 -0.131597 0.66 
0.574114 -0.130999 0.657 
-0.560631 -0.142046 0.718 
-0.525696 -0.141651 0.716 
-0.467197 -0.141453 0.715 
-0.432856 -0.141849 0.717 
-0.392227 -0.140464 0.71 
0.352185 -0.135716 0.686 
0.398107 -0.136111 0.688 
0.446043 -0.134133 0.678 
0.476551 -0.132946 0.672 
0.512607 -0.13255 0.67 
0.546999 -0.130572 0.66 
0.57494 -0.128791 0.651 
0.62624 -0.129781 0.656 
-0.54689 -0.141127 0.719 
-0.500111 -0.140538 0.716 
-0.457838 -0.140538 0.716 
-0.426244 -0.141127 0.719 
-0.386152 -0.139557 0.711 
0.360694 -0.135042 0.688 
0.399176 -0.135042 0.688 
0.457025 -0.132294 0.674 
0.486168 -0.131117 0.668 
0.521711 -0.13092 0.667 
0.560676 -0.129154 0.658 
0.598203 -0.12778 0.651 
-0.584119 -0.141178 0.725 
-0.540938 -0.140205 0.72 
-0.499412 -0.139231 0.715 
-0.460705 -0.139621 0.717 
-0.418958 -0.139815 0.718 
-0.376784 -0.138258 0.71 
0.375086 -0.133389 0.685 
0.419961 -0.130468 0.67 
0.462947 -0.131442 0.675 
0.494471 -0.130079 0.668 
0.544122 -0.128326 0.659 
0.573525 -0.127353 0.654 
0.620266 -0.127353 0.654 
-0.563978 -0.1387 0.718 
-0.526073 -0.13812 0.715 
-0.489669 -0.138507 0.717 
-0.453388 -0.138313 0.716 
-0.410542 -0.13812 0.715 
0.347922 -0.132518 0.686 
0.384664 -0.132325 0.685 
0.424978 -0.130007 0.673 
0.473756 -0.129621 0.671 
0.505953 -0.128268 0.664 
0.555564 -0.127109 0.658 
0.584823 -0.126143 0.653 
0.62732 -0.12653 0.655 
-0.54689 -0.137776 0.719 
-0.508607 -0.137393 0.717 
-0.475187 -0.137393 0.717 
-0.43954 -0.137393 0.717 
-0.39664 -0.136051 0.71 
0.363379 -0.131261 0.685 
0.427704 -0.129153 0.674 
0.488852 -0.12762 0.666 
0.532678 -0.125512 0.655 
0.562654 -0.124937 0.652 
0.596997 -0.125129 0.653 
-0.598763 -0.137799 0.725 
-0.533858 -0.136469 0.718 
-0.492324 -0.136089 0.716 
-0.457364 -0.136279 0.717 
-0.423481 -0.136849 0.72 
-0.368542 -0.134758 0.709 
0.379852 -0.130006 0.684 
0.4754 -0.126585 0.666 
0.510342 -0.126015 0.663 
0.551475 -0.125065 0.658 
0.576836 -0.123924 0.652 
0.61925 -0.124304 0.654 
-0.549124 -0.135542 0.719 
-0.498301 -0.134788 0.715 
-0.461819 -0.135165 0.717 
-0.428478 -0.135542 0.719 
-0.388361 -0.134034 0.711 
0.368663 -0.128378 0.681 
0.432298 -0.12687 0.673 
0.499829 -0.124419 0.66 
0.542274 -0.124042 0.658 
0.567719 -0.122911 0.652 
0.613153 -0.123288 0.654 
-0.579138 -0.135172 0.723 
-0.526431 -0.134051 0.717 
-0.486327 -0.134051 0.717 
-0.447826 -0.133864 0.716 
0.35535 -0.128629 0.688 
0.386724 -0.127694 0.683 
0.477067 -0.124142 0.664 
0.511372 -0.123955 0.663 
0.552497 -0.12302 0.658 
0.58267 -0.122272 0.654 
0.630316 -0.122646 0.656 
-0.551358 -0.133308 0.719 
-0.516405 -0.132937 0.717 
-0.480087 -0.132751 0.716 
0.346856 -0.127189 0.686 
0.383541 -0.126633 0.683 
0.462983 -0.123481 0.666 
0.496 -0.122183 0.659 
0.530221 -0.121812 0.657 
0.563907 -0.121812 0.657 
0.594755 -0.121441 0.655 
-0.583314 -0.13311 0.724 
-0.538685 -0.131823 0.717 
-0.50456 -0.131639 0.716 
-0.457838 -0.131639 0.716 
0.367065 -0.12502 0.68 
0.415177 -0.122998 0.669 
0.473573 -0.121711 0.662 
0.502143 -0.121159 0.659 
0.531242 -0.120792 0.657 
0.564225 -0.120424 0.655 
0.603817 -0.120608 0.656 
-0.576094 -0.13162 0.722 
-0.533115 -0.130709 0.717 
-0.496495 -0.130162 0.714 
0.346856 -0.125057 0.686 
0.384602 -0.124511 0.683 
0.426657 -0.12287 0.674 
0.474602 -0.120682 0.662 
0.503167 -0.120135 0.659 
0.533491 -0.119588 0.656 
0.565087 -0.119588 0.656 
0.607226 -0.118859 0.652 
-0.570815 -0.130318 0.721 
-0.533115 -0.129595 0.717 
-0.493167 -0.129053 0.714 
0.359103 -0.124172 0.687 
0.39232 -0.122546 0.678 
0.433494 -0.1211 0.67 
0.489857 -0.119111 0.659 
0.522153 -0.119473 0.661 
0.563907 -0.11875 0.657 
0.603817 -0.118569 0.656 
-0.581867 -0.129914 0.725 
-0.537571 -0.128481 0.717 
-0.494276 -0.127943 0.714 
0.35858 -0.122926 0.686 
0.413518 -0.1197 0.668 
0.474912 -0.118446 0.661 
0.504448 -0.117908 0.658 
0.534304 -0.117729 0.657 
0.583561 -0.117371 0.655 
0.616409 -0.116654 0.651 
-0.561412 -0.127722 0.719 
-0.521197 -0.127722 0.719 
-0.484774 -0.127544 0.718 
0.399142 -0.119018 0.67 
0.474912 -0.117419 0.661 
0.502661 -0.116708 0.657 
0.533284 -0.116708 0.657 
0.58751 -0.116531 0.656 
0.619557 -0.115287 0.649 
-0.558146 -0.127133 0.722 
-0.510432 -0.126429 0.718 
0.355951 -0.120266 0.683 
0.477993 -0.116392 0.661 
0.507765 -0.115688 0.657 
0.553876 -0.115512 0.656 
0.590567 -0.115512 0.656 
-0.590565 -0.12671 0.726 
-0.522703 -0.125313 0.718 
0.350676 -0.118856 0.681 
0.478295 -0.115191 0.66 
0.51443 -0.115016 0.659 
0.552014 -0.114318 0.655 
0.583808 -0.113969 0.653 
-0.584925 -0.125582 0.726 
0.40894 -0.115722 0.669 
0.47727 -0.114165 0.66 
0.505973 -0.113473 0.656 
0.541197 -0.112954 0.653 
0.572784 -0.112781 0.652 
0.618701 -0.111743 0.646 
-0.482312 -0.122739 0.716 
0.421413 -0.114682 0.669 
0.481957 -0.112797 0.658 
0.517738 -0.112797 0.658 
0.548299 -0.11194 0.653 
0.576077 -0.111425 0.65 
0.619747 -0.110568 0.645 
-0.48386 -0.121457 0.715 
0.460202 -0.112454 0.662 
0.501131 -0.111265 0.655 
0.540183 -0.110925 0.653 
0.570619 -0.110925 0.653 
0.615785 -0.109396 0.644 
-0.577824 -0.122366 0.727 
0.473168 -0.111089 0.66 
0.505201 -0.110247 0.655 
0.534913 -0.110079 0.654 
0.569745 -0.109742 0.652 
0.616785 -0.108396 0.644 
0.351238 -0.113065 0.678 
0.482245 -0.109563 0.657 
0.519222 -0.109396 0.656 
0.55743 -0.108896 0.653 
0.597623 -0.107729 0.646 
-0.601544 -0.120107 0.727 
0.429971 -0.110855 0.671 
0.508254 -0.108212 0.655 
0.54442 -0.107716 0.652 
0.579224 -0.107221 0.649 
0.618946 -0.105569 0.639 
0.390937 -0.109976 0.672 
0.505973 -0.107358 0.656 
0.538978 -0.107031 0.654 
0.574304 -0.106049 0.648 
0.605779 -0.105394 0.644 
0.427248 -0.108608 0.67 
0.500876 -0.106339 0.656 
0.536945 -0.106015 0.654 
0.567998 -0.105366 0.65 
0.599843 -0.104231 0.643 
0.37159 -0.107728 0.671 
0.491432 -0.10548 0.657 
0.532066 -0.104838 0.653 
0.562803 -0.104517 0.651 
0.596698 -0.103553 0.645 
0.623892 -0.102751 0.64 
0.490684 -0.1043 0.656 
0.530037 -0.103823 0.653 
0.561938 -0.103346 0.65 
0.596698 -0.102551 0.645 
0.629813 -0.102233 0.643 
0.482245 -0.103439 0.657 
0.514253 -0.102494 0.651 
0.549313 -0.102809 0.653 
0.580232 -0.102179 0.649 
0.611782 -0.101392 0.644 
0.378408 -0.104756 0.672 
0.472142 -0.102885 0.66 
0.512453 -0.101327 0.65 
0.547284 -0.101794 0.653 
0.578331 -0.101015 0.648 
0.609781 -0.100391 0.644 
0.373675 -0.103558 0.671 
0.441021 -0.102014 0.661 
0.500113 -0.101088 0.655 
0.54101 -0.100934 0.654 
0.584372 -0.100008 0.648 
0.610782 -0.0993906 0.644 
0.372632 -0.102515 0.671 
0.437278 -0.100835 0.66 
0.495247 -0.100529 0.658 
0.530238 -0.0996123 0.652 
0.587855 -0.0982373 0.643 
0.615968 -0.0976262 0.639 
0.380876 -0.10117 0.669 
0.466934 -0.0993555 0.657 
0.515483 -0.0982969 0.65 
0.582358 -0.0979944 0.648 
0.359104 -0.100729 0.673 
0.394536 -0.0993824 0.664 
0.490136 -0.0984844 0.658 
0.527199 -0.0975863 0.652 
0.595986 -0.0959399 0.641 
0.384458 -0.0989432 0.668 
0.461127 -0.0971658 0.656 
0.4996 -0.0967215 0.653 
0.567637 -0.0955365 0.645 
0.605892 -0.0950921 0.642 
0.391441 -0.0973191 0.664 
0.484287 -0.0962932 0.657 
0.511665 -0.0951206 0.649 
0.582136 -0.0952672 0.65 
0.608977 -0.0938016 0.64 
0.392473 -0.0962875 0.664 
0.488646 -0.0951274 0.656 
0.515698 -0.0941123 0.649 
0.591214 -0.0925172 0.638 
0.361127 -0.0959731 0.669 
0.455975 -0.0936778 0.653 
0.500093 -0.0933909 0.651 
0.582292 -0.0915259 0.638 
0.35438 -0.0950756 0.67 
0.393942 -0.0940823 0.663 
0.500335 -0.0922375 0.65 
0.0693246 -0.0915083 0.652 
0.393942 -0.0930522 0.663 
0.502355 -0.0912276 0.65 
0.558014 -0.0901048 0.642 
0.0693246 -0.0904953 0.652 
0.452237 -0.0904953 0.652 
0.502355 -0.0902178 0.65 
0.538575 -0.0895238 0.645 
0.592266 -0.0884134 0.637 
0.371925 -0.0914037 0.666 
0.504374 -0.0892079 0.65 
0.539577 -0.0885216 0.645 
0.588434 -0.0871492 0.635 
0.360543 -0.090369 0.666 
0.464185 -0.0890121 0.656 
0.509724 -0.0873838 0.644 
0.549599 -0.0875195 0.645 
0.59617 -0.0865697 0.638 
0.364134 -0.0892001 0.665 
0.436698 -0.0875905 0.653 
0.491744 -0.0874563 0.652 
0.522919 -0.0862491 0.643 
0.557017 -0.086115 0.642 
0.0618518 -0.085913 0.648 
0.383641 -0.0879018 0.663 
0.436698 -0.0865759 0.653 
0.489979 -0.0863108 0.651 
0.520297 -0.084985 0.641 
0.557017 -0.0851175 0.642 
0.59617 -0.0845872 0.638 
0.36565 -0.0870027 0.664 
0.420618 -0.0862165 0.658 
0.480137 -0.0851683 0.65 
0.516688 -0.083727 0.639 
0.55475 -0.0843821 0.644 
0.586461 -0.0832029 0.635 
0.361035 -0.0861005 0.665 
0.413066 -0.0853237 0.659 
0.471332 -0.0840289 0.649 
0.512524 -0.0828637 0.64 
0.550601 -0.083511 0.645 
0.579479 -0.0823458 0.636 
0.0728139 -0.0827648 0.647 
0.391726 -0.0845557 0.661 
0.445498 -0.084044 0.657 
0.511333 -0.0819972 0.641 
0.548746 -0.082381 0.644 
0.577421 -0.0814856 0.637 
0.0735909 -0.0815068 0.645 
0.405688 -0.0830232 0.657 
0.444477 -0.0830232 0.657 
0.507509 -0.0815068 0.645 
0.535906 -0.0812541 0.643 
0.561896 -0.0801168 0.634 
0.368745 -0.0828761 0.664 
0.417683 -0.0817528 0.655 
0.454372 -0.0825017 0.661 
0.507723 -0.0803799 0.644 
0.538223 -0.0800054 0.641 
0.579554 -0.0792565 0.635 
0.390262 -0.081598 0.662 
0.431626 -0.0804886 0.653 
0.476916 -0.0797491 0.647 
0.516688 -0.078763 0.639 
0.55774 -0.0783932 0.636 
0.368267 -0.0809346 0.665 
0.413462 -0.0800826 0.658 
0.442106 -0.0797175 0.655 
0.4847 -0.0788656 0.648 
0.5344 -0.0778919 0.64 
0.0673044 -0.0760565 0.633 
0.380879 -0.0793006 0.66 
0.415958 -0.0776185 0.646 
0.453567 -0.0782192 0.651 
0.498943 -0.077258 0.643 
0.536389 -0.0768976 0.64 
0.0652342 -0.0749544 0.632 
0.377803 -0.0782752 0.66 
0.420623 -0.0767334 0.647 
0.455198 -0.0769706 0.649 
0.510931 -0.076259 0.643 
0.549208 -0.075073 0.633 
0.0554666 -0.075377 0.644 
0.373903 -0.0777179 0.664 
0.425603 -0.0760793 0.65 
0.465572 -0.0758452 0.648 
0.510931 -0.07526 0.643 
0.546377 -0.0739725 0.632 
0.591631 -0.0737384 0.63 
0.357349 -0.0764553 0.662 
0.417607 -0.0747229 0.647 
0.451165 -0.0749539 0.649 
0.486968 -0.0747229 0.647 
0.52926 -0.07403 0.641 
0.574622 -0.073337 0.635 
0.0532994 -0.073148 0.642 
0.373805 -0.0754268 0.662 
0.424593 -0.0740595 0.65 
0.454497 -0.0738316 0.648 
0.490187 -0.073148 0.642 
0.526272 -0.0730341 0.641 
0.573462 -0.0725783 0.637 
0.602374 -0.0718947 0.631 
0.37184 -0.074623 0.664 
0.426965 -0.0729372 0.649 
0.469879 -0.0727125 0.647 
0.497391 -0.0720382 0.641 
0.540366 -0.0719258 0.64 
0.581528 -0.0713639 0.635 
0.0606275 -0.069269 0.625 
0.374044 -0.0728155 0.657 
0.434023 -0.0719289 0.649 
0.467869 -0.0717072 0.647 
0.494626 -0.0709314 0.64 
0.533721 -0.0707098 0.638 
0.576595 -0.0703773 0.635 
0.0520576 -0.0698278 0.639 
0.37072 -0.0723412 0.662 
0.431341 -0.0708113 0.648 
0.465138 -0.0705927 0.646 
0.501587 -0.0699371 0.64 
0.539372 -0.0699371 0.64 
0.583432 -0.0695 0.636 
0.059561 -0.0672192 0.624 
0.377552 -0.0706663 0.656 
0.438057 -0.0699122 0.649 
0.483459 -0.0694813 0.645 
0.519113 -0.0691582 0.642 
0.558351 -0.0678655 0.63 
0.590609 -0.0679732 0.631 
0.0692559 -0.0662497 0.624 
0.42394 -0.0689039 0.649 
0.454801 -0.0686916 0.647 
0.504774 -0.0678422 0.639 
0.537686 -0.067736 0.638 
0.585537 -0.0673114 0.634 
0.0578067 -0.0654894 0.626 
0.431681 -0.0676863 0.647 
0.486197 -0.0671633 0.642 
0.523637 -0.0668494 0.639 
0.567894 -0.0662217 0.633 
0.600413 -0.0660125 0.631 
0.380765 -0.169022 1.64 
0.439065 -0.0668872 0.649 
0.483957 -0.0662688 0.643 
0.515317 -0.0660627 0.641 
0.566997 -0.0651352 0.632 
0.605292 -0.0651352 0.632 
0.37132 -0.0663864 0.654 
0.441761 -0.0659804 0.65 
0.484444 -0.0650668 0.641 
0.51768 -0.0648638 0.639 
0.573943 -0.0640517 0.631 
0.0550642 -0.0627715 0.628 
0.357563 -0.0652704 0.653 
0.432017 -0.0645707 0.646 
0.479215 -0.0641709 0.642 
0.508745 -0.063871 0.639 
0.567161 -0.0629714 0.63 
0.0531128 -0.0617958 0.628 
0.357016 -0.0641574 0.652 
0.439395 -0.0637638 0.648 
0.485911 -0.0628782 0.639 
0.525292 -0.0624846 0.635 
0.588694 -0.0619926 0.63 
0.345873 -0.0631444 0.652 
0.431013 -0.0625633 0.646 
0.485911 -0.0618854 0.639 
0.531787 -0.0611106 0.631 
0.59261 -0.0610138 0.63 
0.348377 -0.0620361 0.651 
0.418613 -0.061655 0.647 
0.477722 -0.0609879 0.64 
0.531923 -0.060035 0.63 
0.595578 -0.0599397 0.629 
0.349925 -0.0611184 0.652 
0.430346 -0.0604623 0.645 
0.485606 -0.0596186 0.636 
0.532902 -0.0590562 0.63 
0.0566525 -0.0575242 0.624 
0.351951 -0.0601054 0.652 
0.43168 -0.0593679 0.644 
0.491535 -0.0586305 0.636 
0.528987 -0.0580773 0.63 
0.062524 -0.055739 0.615 
0.366133 -0.0590924 0.652 
0.468972 -0.0582767 0.643 
0.501587 -0.0580048 0.64 
0.533881 -0.0570985 0.63 
0.343319 -0.0579904 0.651 
0.384198 -0.0579013 0.65 
0.470238 -0.0571886 0.642 
0.504362 -0.0570996 0.641 
0.577069 -0.0559415 0.628 
0.364107 -0.0570664 0.652 
0.416025 -0.0562787 0.643 
0.475238 -0.0558411 0.638 
0.510219 -0.0552284 0.631 
0.591736 -0.0548783 0.627 
0.352964 -0.0560534 0.652 
0.386217 -0.0558815 0.65 
0.46098 -0.0552797 0.643 
0.488789 -0.0545919 0.635 
0.526279 -0.0545919 0.635 
0.593733 -0.0537322 0.625 
0.360453 -0.144608 1.713 
0.371941 -0.0547028 0.648 
0.414026 -0.0542807 0.643 
0.470238 -0.0541963 0.642 
0.508258 -0.0532677 0.631 
0.586865 -0.05293 0.627 
0.0692126 -0.0509615 0.615 
0.371367 -0.0536131 0.647 
0.411029 -0.0532817 0.643 
0.467245 -0.0531988 0.642 
0.506354 -0.0531159 0.641 
0.580138 -0.0517901 0.625 
0.611203 -0.0517072 0.624 
0.347899 -0.0530144 0.652 
0.401524 -0.0526079 0.647 
0.460542 -0.05212 0.641 
0.496054 -0.0518761 0.638 
0.559823 -0.0516322 0.635 
0.606356 -0.0507378 0.624 
0.34974 -0.13455 1.687 
0.384615 -0.0517622 0.649 
0.466784 -0.0510444 0.64 
0.513803 -0.0504861 0.633 
0.598608 -0.0496885 0.623 
0.0751894 -0.0482513 0.617 
0.374808 -0.0505192 0.646 
0.446994 -0.0502846 0.643 
0.490328 -0.0498154 0.637 
0.55785 -0.049659 0.635 
0.610224 -0.0487206 0.623 
0.109973 -0.0529648 0.691 
0.385029 -0.0496689 0.648 
0.464334 -0.0489024 0.638 
0.510046 -0.0484425 0.632 
0.59271 -0.0480592 0.627 
0.068257 -0.0461839 0.615 
0.366333 -0.126987 1.691 
0.424357 -0.0479862 0.639 
0.470534 -0.047836 0.637 
0.523114 -0.0473104 0.63 
0.600539 -0.0468598 0.624 
0.104605 -0.0508176 0.691 
0.379826 -0.0475082 0.646 
0.455689 -0.0468463 0.637 
0.492523 -0.0467728 0.636 
0.55806 -0.0465522 0.633 
0.0748238 -0.0442009 0.614 
0.369217 -0.0464326 0.645 
0.429641 -0.0459286 0.638 
0.469057 -0.0457127 0.635 
0.52438 -0.0452087 0.628 
0.0576525 -0.043247 0.614 
0.364351 -0.119317 1.694 
0.420386 -0.0450078 0.639 
0.461891 -0.0447965 0.636 
0.514955 -0.0445148 0.632 
0.583152 -0.0438104 0.622 
0.358451 -0.116478 1.691 
0.386253 -0.0444283 0.645 
0.461164 -0.0437395 0.635 
0.51414 -0.043464 0.631 
0.583179 -0.0427752 0.621 
0.384865 -0.116274 1.727 
0.427978 -0.0428876 0.637 
0.474464 -0.0426183 0.633 
0.527307 -0.0422816 0.628 
0.0618123 -0.0399904 0.608 
0.368215 -0.0424241 0.645 
0.430887 -0.0417006 0.634 
0.474464 -0.0416348 0.633 
0.522135 -0.0414375 0.63 
0.583203 -0.0407797 0.62 
0.36064 -0.0413577 0.644 
0.426318 -0.040844 0.636 
0.466596 -0.0406513 0.633 
0.494728 -0.0404586 0.63 
0.54518 -0.0401375 0.625 
0.0697358 -0.0377878 0.603 
0.419728 -0.0399812 0.638 
0.461423 -0.0397305 0.634 
0.489425 -0.0396052 0.632 
0.536441 -0.0391665 0.625 
0.590924 -0.0387278 0.618 
0.373647 -0.0393566 0.644 
0.453543 -0.0387455 0.634 
0.482552 -0.0386232 0.632 
0.525215 -0.0384399 0.629 
0.57932 -0.037951 0.621 
0.061609 -0.0360928 0.606 
0.421377 -0.0378795 0.636 
0.462662 -0.0377009 0.633 
0.499806 -0.0374626 0.629 
0.550036 -0.0372244 0.625 
0.591884 -0.0368075 0.618 
0.361811 -0.0370654 0.639 
0.436797 -0.0367754 0.634 
0.477867 -0.0366014 0.631 
0.538596 -0.0361373 0.623 
0.585183 -0.0357313 0.616 
0.0707899 -0.0340968 0.604 
0.419067 -0.0357904 0.634 
0.465363 -0.0357904 0.634 
0.50165 -0.0352258 0.624 
0.561209 -0.0348307 0.617 
0.593803 -0.0349436 0.619 
0.351332 -0.0350249 0.638 
0.427868 -0.0346406 0.631 
0.469303 -0.0348053 0.634 
0.518674 -0.0344211 0.627 
0.566875 -0.0339819 0.619 
0.0561445 -0.0324334 0.608 
0.357709 -0.0339803 0.637 
0.43277 -0.0336603 0.631 
0.47348 -0.033767 0.633 
0.522141 -0.0332335 0.623 
0.565959 -0.0329668 0.618 
0.0569953 -0.0314369 0.607 
0.357709 -0.0329906 0.637 
0.431789 -0.0326799 0.631 
0.471514 -0.0327835 0.633 
0.516193 -0.0323174 0.624 
0.556471 -0.031903 0.616 
0.589963 -0.0320066 0.618 
0.0787677 -0.0308957 0.615 
0.419045 -0.0316995 0.631 
0.45086 -0.0318 0.633 
0.485352 -0.0315488 0.628 
0.538797 -0.0311972 0.621 
0.57172 -0.0310465 0.618 
0.0680872 -0.0294534 0.605 
0.369915 -0.031206 0.641 
0.440613 -0.0307192 0.631 
0.475906 -0.0307192 0.631 
0.518269 -0.0303297 0.623 
0.562213 -0.0299889 0.616 
0.0642209 -0.0284663 0.604 
0.367499 -0.0302572 0.642 
0.437957 -0.0296917 0.63 
0.474926 -0.0297388 0.631 
0.515505 -0.0293146 0.622 
0.554612 -0.0289847 0.615 
0.0595288 -0.0275279 0.604 
0.356968 -0.0292142 0.641 
0.427868 -0.0287584 0.631 
0.469547 -0.0288496 0.633 
0.510066 -0.0285305 0.626 
0.551623 -0.0281204 0.617 
0.583203 -0.0282571 0.62 
0.345095 -0.0283063 0.643 
0.427564 -0.0278221 0.632 
0.473194 -0.027734 0.63 
0.513572 -0.0273819 0.622 
0.54764 -0.0272498 0.619 
0.583203 -0.0272938 0.62 
0.34363 -0.0273498 0.644 
0.466841 -0.0268402 0.632 
0.506338 -0.0265429 0.625 
0.540819 -0.0263305 0.62 
0.572767 -0.0261182 0.615 
0.344164 -0.0263901 0.645 
0.427257 -0.0258991 0.633 
0.477546 -0.0256946 0.628 
0.52059 -0.0253673 0.62 
0.55848 -0.0251218 0.614 
0.0621377 -0.0236955 0.602 
0.369217 -0.025388 0.645 
0.471237 -0.0247976 0.63 
0.511494 -0.0245221 0.623 
0.547033 -0.0241678 0.614 
0.583224 -0.0243646 0.619 
0.345231 -0.0244615 0.647 
0.455105 -0.0237432 0.628 
0.499878 -0.0235541 0.623 
0.524991 -0.0232517 0.615 
0.570882 -0.0232138 0.614 
0.0705555 -0.0218248 0.602 
0.400762 -0.02284 0.63 
0.466841 -0.0229125 0.632 
0.507622 -0.0225862 0.623 
0.55371 -0.0222599 0.614 
0.0601669 -0.0208548 0.601 
0.357964 -0.0222428 0.641 
0.4256 -0.0219305 0.632 
0.480261 -0.0218264 0.629 
0.520214 -0.0213406 0.615 
0.570904 -0.0212712 0.613 
0.345231 -0.0214458 0.647 
0.41283 -0.0208492 0.629 
0.469787 -0.0209486 0.632 
0.521169 -0.0203851 0.615 
0.573743 -0.020352 0.614 
0.346236 -0.0204406 0.647 
0.415762 -0.0198719 0.629 
0.501168 -0.0196192 0.621 
0.527759 -0.0194612 0.616 
0.0582024 -0.0180235 0.6 
0.355854 -0.019195 0.639 
0.423275 -0.0189247 0.63 
0.511095 -0.0185943 0.619 
0.560345 -0.0184741 0.615 
0.0702039 -0.0170628 0.599 
0.401103 -0.0179174 0.629 
0.49186 -0.0176325 0.619 
0.526699 -0.0175756 0.617 
0.572809 -0.0174616 0.613 
0.345231 -0.0174249 0.647 
0.418028 -0.0169132 0.628 
0.501478 -0.0166708 0.619 
0.552809 -0.0165092 0.613 
0.0637956 -0.0152269 0.6 
0.409569 -0.0159121 0.627 
0.466749 -0.015836 0.624 
0.513018 -0.0157091 0.619 
0.566215 -0.0154807 0.61 
0.0749821 -0.0142947 0.6 
0.405672 -0.0149379 0.627 
0.463148 -0.0149379 0.627 
0.507389 -0.0147235 0.618 
0.569991 -0.0145568 0.611 
0.078038 -0.013407 0.602 
0.413466 -0.0139638 0.627 
0.468688 -0.013897 0.624 
0.512057 -0.0137856 0.619 
0.572825 -0.0136297 0.612 
0.0809782 -0.0124924 0.603 
0.415414 -0.0129896 0.627 
0.471258 -0.0128653 0.621 
0.510269 -0.0128032 0.618 
0.0537198 -0.0115364 0.602 
0.0819151 -0.0115556 0.603 
0.408916 -0.0119963 0.626 
0.471051 -0.0119197 0.622 
0.509309 -0.011843 0.618 
0.0582994 -0.0105835 0.601 
0.395256 -0.0194412 1.104 
0.411834 -0.0110237 0.626 
0.465779 -0.0109885 0.624 
0.507248 -0.0109004 0.619 
0.0591346 -0.00963366 0.6 
0.393184 -0.0177099 1.103 
0.408263 -0.0100351 0.625 
0.46167 -0.0100351 0.625 
0.497787 -0.00992267 0.618 
0.56156 -0.00972999 0.606 
0.0797759 -0.00871595 0.601 
0.398217 -0.00907851 0.626 
0.430597 -0.00906401 0.625 
0.491391 -0.00893349 0.616 
0.556771 -0.00883197 0.609 
0.0749821 -0.00776925 0.6 
0.396272 -0.00810591 0.626 
0.42613 -0.00811886 0.627 
0.481096 -0.00802822 0.62 
0.51436 -0.00797643 0.616 
0.0634766 -0.00680285 0.597 
0.377793 -0.00713331 0.626 
0.418642 -0.00713331 0.626 
0.471258 -0.00707634 0.621 
0.502588 -0.00704215 0.618 
0.0544736 -0.00590483 0.6 
0.0827146 -0.00592452 0.602 
0.406956 -0.00613119 0.623 
0.444372 -0.00618039 0.628 
0.485128 -0.00609182 0.619 
0.52308 -0.00605245 0.615 
0.060694 -0.00494776 0.597 
0.37682 -0.00518811 0.626 
0.420886 -0.00517982 0.625 
0.474916 -0.00515496 0.622 
0.511614 -0.00509694 0.615 
0.558663 -0.00504722 0.609 
0.380303 -0.00727949 1.081 
0.419243 -0.00420204 0.624 
0.468573 -0.0041751 0.62 
0.497133 -0.00414817 0.616 
0.538523 -0.00412796 0.613 
0.0652223 -0.00308749 0.596 
0.407924 -0.00322736 0.623 
0.44269 -0.00324809 0.627 
0.486875 -0.00321182 0.62 
0.513644 -0.00318074 0.614 
0.054292 -0.00216876 0.598 
0.381927 -0.00227756 0.628 
0.426999 -0.00226305 0.624 
0.471463 -0.00224854 0.62 
0.500148 -0.00223041 0.615 
0.538523 -0.00222316 0.613 
0.0660373 -0.00123344 0.595 
0.412457 -0.00129356 0.624 
0.443664 -0.00129978 0.627 
0.489145 -0.00128112 0.618 
0.516617 -0.00127075 0.613 
0.559581 -0.00126453 0.61 
0.384629 -0.000560357 1.079 
0.426999 -0.000324062 0.624 
0.473588 -0.000321466 0.619 
0.505059 -0.000318869 0.614 
0.540497 -0.00031783 0.612 
0.0688106 0.000615436 0.595 
0.410518 0.000645432 0.624 
0.458637 0.000638192 0.617 
0.489145 0.000639226 0.618 
0.525547 0.000629917 0.609 
0.554912 0.000628882 0.608 
0.378974 0.00280024 1.082 
0.4179 0.00160975 0.622 
0.471664 0.00160199 0.619 
0.508046 0.00158646 0.613 
0.538664 0.00158128 0.611 
0.0639727 0.00245603 0.593 
0.350971 0.00258856 0.625 
0.427684 0.00258856 0.625 
0.479726 0.00255543 0.617 
0.512922 0.00253472 0.612 
0.542632 0.00251815 0.608 
0.0696179 0.00338305 0.594 
0.385947 0.00613962 1.078 
0.426713 0.00355961 0.625 
0.502463 0.00348557 0.612 
0.533185 0.00346279 0.608 
0.564385 0.0034514 0.606 
0.349012 0.0142299 1.963 
0.401149 0.00451616 0.623 
0.508998 0.00444367 0.613 
0.539798 0.00440742 0.608 
0.0582476 0.00520241 0.591 
0.366563 0.0172445 1.959 
0.374276 0.00550171 0.625 
0.50995 0.00539607 0.613 
0.541877 0.00531685 0.604 
0.0607958 0.00609992 0.589 
0.381276 0.0111746 1.079 
0.421182 0.0064624 0.624 
0.517676 0.00633812 0.612 
0.5522 0.00625527 0.604 
0.0644563 0.00701504 0.589 
0.385947 0.0128391 1.078 
0.401149 0.00741998 0.623 
0.479127 0.0073247 0.615 
0.524684 0.00724133 0.608 
0.565336 0.00716987 0.602 
0.0800382 0.0080244 0.596 
0.350971 0.00841485 0.625 
0.40664 0.00840139 0.624 
0.47626 0.00828021 0.615 
0.51778 0.00822636 0.611 
0.549354 0.00814557 0.605 
0.0606926 0.00883025 0.588 
0.362446 0.0290888 1.937 
0.396001 0.00932583 0.621 
0.469572 0.00923572 0.615 
0.500692 0.00917565 0.611 
0.532434 0.00908555 0.605 
0.564397 0.00902548 0.601 
0.0746491 0.00977696 0.59 
0.356623 0.0103238 0.623 
0.40502 0.0103238 0.623 
0.485979 0.0101747 0.614 
0.51788 0.0101084 0.61 
0.548414 0.0100255 0.605 
0.578403 0.00995924 0.601 
0.0813717 0.0108567 0.599 
0.367271 0.0112917 0.623 
0.459808 0.0111649 0.616 
0.495946 0.0110742 0.611 
0.530554 0.0109655 0.605 
0.561595 0.0109111 0.602 
0.0605894 0.0115513 0.587 
0.350681 0.037822 1.922 
0.37695 0.0122597 0.623 
0.479127 0.0121023 0.615 
0.50935 0.0120039 0.61 
0.539147 0.0118464 0.602 
0.587784 0.0118464 0.602 
0.0876814 0.0128242 0.604 
0.375379 0.0132064 0.622 
0.472807 0.0130153 0.613 
0.508402 0.0129516 0.61 
0.537185 0.0128242 0.604 
0.582102 0.0127393 0.6 
0.0865994 0.0137398 0.603 
0.368986 0.01415 0.621 
0.465946 0.0139905 0.614 
0.506623 0.0138766 0.609 
0.538212 0.0137171 0.602 
0.585831 0.0136715 0.6 
0.379156 0.0261163 1.073 
0.37453 0.0150661 0.619 
0.461177 0.0149444 0.614 
0.494186 0.0148471 0.61 
0.536296 0.0146767 0.603 
0.57834 0.0145794 0.599 
0.0835109 0.0155618 0.601 
0.371645 0.0160279 0.619 
0.447532 0.0158207 0.611 
0.484709 0.0157948 0.61 
0.524764 0.0157172 0.607 
0.566206 0.0154582 0.597 
0.0706215 0.0161113 0.587 
0.390097 0.0293956 1.071 
0.418248 0.0168524 0.614 
0.461576 0.0167975 0.612 
0.494322 0.0167151 0.609 
0.531494 0.0166053 0.605 
0.567133 0.0163858 0.597 
0.0705011 0.0169943 0.586 
0.353549 0.0180093 0.621 
0.424234 0.0177773 0.613 
0.454711 0.0177773 0.613 
0.490538 0.0176613 0.609 
0.529615 0.0175453 0.605 
0.563423 0.0173133 0.597 
0.0660614 0.0179353 0.587 
0.381064 0.0326624 1.069 
0.396569 0.0186381 0.61 
0.44039 0.0186075 0.609 
0.472388 0.0186381 0.61 
0.516367 0.0185158 0.606 
0.556935 0.018302 0.599 
0.581925 0.0182103 0.596 
0.0843042 0.0192647 0.6 
0.368886 0.0197785 0.616 
0.427345 0.01965 0.612 
0.457025 0.0196179 0.611 
0.488788 0.0195216 0.608 
0.53073 0.0193289 0.602 
0.566225 0.0192005 0.598 
0.0642374 0.0197593 0.587 
0.34552 0.0207692 0.617 
0.39627 0.0205672 0.611 
0.4321 0.0206009 0.612 
0.46272 0.0205672 0.611 
0.498595 0.0203652 0.605 
0.541053 0.0202306 0.601 
0.574554 0.0200959 0.597 
0.074143 0.0206361 0.586 
0.357602 0.021763 0.618 
0.404525 0.0215517 0.612 
0.438497 0.0214461 0.609 
0.468416 0.0215165 0.611 
0.50601 0.0213404 0.606 
0.556004 0.0210939 0.599 
0.583777 0.0209883 0.596 
0.386982 0.0392324 1.067 
0.371402 0.0226864 0.617 
0.418788 0.0225026 0.612 
0.454582 0.0223923 0.609 
0.490004 0.022282 0.606 
0.534517 0.0220981 0.601 
0.573591 0.0219143 0.596 
0.081478 0.0227253 0.593 
0.363144 0.0236067 0.616 
0.408889 0.0233768 0.61 
0.443228 0.0233385 0.609 
0.471457 0.0229169 0.598 
0.510618 0.0232618 0.607 
0.565311 0.0229552 0.599 
0.064128 0.0233675 0.586 
0.355681 0.0246435 0.618 
0.400722 0.0244043 0.612 
0.439443 0.0242846 0.609 
0.468841 0.0240454 0.603 
0.50601 0.024165 0.606 
0.556004 0.0238859 0.599 
0.0632175 0.0242779 0.586 
0.356065 0.0255623 0.617 
0.401965 0.0253137 0.611 
0.444602 0.025148 0.607 
0.472386 0.0247751 0.598 
0.552289 0.0247751 0.598 
0.0605894 0.0252314 0.587 
0.357402 0.0264779 0.616 
0.406994 0.02622 0.61 
0.453665 0.0259621 0.604 
0.532649 0.0258332 0.601 
0.570895 0.0257472 0.599 
0.384746 0.0476549 1.07 
0.374278 0.0274795 0.617 
0.438497 0.0271232 0.609 
0.46988 0.0265442 0.596 
0.548583 0.0265888 0.597 
0.0605894 0.0270554 0.587 
0.354334 0.0285303 0.619 
0.409438 0.0280233 0.608 
0.453851 0.0277929 0.603 
0.528085 0.0276085 0.599 
0.570616 0.0272398 0.591 
0.0757046 0.0278245 0.584 
0.366972 0.0293491 0.616 
0.434478 0.0290632 0.61 
0.467592 0.0285391 0.599 
0.539281 0.0284915 0.598 
0.579973 0.0283009 0.594 
0.381064 0.052593 1.069 
0.405381 0.0299618 0.609 
0.454034 0.0296174 0.602 
0.504442 0.0296666 0.603 
0.552289 0.0294206 0.598 
0.0620944 0.0296392 0.584 
0.358732 0.0312125 0.615 
0.415623 0.0307557 0.606 
0.467441 0.0304512 0.6 
0.552289 0.0303497 0.598 
0.0587654 0.0307034 0.587 
0.359688 0.032168 0.615 
0.421273 0.0316972 0.606 
0.475968 0.0313311 0.599 
0.557858 0.0312265 0.597 
0.0700199 0.0313461 0.582 
0.410383 0.0327465 0.608 
0.460996 0.0325849 0.605 
0.524416 0.0322079 0.598 
0.557858 0.032154 0.597 
0.379352 0.0584607 1.055 
0.444876 0.0333032 0.601 
0.487829 0.0333032 0.601 
0.526322 0.0330816 0.597 
0.558786 0.0330816 0.597 
0.38263 0.0600999 1.055 
0.415878 0.0344649 0.605 
0.490511 0.034294 0.602 
0.530032 0.0340091 0.597 
0.560544 0.0337243 0.592 
0.378633 0.061622 1.053 
0.409974 0.0354633 0.606 
0.488641 0.0352293 0.602 
0.535565 0.0349952 0.598 
0.571626 0.0347026 0.593 
0.388449 0.063258 1.053 
0.413058 0.0363448 0.605 
0.486642 0.0362247 0.603 
0.525394 0.0358642 0.597 
0.560611 0.0357441 0.595 
0.0820561 0.0359906 0.584 
0.395919 0.0375313 0.609 
0.463988 0.0372231 0.604 
0.510322 0.0369766 0.6 
0.539281 0.0368534 0.598 
0.0590674 0.0367084 0.581 
0.386813 0.06653 1.053 
0.398103 0.0384143 0.608 
0.466193 0.0380352 0.602 
0.509472 0.0378457 0.599 
0.545812 0.0376561 0.596 
0.0606632 0.0374816 0.579 
0.355081 0.0396179 0.612 
0.399047 0.0393589 0.608 
0.489452 0.0390353 0.603 
0.517046 0.0386468 0.597 
0.548594 0.0385174 0.595 
0.0623545 0.0383149 0.578 
0.391349 0.0697358 1.052 
0.395919 0.0403699 0.609 
0.462111 0.0400384 0.604 
0.507692 0.0396407 0.598 
0.536525 0.0395744 0.597 
0.566158 0.0394418 0.595 
0.380071 0.0717095 1.057 
0.369344 0.0415196 0.612 
0.423872 0.040909 0.603 
0.485572 0.0409768 0.604 
0.513194 0.0406376 0.599 
0.543047 0.0403662 0.595 
0.0554566 0.0403191 0.581 
0.350327 0.0424704 0.612 
0.39183 0.0423316 0.61 
0.439475 0.0416377 0.6 
0.487829 0.0417071 0.601 
0.517046 0.0414295 0.597 
0.548594 0.0412907 0.595 
0.0589657 0.0411509 0.58 
0.35545 0.0433503 0.611 
0.400559 0.0429956 0.606 
0.450104 0.0427827 0.603 
0.495512 0.0424989 0.599 
0.521684 0.042357 0.597 
0.549514 0.0420732 0.593 
0.0614564 0.041907 0.578 
0.360196 0.0442996 0.611 
0.402052 0.0437921 0.604 
0.435222 0.0433571 0.598 
0.481158 0.0436471 0.602 
0.505834 0.0433571 0.598 
0.531922 0.0432121 0.596 
0.556884 0.0429946 0.593 
0.0664977 0.0425829 0.575 
0.363638 0.045323 0.612 
0.398676 0.0448786 0.606 
0.426201 0.0445083 0.601 
0.454969 0.0445824 0.602 
0.49293 0.0442121 0.597 
0.523487 0.0442862 0.598 
0.547671 0.0439159 0.593 
0.0580646 0.0438543 0.58 
0.391721 0.0796182 1.053 
0.385822 0.0459714 0.608 
0.414503 0.0455933 0.603 
0.442271 0.0453665 0.6 
0.474107 0.0452909 0.599 
0.502118 0.0452153 0.598 
0.530996 0.045064 0.596 
0.559648 0.0448372 0.593 
0.0690574 0.0442924 0.574 
0.359607 0.0470703 0.61 
0.397078 0.0466845 0.605 
0.426201 0.0463759 0.601 
0.455905 0.046453 0.602 
0.484808 0.0459129 0.595 
0.517046 0.0460672 0.597 
0.547667 0.0456814 0.592 
0.0571634 0.0456565 0.58 
0.386446 0.0828115 1.052 
0.371927 0.0480181 0.61 
0.406071 0.0474671 0.603 
0.437081 0.0470735 0.598 
0.468064 0.0473883 0.602 
0.496543 0.0470735 0.598 
0.525394 0.0469947 0.597 
0.555945 0.0466012 0.592 
0.0638176 0.0461563 0.575 
0.350502 0.0488856 0.609 
0.386131 0.048725 0.607 
0.414062 0.0482434 0.601 
0.447677 0.0482434 0.601 
0.477557 0.0482434 0.601 
0.501364 0.047842 0.596 
0.531029 0.0477618 0.595 
0.56037 0.0471196 0.587 
0.0672738 0.0469679 0.574 
0.353123 0.0496681 0.607 
0.386436 0.0495863 0.606 
0.413373 0.0490953 0.6 
0.444136 0.0490953 0.6 
0.473676 0.049259 0.602 
0.498495 0.0488498 0.597 
0.528256 0.0486862 0.595 
0.559415 0.0479498 0.586 
0.066382 0.0478597 0.574 
0.35218 0.0506112 0.607 
0.385495 0.0505278 0.606 
0.411261 0.0501109 0.601 
0.441534 0.0499441 0.599 
0.471805 0.0501943 0.602 
0.499599 0.0496106 0.595 
0.53106 0.0495273 0.594 
0.564018 0.0489436 0.587 
0.0699492 0.0487515 0.574 
0.359964 0.0517241 0.609 
0.397078 0.0513844 0.605 
0.423169 0.0511296 0.602 
0.454788 0.0512145 0.603 
0.482093 0.0511296 0.602 
0.518032 0.05062 0.596 
0.553007 0.0496857 0.585 
0.0629242 0.0497298 0.575 
0.389621 0.0902055 1.043 
0.385798 0.0523244 0.605 
0.412684 0.0518054 0.599 
0.444326 0.0518054 0.599 
0.477557 0.0519784 0.601 
0.511409 0.051719 0.598 
0.543067 0.0510271 0.59 
0.0560683 0.0508872 0.578 
0.0827218 0.0507112 0.576 
0.369763 0.0535285 0.608 
0.403929 0.0531763 0.604 
0.430366 0.0527361 0.599 
0.466352 0.0529122 0.601 
0.503296 0.0523839 0.595 
0.531132 0.0520318 0.591 
0.563057 0.0515916 0.586 
0.0726247 0.0514269 0.574 
0.355952 0.0543835 0.607 
0.391081 0.0540251 0.603 
0.416406 0.0536668 0.599 
0.445257 0.0536668 0.599 
0.476103 0.0535772 0.598 
0.517163 0.0533084 0.595 
0.549507 0.0530396 0.592 
0.0637066 0.0523187 0.574 
0.392592 0.0946112 1.038 
0.377028 0.054962 0.603 
0.407525 0.0547797 0.601 
0.437081 0.0545063 0.598 
0.476488 0.0542328 0.595 
0.50692 0.054324 0.596 
0.552928 0.053139 0.583 
0.0742787 0.0531178 0.573 
0.364096 0.0563624 0.608 
0.388562 0.0558062 0.602 
0.418034 0.0556208 0.6 
0.459646 0.0558062 0.602 
0.488505 0.0551573 0.595 
0.529335 0.054601 0.589 
0.0586607 0.0543851 0.577 
0.349717 0.0571185 0.606 
0.379839 0.0568357 0.603 
0.406169 0.0564587 0.599 
0.44377 0.0562702 0.597 
0.473165 0.0557989 0.592 
0.50607 0.0560817 0.595 
0.562147 0.0552334 0.586 
0.383284 0.0995452 1.039 
0.372961 0.0578684 0.604 
0.401114 0.0578684 0.604 
0.433567 0.0571977 0.597 
0.463545 0.0570061 0.595 
0.494976 0.0570061 0.595 
0.543967 0.0563355 0.588 
0.0796202 0.0557886 0.573 
0.364694 0.0592936 0.609 
0.390068 0.0584174 0.6 
0.42083 0.0584174 0.6 
0.457843 0.0580279 0.596 
0.491279 0.0579306 0.595 
0.526609 0.057249 0.588 
0.0676906 0.0563821 0.57 
0.363151 0.0601409 0.608 
0.391 0.0593496 0.6 
0.423852 0.0592507 0.599 
0.458302 0.0586572 0.593 
0.494976 0.058855 0.595 
0.52845 0.0580637 0.587 
0.0676906 0.0572677 0.57 
0.357838 0.0609851 0.607 
0.394729 0.0602818 0.6 
0.443027 0.0598799 0.596 
0.468437 0.0595785 0.593 
0.505219 0.059679 0.594 
0.561187 0.0587747 0.585 
0.380263 0.106512 1.044 
0.368547 0.0618261 0.606 
0.435812 0.0607039 0.595 
0.461987 0.0604998 0.593 
0.500605 0.0606019 0.594 
0.540266 0.0595816 0.584 
0.0684559 0.0589353 0.569 
0.355009 0.0628712 0.607 
0.407596 0.0618355 0.597 
0.450263 0.0618355 0.597 
0.478571 0.0614212 0.593 
0.514861 0.060489 0.584 
0.0604995 0.0598194 0.569 
0.344443 0.0641297 0.61 
0.377618 0.0628681 0.598 
0.441359 0.0625528 0.595 
0.469092 0.0625528 0.595 
0.499762 0.0623425 0.593 
0.532102 0.0616066 0.586 
0.0665706 0.0605967 0.568 
0.35218 0.0647574 0.607 
0.389972 0.0636906 0.597 
0.443208 0.0634772 0.595 
0.470149 0.0633705 0.594 
0.501678 0.0631571 0.592 
0.535703 0.0620903 0.582 
0.0628187 0.0612627 0.566 
0.347663 0.065917 0.609 
0.384407 0.0646181 0.597 
0.425492 0.0649428 0.6 
0.456459 0.0641851 0.593 
0.49599 0.0642934 0.594 
0.523922 0.0633192 0.585 
0.556447 0.0628863 0.581 
0.382812 0.115391 1.051 
0.360503 0.0660946 0.602 
0.407596 0.0655456 0.597 
0.448 0.0652163 0.594 
0.495155 0.0651065 0.593 
0.523013 0.0642281 0.585 
0.058525 0.0631328 0.567 
0.386078 0.117024 1.051 
0.363309 0.0670299 0.602 
0.404813 0.0664732 0.597 
0.443208 0.0662505 0.595 
0.485499 0.0654711 0.588 
0.52574 0.0651371 0.585 
0.0628187 0.0639009 0.566 
0.346338 0.0688684 0.61 
0.376059 0.0674007 0.597 
0.405741 0.0674007 0.597 
0.439694 0.067062 0.594 
0.46879 0.0657073 0.582 
0.52574 0.0660459 0.585 
0.0576441 0.0648947 0.567 
0.388233 0.119946 1.048 
0.367985 0.0689005 0.602 
0.403886 0.0683283 0.597 
0.435454 0.067756 0.592 
0.472407 0.0666115 0.582 
0.526656 0.0668404 0.584 
0.0568632 0.0658916 0.568 
0.0845169 0.0661237 0.57 
0.363639 0.0697199 0.601 
0.403886 0.0692558 0.597 
0.434719 0.0685598 0.591 
0.46979 0.0673997 0.581 
0.521225 0.0676317 0.583 
0.554532 0.0671677 0.579 
0.0768888 0.066539 0.566 
0.361169 0.0705361 0.6 
0.402958 0.0701834 0.597 
0.433801 0.069478 0.591 
0.478567 0.0686551 0.584 
0.521225 0.0685375 0.583 
0.556331 0.0680673 0.579 
0.0804063 0.0674184 0.566 
0.385407 0.0714683 0.6 
0.414321 0.0709918 0.596 
0.456459 0.0706345 0.593 
0.506768 0.0693242 0.582 
0.545492 0.0688478 0.578 
0.0686088 0.0679358 0.563 
0.35532 0.0721591 0.598 
0.397793 0.0722798 0.599 
0.424719 0.0717971 0.595 
0.474215 0.0702285 0.582 
0.509532 0.0699871 0.58 
0.544594 0.0697458 0.578 
0.067734 0.0688105 0.563 
0.35532 0.0730882 0.598 
0.397393 0.072966 0.597 
0.433801 0.0722327 0.591 
0.477659 0.0713771 0.584 
0.505897 0.0710105 0.581 
0.539169 0.0705216 0.577 
0.0721076 0.0696852 0.563 
0.379476 0.0740173 0.598 
0.405987 0.0737698 0.596 
0.44865 0.0730271 0.59 
0.490293 0.0724083 0.585 
0.519437 0.0719132 0.581 
0.556268 0.0715418 0.578 
0.377618 0.0749464 0.598 
0.409239 0.0744451 0.594 
0.47503 0.0730665 0.583 
0.508631 0.0726905 0.58 
0.5419 0.0724399 0.578 
0.0764812 0.0714346 0.563 
0.397494 0.0752411 0.593 
0.466662 0.0742261 0.585 
0.504092 0.0737185 0.581 
0.530258 0.0735916 0.58 
0.0737259 0.0721809 0.562 
0.396573 0.0761625 0.593 
0.453937 0.075135 0.585 
0.499436 0.0750065 0.584 
0.521245 0.0742359 0.578 
0.55537 0.0742359 0.578 
0.385335 0.0776037 0.597 
0.439073 0.0763038 0.587 
0.474124 0.0757839 0.583 
0.50773 0.0753939 0.58 
0.540266 0.0759139 0.584 
0.0735947 0.0737957 0.561 
0.404182 0.0778736 0.592 
0.445757 0.0769528 0.585 
0.475936 0.0766897 0.583 
0.513097 0.0765581 0.582 
0.0623747 0.0748004 0.562 
0.362782 0.0791926 0.595 
0.427757 0.078394 0.589 
0.452119 0.0778617 0.585 
0.479641 0.0774624 0.582 
0.516714 0.0774624 0.582 
0.0727231 0.075539 0.561 
0.392068 0.0793092 0.589 
0.430865 0.0790399 0.587 
0.457444 0.0789052 0.586 
0.480622 0.078232 0.581 
0.524846 0.0779627 0.579 
0.351354 0.0811777 0.596 
0.393898 0.0802243 0.589 
0.430685 0.0800881 0.588 
0.456534 0.0798157 0.586 
0.481449 0.0792708 0.582 
0.0669781 0.0776954 0.564 
0.384968 0.0819659 0.595 
0.409927 0.0814149 0.591 
0.437249 0.0808639 0.587 
0.463255 0.0803128 0.583 
0.0625967 0.0785717 0.564 
0.356581 0.083169 0.597 
0.389726 0.0823331 0.591 
0.415155 0.0819152 0.588 
0.441809 0.0817759 0.587 
0.466771 0.081358 0.584 
0.0679747 0.0795889 0.565 
0.355984 0.0839557 0.596 
0.392983 0.0829696 0.589 
0.42115 0.0831105 0.59 
0.444848 0.0824062 0.585 
0.0565629 0.0804667 0.565 
0.387475 0.144128 1.012 
0.382195 0.0847393 0.595 
0.40854 0.0838847 0.589 
0.434513 0.0835999 0.587 
0.458726 0.0830302 0.583 
0.0729824 0.0810566 0.563 
0.361249 0.0855197 0.594 
0.389983 0.0849438 0.59 
0.418606 0.0847999 0.589 
0.443787 0.0843679 0.586 
0.0583186 0.0822223 0.565 
0.0853798 0.0820768 0.564 
0.377573 0.0865881 0.595 
0.401219 0.085715 0.589 
0.428672 0.085715 0.589 
0.451479 0.0848418 0.583 
0.0696069 0.0829531 0.564 
0.359403 0.0873655 0.594 
0.38815 0.0867772 0.59 
0.414241 0.086483 0.588 
0.447575 0.0860418 0.585 
0.0719796 0.0835321 0.562 
0.362484 0.0881397 0.593 
0.38815 0.0876938 0.59 
0.414241 0.0873966 0.588 
0.449392 0.0869507 0.585 
0.0786839 0.0841049 0.56 
0.372951 0.0893614 0.595 
0.396643 0.0884603 0.589 
0.425537 0.0887607 0.591 
0.0647629 0.0849749 0.56 
0.357877 0.0899824 0.593 
0.384867 0.0898307 0.592 
0.416776 0.0893754 0.589 
0.0724638 0.0856917 0.559 
0.362484 0.0909037 0.593 
0.391402 0.0901372 0.588 
0.0630228 0.0867151 0.56 
0.363405 0.0918251 0.593 
0.403964 0.0912057 0.589 
0.0794119 0.0874287 0.559 
0.397558 0.0921208 0.589 
0.0775359 0.0881393 0.558 
0.0629103 0.0891657 0.559 
0.0588821 0.0905174 0.562 
0.0537385 0.0915532 0.563 
0.0820174 0.0909027 0.559 
0.077397 0.0914429 0.557 
0.0693584 0.0919769 0.555 
0.0580089 0.0940101 0.562 
0.0839042 0.0936755 0.56 
0.0709549 0.0935326 0.554 
0.0596489 0.095586 0.561 
0.385972 0.171067 1.004 
0.0742636 0.0950821 0.553 
0.0673901 0.0959413 0.553 
0.0607355 0.0971506 0.555 
0.35448 0.110804 0.633 
0.392986 0.178366 1.01 
0.0639534 0.0993781 0.553 
0.0638378 0.100056 0.552 
0.0630942 0.101096 0.553 
0.361084 0.121937 0.667 
0.118129 0.114493 0.621 
0.116976 0.115272 0.62 
0.359046 0.129546 0.691 
0.359046 0.130619 0.691 
0.359625 0.131121 0.688 
0.392575 0.19156 0.997 
0.119286 0.120475 0.622 
0.0772788 0.107384 0.55 
0.360694 0.134328 0.688 
0.115606 0.122605 0.623 
0.066659 0.108498 0.547 
0.394124 0.197756 0.997 
0.072608 0.109348 0.547 
0.359046 0.138134 0.691 
0.0814031 0.110601 0.549 
0.0673854 0.110845 0.546 
0.0598601 0.111898 0.547 
0.386766 0.204157 0.998 
0.0754516 0.111923 0.543 
0.0696742 0.112974 0.544 
0.0641094 0.114447 0.547 
0.0567703 0.115929 0.55 
0.396101 0.211202 1.002 
0.077281 0.11551 0.544 
0.0729207 0.116141 0.543 
0.0662934 0.1172 0.544 
0.0570799 0.119998 0.553 
0.372246 0.170775 0.787 
0.0762953 0.118672 0.543 
0.0677338 0.119296 0.542 
0.379583 0.173221 0.787 
0.0830444 0.120359 0.543 
0.0701305 0.120757 0.541 
0.0561191 0.12407 0.552 
0.0805135 0.122047 0.543 
0.064603 0.123117 0.544 
0.379038 0.181959 0.804 
0.0779826 0.123734 0.543 
0.0661715 0.124578 0.543 
0.380425 0.186981 0.815 
0.0788262 0.125421 0.543 
0.0726521 0.1258 0.541 
0.0725178 0.126406 0.54 
0.0741958 0.127245 0.54 
0.0671386 0.129033 0.544 
0.386292 0.204461 0.862 
0.0843515 0.130356 0.546 
0.0637578 0.130723 0.544 
0.0896052 0.131444 0.547 
0.0662934 0.131569 0.544 
0.116218 0.146564 0.606 
0.0670151 0.13217 0.543 
0.119239 0.147749 0.607 
0.0692899 0.132524 0.541 
0.121324 0.148937 0.608 
0.0701305 0.133365 0.541 
0.369792 0.21225 0.861 
0.0691619 0.133957 0.54 
0.36717 0.212843 0.858 
0.0725178 0.134796 0.54 
0.378229 0.215924 0.865 
0.0815953 0.135384 0.539 
0.0716788 0.136474 0.54 
0.0765707 0.137059 0.539 
0.0774081 0.137896 0.539 
0.0698712 0.138734 0.539 
0.060044 0.140089 0.541 
0.0852602 0.140089 0.541 
0.0750348 0.140669 0.54 
0.0665215 0.141246 0.539 
0.060044 0.142611 0.541 
0.0854178 0.142874 0.542 
0.0707086 0.142921 0.539 
0.060772 0.144025 0.54 
0.559357 0.688653 2.582 
0.078681 0.145401 0.542 
0.0698712 0.145433 0.539 
2.175 0.640823 2.375 
0.0862599 0.147085 0.542 
0.0689057 0.146835 0.538 
0.582749 0.703881 2.579 
0.0714133 0.147671 0.538 
1.23284 0.663147 2.416 
0.0723835 0.148783 0.539 
1.22909 0.666901 2.416 
0.0714133 0.149343 0.538 
1.21783 0.670654 2.416 
0.067109 0.149899 0.537 
0.576963 0.7227 2.589 
0.061611 0.151576 0.54 
0.087102 0.152137 0.542 
0.059094 0.152415 0.54 
0.0877818 0.152697 0.541 
0.0631718 0.15297 0.539 
1.23648 0.69617 2.453 
0.0697416 0.153522 0.538 
2.14387 0.668021 2.341 
0.080608 0.154358 0.538 
0.060044 0.156059 0.541 
0.0869412 0.156059 0.541 
0.0716788 0.15661 0.54 
0.0583629 0.15774 0.541 
0.0844196 0.15774 0.541 
0.0726521 0.158581 0.541 
1.31053 0.746004 2.545 
0.0847317 0.160011 0.543 
0.070971 0.160262 0.541 
1.3035 0.752135 2.539 
0.0820494 0.1614 0.542 
0.0587944 0.16314 0.545 
1.29431 0.763916 2.552 
0.0785359 0.162784 0.541 
1.32708 0.754943 2.509 
0.0882269 0.166044 0.549 
0.0605989 0.165985 0.546 
0.0933447 0.166897 0.549 
0.0637578 0.166222 0.544 
0.0924917 0.16775 0.549 
0.0621815 0.167374 0.545 
0.0899328 0.168603 0.549 
1.35193 0.773607 2.519 
0.0830444 0.167604 0.543 
1.34411 0.77752 2.519 
0.0840426 0.168757 0.544 
0.0643655 0.168979 0.542 
1.28091 0.794701 2.549 
0.0768548 0.169508 0.541 
1.3288 0.803674 2.565 
0.0802169 0.170348 0.541 
1.33821 0.801362 2.545 
0.0837336 0.171505 0.542 
0.0617251 0.17203 0.541 
0.110212 0.187293 0.589 
0.0659278 0.17287 0.541 
0.115177 0.188847 0.591 
0.0681963 0.173068 0.539 
1.3497 0.849288 2.645 
0.0760142 0.174551 0.541 
4.96387 2.20528 6.835 
0.0840426 0.176364 0.544 
0.0726521 0.176232 0.541 
4.99573 2.22652 6.835 
4.78425 2.19852 6.717 
0.0781262 0.1789 0.544 
4.96761 2.23987 6.811 
3.76164 1.9164 5.8 
4.94079 2.21939 6.717 
0.0748828 0.180922 0.545 
4.72039 2.21456 6.671 
0.0626813 0.180768 0.542 
3.83957 1.96978 5.906 
4.91143 2.21758 6.649 
0.078557 0.183286 0.547 
4.48521 2.14749 6.409 
4.77233 2.08584 6.225 
4.1052 2.21569 6.582 
5.1999 2.41026 7.16 
0.0760074 0.184986 0.547 
4.55518 2.21104 6.538 
0.0671386 0.184816 0.544 
0.119753 0.197726 0.582 
4.81044 2.14917 6.326 
0.115232 0.19863 0.582 
5.43405 2.57571 7.547 
0.0754324 0.188221 0.549 
4.81394 2.65943 7.757 
4.86356 2.27168 6.626 
0.0798424 0.189418 0.55 
2.79471 2.02161 5.87 
5.86471 2.97869 8.649 
5.09153 2.10392 6.109 
0.110901 0.201689 0.583 
5.1275 2.86551 8.283 
5.54676 2.76034 7.979 
0.0799875 0.191475 0.551 
2.85316 2.1031 6.052 
4.58303 2.49751 7.187 
4.7939 2.22715 6.409 
0.0815514 0.191982 0.55 
0.121353 0.202803 0.581 
4.40104 2.38581 6.835 
4.81529 2.25177 6.451 
0.0971471 0.204056 0.582 
3.00224 2.19658 6.265 
4.32065 2.34699 6.694 
4.91443 2.28458 6.516 
0.105104 0.204608 0.581 
4.30581 2.34929 6.671 
-0.00971733 0.209402 0.592 
0.116638 0.205157 0.58 
4.32065 2.36779 6.694 
-0.00604842 0.210677 0.593 
3.11303 2.33059 6.56 
5.42338 2.77788 7.819 
0.0995167 0.206959 0.58 
4.39549 2.61233 7.321 
0.0606926 0.210727 0.588 
0.111231 0.20786 0.58 
4.64933 2.72584 7.606 
0.0927851 0.209841 0.583 
0.12231 0.207682 0.577 
0.0459972 0.212193 0.587 
0.106007 0.210024 0.581 
3.05028 2.12844 5.888 
0.0650384 0.212742 0.586 
0.105104 0.210927 0.581 
2.94275 2.08095 5.732 
0.0487333 0.214017 0.587 
0.0879533 0.211829 0.581 
0.118032 0.210736 0.578 
4.18348 2.52737 6.932 
0.0650384 0.214563 0.586 
0.0968133 0.212366 0.58 
0.122993 0.210901 0.576 
5.57724 2.95738 8.077 
0.0682114 0.214003 0.582 
0.0986155 0.213267 0.58 
2.31237 2.21173 6.015 
-0.00419158 0.21823 0.591 
0.066517 0.215276 0.583 
