# .PCD v.7 - Point Cloud Data file format
VERSION .7
FIELDS x y z
SIZE 4 4 4
TYPE F F F
COUNT 1 1 1
WIDTH 1926
HEIGHT 1
VIEWPOINT 0 0 0 1 0 0 0
POINTS 1926
DATA ascii
8.01474 3.38196 8.649 
-0.462291 0.221413 0.564 
-0.44528 0.226124 0.576 
-0.427876 0.231228 0.589 
-0.4113 0.237509 0.605 
-0.391332 0.242612 0.618 
-0.369567 0.247323 0.63 
-0.348842 0.253604 0.646 
-0.325639 0.2591 0.66 
-0.304706 0.267737 0.682 
-0.280921 0.275589 0.702 
-0.248908 0.276374 0.704 
-0.222847 0.28501 0.726 
-0.194215 0.292862 0.746 
-0.16465 0.304639 0.776 
-0.132454 0.314061 0.8 
-0.0981396 0.323876 0.825 
-0.0620735 0.336831 0.858 
-0.0229827 0.350571 0.893 
0.01935 0.363918 0.927 
0.0644473 0.37491 0.955 
0.116458 0.395324 1.007 
0.178581 0.416131 1.06 
0.275816 0.454211 1.157 
0.349409 0.481299 1.226 
0.430429 0.509564 1.298 
0.514208 0.52723 1.343 
4.24029 3.78012 9.629 
2.55355 2.052 5.227 
4.19384 2.94 7.489 
3.21181 2.05749 5.241 
3.58073 2.13169 5.43 
4.15719 2.31149 5.888 
4.68528 2.44379 6.225 
8.84579 4.31127 10.982 
9.05261 4.17073 10.624 
8.52777 3.72516 9.489 
8.67512 3.60267 9.177 
-0.45506 0.223472 0.567 
-0.438459 0.228595 0.58 
-0.422066 0.234507 0.595 
-0.403611 0.240025 0.609 
-0.382883 0.245543 0.623 
-0.360093 0.249878 0.634 
-0.342533 0.258943 0.657 
-0.317607 0.263673 0.669 
-0.296272 0.272738 0.692 
-0.265925 0.274709 0.697 
-0.237122 0.279044 0.708 
-0.21133 0.288897 0.733 
-0.18224 0.297174 0.754 
-0.149936 0.307816 0.781 
-0.11804 0.320034 0.812 
-0.0830565 0.331463 0.841 
-0.0454217 0.343287 0.871 
-0.00502357 0.357476 0.907 
0.0388127 0.372453 0.945 
0.0855776 0.384671 0.976 
0.149933 0.411472 1.044 
0.205252 0.425266 1.079 
0.299226 0.470197 1.193 
0.368811 0.488721 1.24 
0.469339 0.528134 1.34 
5.22355 5.06851 12.86 
3.56894 3.10653 7.882 
2.35952 1.85635 4.71 
3.00067 2.03292 5.158 
3.39315 2.1283 5.4 
3.81359 2.22683 5.65 
4.28692 2.34153 5.941 
4.75204 2.43809 6.186 
8.59833 4.11984 10.453 
8.94214 4.05481 10.288 
8.13681 3.50185 8.885 
9.00134 3.6863 9.353 
-0.447301 0.227122 0.574 
-0.429338 0.231871 0.586 
-0.413002 0.238202 0.602 
-0.392615 0.24295 0.614 
-0.369173 0.249676 0.631 
-0.347839 0.255612 0.646 
-0.324122 0.260756 0.659 
-0.303646 0.269856 0.682 
-0.279432 0.277374 0.701 
-0.247814 0.278561 0.704 
-0.221719 0.287266 0.726 
-0.193056 0.29518 0.746 
-0.163444 0.307051 0.776 
-0.131211 0.316547 0.8 
-0.0969752 0.326835 0.826 
-0.0606697 0.339101 0.857 
-0.0215952 0.353346 0.893 
0.0208127 0.367195 0.928 
0.0658621 0.377482 0.954 
0.116111 0.397267 1.004 
0.180568 0.420216 1.062 
0.238517 0.435648 1.101 
0.318003 0.477986 1.208 
0.397238 0.507267 1.282 
0.479314 0.527446 1.333 
5.2346 5.02241 12.693 
3.34802 2.88612 7.294 
2.38754 1.86842 4.722 
4.14338 2.9522 7.461 
3.19465 2.0627 5.213 
3.59062 2.1545 5.445 
4.22123 2.32979 5.888 
4.75298 2.46313 6.225 
8.64204 4.18079 10.566 
8.98928 4.11432 10.398 
8.20746 3.56432 9.008 
9.088 3.75464 9.489 
-0.448302 0.227617 0.573 
-0.430423 0.232384 0.585 
-0.414183 0.23874 0.601 
-0.393881 0.243507 0.613 
-0.370345 0.249465 0.628 
-0.350306 0.256218 0.645 
-0.326697 0.261382 0.658 
-0.305475 0.269724 0.679 
-0.281893 0.277669 0.699 
-0.250025 0.278463 0.701 
-0.224793 0.287997 0.725 
-0.195743 0.295147 0.743 
-0.166846 0.307859 0.775 
-0.134434 0.316598 0.797 
-0.100337 0.326529 0.822 
-0.0643624 0.338844 0.853 
-0.025671 0.353541 0.89 
0.0163807 0.366253 0.922 
0.0612223 0.377773 0.951 
0.111098 0.397635 1.001 
0.188402 0.424647 1.069 
0.24692 0.440139 1.108 
0.326858 0.481849 1.213 
0.411008 0.514025 1.294 
0.48662 0.530709 1.336 
4.98947 4.73467 11.919 
3.16865 2.70558 6.811 
2.42866 1.88489 4.745 
4.21711 2.97491 7.489 
3.28008 2.11013 5.312 
3.65651 2.18719 5.506 
4.2195 2.31788 5.835 
4.717 2.43427 6.128 
8.91733 4.29016 10.8 
8.927 4.06533 10.234 
8.05507 3.48218 8.766 
9.58075 3.94179 9.923 
-0.446409 0.228906 0.574 
-0.428428 0.233692 0.586 
-0.412066 0.240072 0.602 
-0.391661 0.244858 0.614 
-0.370345 0.250441 0.628 
-0.349763 0.256821 0.644 
-0.326697 0.262405 0.658 
-0.305475 0.270779 0.679 
-0.281489 0.278356 0.698 
-0.249669 0.279154 0.7 
-0.224483 0.288725 0.724 
-0.195743 0.296302 0.743 
-0.166631 0.308664 0.774 
-0.134265 0.317438 0.796 
-0.100215 0.327407 0.821 
-0.0642869 0.33977 0.852 
-0.0256422 0.354525 0.889 
0.0163807 0.367685 0.922 
0.0611579 0.378852 0.95 
0.110876 0.398392 0.999 
0.200223 0.430296 1.079 
0.260035 0.446646 1.12 
0.341171 0.485329 1.217 
0.423439 0.514042 1.289 
0.505485 0.535178 1.342 
4.68114 4.33087 10.86 
2.85542 2.38397 5.978 
2.50546 1.90582 4.779 
2.98551 2.01429 5.051 
3.51108 2.19574 5.506 
3.91142 2.27949 5.716 
4.23924 2.31299 5.8 
4.64798 2.38397 5.978 
9.34549 4.48002 11.234 
8.9906 4.08123 10.234 
7.96615 3.43399 8.611 
9.74056 3.99748 10.024 
-0.44272 0.230198 0.575 
-0.426046 0.235803 0.589 
-0.406866 0.241808 0.604 
-0.386238 0.246612 0.616 
-0.366232 0.252618 0.631 
-0.345895 0.259423 0.648 
-0.322025 0.264628 0.661 
-0.301789 0.274236 0.685 
-0.274983 0.279441 0.698 
-0.24488 0.282243 0.705 
-0.218636 0.291051 0.727 
-0.189325 0.298257 0.745 
-0.160033 0.311068 0.777 
-0.127801 0.321077 0.802 
-0.0933507 0.331485 0.828 
-0.0567413 0.343496 0.858 
-0.0174329 0.357508 0.893 
0.0252736 0.373522 0.933 
0.0703087 0.381929 0.954 
0.12079 0.401946 1.004 
0.211256 0.433974 1.084 
0.278928 0.462398 1.155 
0.353218 0.490823 1.226 
0.433793 0.518847 1.296 
0.512122 0.537663 1.343 
4.31046 3.93259 9.823 
2.55769 2.10942 5.269 
2.58728 1.94688 4.863 
3.0404 2.02735 5.064 
3.56241 2.2043 5.506 
4.03546 2.32921 5.818 
4.33254 2.34322 5.853 
4.51015 2.29478 5.732 
9.45021 4.49747 11.234 
8.85428 3.99264 9.973 
8.11838 3.4782 8.688 
-0.455413 0.225867 0.562 
-0.43991 0.231494 0.576 
-0.423819 0.237522 0.591 
-0.402564 0.24355 0.606 
-0.382966 0.249177 0.62 
-0.361492 0.254402 0.633 
-0.337921 0.262842 0.654 
-0.316369 0.270478 0.673 
-0.290896 0.278114 0.692 
-0.259763 0.279319 0.695 
-0.232931 0.286152 0.712 
-0.206477 0.295797 0.736 
-0.177535 0.30705 0.764 
-0.144711 0.313079 0.779 
-0.11369 0.328351 0.817 
-0.0776449 0.337193 0.839 
-0.0401006 0.350857 0.873 
0.000612488 0.36412 0.906 
0.0446383 0.379392 0.944 
0.0930516 0.398281 0.991 
0.189283 0.431639 1.074 
0.247143 0.445705 1.109 
0.325241 0.485091 1.207 
0.407417 0.518047 1.289 
0.484907 0.537338 1.337 
4.8311 4.62103 11.498 
3.07212 2.62761 6.538 
2.45646 1.91143 4.756 
2.96197 2.02999 5.051 
3.54261 2.23817 5.569 
3.89094 2.29042 5.699 
4.19304 2.31051 5.749 
4.63869 2.40255 5.978 
9.47385 4.5941 11.431 
9.10237 4.17894 10.398 
8.01039 3.49169 8.688 
9.01588 3.74087 9.308 
-0.443851 0.231178 0.573 
-0.427335 0.236826 0.587 
-0.405519 0.242878 0.602 
-0.386238 0.248527 0.616 
-0.365651 0.254175 0.63 
-0.341913 0.262244 0.65 
-0.320725 0.269909 0.669 
-0.294131 0.277172 0.687 
-0.264781 0.279996 0.694 
-0.237122 0.285644 0.708 
-0.211041 0.295327 0.732 
-0.181273 0.302589 0.75 
-0.150376 0.313482 0.777 
-0.119596 0.32841 0.814 
-0.0837613 0.336883 0.835 
-0.0465065 0.34939 0.866 
-0.00638311 0.363107 0.9 
0.0370678 0.378438 0.938 
0.0841473 0.394173 0.977 
0.134862 0.409907 1.016 
0.24542 0.447428 1.109 
0.32283 0.48616 1.205 
0.404157 0.518436 1.285 
0.484907 0.539415 1.337 
4.80295 4.61186 11.431 
3.11388 2.69143 6.671 
2.42987 1.90954 4.733 
2.97746 2.04308 5.064 
3.61566 2.22786 5.522 
4.09258 2.35414 5.835 
4.37801 2.36141 5.853 
9.68143 4.86805 12.066 
9.21996 4.38149 10.86 
8.70965 3.92357 9.725 
8.56652 3.66819 9.092 
-0.453599 0.228018 0.563 
-0.435005 0.234498 0.579 
-0.417883 0.240168 0.593 
-0.396692 0.247054 0.61 
-0.376108 0.252319 0.623 
-0.353755 0.257179 0.635 
-0.332325 0.266089 0.657 
-0.309968 0.273379 0.675 
-0.285933 0.280669 0.693 
-0.25473 0.281884 0.696 
-0.228996 0.290389 0.717 
-0.201032 0.298489 0.737 
-0.173691 0.311044 0.768 
-0.140229 0.31631 0.781 
-0.108612 0.33089 0.817 
-0.0725171 0.340205 0.84 
-0.0347943 0.354785 0.876 
0.0062499 0.36734 0.907 
0.050505 0.382326 0.944 
0.0991102 0.400956 0.99 
0.200965 0.438621 1.083 
0.290565 0.475072 1.173 
0.362015 0.498157 1.23 
0.447643 0.531773 1.313 
0.519693 0.543113 1.341 
3.95845 3.61508 8.926 
2.38813 1.95496 4.827 
3.0816 2.13965 5.283 
3.47839 2.23644 5.522 
3.81087 2.2814 5.633 
4.12115 2.30813 5.699 
4.64388 2.4434 6.033 
9.57061 4.71224 11.635 
9.03775 4.21125 10.398 
7.99211 3.53449 8.727 
8.51244 3.58228 8.845 
-0.448612 0.231739 0.57 
-0.431669 0.237024 0.583 
-0.410257 0.243123 0.598 
-0.391976 0.249221 0.613 
-0.371703 0.254913 0.627 
-0.34958 0.260198 0.64 
-0.328742 0.267516 0.658 
-0.306226 0.274834 0.676 
-0.281626 0.281746 0.693 
-0.250765 0.283372 0.697 
-0.224854 0.29191 0.718 
-0.196985 0.300447 0.739 
-0.167399 0.313864 0.772 
-0.13448 0.321182 0.79 
-0.100093 0.333379 0.82 
-0.0625937 0.344356 0.847 
-0.0241245 0.359399 0.884 
0.0178711 0.376068 0.925 
0.0625021 0.385418 0.948 
0.111753 0.403714 0.993 
0.214228 0.439897 1.082 
0.313791 0.484619 1.192 
0.388871 0.510232 1.255 
0.480465 0.545603 1.342 
4.76982 4.70227 11.566 
3.29891 2.92194 7.187 
2.38147 1.9149 4.71 
4.25433 3.08009 7.576 
3.14438 2.09134 5.144 
3.62229 2.23852 5.506 
4.09873 2.36536 5.818 
4.43601 2.40114 5.906 
9.70018 4.90555 12.066 
9.39333 4.49004 11.044 
8.76872 3.97371 9.774 
8.54101 3.67936 9.05 
-0.456346 0.228951 0.561 
-0.437984 0.235481 0.577 
-0.421065 0.241195 0.591 
-0.400399 0.247725 0.607 
-0.380076 0.25303 0.62 
-0.357975 0.257928 0.632 
-0.337874 0.265274 0.65 
-0.318934 0.275068 0.674 
-0.292637 0.279966 0.686 
-0.263702 0.283231 0.694 
-0.235689 0.288536 0.707 
-0.209904 0.298739 0.732 
-0.179868 0.305677 0.749 
-0.146754 0.317104 0.777 
-0.115801 0.332204 0.814 
-0.0798693 0.340774 0.835 
-0.04247 0.353426 0.866 
-0.00218819 0.367302 0.9 
0.0413957 0.382402 0.937 
0.0895182 0.4024 0.986 
0.139323 0.413827 1.014 
0.266913 0.459944 1.127 
0.344102 0.495449 1.214 
0.429447 0.526058 1.289 
0.507757 0.545647 1.337 
4.4201 4.155 10.181 
2.79707 2.3744 5.818 
2.97164 2.26625 5.553 
3.22878 2.24707 5.506 
3.60754 2.22218 5.445 
4.08897 2.35318 5.766 
4.57388 2.4699 6.052 
9.48271 4.77696 11.705 
9.51509 4.5325 11.106 
8.36875 3.78076 9.264 
8.29041 3.5616 8.727 
-0.453731 0.229823 0.561 
-0.434105 0.237197 0.579 
-0.416259 0.242523 0.592 
-0.39917 0.249077 0.608 
-0.37815 0.253993 0.62 
-0.356011 0.258909 0.632 
-0.336389 0.267512 0.653 
-0.315324 0.275706 0.673 
-0.290284 0.281851 0.688 
-0.260468 0.284309 0.694 
-0.232722 0.290044 0.708 
-0.206492 0.299876 0.732 
-0.176848 0.30766 0.751 
-0.143317 0.318721 0.778 
-0.110743 0.333469 0.814 
-0.0748589 0.342891 0.837 
-0.0373022 0.35682 0.871 
0.0034164 0.369929 0.903 
0.0473197 0.384677 0.939 
0.0956459 0.403931 0.986 
0.191308 0.440802 1.076 
0.276513 0.469069 1.145 
0.350913 0.498974 1.218 
0.43145 0.528061 1.289 
0.509834 0.547725 1.337 
4.56291 4.3523 10.624 
2.98277 2.56656 6.265 
2.54822 1.99713 4.875 
4.22962 3.01064 7.349 
3.6468 2.31462 5.65 
3.9669 2.34821 5.732 
4.23407 2.34821 5.732 
4.60961 2.40474 5.87 
9.69355 4.73821 11.566 
9.50187 4.39982 10.74 
8.01967 3.52764 8.611 
8.38387 3.51207 8.573 
-0.445069 0.234396 0.57 
-0.42878 0.240153 0.584 
-0.409811 0.245087 0.596 
-0.392287 0.251667 0.612 
-0.371489 0.257013 0.625 
-0.350026 0.26277 0.639 
-0.328242 0.270172 0.657 
-0.306226 0.277985 0.676 
-0.28122 0.284565 0.692 
-0.250765 0.286621 0.697 
-0.224227 0.294434 0.716 
-0.196719 0.303481 0.738 
-0.167725 0.315817 0.768 
-0.135192 0.323631 0.787 
-0.102641 0.337201 0.82 
-0.0662273 0.346659 0.843 
-0.0280851 0.361463 0.879 
0.0134424 0.377089 0.917 
0.0580221 0.389426 0.947 
0.106477 0.405875 0.987 
0.202274 0.444529 1.081 
0.279264 0.472492 1.149 
0.352806 0.500867 1.218 
0.433452 0.530063 1.289 
0.511911 0.549802 1.337 
4.52195 4.29849 10.453 
2.92748 2.51215 6.109 
3.20836 2.45828 5.978 
3.67832 2.59316 6.306 
3.61041 2.25143 5.475 
4.05905 2.36411 5.749 
4.52722 2.47349 6.015 
9.50363 4.84253 11.776 
10.0525 4.84253 11.776 
8.79909 4.01927 9.774 
8.4129 3.65369 8.885 
-0.453731 0.231566 0.561 
-0.438253 0.237345 0.575 
-0.42147 0.243124 0.589 
-0.402713 0.24849 0.602 
-0.383989 0.254682 0.617 
-0.362715 0.260048 0.63 
-0.341287 0.266239 0.645 
-0.320874 0.274495 0.665 
-0.297725 0.281925 0.683 
-0.269393 0.28564 0.692 
-0.240223 0.289355 0.701 
-0.214655 0.299261 0.725 
-0.185852 0.307517 0.745 
-0.156605 0.318662 0.772 
-0.12484 0.329807 0.799 
-0.0902296 0.339713 0.823 
-0.0538231 0.352509 0.854 
-0.0145924 0.366956 0.889 
0.0281124 0.384293 0.931 
0.0741948 0.39874 0.966 
0.12391 0.414425 1.004 
0.219474 0.447034 1.083 
0.296077 0.481295 1.166 
0.369358 0.507299 1.229 
0.456497 0.542798 1.315 
0.526452 0.551879 1.337 
4.10834 3.82394 9.264 
2.50393 2.09565 5.077 
3.64079 2.74454 6.649 
9.23905 6.25477 15.153 
3.66995 2.25994 5.475 
4.06207 2.33878 5.666 
4.73847 2.56168 6.206 
9.67137 4.89014 11.847 
10.5716 5.01149 12.141 
7.89926 3.5544 8.611 
8.30062 3.5544 8.611 
-0.446155 0.235338 0.568 
-0.430025 0.241139 0.582 
-0.410512 0.245696 0.593 
-0.393849 0.25274 0.61 
-0.372605 0.257712 0.622 
-0.3519 0.263927 0.637 
-0.331314 0.271385 0.655 
-0.30905 0.278843 0.673 
-0.285521 0.286715 0.692 
-0.255828 0.289615 0.699 
-0.227719 0.295416 0.713 
-0.199941 0.303702 0.733 
-0.17143 0.314061 0.758 
-0.13969 0.322347 0.778 
-0.108213 0.337263 0.814 
-0.0723444 0.347207 0.838 
-0.0346355 0.361294 0.872 
0.00622923 0.374552 0.904 
0.050291 0.389468 0.94 
0.0983093 0.40687 0.982 
0.193385 0.442916 1.069 
0.251629 0.458247 1.106 
0.329222 0.497608 1.201 
0.399634 0.516253 1.246 
0.4882 0.550642 1.329 
4.98947 4.93837 11.919 
3.01138 2.66413 6.43 
2.50417 2.01488 4.863 
4.33026 3.15138 7.606 
9.59219 6.27831 15.153 
3.88731 2.32728 5.617 
4.16094 2.33391 5.633 
4.75253 2.50751 6.052 
9.79187 4.84971 11.705 
9.44876 4.40182 10.624 
8.35464 3.69829 8.926 
-0.455532 0.232894 0.56 
-0.438633 0.237884 0.572 
-0.422775 0.244122 0.587 
-0.404172 0.249529 0.6 
-0.385611 0.255767 0.615 
-0.365071 0.261589 0.629 
-0.343226 0.267412 0.643 
-0.321051 0.274066 0.659 
-0.295602 0.284047 0.683 
-0.267243 0.28779 0.692 
-0.238045 0.291533 0.701 
-0.212402 0.301514 0.725 
-0.183783 0.310248 0.746 
-0.153006 0.321061 0.772 
-0.121571 0.333537 0.802 
-0.0869185 0.34435 0.828 
-0.0499593 0.355995 0.856 
-0.0104723 0.37055 0.891 
0.0324867 0.387602 0.932 
0.0802452 0.409643 0.985 
0.128846 0.418377 1.006 
0.228502 0.454974 1.094 
0.297633 0.484502 1.165 
0.370664 0.510287 1.227 
0.455402 0.543141 1.306 
0.527739 0.555202 1.335 
3.91473 3.64562 8.766 
2.48745 2.0844 5.012 
3.92526 2.95609 7.108 
9.30967 6.30185 15.153 
3.70784 2.28984 5.506 
4.06816 2.34973 5.65 
4.77233 2.58886 6.225 
9.82701 4.98725 11.992 
12.1796 5.84854 14.063 
7.96099 3.59696 8.649 
8.51499 3.66184 8.805 
-0.442625 0.237103 0.568 
-0.427873 0.243782 0.584 
-0.408885 0.248791 0.596 
-0.390058 0.254635 0.61 
-0.370518 0.260897 0.625 
-0.34958 0.267159 0.64 
-0.327243 0.27342 0.655 
-0.304725 0.281769 0.675 
-0.27974 0.288448 0.691 
-0.250756 0.292205 0.7 
-0.22218 0.297631 0.713 
-0.194512 0.306397 0.734 
-0.166852 0.318921 0.764 
-0.135021 0.328104 0.786 
-0.102516 0.341879 0.819 
-0.0660702 0.351063 0.841 
-0.0280212 0.366091 0.877 
0.0133691 0.380701 0.912 
0.0583285 0.397398 0.952 
0.106262 0.411174 0.985 
0.207445 0.447908 1.073 
0.268975 0.467945 1.121 
0.349185 0.505931 1.212 
0.427768 0.533482 1.278 
0.509834 0.558111 1.337 
4.76046 4.61015 11.044 
3.05112 2.65781 6.367 
3.24955 2.54218 6.09 
9.76001 6.85679 16.426 
3.58808 2.2984 5.506 
3.87753 2.31802 5.553 
4.20861 2.35851 5.65 
9.80707 5.13195 12.294 
9.76543 4.82806 11.566 
9.03966 4.20608 10.076 
8.42398 3.72603 8.926 
-0.449301 0.235472 0.562 
-0.434399 0.241757 0.577 
-0.415979 0.246784 0.589 
-0.39908 0.253488 0.605 
-0.37885 0.258935 0.618 
-0.356842 0.263963 0.63 
-0.337874 0.272343 0.65 
-0.313255 0.277371 0.662 
-0.291358 0.286169 0.683 
-0.263702 0.290778 0.694 
-0.233688 0.293711 0.701 
-0.20847 0.304605 0.727 
-0.180108 0.314242 0.75 
-0.149408 0.323459 0.772 
-0.117979 0.336448 0.803 
-0.0832597 0.347761 0.83 
-0.0460232 0.359073 0.857 
-0.00633347 0.374157 0.893 
0.0368702 0.390917 0.933 
0.0868928 0.415218 0.991 
0.134964 0.421084 1.005 
0.245806 0.462145 1.103 
0.322509 0.498597 1.19 
0.391315 0.516194 1.232 
0.479699 0.551808 1.317 
5.19833 5.18373 12.372 
3.03142 2.6853 6.409 
2.65999 2.13852 5.104 
4.34208 3.18683 7.606 
9.32841 6.20481 14.809 
3.78483 2.30695 5.506 
4.08771 2.33335 5.569 
4.98661 2.6765 6.388 
9.85544 4.96376 11.847 
9.4685 4.49994 10.74 
8.32336 3.75707 8.967 
-0.455532 0.235504 0.56 
-0.437866 0.24013 0.571 
-0.420951 0.246858 0.587 
-0.399635 0.253587 0.603 
-0.380154 0.259475 0.617 
-0.3588 0.264942 0.63 
-0.338848 0.272512 0.648 
-0.31436 0.277558 0.66 
-0.29305 0.28681 0.682 
-0.26471 0.290595 0.691 
-0.23553 0.29438 0.7 
-0.20986 0.304473 0.724 
-0.181952 0.314566 0.748 
-0.15161 0.324238 0.771 
-0.120024 0.336434 0.8 
-0.085632 0.348209 0.828 
-0.0485157 0.359143 0.854 
-0.00908793 0.374703 0.891 
0.0338983 0.391525 0.931 
0.0824397 0.417599 0.993 
0.129761 0.420963 1.001 
0.239792 0.462176 1.099 
0.311141 0.494138 1.175 
0.383036 0.517267 1.23 
0.465428 0.546705 1.3 
4.92687 5.04315 11.992 
3.03149 2.74951 6.538 
2.54076 2.08127 4.949 
4.33548 3.21126 7.636 
9.21219 6.18071 14.697 
3.76599 2.3092 5.491 
4.07906 2.342 5.569 
5.14496 2.77726 6.604 
9.85544 4.98217 11.847 
9.33151 4.44345 10.566 
8.37541 3.78825 9.008 
-0.453792 0.236374 0.56 
-0.436599 0.242283 0.574 
-0.419127 0.24777 0.587 
-0.397482 0.254946 0.604 
-0.377279 0.260433 0.617 
-0.356428 0.266343 0.631 
-0.336864 0.274363 0.65 
-0.311283 0.278584 0.66 
-0.289871 0.28787 0.682 
-0.262624 0.292935 0.694 
-0.232599 0.295889 0.701 
-0.207341 0.306864 0.727 
-0.179181 0.316994 0.751 
-0.148208 0.325858 0.772 
-0.116441 0.338099 0.801 
-0.0795824 0.351184 0.832 
-0.0421267 0.362581 0.859 
-0.00217117 0.376932 0.893 
0.0411748 0.393394 0.932 
0.0897906 0.417453 0.989 
0.137949 0.423785 1.004 
0.250492 0.464728 1.101 
0.327029 0.503561 1.193 
0.396426 0.521711 1.236 
0.484159 0.556323 1.318 
5.15218 5.15675 12.217 
3.03152 2.73223 6.473 
3.86089 2.96776 7.031 
9.0982 6.29852 14.922 
3.60126 2.27299 5.385 
4.06472 2.39835 5.682 
4.58329 2.53891 6.015 
9.57682 4.97061 11.776 
11.7534 5.76963 13.669 
8.40062 3.89173 9.22 
8.3582 3.68363 8.727 
-0.439203 0.24021 0.567 
-0.425151 0.247412 0.584 
-0.404683 0.253343 0.598 
-0.386261 0.259697 0.613 
-0.365858 0.265629 0.627 
-0.343077 0.270712 0.639 
-0.321627 0.277914 0.656 
-0.299481 0.285964 0.675 
-0.272784 0.291048 0.687 
-0.244617 0.295708 0.698 
-0.216337 0.301639 0.712 
-0.189582 0.31223 0.737 
-0.161338 0.324516 0.766 
-0.129735 0.335107 0.791 
-0.085632 0.350782 0.828 
-0.0484021 0.36095 0.852 
-0.00906753 0.376625 0.889 
0.033789 0.393147 0.928 
0.0824397 0.420684 0.993 
0.129372 0.422803 0.998 
0.248781 0.466439 1.101 
0.324358 0.504143 1.19 
0.393229 0.521937 1.232 
0.479917 0.555829 1.312 
5.02003 5.08041 11.992 
3.05188 2.77914 6.56 
2.72865 2.23814 5.283 
9.0293 6.27383 14.809 
3.59122 2.275 5.37 
4.09459 2.41438 5.699 
4.61576 2.55588 6.033 
9.745 5.01898 11.847 
14.3989 7.01818 16.566 
8.43273 3.88784 9.177 
8.27731 3.63195 8.573 
-0.436855 0.243216 0.572 
-0.419517 0.248744 0.585 
-0.399243 0.255547 0.601 
-0.380495 0.261925 0.616 
-0.359207 0.267453 0.629 
-0.337802 0.274682 0.646 
-0.313883 0.280209 0.659 
-0.291761 0.288713 0.679 
-0.263944 0.292965 0.689 
-0.23553 0.297642 0.7 
-0.20957 0.307422 0.723 
-0.181952 0.318052 0.748 
-0.151413 0.327407 0.77 
-0.119574 0.338887 0.797 
-0.0745012 0.354195 0.833 
-0.0369596 0.366951 0.863 
0.00338613 0.380557 0.895 
0.0469669 0.39629 0.932 
0.0953549 0.417975 0.983 
0.191922 0.443487 1.043 
0.261939 0.470275 1.106 
0.340418 0.51067 1.201 
0.41587 0.535757 1.26 
0.501719 0.566371 1.332 
4.52985 4.46846 10.509 
3.09186 2.75234 6.473 
4.26149 3.20901 7.547 
9.07588 6.20287 14.588 
3.64775 2.27697 5.355 
4.07282 2.35435 5.537 
8.35935 4.51736 10.624 
9.87384 5.03739 11.847 
9.02313 4.329 10.181 
8.48176 3.86595 9.092 
-0.452052 0.238984 0.56 
-0.433924 0.244959 0.574 
-0.415682 0.25008 0.586 
-0.394013 0.257335 0.603 
-0.373796 0.262883 0.616 
-0.354047 0.269711 0.632 
-0.326765 0.277392 0.65 
-0.30559 0.285927 0.67 
-0.282961 0.294889 0.691 
-0.255471 0.300437 0.704 
-0.223606 0.301717 0.707 
-0.194586 0.311533 0.73 
-0.166719 0.323482 0.758 
-0.135895 0.334578 0.784 
-0.0913971 0.350794 0.822 
-0.0521889 0.362317 0.849 
-0.0131517 0.37768 0.885 
0.0292096 0.392617 0.92 
0.0773412 0.421209 0.987 
0.124345 0.424623 0.995 
0.238264 0.466019 1.092 
0.316668 0.504427 1.182 
0.386229 0.524058 1.228 
0.468745 0.553931 1.298 
4.80576 4.93587 11.566 
3.12515 2.87634 6.74 
4.16656 3.18404 7.461 
9.00668 6.27205 14.697 
3.58843 2.27931 5.341 
4.11718 2.40392 5.633 
5.588 3.0671 7.187 
9.90153 5.11767 11.992 
11.7237 5.67502 13.298 
8.63988 3.97226 9.308 
-0.454719 0.239426 0.559 
-0.435966 0.244994 0.572 
-0.418608 0.250562 0.585 
-0.398309 0.257415 0.601 
-0.378922 0.263411 0.615 
-0.35823 0.269408 0.629 
-0.334791 0.276689 0.646 
-0.305716 0.286112 0.668 
-0.283623 0.295535 0.69 
-0.256564 0.301531 0.704 
-0.224069 0.301959 0.705 
-0.197989 0.312667 0.73 
-0.169578 0.323375 0.755 
-0.138837 0.334083 0.78 
-0.105241 0.343077 0.801 
-0.0559477 0.362351 0.846 
-0.0171987 0.377342 0.881 
0.0246777 0.390191 0.911 
0.0722248 0.419745 0.98 
0.119467 0.425313 0.993 
0.230206 0.465146 1.086 
0.308789 0.502409 1.173 
0.379886 0.525109 1.226 
0.4602 0.552949 1.291 
4.66781 4.81165 11.234 
3.20164 2.93778 6.859 
3.02284 2.52189 5.888 
4.22874 3.20762 7.489 
9.09802 6.29489 14.697 
3.59178 2.26876 5.297 
4.15885 2.37156 5.537 
9.4689 5.0742 11.847 
10.4652 5.29906 12.372 
8.67282 4.08395 9.535 
8.45747 3.78841 8.845 
-0.443102 0.242014 0.563 
-0.427967 0.248462 0.578 
-0.410046 0.25405 0.591 
-0.390913 0.259638 0.604 
-0.371169 0.265656 0.618 
-0.350119 0.271674 0.632 
-0.324245 0.278982 0.649 
-0.303961 0.288439 0.671 
-0.280407 0.296607 0.69 
-0.252204 0.301335 0.701 
-0.221096 0.303484 0.706 
-0.19432 0.313371 0.729 
-0.166499 0.325408 0.757 
-0.135895 0.337014 0.784 
-0.0937227 0.352489 0.82 
-0.0571268 0.362806 0.844 
-0.0184832 0.376991 0.877 
0.0231601 0.389887 0.907 
0.0702694 0.418688 0.974 
0.117805 0.426426 0.992 
0.227677 0.465114 1.082 
0.306443 0.503371 1.171 
0.377981 0.527014 1.226 
0.457485 0.554096 1.289 
4.59723 4.72077 10.982 
3.24492 2.95876 6.883 
3.23522 2.6845 6.245 
4.21293 3.20722 7.461 
9.07519 6.31772 14.697 
3.57408 2.27097 5.283 
4.18812 2.38704 5.553 
9.37359 5.03157 11.705 
10.7564 5.45627 12.693 
8.74534 4.11896 9.582 
8.40918 3.76819 8.766 
-0.443013 0.24332 0.564 
-0.425675 0.250654 0.581 
-0.406827 0.255831 0.593 
-0.388139 0.261871 0.607 
-0.367554 0.267479 0.62 
-0.345756 0.273088 0.633 
-0.320679 0.281285 0.652 
-0.299639 0.290345 0.673 
-0.273851 0.296384 0.687 
-0.246054 0.301561 0.699 
-0.216527 0.305876 0.709 
-0.189692 0.31623 0.733 
-0.161255 0.327878 0.76 
-0.130302 0.339526 0.787 
-0.0874592 0.354194 0.821 
-0.05075 0.365411 0.847 
-0.0117235 0.38008 0.881 
0.0305058 0.395179 0.916 
0.077596 0.418907 0.971 
0.125638 0.428398 0.993 
0.237392 0.469383 1.088 
0.32007 0.509505 1.181 
0.391315 0.531507 1.232 
0.475693 0.563432 1.306 
4.30522 4.32454 10.024 
3.20612 2.85858 6.626 
3.88364 3.15841 7.321 
4.3553 3.25591 7.547 
3.30422 2.21922 5.144 
3.65973 2.29169 5.312 
4.34721 2.45132 5.682 
10.1258 5.37159 12.451 
12.5436 6.29353 14.588 
8.7784 4.09373 9.489 
8.44234 3.74816 8.688 
-0.437654 0.244629 0.565 
-0.419174 0.25199 0.582 
-0.402151 0.258484 0.597 
-0.38373 0.264979 0.612 
-0.362169 0.270175 0.624 
-0.33949 0.27537 0.636 
-0.316411 0.285762 0.66 
-0.291274 0.29139 0.673 
-0.262706 0.29572 0.683 
-0.23628 0.302647 0.699 
-0.20957 0.313039 0.723 
-0.181222 0.322564 0.745 
-0.150824 0.332089 0.767 
-0.119274 0.344213 0.795 
-0.0741434 0.358934 0.829 
-0.0367455 0.37149 0.858 
0.00338613 0.38751 0.895 
0.0468157 0.402231 0.929 
0.0946759 0.422581 0.976 
0.19735 0.452889 1.046 
0.271243 0.483197 1.116 
0.346433 0.517834 1.196 
0.425045 0.547277 1.264 
0.507317 0.573688 1.325 
3.81875 3.72832 8.611 
3.30233 2.90827 6.717 
3.98158 3.1936 7.376 
4.49544 3.31916 7.666 
3.35328 2.23327 5.158 
3.71075 2.30601 5.326 
4.38211 2.47487 5.716 
10.2951 5.46021 12.611 
14.2959 7.17261 16.566 
8.86304 4.16909 9.629 
8.40184 3.76166 8.688 
-0.443977 0.244638 0.563 
-0.425109 0.25159 0.579 
-0.407061 0.257239 0.592 
-0.388441 0.263323 0.606 
-0.365999 0.268971 0.619 
-0.344228 0.27462 0.632 
-0.323237 0.282007 0.649 
-0.300238 0.292001 0.672 
-0.274919 0.298519 0.687 
-0.24714 0.303733 0.699 
-0.217015 0.30721 0.707 
-0.190049 0.317204 0.73 
-0.162222 0.329805 0.759 
-0.131023 0.340668 0.784 
-0.0911747 0.356311 0.82 
-0.0545042 0.36674 0.844 
-0.0156861 0.379341 0.873 
0.0258926 0.392811 0.904 
0.0720166 0.415841 0.957 
0.120766 0.430615 0.991 
0.231039 0.470157 1.082 
0.316887 0.511002 1.176 
0.388769 0.534467 1.23 
0.473301 0.567056 1.305 
4.28058 4.37828 10.076 
3.47603 3.19333 7.349 
3.7479 3.13423 7.213 
4.19225 3.21723 7.404 
9.35676 6.58437 15.153 
3.55514 2.28343 5.255 
4.13962 2.41987 5.569 
8.58173 4.69288 10.8 
11.1865 5.77832 13.298 
19.4993 9.54349 21.963 
8.32347 3.826 8.805 
-0.453905 0.243332 0.558 
-0.43343 0.249001 0.571 
-0.416078 0.25467 0.584 
-0.398845 0.261212 0.599 
-0.379595 0.267317 0.613 
-0.355549 0.272986 0.626 
-0.334191 0.279527 0.641 
-0.313809 0.288248 0.661 
-0.288994 0.294354 0.675 
-0.259821 0.29697 0.681 
-0.234443 0.305256 0.7 
-0.207897 0.316158 0.725 
-0.178667 0.324443 0.744 
-0.14844 0.334473 0.767 
-0.117098 0.347555 0.797 
-0.0811801 0.358457 0.822 
-0.0443266 0.370667 0.85 
-0.00490172 0.38593 0.885 
0.0377038 0.400321 0.918 
0.0848761 0.422125 0.968 
0.133218 0.432591 0.992 
0.256165 0.477943 1.096 
0.330799 0.514574 1.18 
0.411628 0.549024 1.259 
0.491603 0.57388 1.316 
4.01344 3.94652 9.05 
3.45382 3.04427 6.981 
4.12079 3.29109 7.547 
8.10818 5.91978 13.575 
3.41225 2.26718 5.199 
8.90515 5.46407 12.53 
4.33151 2.46385 5.65 
10.6388 5.68299 13.032 
14.4176 7.28558 16.707 
8.83466 4.17851 9.582 
8.37756 3.77165 8.649 
-0.445727 0.246387 0.563 
-0.428123 0.252514 0.577 
-0.409574 0.257766 0.589 
-0.390554 0.263455 0.602 
-0.369011 0.269582 0.616 
-0.348033 0.275709 0.63 
-0.32575 0.281836 0.644 
-0.306295 0.291901 0.667 
-0.283458 0.300654 0.687 
-0.2529 0.302404 0.691 
-0.224206 0.307218 0.702 
-0.196046 0.318159 0.727 
-0.168182 0.329975 0.754 
-0.137626 0.341354 0.78 
-0.103477 0.348794 0.797 
-0.066816 0.364986 0.834 
-0.0288477 0.376802 0.861 
0.0117687 0.392994 0.898 
0.0560134 0.4105 0.938 
0.103668 0.426692 0.975 
0.226204 0.470455 1.075 
0.320269 0.514219 1.175 
0.395783 0.542665 1.24 
0.478819 0.572862 1.309 
4.22533 4.21397 9.629 
3.5686 3.15665 7.213 
4.16938 3.34177 7.636 
9.14491 6.68309 15.271 
3.42953 2.28138 5.213 
8.86835 5.44897 12.451 
4.34029 2.47263 5.65 
10.7709 5.74131 13.119 
16.1526 8.14741 18.617 
8.79133 4.17283 9.535 
8.37756 3.78509 8.649 
-0.444935 0.246823 0.562 
-0.428426 0.252532 0.575 
-0.410007 0.257803 0.587 
-0.392425 0.26439 0.602 
-0.372234 0.2701 0.615 
-0.350831 0.275809 0.628 
-0.328241 0.282397 0.643 
-0.30894 0.292498 0.666 
-0.285825 0.300843 0.685 
-0.253526 0.300404 0.684 
-0.226065 0.30787 0.701 
-0.19916 0.31885 0.726 
-0.170786 0.32939 0.75 
-0.140899 0.341687 0.778 
-0.107326 0.350471 0.798 
-0.066816 0.366282 0.834 
-0.0288477 0.37814 0.861 
0.0117556 0.39395 0.897 
0.0559537 0.411518 0.937 
0.103455 0.427329 0.973 
0.223907 0.470808 1.072 
0.319997 0.515605 1.174 
0.396102 0.545031 1.241 
0.478453 0.574456 1.308 
4.22533 4.22893 9.629 
3.52223 3.15643 7.187 
4.13179 3.27677 7.461 
9.7191 7.03665 16.022 
3.48867 2.30178 5.241 
8.74186 5.33217 12.141 
6.06733 3.40677 7.757 
11.4946 6.04584 13.766 
17.7662 8.85049 20.152 
8.38238 3.92018 8.926 
8.52538 3.79853 8.649 
-0.438632 0.248578 0.564 
-0.42331 0.255189 0.579 
-0.404537 0.260478 0.591 
-0.386558 0.267089 0.606 
-0.364817 0.271937 0.617 
-0.343683 0.278107 0.631 
-0.321199 0.286922 0.651 
-0.298898 0.294855 0.669 
-0.273718 0.301466 0.684 
-0.245726 0.306315 0.695 
-0.216094 0.310281 0.704 
-0.189529 0.320859 0.728 
-0.160831 0.334081 0.758 
-0.128811 0.342896 0.778 
-0.0909523 0.360526 0.818 
-0.054375 0.371103 0.842 
-0.0155604 0.381681 0.866 
0.025778 0.396666 0.9 
0.0708126 0.414737 0.941 
0.120035 0.434129 0.985 
0.259097 0.48217 1.094 
0.341406 0.522277 1.185 
0.422077 0.555774 1.261 
0.501826 0.580014 1.316 
4.30509 4.16191 9.443 
4.60399 3.9887 9.05 
4.17816 3.28836 7.461 
10.2644 7.36345 16.707 
3.58662 2.34738 5.326 
8.81732 5.35103 12.141 
7.79832 4.35099 9.872 
11.7264 6.10998 13.863 
8.84808 4.24389 9.629 
8.35069 3.81196 8.649 
-0.44763 0.248127 0.561 
-0.428994 0.25255 0.571 
-0.412245 0.258742 0.585 
-0.395508 0.265819 0.601 
-0.375444 0.271569 0.614 
-0.353039 0.276434 0.625 
-0.331681 0.283068 0.64 
-0.312227 0.292799 0.662 
-0.288171 0.299875 0.678 
-0.256569 0.299875 0.678 
-0.231604 0.308721 0.698 
-0.205915 0.319336 0.722 
-0.176795 0.32774 0.741 
-0.146673 0.337913 0.764 
-0.11586 0.352508 0.797 
-0.0784346 0.362681 0.82 
-0.0416854 0.37595 0.85 
-0.00214685 0.390546 0.883 
0.0419826 0.406026 0.918 
0.0889263 0.425929 0.963 
0.21132 0.468389 1.059 
0.302803 0.51483 1.164 
0.373008 0.53783 1.216 
0.451595 0.565252 1.278 
4.13557 4.25885 9.629 
3.89403 3.61752 8.179 
5.30976 4.47955 10.128 
10.6966 7.85956 17.77 
3.47238 2.31806 5.241 
8.81383 5.43756 12.294 
4.43 2.53523 5.732 
11.7017 6.17531 13.962 
8.96613 4.32298 9.774 
8.30062 3.80859 8.611 
-0.448572 0.248555 0.56 
-0.430014 0.252993 0.57 
-0.413355 0.259207 0.584 
-0.396053 0.265865 0.599 
-0.376123 0.271635 0.612 
-0.351659 0.277849 0.626 
-0.329693 0.284063 0.64 
-0.310638 0.294271 0.663 
-0.286908 0.301816 0.68 
-0.254463 0.300929 0.678 
-0.229764 0.31025 0.699 
-0.200583 0.320902 0.723 
-0.171962 0.330667 0.745 
-0.141474 0.340875 0.768 
-0.109943 0.354634 0.799 
-0.0736068 0.365287 0.823 
-0.0366598 0.379934 0.856 
0.00335587 0.393693 0.887 
0.0464126 0.408784 0.921 
0.0950096 0.427869 0.964 
0.243929 0.482462 1.087 
0.317088 0.519302 1.17 
0.390998 0.546377 1.231 
0.473871 0.577446 1.301 
4.15838 4.19125 9.443 
3.71855 3.38922 7.636 
6.13518 5.10336 11.498 
11.59 8.59023 19.354 
3.44687 2.31999 5.227 
8.8313 5.49128 12.372 
4.31135 2.48599 5.601 
11.6402 6.15306 13.863 
12.5981 6.2871 14.165 
8.51001 4.03546 9.092 
8.38747 3.78868 8.536 
-0.440478 0.250761 0.563 
-0.424537 0.256997 0.577 
-0.405224 0.261896 0.588 
-0.387455 0.268577 0.603 
-0.3665 0.273922 0.615 
-0.342264 0.281494 0.632 
-0.32221 0.289956 0.651 
-0.298592 0.296637 0.666 
-0.274379 0.304209 0.683 
-0.243965 0.305991 0.687 
-0.216879 0.313117 0.703 
-0.186391 0.324698 0.729 
-0.158475 0.337614 0.758 
-0.125582 0.344295 0.773 
-0.0938383 0.360775 0.81 
-0.0580226 0.373246 0.838 
-0.019461 0.383045 0.86 
0.0215591 0.400416 0.899 
0.0658619 0.41556 0.933 
0.114272 0.434266 0.975 
0.271511 0.491278 1.103 
0.348393 0.530028 1.19 
0.430503 0.55987 1.257 
0.515162 0.589711 1.324 
4.31586 4.1458 9.308 
5.73456 4.97513 11.17 
4.37633 3.41445 7.666 
3.26907 2.2613 5.077 
3.69767 2.38512 5.355 
4.13283 2.4457 5.491 
11.2862 6.08819 13.669 
12.5374 6.40175 14.373 
8.32005 3.93958 8.845 
8.5013 3.83535 8.611 
-0.438632 0.252083 0.564 
-0.421848 0.257893 0.577 
-0.403168 0.263257 0.589 
-0.38592 0.270408 0.605 
-0.364225 0.275324 0.616 
-0.342264 0.282476 0.632 
-0.32221 0.290968 0.651 
-0.298592 0.297672 0.666 
-0.274379 0.30527 0.683 
-0.243254 0.306164 0.685 
-0.216879 0.314209 0.703 
-0.189529 0.325383 0.728 
-0.161581 0.337898 0.756 
-0.129017 0.345049 0.772 
-0.0959983 0.360693 0.807 
-0.0604095 0.373207 0.835 
-0.0220819 0.383487 0.858 
0.0187656 0.401813 0.899 
0.0627602 0.415668 0.93 
0.110786 0.433993 0.971 
0.244714 0.484052 1.083 
0.318906 0.522937 1.17 
0.391634 0.548414 1.227 
0.474795 0.580148 1.298 
3.96441 4.14059 9.264 
3.99854 3.76604 8.426 
6.24871 5.32726 11.919 
13.0159 9.81647 21.963 
3.4019 2.3112 5.171 
3.66265 2.32372 5.199 
4.26941 2.48909 5.569 
11.3773 6.06742 13.575 
10.1544 5.05015 11.299 
8.10415 3.83175 8.573 
8.57913 3.86571 8.649 
-0.433152 0.253856 0.566 
-0.416832 0.260135 0.58 
-0.398535 0.265966 0.593 
-0.380277 0.272693 0.608 
-0.357726 0.277178 0.618 
-0.337437 0.284355 0.634 
-0.317599 0.293325 0.654 
-0.293701 0.300052 0.669 
-0.265265 0.303192 0.676 
-0.238944 0.30992 0.691 
-0.212719 0.31889 0.711 
-0.184378 0.327411 0.73 
-0.15612 0.33997 0.758 
-0.122702 0.345352 0.77 
-0.0903964 0.364638 0.813 
-0.0541167 0.37585 0.838 
-0.0155065 0.387063 0.863 
0.025778 0.403658 0.9 
0.0701353 0.41801 0.932 
0.118329 0.435502 0.971 
0.251676 0.486183 1.084 
0.329397 0.526998 1.175 
0.40705 0.558393 1.245 
0.487867 0.585752 1.306 
4.09476 4.21509 9.398 
3.78618 3.52079 7.85 
8.86514 7.43 16.566 
13.04 9.74116 21.719 
3.53187 2.36319 5.269 
8.87113 5.51397 12.294 
4.44427 2.56368 5.716 
10.6378 5.61981 12.53 
10.74 5.37852 11.992 
8.33379 3.96706 8.845 
8.55225 3.87915 8.649 
-0.434911 0.254735 0.566 
-0.417191 0.260136 0.578 
-0.399703 0.266437 0.592 
-0.381538 0.273188 0.607 
-0.359647 0.278139 0.618 
-0.339407 0.28534 0.634 
-0.319142 0.293891 0.653 
-0.295337 0.300642 0.668 
-0.268157 0.305142 0.678 
-0.240044 0.309643 0.688 
-0.214324 0.319094 0.709 
-0.186391 0.328095 0.729 
-0.158475 0.341147 0.758 
-0.125094 0.346548 0.77 
-0.0938383 0.364551 0.81 
-0.0578149 0.375802 0.835 
-0.019461 0.387054 0.86 
0.0215351 0.404156 0.898 
0.0656501 0.418558 0.93 
0.113451 0.43566 0.968 
0.231152 0.480217 1.067 
0.313185 0.526123 1.169 
0.380253 0.544125 1.209 
0.464051 0.57833 1.285 
3.8844 4.13022 9.177 
4.11902 3.94525 8.766 
7.21133 6.28377 13.962 
10.1445 7.99761 17.77 
11.4444 8.2996 18.441 
3.65797 2.41684 5.37 
9.06197 5.56817 12.372 
11.231 6.23922 13.863 
10.9459 5.75 12.776 
10.0327 4.99839 11.106 
8.03867 3.80843 8.462 
-0.452113 0.252453 0.559 
-0.432156 0.256066 0.567 
-0.41503 0.261937 0.58 
-0.397361 0.26826 0.594 
-0.378388 0.274583 0.608 
-0.355806 0.279099 0.618 
-0.336525 0.287228 0.636 
-0.315566 0.295357 0.654 
-0.292494 0.303034 0.671 
-0.262775 0.304841 0.675 
-0.236796 0.312067 0.691 
-0.21051 0.321099 0.711 
-0.182609 0.330583 0.732 
-0.153765 0.342325 0.758 
-0.120309 0.347744 0.77 
-0.0891333 0.367164 0.813 
-0.0527517 0.378003 0.837 
-0.014182 0.390196 0.864 
0.0272065 0.406906 0.901 
0.0715834 0.420906 0.932 
0.119467 0.437164 0.968 
0.234687 0.482326 1.068 
0.313185 0.527939 1.169 
0.379624 0.545101 1.207 
0.463329 0.579423 1.283 
3.85589 4.14448 9.177 
4.18561 4.04964 8.967 
8.37488 7.23579 16.022 
9.96349 7.88206 17.453 
11.6355 8.48858 18.796 
3.62992 2.41208 5.341 
9.06197 5.58739 12.372 
11.2461 6.30546 13.962 
10.5421 5.58739 12.372 
10.7772 5.41578 11.992 
8.43785 4.03113 8.926 
8.61782 3.92364 8.688 
-0.434032 0.256494 0.566 
-0.416293 0.261932 0.578 
-0.398783 0.268277 0.592 
-0.380595 0.275074 0.607 
-0.358106 0.279606 0.617 
-0.338956 0.287763 0.635 
-0.31764 0.295467 0.652 
-0.29474 0.303171 0.669 
-0.266709 0.306796 0.677 
-0.238628 0.311328 0.687 
-0.213523 0.321751 0.71 
-0.185259 0.330361 0.729 
-0.157298 0.343503 0.758 
-0.123737 0.348488 0.769 
-0.0902852 0.367974 0.812 
-0.0539229 0.378397 0.835 
-0.0155244 0.391539 0.864 
0.025778 0.407853 0.9 
0.0700601 0.421901 0.931 
0.117841 0.438215 0.967 
0.232591 0.483079 1.066 
0.32199 0.529302 1.168 
0.393835 0.553773 1.222 
0.477722 0.586855 1.295 
3.93125 4.17823 9.22 
3.89403 3.70648 8.179 
10.6119 9.03892 19.946 
10.6994 8.3569 18.441 
3.17055 2.23141 4.924 
3.64796 2.3941 5.283 
4.14136 2.48836 5.491 
11.3171 6.28229 13.863 
11.1711 5.86628 12.945 
10.0454 5.00481 11.044 
8.16201 3.86826 8.536 
-0.446902 0.25419 0.559 
-0.429129 0.259192 0.57 
-0.411742 0.265104 0.583 
-0.392484 0.27056 0.595 
-0.373946 0.277381 0.61 
-0.352311 0.282838 0.622 
-0.332156 0.290568 0.639 
-0.309943 0.297844 0.655 
-0.287518 0.306484 0.674 
-0.256483 0.306938 0.675 
-0.231688 0.316033 0.695 
-0.204456 0.324218 0.713 
-0.177226 0.335586 0.738 
-0.146311 0.343771 0.756 
-0.114306 0.353775 0.778 
-0.0806863 0.371509 0.817 
-0.0439094 0.382877 0.842 
-0.00485188 0.398338 0.876 
0.037252 0.412434 0.907 
0.0825087 0.427895 0.941 
0.187383 0.467001 1.027 
0.257936 0.492011 1.082 
0.335553 0.532481 1.171 
0.413455 0.564312 1.241 
0.496743 0.594778 1.308 
4.35997 4.37853 9.629 
8.74674 7.86626 17.299 
9.84076 8.08044 17.77 
12.2252 9.25908 20.362 
3.40748 2.33319 5.131 
8.86975 5.62584 12.372 
4.35348 2.56146 5.633 
10.8817 5.92596 13.032 
11.4728 5.88639 12.945 
8.72524 4.25303 9.353 
8.54803 3.96837 8.727 
-0.436979 0.256884 0.563 
-0.419492 0.262359 0.575 
-0.400422 0.268747 0.589 
-0.383101 0.276048 0.605 
-0.360767 0.28061 0.615 
-0.342362 0.28928 0.634 
-0.318686 0.29658 0.65 
-0.295932 0.304337 0.667 
-0.268813 0.3089 0.677 
-0.239361 0.311637 0.683 
-0.214514 0.322132 0.706 
-0.186752 0.331257 0.726 
-0.159653 0.345858 0.758 
-0.126291 0.351333 0.77 
-0.0924655 0.369128 0.809 
-0.055088 0.380079 0.833 
-0.0168863 0.39468 0.865 
0.0242984 0.409281 0.897 
0.0683925 0.423425 0.928 
0.115978 0.439851 0.964 
0.232373 0.485935 1.065 
0.313923 0.531563 1.165 
0.381499 0.550726 1.207 
0.466047 0.586316 1.285 
4.17864 4.32961 9.489 
4.03363 3.77934 8.283 
10.3448 8.74409 19.164 
11.238 8.74409 19.164 
3.23292 2.26359 4.961 
3.64989 2.38496 5.227 
4.17549 2.50542 5.491 
11.1664 6.19396 13.575 
11.2039 5.8294 12.776 
9.07213 4.48201 9.823 
8.58115 4.03577 8.845 
-0.439785 0.256843 0.561 
-0.422485 0.262337 0.573 
-0.404756 0.268289 0.586 
-0.38646 0.274698 0.6 
-0.362678 0.281566 0.615 
-0.343789 0.289807 0.633 
-0.317676 0.29759 0.65 
-0.294895 0.305373 0.667 
-0.267366 0.309494 0.676 
-0.237933 0.313614 0.685 
-0.212922 0.324144 0.708 
-0.18475 0.332843 0.727 
-0.15709 0.346578 0.757 
-0.123898 0.35253 0.77 
-0.0900628 0.370843 0.81 
-0.0525626 0.381831 0.834 
-0.0142477 0.397397 0.868 
0.0271159 0.411132 0.898 
0.0713529 0.425325 0.929 
0.119097 0.441807 0.965 
0.245788 0.491252 1.073 
0.320612 0.532457 1.163 
0.390934 0.555349 1.213 
0.475509 0.590144 1.289 
4.45466 4.51971 9.872 
9.12365 8.36411 18.269 
9.84744 8.21028 17.933 
11.6448 8.94922 19.547 
3.32223 2.30655 5.038 
3.67073 2.38026 5.199 
4.2744 2.54233 5.553 
10.9136 6.00628 13.119 
11.2607 5.73662 12.53 
8.75875 4.2212 9.22 
-0.448704 0.256337 0.558 
-0.43027 0.26093 0.568 
-0.412327 0.266443 0.58 
-0.393928 0.272415 0.593 
-0.374936 0.278846 0.607 
-0.350779 0.285278 0.621 
-0.330126 0.292628 0.637 
-0.304765 0.301816 0.657 
-0.283322 0.311922 0.679 
-0.250191 0.310084 0.675 
-0.226182 0.32065 0.698 
-0.198087 0.328001 0.714 
-0.171501 0.341323 0.743 
-0.140922 0.351429 0.765 
-0.107886 0.364292 0.793 
-0.0728913 0.374398 0.815 
-0.0363172 0.389558 0.848 
0.00333695 0.405177 0.882 
0.0459086 0.418499 0.911 
0.0916688 0.434118 0.945 
0.196882 0.475463 1.035 
0.277405 0.508079 1.106 
0.35037 0.541155 1.178 
0.429704 0.573771 1.249 
0.515266 0.605928 1.319 
4.18205 4.00905 8.727 
11.1828 9.6558 21.019 
9.97529 7.87707 17.147 
3.13128 2.23399 4.863 
3.64796 2.42693 5.283 
4.10667 2.50135 5.445 
10.9179 6.10889 13.298 
11.4374 5.90768 12.86 
8.82697 4.29662 9.353 
8.64294 4.00905 8.727 
-0.431393 0.260891 0.566 
-0.412883 0.265961 0.577 
-0.396023 0.272875 0.592 
-0.377765 0.279789 0.607 
-0.353104 0.285782 0.62 
-0.332573 0.293157 0.636 
-0.306421 0.301454 0.654 
-0.285221 0.311594 0.676 
-0.253337 0.311133 0.675 
-0.228778 0.320813 0.696 
-0.201132 0.328649 0.713 
-0.174022 0.340633 0.739 
-0.143543 0.350313 0.76 
-0.111019 0.36368 0.789 
-0.0765019 0.374743 0.813 
-0.0399848 0.38811 0.842 
-0.000773202 0.406087 0.881 
0.0416167 0.419454 0.91 
0.0868947 0.433743 0.941 
0.188242 0.47154 1.023 
0.262023 0.500118 1.085 
0.335068 0.536071 1.163 
0.422186 0.573407 1.244 
0.508346 0.607056 1.317 
4.30871 4.17149 9.05 
10.6751 9.38562 20.362 
9.61155 7.6359 16.566 
3.139 2.24707 4.875 
3.64796 2.43514 5.283 
4.10379 2.50289 5.43 
10.7913 6.04705 13.119 
11.513 5.96684 12.945 
8.85483 4.3319 9.398 
8.66795 4.04058 8.766 
-0.432498 0.260845 0.564 
-0.414132 0.265933 0.575 
-0.397436 0.27287 0.59 
-0.379968 0.28027 0.606 
-0.356382 0.286282 0.619 
-0.335467 0.29322 0.634 
-0.313107 0.301082 0.651 
-0.291017 0.30987 0.67 
-0.260951 0.311257 0.673 
-0.234699 0.318194 0.688 
-0.209405 0.328832 0.711 
-0.180976 0.337619 0.73 
-0.151782 0.348719 0.754 
-0.119731 0.357969 0.774 
-0.0837704 0.374618 0.81 
-0.0473795 0.385718 0.834 
-0.00892474 0.40468 0.875 
0.0328424 0.417168 0.902 
0.0772924 0.43058 0.931 
0.174154 0.469429 1.015 
0.243211 0.494404 1.069 
0.316612 0.534178 1.155 
0.38905 0.561003 1.213 
0.473807 0.591527 1.279 
4.91975 4.94034 10.682 
9.876 8.95107 19.354 
9.12167 7.41004 16.022 
3.0631 2.23245 4.827 
3.5701 2.42392 5.241 
9.21663 5.79502 12.53 
10.8886 6.1923 13.389 
11.5455 6.06743 13.119 
8.94125 4.36731 9.443 
8.67006 4.03617 8.727 
-0.430631 0.262186 0.565 
-0.412883 0.267754 0.577 
-0.395355 0.274251 0.591 
-0.377143 0.281212 0.606 
-0.356382 0.287244 0.619 
-0.334938 0.293741 0.633 
-0.313636 0.30163 0.65 
-0.292058 0.31091 0.67 
-0.261997 0.312303 0.673 
-0.235083 0.318335 0.686 
-0.210214 0.329472 0.71 
-0.181611 0.337825 0.728 
-0.15275 0.349426 0.753 
-0.120934 0.359171 0.774 
-0.084819 0.374949 0.808 
-0.0485586 0.386086 0.832 
-0.0102607 0.405112 0.873 
0.0313712 0.417641 0.9 
0.075683 0.431098 0.929 
0.124107 0.44966 0.969 
0.228263 0.496065 1.069 
0.304786 0.534116 1.151 
0.373071 0.555927 1.198 
0.46748 0.59305 1.278 
5.08647 5.12492 11.044 
9.47099 8.63914 18.617 
9.07235 7.37461 15.892 
3.14673 2.26779 4.887 
3.64796 2.45155 5.283 
4.06679 2.49192 5.37 
10.6792 6.04744 13.032 
11.5499 6.04744 13.032 
8.95532 4.40333 9.489 
8.68157 4.06782 8.766 
-0.432498 0.262598 0.564 
-0.413412 0.267254 0.574 
-0.397436 0.274704 0.59 
-0.379341 0.281687 0.605 
-0.358687 0.28774 0.618 
-0.337354 0.294259 0.632 
-0.315204 0.301243 0.647 
-0.29474 0.311486 0.669 
-0.265134 0.313348 0.673 
-0.237238 0.318004 0.683 
-0.212922 0.329644 0.708 
-0.183734 0.336628 0.723 
-0.156053 0.350131 0.752 
-0.124059 0.358977 0.771 
-0.079995 0.377135 0.81 
-0.0435965 0.389241 0.836 
-0.00486849 0.409262 0.879 
0.037293 0.422764 0.908 
0.0818072 0.434404 0.933 
0.160583 0.46979 1.009 
0.232373 0.495863 1.065 
0.32379 0.537767 1.155 
0.420149 0.576412 1.238 
0.505258 0.609469 1.309 
5.87466 5.65284 12.141 
9.69133 8.50603 18.269 
10.0818 7.98363 17.147 
3.33535 2.32753 4.999 
9.19848 5.90985 12.693 
4.34342 2.58547 5.553 
11.2691 6.19154 13.298 
8.92869 4.35475 9.353 
-0.447154 0.25927 0.555 
-0.42321 0.265343 0.568 
-0.406514 0.271883 0.582 
-0.388513 0.278423 0.596 
-0.367997 0.284029 0.608 
-0.348037 0.291036 0.623 
-0.325656 0.297109 0.636 
-0.303924 0.305051 0.653 
-0.28312 0.315795 0.676 
-0.251239 0.315328 0.675 
-0.225964 0.324204 0.694 
-0.198638 0.332613 0.712 
-0.171261 0.344292 0.737 
-0.141739 0.356438 0.763 
-0.105981 0.368116 0.788 
-0.0715372 0.380262 0.814 
-0.0349997 0.396146 0.848 
0.00470195 0.411562 0.881 
0.047324 0.425576 0.911 
0.0933341 0.442394 0.947 
0.16453 0.473693 1.014 
0.230718 0.497518 1.065 
0.327379 0.539562 1.155 
0.426394 0.581605 1.245 
0.514875 0.615707 1.318 
6.4345 6.2122 13.298 
9.34175 8.22656 17.61 
10.4635 8.22656 17.61 
3.41806 2.36566 5.064 
4.04468 2.51562 5.385 
12.1353 6.97086 14.922 
9.16281 4.52064 9.677 
8.67006 4.07684 8.727 
-0.427998 0.264819 0.565 
-0.410905 0.270912 0.578 
-0.393264 0.277474 0.592 
-0.374318 0.284036 0.606 
-0.352926 0.289661 0.618 
-0.331463 0.296223 0.632 
-0.310129 0.304191 0.649 
-0.288935 0.314033 0.67 
-0.258475 0.314971 0.672 
-0.230424 0.32247 0.688 
-0.204169 0.333719 0.712 
-0.176266 0.344031 0.734 
-0.145537 0.352467 0.752 
-0.11426 0.368403 0.786 
-0.0751462 0.38059 0.812 
-0.0387226 0.39512 0.843 
0.000595587 0.41293 0.881 
0.0430778 0.426992 0.911 
0.0884506 0.441522 0.942 
0.156035 0.473394 1.01 
0.21893 0.498704 1.064 
0.302668 0.535732 1.143 
0.370891 0.55823 1.191 
0.463822 0.59432 1.268 
5.75383 5.83587 12.451 
8.64736 7.96707 16.998 
9.39819 7.57195 16.155 
3.28687 2.32525 4.961 
3.63866 2.40493 5.131 
4.31917 2.5882 5.522 
8.93947 4.46912 9.535 
8.62709 4.10868 8.766 
-0.432498 0.265227 0.564 
-0.413412 0.269929 0.574 
-0.396762 0.276983 0.589 
-0.378714 0.284037 0.604 
-0.358106 0.290151 0.617 
-0.335753 0.295794 0.629 
-0.31423 0.303318 0.645 
-0.2943 0.314134 0.668 
-0.265134 0.316485 0.673 
-0.236544 0.320247 0.681 
-0.212621 0.332474 0.707 
-0.182971 0.338587 0.72 
-0.15543 0.352225 0.749 
-0.123898 0.3621 0.77 
-0.0890621 0.376678 0.801 
-0.053148 0.387024 0.823 
-0.0155065 0.405835 0.863 
0.0254056 0.417121 0.887 
0.0696086 0.434991 0.925 
0.11711 0.45192 0.961 
0.188242 0.481076 1.023 
0.24538 0.500357 1.064 
0.320602 0.540799 1.15 
0.393727 0.569015 1.21 
0.474222 0.592058 1.259 
6.39737 6.33958 13.481 
8.70698 7.85664 16.707 
10.3973 8.20745 17.453 
3.41713 2.37528 5.051 
3.8102 2.45147 5.213 
4.23357 2.56057 5.445 
14.0023 7.85664 16.707 
8.50735 4.10396 8.727 
-0.436391 0.264216 0.56 
-0.418348 0.269406 0.571 
-0.400653 0.275539 0.584 
-0.383663 0.283088 0.6 
-0.362218 0.288278 0.611 
-0.341386 0.294884 0.625 
-0.31875 0.301017 0.638 
-0.298978 0.311397 0.66 
-0.274718 0.318946 0.676 
-0.243209 0.318946 0.676 
-0.21859 0.329326 0.698 
-0.189788 0.335931 0.712 
-0.16364 0.35103 0.744 
-0.132949 0.361881 0.767 
-0.099226 0.36943 0.783 
-0.0654541 0.385472 0.817 
-0.0284121 0.400098 0.848 
0.0115459 0.415668 0.881 
0.0546996 0.432182 0.916 
0.101222 0.449167 0.952 
0.166597 0.479835 1.017 
0.224483 0.499651 1.059 
0.291685 0.532206 1.128 
0.359827 0.556269 1.179 
0.447902 0.595429 1.262 
0.527202 0.619492 1.313 
7.76112 7.37823 15.638 
8.81083 7.26216 15.392 
12.1307 9.22255 19.547 
3.50314 2.42088 5.131 
3.78168 2.44636 5.185 
4.17855 2.54072 5.385 
17.5577 9.81137 20.795 
8.51194 4.08072 8.649 
-0.43533 0.266033 0.562 
-0.416415 0.270766 0.572 
-0.398612 0.27692 0.585 
-0.382136 0.284967 0.602 
-0.360547 0.290174 0.613 
-0.338473 0.295855 0.625 
-0.316766 0.302955 0.64 
-0.296799 0.313369 0.662 
-0.271567 0.319996 0.676 
-0.240058 0.319996 0.676 
-0.216262 0.331831 0.701 
-0.186731 0.337511 0.713 
-0.160603 0.353132 0.746 
-0.129373 0.363073 0.767 
-0.0959426 0.372067 0.786 
-0.0617215 0.387215 0.818 
-0.0245172 0.402362 0.85 
0.0156523 0.417037 0.881 
0.0590979 0.434551 0.918 
0.10566 0.450646 0.952 
0.166597 0.481415 1.017 
0.221996 0.499403 1.055 
0.28762 0.529698 1.119 
0.357691 0.557627 1.178 
0.443821 0.59455 1.256 
0.523562 0.619638 1.309 
7.33622 7.06359 14.922 
7.417 6.25224 13.208 
11.2151 8.72937 18.441 
3.35834 2.36068 4.987 
3.71391 2.44163 5.158 
4.01795 2.48092 5.241 
14.1933 8.0463 16.998 
8.50983 4.11262 8.688 
-0.437261 0.265956 0.56 
-0.418501 0.270705 0.57 
-0.400872 0.276879 0.583 
-0.383954 0.284478 0.599 
-0.362573 0.289702 0.61 
-0.341262 0.295876 0.623 
-0.319741 0.303 0.638 
-0.299095 0.312498 0.658 
-0.27536 0.320572 0.675 
-0.243898 0.320572 0.675 
-0.218731 0.33007 0.695 
-0.190894 0.338144 0.712 
-0.164131 0.351917 0.741 
-0.133965 0.36379 0.766 
-0.100186 0.370913 0.781 
-0.0666418 0.387536 0.816 
-0.0296245 0.401308 0.845 
0.010154 0.417456 0.879 
0.0532183 0.434553 0.915 
0.0997433 0.452125 0.952 
0.163437 0.482995 1.017 
0.217888 0.499142 1.051 
0.28008 0.523838 1.103 
0.353129 0.558032 1.175 
0.433434 0.590327 1.243 
0.515484 0.619297 1.304 
7.13426 6.97992 14.697 
6.187 5.36614 11.299 
10.4635 8.36336 17.61 
3.27123 2.35039 4.949 
3.58328 2.405 5.064 
4.00636 2.52278 5.312 
15.7095 9.19163 19.354 
8.47454 4.08955 8.611 
-0.433684 0.267302 0.561 
-0.4148 0.272067 0.571 
-0.397703 0.278738 0.585 
-0.381201 0.286838 0.602 
-0.359594 0.292079 0.613 
-0.337502 0.297797 0.625 
-0.316265 0.30542 0.641 
-0.29577 0.315426 0.662 
-0.270116 0.321621 0.675 
-0.239362 0.322574 0.677 
-0.214559 0.333056 0.699 
-0.185884 0.340203 0.714 
-0.159016 0.354497 0.744 
-0.128182 0.365456 0.767 
-0.0946009 0.374033 0.785 
-0.0605245 0.390233 0.819 
-0.0232239 0.40548 0.851 
0.0170211 0.419774 0.881 
0.0605901 0.43788 0.919 
0.107026 0.453128 0.951 
0.166761 0.485051 1.018 
0.221785 0.502205 1.054 
0.287363 0.532699 1.118 
0.357691 0.561287 1.178 
0.435365 0.592258 1.243 
