# .PCD v.7 - Point Cloud Data file format
VERSION .7
FIELDS x y z
SIZE 4 4 4
TYPE F F F
COUNT 1 1 1
WIDTH 1753
HEIGHT 1
VIEWPOINT 0 0 0 1 0 0 0
POINTS 1753
DATA ascii
-0.220236 -0.104572 1.188 
-0.17331 -0.104836 1.191 
-0.125616 -0.10466 1.189 
-0.0783443 -0.104836 1.191 
-0.030732 -0.104396 1.186 
0.0166211 -0.104836 1.191 
0.0639962 -0.10466 1.189 
0.111399 -0.10466 1.189 
0.159069 -0.104836 1.191 
0.205685 -0.104396 1.186 
0.254035 -0.104836 1.191 
0.300758 -0.104572 1.188 
0.348414 -0.10466 1.189 
0.394818 -0.104396 1.186 
0.441729 -0.104308 1.185 
0.488147 -0.104132 1.183 
0.536216 -0.104308 1.185 
0.583459 -0.104308 1.185 
0.630703 -0.104308 1.185 
0.677946 -0.104308 1.185 
0.723966 -0.104132 1.183 
0.769826 -0.103956 1.181 
0.815526 -0.10378 1.179 
0.862531 -0.10378 1.179 
0.909535 -0.10378 1.179 
0.955728 -0.103692 1.178 
1.00014 -0.103428 1.175 
1.04431 -0.103164 1.172 
1.0901 -0.103076 1.171 
1.13582 -0.102988 1.17 
-0.804567 -0.0830224 0.969 
-0.792019 -0.0858498 1.002 
-0.77951 -0.0995583 1.162 
-0.709259 -0.100415 1.172 
-0.65462 -0.0992156 1.158 
-0.607927 -0.0991299 1.157 
-0.570055 -0.100586 1.174 
-0.524587 -0.100843 1.177 
-0.478474 -0.101015 1.179 
-0.432567 -0.101272 1.182 
-0.385117 -0.101186 1.181 
-0.339178 -0.101529 1.185 
-0.292181 -0.101615 1.186 
-0.244898 -0.101615 1.186 
-0.198114 -0.101872 1.189 
-0.150965 -0.102043 1.191 
-0.103482 -0.102043 1.191 
-0.0557644 -0.101615 1.186 
-0.00849534 -0.101786 1.188 
0.0389005 -0.101872 1.189 
0.0862309 -0.101786 1.188 
0.133706 -0.101872 1.189 
0.181414 -0.102043 1.191 
0.22832 -0.101786 1.188 
0.275683 -0.101786 1.188 
0.323318 -0.101872 1.189 
0.370409 -0.101786 1.188 
0.417773 -0.101786 1.188 
0.462786 -0.101272 1.182 
0.511636 -0.101615 1.186 
0.558448 -0.101529 1.185 
0.604669 -0.101358 1.183 
0.652935 -0.101529 1.185 
0.700178 -0.101529 1.185 
0.74553 -0.101272 1.182 
0.792654 -0.101272 1.182 
0.837646 -0.101015 1.179 
0.8839 -0.100929 1.178 
0.933235 -0.101186 1.181 
0.976999 -0.100843 1.177 
1.02044 -0.100501 1.173 
1.06539 -0.100329 1.171 
1.11207 -0.100329 1.171 
1.15777 -0.100244 1.17 
-0.792207 -0.0815832 0.979 
-0.789335 -0.0854999 1.026 
-0.784928 -0.0971665 1.166 
-0.742875 -0.0977499 1.173 
-0.670506 -0.0968332 1.162 
-0.621494 -0.0964165 1.157 
-0.583323 -0.0977499 1.173 
-0.538388 -0.0980832 1.177 
-0.492299 -0.0982499 1.179 
-0.44605 -0.0984165 1.181 
-0.399303 -0.0984999 1.182 
-0.352478 -0.0985832 1.183 
-0.30583 -0.0987499 1.185 
-0.259241 -0.0989999 1.188 
-0.212056 -0.0990832 1.189 
-0.16493 -0.0992499 1.191 
-0.11725 -0.0990832 1.189 
-0.069965 -0.0992499 1.191 
-0.0224257 -0.0989999 1.188 
0.0249584 -0.0990832 1.189 
0.0723005 -0.0989999 1.188 
0.119664 -0.0989999 1.188 
0.167449 -0.0992499 1.191 
0.213848 -0.0987499 1.185 
0.262414 -0.0992499 1.191 
0.309376 -0.0990832 1.189 
0.356779 -0.0990832 1.189 
0.403842 -0.0989999 1.188 
0.449306 -0.0985832 1.183 
0.497729 -0.0988332 1.186 
0.543634 -0.0985832 1.183 
0.591796 -0.0987499 1.185 
0.637961 -0.0985832 1.183 
0.686283 -0.0987499 1.185 
0.732289 -0.0985832 1.183 
0.778135 -0.0984165 1.181 
0.823821 -0.0982499 1.179 
0.872303 -0.0984165 1.181 
0.91783 -0.0982499 1.179 
0.964016 -0.0981665 1.178 
1.00841 -0.0979165 1.175 
1.05166 -0.0975832 1.171 
1.09834 -0.0975832 1.171 
1.14405 -0.0974999 1.17 
-0.798116 -0.0789634 0.975 
-0.796623 -0.0828508 1.023 
-0.791418 -0.0873051 1.078 
-0.787429 -0.0921644 1.138 
-0.76423 -0.094918 1.172 
-0.709259 -0.094918 1.172 
-0.658577 -0.0943511 1.165 
-0.612656 -0.0944321 1.166 
-0.57054 -0.095161 1.175 
-0.524587 -0.0953229 1.177 
-0.479286 -0.0956469 1.181 
-0.432567 -0.0957279 1.182 
-0.385117 -0.0956469 1.181 
-0.339178 -0.0959709 1.185 
-0.291935 -0.0959709 1.185 
-0.244691 -0.0959709 1.185 
-0.198114 -0.0962948 1.189 
-0.150965 -0.0964568 1.191 
-0.103482 -0.0964568 1.191 
-0.0557644 -0.0960518 1.186 
-0.00848104 -0.0960518 1.186 
0.0388678 -0.0962138 1.188 
0.0862309 -0.0962138 1.188 
0.133706 -0.0962948 1.189 
0.181414 -0.0964568 1.191 
0.227936 -0.0960518 1.186 
0.275915 -0.0962948 1.189 
0.323318 -0.0962948 1.189 
0.370409 -0.0962138 1.188 
0.417773 -0.0962138 1.188 
0.461612 -0.0954849 1.179 
0.511205 -0.0959709 1.185 
0.558448 -0.0959709 1.185 
0.604669 -0.0958089 1.183 
0.652935 -0.0959709 1.185 
0.700178 -0.0959709 1.185 
0.746161 -0.0958089 1.183 
0.792654 -0.0957279 1.182 
0.837646 -0.0954849 1.179 
0.8839 -0.0954039 1.178 
0.931655 -0.0954849 1.179 
0.977829 -0.0954039 1.178 
1.02044 -0.094999 1.173 
1.06539 -0.094837 1.171 
1.11112 -0.094756 1.17 
1.15777 -0.094756 1.17 
-0.79566 -0.0777778 0.989 
-0.786816 -0.0809235 1.029 
-0.787104 -0.0854062 1.086 
-0.788326 -0.090518 1.151 
-0.756629 -0.0922481 1.173 
-0.709259 -0.0921695 1.172 
-0.659707 -0.0917763 1.167 
-0.614232 -0.0919335 1.169 
-0.571026 -0.092484 1.176 
-0.524141 -0.092484 1.176 
-0.479286 -0.0928773 1.181 
-0.432567 -0.0929559 1.182 
-0.385117 -0.0928773 1.181 
-0.338606 -0.0930345 1.183 
-0.292181 -0.0932705 1.186 
-0.244691 -0.0931918 1.185 
-0.198114 -0.0935064 1.189 
-0.150965 -0.0936637 1.191 
-0.103482 -0.0936637 1.191 
-0.0558584 -0.0934277 1.188 
-0.00848104 -0.0932705 1.186 
0.0388678 -0.0934277 1.188 
0.0862309 -0.0934277 1.188 
0.133706 -0.0935064 1.189 
0.181414 -0.0936637 1.191 
0.227936 -0.0932705 1.186 
0.275915 -0.0935064 1.189 
0.323318 -0.0935064 1.189 
0.370721 -0.0935064 1.189 
0.417773 -0.0934277 1.188 
0.461612 -0.09272 1.179 
0.511205 -0.0931918 1.185 
0.558448 -0.0931918 1.185 
0.604669 -0.0930345 1.183 
0.652935 -0.0931918 1.185 
0.700178 -0.0931918 1.185 
0.746161 -0.0930345 1.183 
0.792654 -0.0929559 1.182 
0.837646 -0.09272 1.179 
0.8839 -0.0926413 1.178 
0.930865 -0.0926413 1.178 
0.977829 -0.0926413 1.178 
1.02131 -0.0923267 1.174 
1.06539 -0.0920908 1.171 
1.11112 -0.0920122 1.17 
1.15876 -0.0920908 1.171 
-0.797172 -0.0753821 0.988 
-0.789229 -0.0785103 1.029 
-0.788924 -0.082783 1.085 
-0.786902 -0.0873609 1.145 
-0.760028 -0.0895735 1.174 
-0.712615 -0.0894972 1.173 
-0.663579 -0.089192 1.169 
-0.617502 -0.0892683 1.17 
-0.573784 -0.0897261 1.176 
-0.526899 -0.0897261 1.176 
-0.482055 -0.0901076 1.181 
-0.435339 -0.0901839 1.182 
-0.387887 -0.0901076 1.181 
-0.341957 -0.0904128 1.185 
-0.294714 -0.0904128 1.185 
-0.24747 -0.0904128 1.185 
-0.200903 -0.090718 1.189 
-0.153758 -0.0908706 1.191 
-0.106275 -0.0908706 1.191 
-0.0586445 -0.0906417 1.188 
-0.0112814 -0.0906417 1.188 
0.0360817 -0.0906417 1.188 
0.0834448 -0.0906417 1.188 
0.130918 -0.090718 1.189 
0.178621 -0.0908706 1.191 
0.225154 -0.0904891 1.186 
0.273127 -0.090718 1.189 
0.32053 -0.090718 1.189 
0.367933 -0.090718 1.189 
0.415336 -0.090718 1.189 
0.458458 -0.0898787 1.178 
0.508426 -0.0904128 1.185 
0.555669 -0.0904128 1.185 
0.602912 -0.0904128 1.185 
0.650156 -0.0904128 1.185 
0.696222 -0.0902602 1.183 
0.742758 -0.0901839 1.182 
0.789882 -0.0901839 1.182 
0.834881 -0.089955 1.179 
0.881137 -0.0898787 1.178 
0.928102 -0.0898787 1.178 
0.975066 -0.0898787 1.178 
1.01943 -0.0896498 1.175 
1.06264 -0.0893446 1.171 
1.10838 -0.0892683 1.17 
1.15601 -0.0893446 1.171 
-0.797871 -0.0729172 0.986 
-0.790104 -0.0759493 1.027 
-0.790009 -0.0800906 1.083 
-0.787519 -0.0844538 1.142 
-0.763431 -0.0868942 1.175 
-0.715976 -0.0868203 1.174 
-0.667461 -0.0865984 1.171 
-0.621306 -0.0866724 1.172 
-0.576542 -0.0869682 1.176 
-0.529657 -0.0869682 1.176 
-0.484825 -0.087338 1.181 
-0.437741 -0.087338 1.181 
-0.390988 -0.0874119 1.182 
-0.344736 -0.0876338 1.185 
-0.297493 -0.0876338 1.185 
-0.250249 -0.0876338 1.185 
-0.203691 -0.0879296 1.189 
-0.156683 -0.0881514 1.192 
-0.109068 -0.0880775 1.191 
-0.0614823 -0.0879296 1.189 
-0.0140438 -0.0877077 1.186 
0.0333237 -0.0879296 1.189 
0.0805229 -0.0877077 1.186 
0.12813 -0.0879296 1.189 
0.175828 -0.0880775 1.191 
0.222186 -0.0876338 1.185 
0.270338 -0.0879296 1.189 
0.317741 -0.0879296 1.189 
0.365144 -0.0879296 1.189 
0.412547 -0.0879296 1.189 
0.455308 -0.0870421 1.177 
0.505646 -0.0876338 1.185 
0.55289 -0.0876338 1.185 
0.600133 -0.0876338 1.185 
0.647377 -0.0876338 1.185 
0.693448 -0.0874859 1.183 
0.739986 -0.0874119 1.182 
0.78711 -0.0874119 1.182 
0.832116 -0.08719 1.179 
0.878375 -0.0871161 1.178 
0.925339 -0.0871161 1.178 
0.972304 -0.0871161 1.178 
1.01667 -0.0868942 1.175 
1.0599 -0.0865984 1.171 
1.10564 -0.0865245 1.17 
1.15327 -0.0865984 1.171 
-0.799489 -0.0707481 0.988 
-0.790104 -0.0735408 1.027 
-0.790009 -0.0775508 1.083 
-0.788208 -0.0818472 1.143 
-0.763431 -0.0841387 1.175 
-0.716586 -0.0841387 1.175 
-0.668031 -0.0839238 1.172 
-0.621836 -0.0839954 1.173 
-0.577032 -0.0842819 1.177 
-0.529657 -0.0842103 1.176 
-0.484825 -0.0845683 1.181 
-0.437741 -0.0845683 1.181 
-0.390988 -0.0846399 1.182 
-0.344736 -0.0848547 1.185 
-0.297493 -0.0848547 1.185 
-0.250461 -0.0849263 1.186 
-0.203691 -0.0851412 1.189 
-0.156683 -0.085356 1.192 
-0.109068 -0.0852844 1.191 
-0.0614823 -0.0851412 1.189 
-0.0140438 -0.0849263 1.186 
0.0333237 -0.0851412 1.189 
0.0805229 -0.0849263 1.186 
0.12813 -0.0851412 1.189 
0.175828 -0.0852844 1.191 
0.222186 -0.0848547 1.185 
0.270338 -0.0851412 1.189 
0.317741 -0.0851412 1.189 
0.365144 -0.0851412 1.189 
0.412547 -0.0851412 1.189 
0.454921 -0.0842103 1.176 
0.505646 -0.0848547 1.185 
0.553357 -0.0849263 1.186 
0.600133 -0.0848547 1.185 
0.647377 -0.0848547 1.185 
0.693448 -0.0847115 1.183 
0.739986 -0.0846399 1.182 
0.78711 -0.0846399 1.182 
0.832116 -0.0844251 1.179 
0.878375 -0.0843535 1.178 
0.925339 -0.0843535 1.178 
0.972304 -0.0843535 1.178 
1.01667 -0.0841387 1.175 
1.0599 -0.0838522 1.171 
1.10564 -0.0837806 1.17 
1.15327 -0.0838522 1.171 
-0.800299 -0.0685003 0.989 
-0.790104 -0.0711323 1.027 
-0.790009 -0.075011 1.083 
-0.788898 -0.0792359 1.144 
-0.763431 -0.0813831 1.175 
-0.716586 -0.0813831 1.175 
-0.668601 -0.0812446 1.173 
-0.622366 -0.0813138 1.174 
-0.577032 -0.0815216 1.177 
-0.529657 -0.0814523 1.176 
-0.484825 -0.0817987 1.181 
-0.437741 -0.0817987 1.181 
-0.391318 -0.0819372 1.183 
-0.344736 -0.0820757 1.185 
-0.297493 -0.0820757 1.185 
-0.250461 -0.082145 1.186 
-0.203691 -0.0823528 1.189 
-0.156683 -0.0825605 1.192 
-0.10916 -0.0825605 1.192 
-0.0614823 -0.0823528 1.189 
-0.0140438 -0.082145 1.186 
0.0333237 -0.0823528 1.189 
0.0805229 -0.082145 1.186 
0.12813 -0.0823528 1.189 
0.175533 -0.0823528 1.189 
0.222186 -0.0820757 1.185 
0.270338 -0.0823528 1.189 
0.317741 -0.0823528 1.189 
0.365144 -0.0823528 1.189 
0.412547 -0.0823528 1.189 
0.454921 -0.0814523 1.176 
0.505646 -0.0820757 1.185 
0.55429 -0.0822835 1.188 
0.600133 -0.0820757 1.185 
0.647377 -0.0820757 1.185 
0.693448 -0.0819372 1.183 
0.739986 -0.0818679 1.182 
0.78711 -0.0818679 1.182 
0.832116 -0.0816601 1.179 
0.877629 -0.0815216 1.177 
0.925339 -0.0815909 1.178 
0.971478 -0.0815216 1.177 
1.01754 -0.0814523 1.176 
1.0599 -0.081106 1.171 
1.10564 -0.0810368 1.17 
1.15327 -0.081106 1.171 
-0.801806 -0.066114 0.988 
-0.791741 -0.0686569 1.026 
-0.791817 -0.0724042 1.082 
-0.790197 -0.0764192 1.142 
-0.766186 -0.0786275 1.175 
-0.719953 -0.0786944 1.176 
-0.671352 -0.0784937 1.173 
-0.625652 -0.0786275 1.175 
-0.579792 -0.0787613 1.177 
-0.532415 -0.0786944 1.176 
-0.487594 -0.079029 1.181 
-0.44051 -0.079029 1.181 
-0.394093 -0.0791628 1.183 
-0.347809 -0.0793636 1.186 
-0.300272 -0.0792967 1.185 
-0.253242 -0.0793636 1.186 
-0.20648 -0.0795643 1.189 
-0.159478 -0.0797651 1.192 
-0.111955 -0.0797651 1.192 
-0.0643788 -0.0796982 1.191 
-0.0168252 -0.0793636 1.186 
0.0305866 -0.0796982 1.191 
0.0777416 -0.0793636 1.186 
0.125341 -0.0795643 1.189 
0.172744 -0.0795643 1.189 
0.219592 -0.0793636 1.186 
0.26755 -0.0795643 1.189 
0.314953 -0.0795643 1.189 
0.362356 -0.0795643 1.189 
0.409759 -0.0795643 1.189 
0.452163 -0.0786944 1.176 
0.502867 -0.0792967 1.185 
0.551504 -0.0794974 1.188 
0.597354 -0.0792967 1.185 
0.645142 -0.0793636 1.186 
0.690674 -0.0791628 1.183 
0.737214 -0.0790959 1.182 
0.784338 -0.0790959 1.182 
0.830758 -0.079029 1.181 
0.875612 -0.0788283 1.178 
0.922577 -0.0788283 1.178 
0.968718 -0.0787613 1.177 
1.01478 -0.0786944 1.176 
1.05715 -0.0783598 1.171 
1.10289 -0.0782929 1.17 
1.15052 -0.0783598 1.171 
-0.803535 -0.0641198 0.993 
-0.790873 -0.0663799 1.028 
-0.791468 -0.0700605 1.085 
-0.791656 -0.0741285 1.148 
-0.763431 -0.0758719 1.175 
-0.717196 -0.0759365 1.176 
-0.669171 -0.0758074 1.174 
-0.622896 -0.0758719 1.175 
-0.577522 -0.0760656 1.178 
-0.529657 -0.0759365 1.176 
-0.484825 -0.0762594 1.181 
-0.437741 -0.0762594 1.181 
-0.391318 -0.0763885 1.183 
-0.344736 -0.0765176 1.185 
-0.297744 -0.0765822 1.186 
-0.250461 -0.0765822 1.186 
-0.203691 -0.0767759 1.189 
-0.156551 -0.0769051 1.191 
-0.10916 -0.0769696 1.192 
-0.0614823 -0.0767759 1.189 
-0.0140438 -0.0765822 1.186 
0.0333797 -0.0769051 1.191 
0.0805229 -0.0765822 1.186 
0.128345 -0.0769051 1.191 
0.175533 -0.0767759 1.189 
0.222373 -0.0765822 1.186 
0.270338 -0.0767759 1.189 
0.317741 -0.0767759 1.189 
0.365144 -0.0767759 1.189 
0.4122 -0.0767114 1.188 
0.454535 -0.0758719 1.175 
0.505646 -0.0765176 1.185 
0.554756 -0.0767759 1.189 
0.599121 -0.0763885 1.183 
0.647377 -0.0765176 1.185 
0.693448 -0.0763885 1.183 
0.740612 -0.0763885 1.183 
0.787776 -0.0763885 1.183 
0.833528 -0.0762594 1.181 
0.877629 -0.0760011 1.177 
0.925339 -0.0760656 1.178 
0.970653 -0.0759365 1.176 
1.01754 -0.0759365 1.176 
1.0599 -0.0756136 1.171 
1.10564 -0.0755491 1.17 
1.15327 -0.0756136 1.171 
-0.805154 -0.0619156 0.995 
-0.791643 -0.0640313 1.029 
-0.791468 -0.0675159 1.085 
-0.792346 -0.0714985 1.149 
-0.763431 -0.0731164 1.175 
-0.717196 -0.0731786 1.176 
-0.669741 -0.0731164 1.175 
-0.623426 -0.0731786 1.176 
-0.577522 -0.073303 1.178 
-0.529657 -0.0731786 1.176 
-0.484825 -0.0734897 1.181 
-0.437741 -0.0734897 1.181 
-0.391318 -0.0736142 1.183 
-0.344736 -0.0737386 1.185 
-0.297744 -0.0738008 1.186 
-0.250461 -0.0738008 1.186 
-0.203691 -0.0739875 1.189 
-0.156551 -0.074112 1.191 
-0.10916 -0.0741742 1.192 
-0.0614823 -0.0739875 1.189 
-0.0140438 -0.0738008 1.186 
0.0333797 -0.074112 1.191 
0.0805229 -0.0738008 1.186 
0.128345 -0.074112 1.191 
0.175533 -0.0739875 1.189 
0.222748 -0.0739253 1.188 
0.270338 -0.0739875 1.189 
0.317741 -0.0739875 1.189 
0.364837 -0.0739253 1.188 
0.411506 -0.0738008 1.186 
0.454535 -0.0731164 1.175 
0.505646 -0.0737386 1.185 
0.554756 -0.0739875 1.189 
0.599121 -0.0736142 1.183 
0.647377 -0.0737386 1.185 
0.693448 -0.0736142 1.183 
0.740612 -0.0736142 1.183 
0.787776 -0.0736142 1.183 
0.833528 -0.0734897 1.181 
0.877629 -0.0732408 1.177 
0.925339 -0.073303 1.178 
0.970653 -0.0731786 1.176 
1.01754 -0.0731786 1.176 
1.0608 -0.0729297 1.172 
1.10564 -0.0728052 1.17 
1.15327 -0.0728674 1.171 
-0.805241 -0.0597617 0.998 
-0.79153 -0.0617977 1.032 
-0.790378 -0.0650912 1.087 
-0.795149 -0.0692829 1.157 
-0.760675 -0.0703608 1.175 
-0.715045 -0.0704805 1.177 
-0.666985 -0.0703608 1.175 
-0.620668 -0.0704207 1.176 
-0.575247 -0.0706003 1.179 
-0.526899 -0.0704207 1.176 
-0.482055 -0.0707201 1.181 
-0.434971 -0.0707201 1.181 
-0.388544 -0.0708398 1.183 
-0.341957 -0.0709596 1.185 
-0.294963 -0.0710195 1.186 
-0.247679 -0.0710195 1.186 
-0.200903 -0.0711991 1.189 
-0.153758 -0.0713189 1.191 
-0.106365 -0.0713788 1.192 
-0.0586939 -0.0711991 1.189 
-0.0112814 -0.0711392 1.188 
0.0361121 -0.0711991 1.189 
0.0834448 -0.0711392 1.188 
0.131138 -0.0713189 1.191 
0.178321 -0.0711991 1.189 
0.225724 -0.0711991 1.189 
0.272897 -0.0711392 1.188 
0.32053 -0.0711991 1.189 
0.367623 -0.0711392 1.188 
0.414288 -0.0710195 1.186 
0.456901 -0.0703009 1.174 
0.508426 -0.0709596 1.185 
0.558483 -0.0713189 1.191 
0.601895 -0.0708398 1.183 
0.650156 -0.0709596 1.185 
0.696222 -0.0708398 1.183 
0.742758 -0.0707799 1.182 
0.79055 -0.0708398 1.183 
0.836297 -0.0707201 1.181 
0.879641 -0.0704207 1.176 
0.927314 -0.0704805 1.177 
0.973411 -0.0704207 1.176 
1.0203 -0.0704207 1.176 
1.06355 -0.0701811 1.172 
1.10838 -0.0700614 1.17 
1.15601 -0.0701212 1.171 
-0.805963 -0.0573062 0.996 
-0.792412 -0.0592624 1.03 
-0.790739 -0.0623694 1.084 
-0.794415 -0.0662819 1.152 
-0.763431 -0.0676052 1.175 
-0.717805 -0.0677203 1.177 
-0.669741 -0.0676052 1.175 
-0.623956 -0.0677203 1.177 
-0.577522 -0.0677778 1.178 
-0.530107 -0.0677203 1.177 
-0.484825 -0.0679504 1.181 
-0.437741 -0.0679504 1.181 
-0.391318 -0.0680655 1.183 
-0.344736 -0.0681806 1.185 
-0.297744 -0.0682381 1.186 
-0.250461 -0.0682381 1.186 
-0.203691 -0.0684107 1.189 
-0.156551 -0.0685258 1.191 
-0.10916 -0.0685833 1.192 
-0.0614823 -0.0684107 1.189 
-0.0140675 -0.0683532 1.188 
0.0333797 -0.0685258 1.191 
0.0805229 -0.0682381 1.186 
0.128345 -0.0685258 1.191 
0.175533 -0.0684107 1.189 
0.222748 -0.0683532 1.188 
0.270338 -0.0684107 1.189 
0.317741 -0.0684107 1.189 
0.364837 -0.0683532 1.188 
0.411506 -0.0682381 1.186 
0.454535 -0.0676052 1.175 
0.505646 -0.0681806 1.185 
0.555689 -0.0685258 1.191 
0.599121 -0.0680655 1.183 
0.647923 -0.0682381 1.186 
0.693448 -0.0680655 1.183 
0.740612 -0.0680655 1.183 
0.787776 -0.0680655 1.183 
0.833528 -0.0679504 1.181 
0.876884 -0.0676627 1.176 
0.924554 -0.0677203 1.177 
0.970653 -0.0676627 1.176 
1.01754 -0.0676627 1.176 
1.0608 -0.0674326 1.172 
1.10564 -0.0673175 1.17 
1.15228 -0.0673175 1.17 
-0.80712 -0.0544185 0.986 
-0.797402 -0.0565158 1.024 
-0.795736 -0.0594409 1.077 
-0.793339 -0.062642 1.135 
-0.774453 -0.0648496 1.175 
-0.728846 -0.06496 1.177 
-0.680763 -0.0648496 1.175 
-0.634997 -0.06496 1.177 
-0.588573 -0.0650152 1.178 
-0.541608 -0.0650152 1.178 
-0.495064 -0.0650704 1.179 
-0.448819 -0.0651808 1.181 
-0.402075 -0.065236 1.182 
-0.356153 -0.0654567 1.186 
-0.308869 -0.0654567 1.186 
-0.262027 -0.0655671 1.188 
-0.214664 -0.0655671 1.188 
-0.167723 -0.0657327 1.191 
-0.120241 -0.0657327 1.191 
-0.0727581 -0.0657327 1.191 
-0.0251693 -0.0654567 1.186 
0.022226 -0.0657879 1.192 
0.0693974 -0.0654567 1.186 
0.116976 -0.0656223 1.189 
0.164379 -0.0656223 1.189 
0.211604 -0.0655671 1.188 
0.259185 -0.0656223 1.189 
0.306588 -0.0656223 1.189 
0.353991 -0.0656223 1.189 
0.401056 -0.0655671 1.188 
0.445022 -0.0650704 1.179 
0.493696 -0.0652912 1.183 
0.543603 -0.0656223 1.189 
0.589514 -0.0654567 1.186 
0.636261 -0.0654015 1.185 
0.682351 -0.0652912 1.183 
0.730748 -0.0654015 1.185 
0.776678 -0.0652912 1.183 
0.823146 -0.065236 1.182 
0.867324 -0.0650152 1.178 
0.913513 -0.06496 1.177 
0.959621 -0.0649048 1.176 
1.00736 -0.06496 1.177 
1.0507 -0.0647392 1.173 
1.0956 -0.0646289 1.171 
1.14131 -0.0645737 1.17 
-0.809576 -0.0522647 0.989 
-0.797402 -0.0541143 1.024 
-0.794997 -0.0568623 1.076 
-0.793339 -0.0599802 1.135 
-0.774453 -0.062094 1.175 
-0.729466 -0.0622526 1.178 
-0.680763 -0.062094 1.175 
-0.634997 -0.0621997 1.177 
-0.588573 -0.0622526 1.178 
-0.541608 -0.0622526 1.178 
-0.495064 -0.0623054 1.179 
-0.448819 -0.0624111 1.181 
-0.402075 -0.062464 1.182 
-0.355853 -0.0626225 1.185 
-0.308869 -0.0626753 1.186 
-0.262027 -0.062781 1.188 
-0.214303 -0.0626753 1.186 
-0.167442 -0.0628339 1.189 
-0.120241 -0.0629396 1.191 
-0.0727581 -0.0629396 1.191 
-0.0251693 -0.0626753 1.186 
0.0222073 -0.0629396 1.191 
0.0693974 -0.0626753 1.186 
0.116976 -0.0628339 1.189 
0.164379 -0.0628339 1.189 
0.211604 -0.062781 1.188 
0.259185 -0.0628339 1.189 
0.306588 -0.0628339 1.189 
0.353991 -0.0628339 1.189 
0.401056 -0.062781 1.188 
0.445022 -0.0623054 1.179 
0.493696 -0.0625168 1.183 
0.543603 -0.0628339 1.189 
0.589514 -0.0626753 1.186 
0.636261 -0.0626225 1.185 
0.682351 -0.0625168 1.183 
0.730748 -0.0626225 1.185 
0.776678 -0.0625168 1.183 
0.823146 -0.062464 1.182 
0.867324 -0.0622526 1.178 
0.913513 -0.0621997 1.177 
0.959621 -0.0621469 1.176 
1.00736 -0.0621997 1.177 
1.0507 -0.0619884 1.173 
1.0956 -0.0618827 1.171 
1.14131 -0.0618298 1.17 
-0.81204 -0.0493898 0.978 
-0.79832 -0.0513088 1.016 
-0.793616 -0.0537329 1.064 
-0.788616 -0.0564094 1.117 
-0.78272 -0.0593385 1.175 
-0.737127 -0.0594395 1.177 
-0.689616 -0.059389 1.176 
-0.642732 -0.059389 1.176 
-0.596354 -0.0594395 1.177 
-0.550363 -0.0595405 1.179 
-0.503358 -0.0595405 1.179 
-0.457515 -0.059692 1.182 
-0.410391 -0.059692 1.182 
-0.363575 -0.0597425 1.183 
-0.317214 -0.059894 1.186 
-0.26993 -0.059894 1.186 
-0.222647 -0.059894 1.186 
-0.175807 -0.0600455 1.189 
-0.128404 -0.0600455 1.189 
-0.0811374 -0.0601465 1.191 
-0.0335699 -0.059995 1.188 
0.013828 -0.0601465 1.191 
0.0610533 -0.059894 1.186 
0.108611 -0.0600455 1.189 
0.156014 -0.0600455 1.189 
0.202903 -0.059894 1.186 
0.25082 -0.0600455 1.189 
0.298223 -0.0600455 1.189 
0.345626 -0.0600455 1.189 
0.392698 -0.059995 1.188 
0.43895 -0.0598435 1.185 
0.484552 -0.0596415 1.181 
0.533887 -0.059894 1.186 
0.58264 -0.0600455 1.189 
0.627924 -0.0598435 1.185 
0.675167 -0.0598435 1.185 
0.72302 -0.059894 1.186 
0.769654 -0.0598435 1.185 
0.815519 -0.0597425 1.183 
0.861224 -0.0596415 1.181 
0.905232 -0.0594395 1.177 
0.951347 -0.059389 1.176 
0.999081 -0.0594395 1.177 
1.04423 -0.0593385 1.175 
1.08829 -0.059187 1.172 
1.13404 -0.0591365 1.171 
-0.814531 -0.0472407 0.981 
-0.79832 -0.0489261 1.016 
-0.795108 -0.0513339 1.066 
-0.790028 -0.0538862 1.119 
-0.78272 -0.0565829 1.175 
-0.737127 -0.0566792 1.177 
-0.689616 -0.056631 1.176 
-0.642732 -0.056631 1.176 
-0.59686 -0.0567274 1.178 
-0.550363 -0.0567755 1.179 
-0.503358 -0.0567755 1.179 
-0.457515 -0.05692 1.182 
-0.410739 -0.0569681 1.183 
-0.363268 -0.05692 1.182 
-0.317214 -0.0571126 1.186 
-0.26993 -0.0571126 1.186 
-0.222647 -0.0571126 1.186 
-0.175807 -0.0572571 1.189 
-0.128404 -0.0572571 1.189 
-0.0811374 -0.0573534 1.191 
-0.0335699 -0.0572089 1.188 
0.013828 -0.0573534 1.191 
0.0610533 -0.0571126 1.186 
0.108611 -0.0572571 1.189 
0.156014 -0.0572571 1.189 
0.203246 -0.0572089 1.188 
0.25082 -0.0572571 1.189 
0.297972 -0.0572089 1.188 
0.345626 -0.0572571 1.189 
0.392698 -0.0572089 1.188 
0.43895 -0.0570644 1.185 
0.484552 -0.0568718 1.181 
0.534787 -0.0572089 1.188 
0.58264 -0.0572571 1.189 
0.627924 -0.0570644 1.185 
0.675167 -0.0570644 1.185 
0.72302 -0.0571126 1.186 
0.769654 -0.0570644 1.185 
0.815519 -0.0569681 1.183 
0.861224 -0.0568718 1.181 
0.905232 -0.0566792 1.177 
0.951347 -0.056631 1.176 
0.99993 -0.0567274 1.178 
1.04423 -0.0565829 1.175 
1.08829 -0.0564384 1.172 
1.13404 -0.0563903 1.171 
-0.818026 -0.0452608 0.988 
-0.79832 -0.0465434 1.016 
-0.795108 -0.048834 1.066 
-0.788616 -0.0511703 1.117 
-0.78272 -0.0538273 1.175 
-0.737127 -0.0539189 1.177 
-0.690203 -0.0539189 1.177 
-0.642732 -0.0538731 1.176 
-0.59686 -0.0539647 1.178 
-0.550363 -0.0540106 1.179 
-0.503358 -0.0540106 1.179 
-0.457515 -0.054148 1.182 
-0.410739 -0.0541938 1.183 
-0.36296 -0.0541022 1.181 
-0.317214 -0.0543312 1.186 
-0.26993 -0.0543312 1.186 
-0.222647 -0.0543312 1.186 
-0.175807 -0.0544687 1.189 
-0.128404 -0.0544687 1.189 
-0.0811374 -0.0545603 1.191 
-0.0335699 -0.0544228 1.188 
0.013828 -0.0545603 1.191 
0.0610533 -0.0543312 1.186 
0.108611 -0.0544687 1.189 
0.156014 -0.0544687 1.189 
0.203417 -0.0544687 1.189 
0.251242 -0.0545603 1.191 
0.297972 -0.0544228 1.188 
0.345626 -0.0544687 1.189 
0.392698 -0.0544228 1.188 
0.43895 -0.0542854 1.185 
0.484962 -0.054148 1.182 
0.534787 -0.0544228 1.188 
0.58264 -0.0544687 1.189 
0.627924 -0.0542854 1.185 
0.675167 -0.0542854 1.185 
0.72302 -0.0543312 1.186 
0.769654 -0.0542854 1.185 
0.815519 -0.0541938 1.183 
0.861224 -0.0541022 1.181 
0.906001 -0.0539647 1.178 
0.952156 -0.0539189 1.177 
0.99993 -0.0539647 1.178 
1.04423 -0.0538273 1.175 
1.08829 -0.0536899 1.172 
1.13404 -0.0536441 1.171 
-0.825812 -0.0429872 0.989 
-0.796747 -0.0436826 1.005 
-0.795079 -0.0458994 1.056 
-0.79077 -0.048203 1.109 
-0.78964 -0.0509848 1.173 
-0.745408 -0.0511587 1.177 
-0.699077 -0.0512021 1.178 
-0.651559 -0.0511587 1.177 
-0.605148 -0.0512021 1.178 
-0.558658 -0.0512456 1.179 
-0.511219 -0.0512021 1.178 
-0.465437 -0.0513325 1.181 
-0.419062 -0.0514195 1.183 
-0.37064 -0.0512456 1.179 
-0.325558 -0.0515499 1.186 
-0.278274 -0.0515499 1.186 
-0.230796 -0.0515064 1.185 
-0.184172 -0.0516802 1.189 
-0.136999 -0.0517672 1.191 
-0.0895167 -0.0517672 1.191 
-0.0419281 -0.0516368 1.188 
0.00543499 -0.0516368 1.188 
0.0527981 -0.0516368 1.188 
0.100245 -0.0516802 1.189 
0.147648 -0.0516802 1.189 
0.195051 -0.0516802 1.189 
0.242862 -0.0517672 1.191 
0.289857 -0.0516802 1.189 
0.33726 -0.0516802 1.189 
0.38434 -0.0516368 1.188 
0.431703 -0.0516368 1.188 
0.47463 -0.0511587 1.177 
0.525543 -0.0515499 1.186 
0.573792 -0.0516368 1.188 
0.619587 -0.0515064 1.185 
0.66683 -0.0515064 1.185 
0.714676 -0.0515499 1.186 
0.76196 -0.0515499 1.186 
0.807196 -0.0514195 1.183 
0.852915 -0.0513325 1.181 
0.897713 -0.0512021 1.178 
0.943876 -0.0511587 1.177 
0.991642 -0.0512021 1.178 
1.03596 -0.0510717 1.175 
1.08096 -0.0509848 1.173 
1.12581 -0.0508979 1.171 
-0.822834 -0.0407501 0.991 
-0.799133 -0.0415725 1.011 
-0.796355 -0.0436285 1.061 
-0.790301 -0.0457256 1.112 
-0.786889 -0.0482339 1.173 
-0.742648 -0.0483984 1.177 
-0.696905 -0.0484806 1.179 
-0.648799 -0.0483984 1.177 
-0.602386 -0.0484395 1.178 
-0.555893 -0.0484806 1.179 
-0.508457 -0.0484395 1.178 
-0.462668 -0.0485629 1.181 
-0.416991 -0.0487274 1.185 
-0.367563 -0.0484395 1.178 
-0.322776 -0.0487685 1.186 
-0.275493 -0.0487685 1.186 
-0.22821 -0.0487685 1.186 
-0.181384 -0.0488918 1.189 
-0.134206 -0.0489741 1.191 
-0.0867236 -0.0489741 1.191 
-0.039142 -0.0488507 1.188 
0.00822105 -0.0488507 1.188 
0.0555841 -0.0488507 1.188 
0.103034 -0.0488918 1.189 
0.150437 -0.0488918 1.189 
0.198173 -0.0489741 1.191 
0.245655 -0.0489741 1.191 
0.2924 -0.0488507 1.188 
0.340049 -0.0488918 1.189 
0.387126 -0.0488507 1.188 
0.433757 -0.0487685 1.186 
0.478202 -0.0484806 1.179 
0.528324 -0.0487685 1.186 
0.576578 -0.0488507 1.188 
0.622366 -0.0487274 1.185 
0.669609 -0.0487274 1.185 
0.717458 -0.0487685 1.186 
0.764096 -0.0487274 1.185 
0.809286 -0.048604 1.182 
0.855685 -0.0485629 1.181 
0.90124 -0.0484806 1.179 
0.94744 -0.0484395 1.178 
0.994405 -0.0484395 1.178 
1.03872 -0.0483162 1.175 
1.08371 -0.0482339 1.173 
1.12855 -0.0481517 1.171 
-7.60335 -0.311906 8.044 
-0.803769 -0.0388525 1.002 
-0.799649 -0.0406749 1.049 
-0.793226 -0.0425749 1.098 
-0.796548 -0.0452504 1.167 
-0.755806 -0.0455994 1.176 
-0.711936 -0.0457932 1.181 
-0.663163 -0.0456769 1.178 
-0.616199 -0.0456769 1.178 
-0.568751 -0.0456381 1.177 
-0.521826 -0.0456381 1.177 
-0.476516 -0.0457932 1.181 
-0.429795 -0.045832 1.182 
-0.382672 -0.045832 1.182 
-0.336683 -0.0459871 1.186 
-0.289156 -0.0459483 1.185 
-0.242116 -0.0459871 1.186 
-0.195162 -0.0460647 1.188 
-0.148172 -0.046181 1.191 
-0.100689 -0.046181 1.191 
-0.0532064 -0.046181 1.191 
-0.00569486 -0.0459483 1.185 
0.0416889 -0.0461034 1.189 
0.0890918 -0.0461034 1.189 
0.136495 -0.0461034 1.189 
0.184207 -0.046181 1.191 
0.23169 -0.046181 1.191 
0.278704 -0.0461034 1.189 
0.326107 -0.0461034 1.189 
0.373195 -0.0460647 1.188 
0.419851 -0.0459871 1.186 
0.462801 -0.0455606 1.175 
0.514417 -0.0459871 1.186 
0.562648 -0.0460647 1.188 
0.607444 -0.0458708 1.183 
0.656267 -0.0459871 1.186 
0.702958 -0.0459483 1.185 
0.750201 -0.0459483 1.185 
0.796099 -0.0458708 1.183 
0.840411 -0.0457157 1.179 
0.888921 -0.0457932 1.181 
0.93442 -0.0457157 1.179 
0.981424 -0.0457157 1.179 
1.02581 -0.0455994 1.176 
1.06996 -0.045483 1.173 
1.11577 -0.0454443 1.172 
1.15952 -0.0453279 1.169 
-0.807661 -0.0364662 1.001 
-0.797666 -0.037887 1.04 
-0.794014 -0.0397813 1.092 
-0.795837 -0.0421857 1.158 
-0.760675 -0.042805 1.175 
-0.717475 -0.0430236 1.181 
-0.668688 -0.0429143 1.178 
-0.621724 -0.0429143 1.178 
-0.574272 -0.0428779 1.177 
-0.526899 -0.0428414 1.176 
-0.482055 -0.0430236 1.181 
-0.435339 -0.04306 1.182 
-0.388216 -0.04306 1.182 
-0.341957 -0.0431693 1.185 
-0.294714 -0.0431693 1.185 
-0.24747 -0.0431693 1.185 
-0.200734 -0.0432786 1.188 
-0.153758 -0.0433879 1.191 
-0.106275 -0.0433879 1.191 
-0.058842 -0.0434243 1.192 
-0.0112339 -0.0430964 1.183 
0.0361121 -0.043315 1.189 
0.083515 -0.043315 1.189 
0.130918 -0.043315 1.189 
0.178621 -0.0433879 1.191 
0.226293 -0.0434243 1.192 
0.273586 -0.0433879 1.191 
0.32053 -0.043315 1.189 
0.367623 -0.0432786 1.188 
0.414288 -0.0432057 1.186 
0.45729 -0.042805 1.175 
0.509713 -0.0432786 1.188 
0.557545 -0.043315 1.189 
0.602912 -0.0431693 1.185 
0.650156 -0.0431693 1.185 
0.697399 -0.0431693 1.185 
0.745271 -0.0432057 1.186 
0.79055 -0.0430964 1.183 
0.834881 -0.0429507 1.179 
0.884129 -0.04306 1.182 
0.92889 -0.0429507 1.179 
0.975894 -0.0429507 1.179 
1.0203 -0.0428414 1.176 
1.06537 -0.0427686 1.174 
1.10933 -0.0426593 1.171 
1.15503 -0.0426229 1.17 
-0.810009 -0.0341187 1.001 
-0.797797 -0.0353457 1.037 
-0.792927 -0.03705 1.087 
-0.796483 -0.0393677 1.155 
-0.763431 -0.0400494 1.175 
-0.719025 -0.0401858 1.179 
-0.672021 -0.0401858 1.179 
-0.624487 -0.0401517 1.178 
-0.577032 -0.0401176 1.177 
-0.529657 -0.0400835 1.176 
-0.484825 -0.0402539 1.181 
-0.438111 -0.040288 1.182 
-0.391318 -0.0403221 1.183 
-0.344736 -0.0403903 1.185 
-0.297493 -0.0403903 1.185 
-0.250461 -0.0404244 1.186 
-0.20352 -0.0404925 1.188 
-0.156551 -0.0405948 1.191 
-0.109068 -0.0405948 1.191 
-0.0617408 -0.040697 1.194 
-0.0140083 -0.0403221 1.183 
0.0333237 -0.0405266 1.189 
0.0807266 -0.0405266 1.189 
0.12813 -0.0405266 1.189 
0.175828 -0.0405948 1.191 
0.223498 -0.0406289 1.192 
0.270793 -0.0405948 1.191 
0.317741 -0.0405266 1.189 
0.364837 -0.0404925 1.188 
0.4122 -0.0404925 1.188 
0.454921 -0.0400835 1.176 
0.506927 -0.0404925 1.188 
0.554756 -0.0405266 1.189 
0.600133 -0.0403903 1.185 
0.647923 -0.0404244 1.186 
0.693448 -0.0403221 1.183 
0.741864 -0.0403903 1.185 
0.787776 -0.0403221 1.183 
0.832116 -0.0401858 1.179 
0.881357 -0.040288 1.182 
0.926125 -0.0401858 1.179 
0.97478 -0.0402539 1.181 
1.01754 -0.0400835 1.176 
1.06261 -0.0400153 1.174 
1.10658 -0.0399131 1.171 
1.15228 -0.039879 1.17 
-0.808468 -0.0318029 1.002 
-0.799967 -0.0331042 1.043 
-0.794741 -0.0346912 1.093 
-0.797898 -0.0368495 1.161 
-0.760675 -0.0372938 1.175 
-0.717475 -0.0374843 1.181 
-0.669256 -0.0374208 1.179 
-0.621724 -0.0373891 1.178 
-0.574272 -0.0373573 1.177 
-0.526899 -0.0373256 1.176 
-0.482055 -0.0374843 1.181 
-0.435339 -0.037516 1.182 
-0.388216 -0.037516 1.182 
-0.342246 -0.037643 1.186 
-0.294714 -0.0376112 1.185 
-0.247679 -0.037643 1.186 
-0.200903 -0.0377382 1.189 
-0.153758 -0.0378017 1.191 
-0.106275 -0.0378017 1.191 
-0.058842 -0.0378334 1.192 
-0.0112339 -0.0375478 1.183 
0.0360817 -0.0377065 1.188 
0.083515 -0.0377382 1.189 
0.130918 -0.0377382 1.189 
0.178771 -0.0378334 1.192 
0.226104 -0.0378017 1.191 
0.273586 -0.0378017 1.191 
0.32053 -0.0377382 1.189 
0.367623 -0.0377065 1.188 
0.414288 -0.037643 1.186 
0.457679 -0.0373256 1.176 
0.509713 -0.0377065 1.188 
0.557076 -0.0377065 1.188 
0.601895 -0.0375478 1.183 
0.650705 -0.037643 1.186 
0.697399 -0.0376112 1.185 
0.744643 -0.0376112 1.185 
0.79055 -0.0375478 1.183 
0.834173 -0.0373891 1.178 
0.884877 -0.0375478 1.183 
0.92889 -0.0374208 1.179 
0.97755 -0.0374843 1.181 
1.0203 -0.0373256 1.176 
1.06537 -0.0372621 1.174 
1.10933 -0.0371669 1.171 
1.15503 -0.0371352 1.17 
-0.807728 -0.0295119 1.004 
-0.801344 -0.0308052 1.048 
-0.796526 -0.0323043 1.099 
-0.799285 -0.0343031 1.167 
-0.758564 -0.0345677 1.176 
-0.714706 -0.0347146 1.181 
-0.666491 -0.0346558 1.179 
-0.618961 -0.0346265 1.178 
-0.571511 -0.0345971 1.177 
-0.524141 -0.0345677 1.176 
-0.479286 -0.0347146 1.181 
-0.432567 -0.034744 1.182 
-0.385444 -0.034744 1.182 
-0.339465 -0.0348616 1.186 
-0.291935 -0.0348322 1.185 
-0.244898 -0.0348616 1.186 
-0.198114 -0.0349498 1.189 
-0.150965 -0.0350086 1.191 
-0.103482 -0.0350086 1.191 
-0.0559995 -0.0350086 1.191 
-0.00845958 -0.0347734 1.183 
0.0388678 -0.0349204 1.188 
0.0863034 -0.0349498 1.189 
0.133706 -0.0349498 1.189 
0.181566 -0.035038 1.192 
0.228512 -0.0349498 1.189 
0.276379 -0.0350086 1.191 
0.323318 -0.0349498 1.189 
0.370409 -0.0349204 1.188 
0.416718 -0.0348322 1.185 
0.461612 -0.0346558 1.179 
0.512499 -0.0349204 1.188 
0.559862 -0.0349204 1.188 
0.604669 -0.0347734 1.183 
0.652935 -0.0348322 1.185 
0.700178 -0.0348322 1.185 
0.747422 -0.0348322 1.185 
0.793324 -0.0347734 1.183 
0.836936 -0.0346265 1.178 
0.887652 -0.0347734 1.183 
0.933235 -0.0347146 1.181 
0.980319 -0.0347146 1.181 
1.02305 -0.0345677 1.176 
1.06721 -0.0344795 1.173 
1.11207 -0.0344207 1.171 
1.15777 -0.0343913 1.17 
-0.812357 -0.0270761 1.001 
-0.801772 -0.028104 1.039 
-0.795476 -0.0294024 1.087 
-0.7985 -0.0312147 1.154 
-0.766838 -0.0318097 1.176 
-0.72179 -0.0318909 1.179 
-0.674786 -0.0318909 1.179 
-0.627249 -0.0318638 1.178 
-0.579792 -0.0318368 1.177 
-0.532415 -0.0318097 1.176 
-0.487594 -0.031945 1.181 
-0.44051 -0.031945 1.181 
-0.393759 -0.031972 1.182 
-0.347515 -0.0320532 1.185 
-0.300272 -0.0320532 1.185 
-0.253242 -0.0320802 1.186 
-0.20648 -0.0321614 1.189 
-0.159344 -0.0322155 1.191 
-0.111861 -0.0322155 1.191 
-0.064541 -0.0322966 1.194 
-0.0167826 -0.0319991 1.183 
0.0304582 -0.0320802 1.186 
0.0779382 -0.0321614 1.189 
0.125341 -0.0321614 1.189 
0.173035 -0.0322155 1.191 
0.220517 -0.0322155 1.191 
0.268 -0.0322155 1.191 
0.314953 -0.0321614 1.189 
0.362356 -0.0321614 1.189 
0.408725 -0.0320802 1.186 
0.45447 -0.031972 1.182 
0.505414 -0.0322155 1.191 
0.551504 -0.0321343 1.188 
0.596346 -0.0319991 1.183 
0.645142 -0.0320802 1.186 
0.690674 -0.0319991 1.183 
0.739085 -0.0320532 1.185 
0.785001 -0.0319991 1.183 
0.829351 -0.0318909 1.179 
0.879329 -0.0319991 1.183 
0.92336 -0.0318909 1.179 
0.972833 -0.031972 1.182 
1.01478 -0.0318097 1.176 
1.05896 -0.0317286 1.173 
1.10384 -0.0316745 1.171 
1.14954 -0.0316474 1.17 
-0.822993 -0.0245557 0.994 
-0.808584 -0.0253462 1.026 
-0.799853 -0.0264085 1.069 
-0.794777 -0.0277178 1.122 
-0.784807 -0.0290024 1.174 
-0.739888 -0.0290765 1.177 
-0.69414 -0.0291259 1.179 
-0.647136 -0.0291259 1.179 
-0.599114 -0.0290765 1.177 
-0.552659 -0.0291012 1.178 
-0.506123 -0.0291259 1.179 
-0.459119 -0.0291259 1.179 
-0.414212 -0.0292742 1.185 
-0.364801 -0.0291012 1.178 
-0.319725 -0.0292742 1.185 
-0.272712 -0.0292989 1.186 
-0.225808 -0.0293483 1.188 
-0.178896 -0.0294224 1.191 
-0.131413 -0.0294224 1.191 
-0.084001 -0.0294471 1.192 
-0.036356 -0.0293483 1.188 
0.0109886 -0.0292989 1.186 
0.0582719 -0.0292989 1.186 
0.105822 -0.029373 1.189 
0.153225 -0.029373 1.189 
0.201134 -0.0294471 1.192 
0.248031 -0.029373 1.189 
0.295434 -0.029373 1.189 
0.343414 -0.0294224 1.191 
0.39024 -0.029373 1.189 
0.437275 -0.0293483 1.188 
0.485046 -0.029373 1.189 
0.531106 -0.0292989 1.186 
0.578389 -0.0292989 1.186 
0.625672 -0.0292989 1.186 
0.671253 -0.0292247 1.183 
0.719632 -0.0292742 1.185 
0.765581 -0.0292247 1.183 
0.812058 -0.0292 1.182 
0.857001 -0.0291259 1.179 
0.905539 -0.0291753 1.181 
0.952623 -0.0291753 1.181 
0.997167 -0.0291012 1.178 
1.04147 -0.0290271 1.175 
1.08554 -0.028953 1.172 
1.1313 -0.0289283 1.171 
-8.06598 -0.191749 8.576 
-0.811627 -0.0224258 1.003 
-0.80549 -0.0234096 1.047 
-0.799493 -0.0245052 1.096 
-0.799242 -0.0259138 1.159 
-0.76408 -0.0262939 1.176 
-0.719025 -0.026361 1.179 
-0.671451 -0.0263386 1.178 
-0.624487 -0.0263386 1.178 
-0.577032 -0.0263163 1.177 
-0.529657 -0.0262939 1.176 
-0.484825 -0.0264057 1.181 
-0.437741 -0.0264057 1.181 
-0.390988 -0.026428 1.182 
-0.344736 -0.0264951 1.185 
-0.297493 -0.0264951 1.185 
-0.250461 -0.0265175 1.186 
-0.203691 -0.0265846 1.189 
-0.156288 -0.0265846 1.189 
-0.109068 -0.0266293 1.191 
-0.0617408 -0.0266964 1.194 
-0.0140319 -0.0264951 1.185 
0.0332396 -0.0265175 1.186 
0.0807266 -0.0265846 1.189 
0.128345 -0.0266293 1.191 
0.175828 -0.0266293 1.191 
0.222935 -0.0265846 1.189 
0.270793 -0.0266293 1.191 
0.317741 -0.0265846 1.189 
0.364837 -0.0265622 1.188 
0.411506 -0.0265175 1.186 
0.458403 -0.0264951 1.185 
0.507353 -0.0265846 1.189 
0.55429 -0.0265622 1.188 
0.599121 -0.0264504 1.183 
0.647923 -0.0265175 1.186 
0.69462 -0.0264951 1.185 
0.741864 -0.0264951 1.185 
0.787776 -0.0264504 1.183 
0.832116 -0.026361 1.179 
0.882103 -0.0264504 1.183 
0.926125 -0.026361 1.179 
0.975605 -0.026428 1.182 
1.01754 -0.0262939 1.176 
1.06171 -0.0262268 1.173 
1.10658 -0.0261821 1.171 
1.15327 -0.0261821 1.171 
-0.822165 -0.0198735 0.993 
-0.812524 -0.020634 1.031 
-0.800601 -0.0214145 1.07 
-0.798319 -0.0225553 1.127 
-0.785475 -0.023516 1.175 
-0.740516 -0.023576 1.178 
-0.69414 -0.023596 1.179 
-0.647136 -0.023596 1.179 
-0.599114 -0.023556 1.177 
-0.552659 -0.023576 1.178 
-0.506123 -0.023596 1.179 
-0.459119 -0.023596 1.179 
-0.414212 -0.0237161 1.185 
-0.364801 -0.023576 1.178 
-0.319725 -0.0237161 1.185 
-0.272712 -0.0237361 1.186 
-0.225808 -0.0237761 1.188 
-0.178595 -0.0237961 1.189 
-0.131193 -0.0237961 1.189 
-0.084001 -0.0238562 1.192 
-0.0363866 -0.0237961 1.189 
0.0110071 -0.0237761 1.188 
0.0582228 -0.0237161 1.185 
0.105822 -0.0237961 1.189 
0.153225 -0.0237961 1.189 
0.200966 -0.0238362 1.191 
0.248031 -0.0237961 1.189 
0.295434 -0.0237961 1.189 
0.343414 -0.0238362 1.191 
0.39024 -0.0237961 1.189 
0.437643 -0.0237961 1.189 
0.485862 -0.0238362 1.191 
0.531106 -0.0237361 1.186 
0.578389 -0.0237361 1.186 
0.625145 -0.0237161 1.185 
0.670686 -0.0236561 1.182 
0.719632 -0.0237161 1.185 
0.766875 -0.0237161 1.185 
0.812058 -0.0236561 1.182 
0.857001 -0.023596 1.179 
0.905539 -0.023636 1.181 
0.952623 -0.023636 1.181 
0.997167 -0.023576 1.178 
1.04147 -0.023516 1.175 
1.08554 -0.0234559 1.172 
1.1313 -0.0234359 1.171 
-8.06598 -0.151524 8.576 
-0.812357 -0.0176861 1.001 
-0.809489 -0.0185342 1.049 
-0.799136 -0.0192939 1.092 
-0.799192 -0.020407 1.155 
-0.766838 -0.0207781 1.176 
-0.72179 -0.0208311 1.179 
-0.674213 -0.0208134 1.178 
-0.627249 -0.0208134 1.178 
-0.579792 -0.0207957 1.177 
-0.532867 -0.0207957 1.177 
-0.487594 -0.0208664 1.181 
-0.439764 -0.0208311 1.179 
-0.393759 -0.0208841 1.182 
-0.346929 -0.0209017 1.183 
-0.300272 -0.0209371 1.185 
-0.253242 -0.0209547 1.186 
-0.20648 -0.0210077 1.189 
-0.159077 -0.0210077 1.189 
-0.111861 -0.0210431 1.191 
-0.064541 -0.0210961 1.194 
-0.0168252 -0.0209547 1.186 
0.0305096 -0.0209901 1.188 
0.0778727 -0.0209901 1.188 
0.125552 -0.0210431 1.191 
0.173035 -0.0210431 1.191 
0.220517 -0.0210431 1.191 
0.268 -0.0210431 1.191 
0.314688 -0.0209901 1.188 
0.362356 -0.0210077 1.189 
0.408725 -0.0209547 1.186 
0.456008 -0.0209547 1.186 
0.504565 -0.0210077 1.189 
0.551504 -0.0209901 1.188 
0.597354 -0.0209371 1.185 
0.645142 -0.0209547 1.186 
0.690674 -0.0209017 1.183 
0.739085 -0.0209371 1.185 
0.785001 -0.0209017 1.183 
0.829351 -0.0208311 1.179 
0.878585 -0.0208841 1.182 
0.92336 -0.0208311 1.179 
0.97201 -0.0208664 1.181 
1.01564 -0.0207957 1.177 
1.05896 -0.020725 1.173 
1.10384 -0.0206897 1.171 
1.15052 -0.0206897 1.171 
-0.826823 -0.015216 0.993 
-0.81736 -0.0157983 1.031 
-0.800349 -0.0162886 1.063 
-0.800753 -0.017208 1.123 
-0.790313 -0.0179895 1.174 
-0.746041 -0.0180508 1.178 
-0.698484 -0.0180355 1.177 
-0.652113 -0.0180508 1.178 
-0.605148 -0.0180508 1.178 
-0.558184 -0.0180508 1.178 
-0.511653 -0.0180661 1.179 
-0.464649 -0.0180661 1.179 
-0.420124 -0.0181734 1.186 
-0.370012 -0.0180355 1.177 
-0.325283 -0.018158 1.185 
-0.278274 -0.0181734 1.186 
-0.230991 -0.0181734 1.186 
-0.184172 -0.0182193 1.189 
-0.136769 -0.0182193 1.189 
-0.0895167 -0.01825 1.191 
-0.0420693 -0.0182653 1.192 
0.00543956 -0.0182193 1.189 
0.0527092 -0.0181734 1.186 
0.100245 -0.0182193 1.189 
0.147897 -0.01825 1.191 
0.19538 -0.01825 1.191 
0.242454 -0.0182193 1.189 
0.289857 -0.0182193 1.189 
0.337828 -0.01825 1.191 
0.384663 -0.0182193 1.189 
0.432066 -0.0182193 1.189 
0.480276 -0.01825 1.191 
0.525543 -0.0181734 1.186 
0.572826 -0.0181734 1.186 
0.619587 -0.018158 1.185 
0.665705 -0.0181274 1.183 
0.714074 -0.018158 1.185 
0.761317 -0.018158 1.185 
0.806514 -0.0181121 1.182 
0.851471 -0.0180661 1.179 
0.899999 -0.0180967 1.181 
0.94548 -0.0180661 1.179 
0.991642 -0.0180508 1.178 
1.03596 -0.0180048 1.175 
1.08096 -0.0179742 1.173 
1.12581 -0.0179435 1.171 
-8.50036 -0.116712 8.993 
-0.814603 -0.0129521 0.998 
-0.814409 -0.013614 1.049 
-0.798365 -0.0140682 1.084 
-0.797643 -0.0148599 1.145 
-0.772354 -0.0152622 1.176 
-0.72732 -0.0153011 1.179 
-0.679739 -0.0152882 1.178 
-0.632774 -0.0152882 1.178 
-0.584815 -0.0152622 1.176 
-0.538388 -0.0152752 1.177 
-0.493134 -0.0153271 1.181 
-0.445294 -0.0153011 1.179 
-0.399303 -0.0153401 1.182 
-0.351286 -0.0153011 1.179 
-0.305314 -0.0153531 1.183 
-0.258805 -0.015392 1.186 
-0.211878 -0.0154179 1.188 
-0.164653 -0.0154309 1.189 
-0.11725 -0.0154309 1.189 
-0.0701412 -0.0154958 1.194 
-0.0224257 -0.0154179 1.188 
0.0249584 -0.0154309 1.189 
0.0721788 -0.015392 1.186 
0.119764 -0.0154309 1.189 
0.167449 -0.0154569 1.191 
0.214931 -0.0154569 1.191 
0.262414 -0.0154569 1.191 
0.309376 -0.0154309 1.189 
0.356779 -0.0154309 1.189 
0.403842 -0.0154179 1.188 
0.450446 -0.015392 1.186 
0.498568 -0.0154179 1.188 
0.546391 -0.0154309 1.189 
0.591796 -0.015379 1.185 
0.63904 -0.015379 1.185 
0.685125 -0.0153531 1.183 
0.732289 -0.0153531 1.183 
0.78077 -0.015379 1.185 
0.825219 -0.0153271 1.181 
0.872303 -0.0153271 1.181 
0.91783 -0.0153011 1.179 
0.966471 -0.0153271 1.181 
1.01098 -0.0152882 1.178 
1.05345 -0.0152233 1.173 
1.09834 -0.0151973 1.171 
1.14503 -0.0151973 1.171 
-0.826823 -0.0105585 0.993 
-0.818153 -0.0109731 1.032 
-0.803361 -0.0113453 1.067 
-0.802179 -0.011962 1.125 
-0.78964 -0.0124724 1.173 
-0.746041 -0.0125256 1.178 
-0.698484 -0.0125149 1.177 
-0.652113 -0.0125256 1.178 
-0.605148 -0.0125256 1.178 
-0.558184 -0.0125256 1.178 
-0.511219 -0.0125256 1.178 
-0.465437 -0.0125574 1.181 
-0.41977 -0.0126 1.185 
-0.370012 -0.0125149 1.177 
-0.325283 -0.0126 1.185 
-0.278274 -0.0126106 1.186 
-0.230991 -0.0126106 1.186 
-0.184017 -0.0126319 1.188 
-0.136769 -0.0126425 1.189 
-0.0895167 -0.0126638 1.191 
-0.0421399 -0.0126957 1.194 
0.00543956 -0.0126425 1.189 
0.0527092 -0.0126106 1.186 
0.100245 -0.0126425 1.189 
0.147897 -0.0126638 1.191 
0.19538 -0.0126638 1.191 
0.242454 -0.0126425 1.189 
0.289857 -0.0126425 1.189 
0.337828 -0.0126638 1.191 
0.38434 -0.0126319 1.188 
0.432066 -0.0126425 1.189 
0.479066 -0.0126319 1.188 
0.526429 -0.0126319 1.188 
0.572826 -0.0126106 1.186 
0.619587 -0.0126 1.185 
0.665705 -0.0125787 1.183 
0.714074 -0.0126 1.185 
0.761317 -0.0126 1.185 
0.807196 -0.0125787 1.183 
0.852915 -0.0125574 1.181 
0.900761 -0.0125681 1.182 
0.94548 -0.0125362 1.179 
0.991642 -0.0125256 1.178 
1.03596 -0.0124937 1.175 
1.08096 -0.0124724 1.173 
1.12581 -0.0124511 1.171 
-0.846521 -0.00826286 0.997 
-0.813246 -0.00832916 1.005 
-0.808568 -0.0087104 1.051 
-0.800951 -0.00909992 1.098 
-0.799242 -0.00960547 1.159 
-0.76473 -0.00975465 1.177 
-0.718415 -0.00976294 1.178 
-0.671451 -0.00976294 1.178 
-0.624487 -0.00976294 1.178 
-0.576542 -0.00974636 1.176 
-0.529657 -0.00974636 1.176 
-0.484825 -0.0097878 1.181 
-0.437741 -0.0097878 1.181 
-0.390657 -0.0097878 1.181 
-0.344155 -0.00980438 1.183 
-0.297493 -0.00982095 1.185 
-0.250461 -0.00982924 1.186 
-0.20352 -0.00984581 1.188 
-0.156288 -0.0098541 1.189 
-0.108885 -0.0098541 1.189 
-0.0617408 -0.00989554 1.194 
-0.0140438 -0.00982924 1.186 
0.0333237 -0.0098541 1.189 
0.0807266 -0.0098541 1.189 
0.12813 -0.0098541 1.189 
0.175533 -0.0098541 1.189 
0.222935 -0.0098541 1.189 
0.270338 -0.0098541 1.189 
0.317741 -0.0098541 1.189 
0.364837 -0.00984581 1.188 
0.4122 -0.00984581 1.188 
0.458403 -0.00982095 1.185 
0.506927 -0.00984581 1.188 
0.554756 -0.0098541 1.189 
0.60064 -0.00982924 1.186 
0.647923 -0.00982924 1.186 
0.69462 -0.00982095 1.185 
0.740612 -0.00980438 1.183 
0.787776 -0.00980438 1.183 
0.833528 -0.0097878 1.181 
0.880612 -0.0097878 1.181 
0.926125 -0.00977123 1.179 
0.973129 -0.00977123 1.179 
1.0184 -0.00975465 1.177 
1.06261 -0.00972979 1.174 
1.10658 -0.00970492 1.171 
1.15327 -0.00970492 1.171 
-0.823821 -0.00591284 0.995 
-0.816465 -0.00615648 1.036 
-0.805091 -0.00639418 1.076 
-0.803277 -0.00673885 1.134 
-0.784807 -0.00697655 1.174 
-0.740516 -0.00700033 1.178 
-0.692963 -0.00699438 1.177 
-0.646587 -0.00700033 1.178 
-0.598605 -0.00698844 1.176 
-0.552659 -0.00700033 1.178 
-0.506123 -0.00700627 1.179 
-0.459898 -0.00701815 1.181 
-0.413513 -0.00703004 1.183 
-0.364491 -0.00699438 1.177 
-0.319725 -0.00704192 1.185 
-0.272712 -0.00704787 1.186 
-0.225428 -0.00704787 1.186 
-0.178445 -0.00705975 1.188 
-0.131193 -0.00706569 1.189 
-0.0839305 -0.00707758 1.191 
-0.0365396 -0.00709541 1.194 
0.0110349 -0.00707758 1.191 
0.0582719 -0.00704787 1.186 
0.105822 -0.00706569 1.189 
0.153483 -0.00707758 1.191 
0.200966 -0.00707758 1.191 
0.248031 -0.00706569 1.189 
0.295931 -0.00707758 1.191 
0.343414 -0.00707758 1.191 
0.389912 -0.00705975 1.188 
0.437643 -0.00706569 1.189 
0.483414 -0.00704192 1.185 
0.531106 -0.00704787 1.186 
0.577901 -0.00704192 1.185 
0.625145 -0.00704192 1.185 
0.671253 -0.00703004 1.183 
0.718417 -0.00703004 1.183 
0.766875 -0.00704192 1.185 
0.812745 -0.00703004 1.183 
0.859182 -0.00702409 1.182 
0.906305 -0.00702409 1.182 
0.951009 -0.00700627 1.179 
0.996321 -0.00699438 1.177 
1.04059 -0.00697655 1.174 
1.08647 -0.00697061 1.173 
1.1313 -0.00695873 1.171 
-0.837822 -0.00357939 0.995 
-0.818208 -0.00366933 1.02 
-0.804985 -0.00379883 1.056 
-0.801173 -0.00398949 1.109 
-0.798596 -0.00420893 1.17 
-0.757092 -0.00423771 1.178 
-0.708922 -0.00423052 1.176 
-0.6626 -0.00423411 1.177 
-0.615676 -0.00423411 1.177 
-0.569234 -0.00423771 1.178 
-0.521826 -0.00423411 1.177 
-0.476516 -0.0042485 1.181 
-0.430159 -0.0042557 1.183 
-0.3817 -0.00424131 1.179 
-0.336399 -0.00426289 1.185 
-0.289156 -0.00426289 1.185 
-0.242116 -0.00426649 1.186 
-0.195162 -0.00427369 1.188 
-0.148172 -0.00428448 1.191 
-0.10052 -0.00427728 1.189 
-0.0534744 -0.00430606 1.197 
-0.00569966 -0.00426649 1.186 
0.0416538 -0.00427369 1.188 
0.0892417 -0.00428448 1.191 
0.136495 -0.00427728 1.189 
0.183898 -0.00427728 1.189 
0.231106 -0.00427369 1.188 
0.278704 -0.00427728 1.189 
0.326107 -0.00427728 1.189 
0.372567 -0.00426649 1.186 
0.420913 -0.00427728 1.189 
0.467134 -0.00426649 1.186 
0.514417 -0.00426649 1.186 
0.563121 -0.00427728 1.189 
0.608984 -0.00426649 1.186 
0.655714 -0.00426289 1.185 
0.702958 -0.00426289 1.185 
0.748935 -0.0042557 1.183 
0.795426 -0.0042521 1.182 
0.84255 -0.0042521 1.182 
0.888921 -0.0042485 1.181 
0.93442 -0.00424131 1.179 
0.980592 -0.00423771 1.178 
1.02581 -0.00423052 1.176 
1.07087 -0.00422332 1.174 
1.11482 -0.00421253 1.171 
1.16151 -0.00421253 1.171 
-0.815419 -0.00125095 0.999 
-0.812857 -0.00131106 1.047 
-0.797629 -0.00135614 1.083 
-0.799733 -0.00143753 1.148 
-0.772354 -0.00147259 1.176 
-0.726703 -0.0014751 1.178 
-0.679162 -0.00147385 1.177 
-0.632774 -0.0014751 1.178 
-0.584815 -0.00147259 1.176 
-0.538388 -0.00147385 1.177 
-0.492299 -0.00147635 1.179 
-0.44605 -0.00147886 1.181 
-0.398966 -0.00147886 1.181 
-0.351882 -0.00147886 1.181 
-0.30583 -0.00148386 1.185 
-0.259241 -0.00148762 1.188 
-0.211521 -0.00148512 1.186 
-0.164653 -0.00148887 1.189 
-0.11725 -0.00148887 1.189 
-0.0700237 -0.00149263 1.192 
-0.0224257 -0.00148762 1.188 
0.0250004 -0.00149138 1.191 
0.0723005 -0.00148762 1.188 
0.119664 -0.00148762 1.188 
0.167449 -0.00149138 1.191 
0.21457 -0.00148887 1.189 
0.261973 -0.00148887 1.189 
0.309376 -0.00148887 1.189 
0.356779 -0.00148887 1.189 
0.404182 -0.00148887 1.189 
0.451205 -0.00148762 1.188 
0.497309 -0.00148386 1.185 
0.546391 -0.00148887 1.189 
0.591796 -0.00148386 1.185 
0.63904 -0.00148386 1.185 
0.686283 -0.00148386 1.185 
0.732289 -0.00148136 1.183 
0.779453 -0.00148136 1.183 
0.825918 -0.00148011 1.182 
0.873041 -0.00148011 1.182 
0.919387 -0.00147886 1.181 
0.964834 -0.00147635 1.179 
1.00926 -0.00147259 1.176 
1.05345 -0.00146884 1.173 
1.09928 -0.00146759 1.172 
1.14503 -0.00146633 1.171 
-0.830822 0.0010875 0.995 
-0.815802 0.00112138 1.026 
-0.805863 0.00116619 1.067 
-0.800525 0.00122303 1.119 
-0.792391 0.00128205 1.173 
-0.748804 0.00128751 1.178 
-0.700648 0.00128533 1.176 
-0.654875 0.00128751 1.178 
-0.606879 0.00128533 1.176 
-0.560946 0.00128751 1.178 
-0.513546 0.00128642 1.177 
-0.468207 0.00129079 1.181 
-0.421836 0.00129298 1.183 
-0.373089 0.00128751 1.178 
-0.328339 0.00129626 1.186 
-0.28153 0.00129844 1.188 
-0.233772 0.00129626 1.186 
-0.186803 0.00129844 1.188 
-0.139792 0.00130172 1.191 
