# .PCD v.7 - Point Cloud Data file format
VERSION .7
FIELDS x y z
SIZE 4 4 4
TYPE F F F
COUNT 1 1 1
WIDTH 1834
HEIGHT 1
VIEWPOINT 0 0 0 1 0 0 0
POINTS 1834
DATA ascii
-0.616483 -0.587875 1.282 
-0.567577 -0.590168 1.287 
-0.519075 -0.593378 1.294 
-0.471099 -0.597963 1.304 
-0.421682 -0.601632 1.312 
0.609069 -0.617223 1.346 
0.538711 -0.413163 0.901 
0.555087 -0.396196 0.864 
0.574927 -0.340711 0.743 
0.581766 -0.327871 0.715 
0.58808 -0.315948 0.689 
0.598575 -0.307236 0.67 
0.602207 -0.289352 0.631 
0.61245 -0.282473 0.616 
-0.922451 -0.560689 1.229 
-0.884114 -0.567532 1.244 
-0.824456 -0.560689 1.229 
-0.788077 -0.569813 1.249 
-0.746558 -0.5762 1.263 
-0.703371 -0.582131 1.276 
-0.653522 -0.583044 1.278 
-0.604928 -0.585325 1.283 
-0.557231 -0.588974 1.291 
-0.50772 -0.591255 1.296 
-0.458866 -0.594905 1.304 
0.427342 -0.53651 1.176 
0.474227 -0.53651 1.176 
0.529318 -0.411963 0.903 
0.55405 -0.403751 0.885 
0.572576 -0.344899 0.756 
0.580393 -0.332125 0.728 
0.584303 -0.318438 0.698 
0.594592 -0.309314 0.678 
0.597475 -0.29654 0.65 
0.60229 -0.286503 0.628 
-0.954381 -0.549637 1.211 
-0.922562 -0.559622 1.233 
-0.881197 -0.564615 1.244 
-0.820905 -0.557353 1.228 
-0.787034 -0.568246 1.252 
-0.743007 -0.572784 1.262 
-0.700378 -0.579139 1.276 
-0.651543 -0.580954 1.28 
-0.602858 -0.583223 1.285 
-0.555491 -0.587308 1.294 
-0.506238 -0.590032 1.3 
-0.457206 -0.593663 1.308 
0.429734 -0.533298 1.175 
0.475362 -0.531936 1.172 
0.536598 -0.408937 0.901 
0.554223 -0.394413 0.869 
0.573956 -0.33768 0.744 
0.581712 -0.325425 0.717 
0.587316 -0.313171 0.69 
0.597003 -0.304093 0.67 
0.596718 -0.290931 0.641 
0.603829 -0.282307 0.622 
-0.946914 -0.549055 1.216 
-0.918384 -0.561246 1.243 
-0.869527 -0.561697 1.244 
-0.812681 -0.556731 1.233 
-0.785197 -0.572534 1.268 
-0.73001 -0.568922 1.26 
-0.689487 -0.577049 1.278 
-0.640535 -0.578855 1.282 
-0.592642 -0.582016 1.289 
-0.545452 -0.586531 1.299 
-0.496704 -0.590144 1.307 
-0.446297 -0.592401 1.312 
0.443383 -0.533703 1.182 
0.482207 -0.524672 1.162 
0.539321 -0.404115 0.895 
0.558299 -0.392375 0.869 
0.57298 -0.336386 0.745 
0.58084 -0.324195 0.718 
0.586546 -0.312004 0.691 
0.596321 -0.302973 0.671 
0.600787 -0.292137 0.647 
0.604307 -0.281752 0.624 
-0.957683 -0.54261 1.208 
-0.925333 -0.552042 1.229 
-0.887744 -0.559229 1.245 
-0.83205 -0.555187 1.236 
-0.794806 -0.563721 1.255 
-0.744179 -0.563272 1.254 
-0.704149 -0.571357 1.272 
-0.658574 -0.575849 1.282 
-0.609832 -0.578095 1.287 
-0.56373 -0.583485 1.299 
-0.513912 -0.585731 1.304 
-0.464758 -0.589324 1.312 
0.422185 -0.528685 1.177 
0.468711 -0.528236 1.176 
0.528732 -0.40516 0.902 
0.550294 -0.394829 0.879 
0.567884 -0.343174 0.764 
0.573282 -0.3288 0.732 
0.581066 -0.317121 0.706 
0.589366 -0.30679 0.683 
0.605526 -0.300501 0.669 
0.602903 -0.286577 0.638 
0.608642 -0.277593 0.618 
-0.945357 -0.542458 1.214 
-0.918384 -0.555416 1.243 
-0.869527 -0.555863 1.244 
-0.817295 -0.554075 1.24 
-0.789532 -0.569715 1.275 
-0.726534 -0.560331 1.254 
-0.688948 -0.570608 1.277 
-0.641034 -0.573289 1.283 
-0.594022 -0.577311 1.292 
-0.547551 -0.582673 1.304 
-0.497464 -0.584907 1.309 
-0.447658 -0.588035 1.316 
0.432858 -0.525478 1.176 
0.476071 -0.521456 1.167 
0.534485 -0.402598 0.901 
0.551414 -0.389193 0.871 
0.569782 -0.338254 0.757 
0.578564 -0.326189 0.73 
0.583527 -0.313231 0.701 
0.592284 -0.303401 0.679 
0.608144 -0.297145 0.665 
0.606979 -0.284187 0.636 
0.614439 -0.276144 0.618 
-0.92866 -0.543166 1.222 
-0.895784 -0.552945 1.244 
-0.846188 -0.552945 1.244 
-0.799154 -0.554723 1.248 
-0.750599 -0.555612 1.25 
-0.709734 -0.562724 1.266 
-0.667593 -0.569836 1.282 
-0.619849 -0.572947 1.289 
-0.574633 -0.57917 1.303 
-0.524691 -0.581393 1.308 
-0.475434 -0.584949 1.316 
-0.425539 -0.588504 1.324 
0.454921 -0.52272 1.176 
0.517581 -0.400485 0.901 
0.544287 -0.393818 0.886 
0.567835 -0.385817 0.868 
0.572069 -0.334701 0.753 
0.581301 -0.323144 0.727 
0.582583 -0.308476 0.694 
0.592664 -0.299586 0.674 
0.610952 -0.290252 0.653 
0.607722 -0.276917 0.623 
-0.952017 -0.534111 1.208 
-0.917593 -0.547375 1.238 
-0.872444 -0.550028 1.244 
-0.822849 -0.550028 1.244 
-0.793144 -0.564176 1.276 
-0.725984 -0.551796 1.248 
-0.689233 -0.562408 1.272 
-0.645047 -0.568156 1.285 
-0.5989 -0.573019 1.296 
-0.552298 -0.578325 1.308 
-0.502063 -0.580536 1.313 
-0.452114 -0.583631 1.32 
0.435246 -0.51952 1.175 
0.475115 -0.512003 1.158 
0.536911 -0.393951 0.891 
0.557014 -0.383339 0.867 
0.567575 -0.338683 0.766 
0.573127 -0.324534 0.734 
0.580231 -0.312596 0.707 
0.588625 -0.302427 0.684 
0.603289 -0.296237 0.67 
0.611978 -0.285625 0.646 
0.61253 -0.273687 0.619 
-0.927592 -0.541833 1.232 
-0.883466 -0.544911 1.239 
-0.840802 -0.549309 1.249 
-0.79734 -0.553707 1.259 
-0.738244 -0.54711 1.244 
-0.700827 -0.556786 1.266 
-0.659088 -0.564263 1.283 
-0.613623 -0.56954 1.295 
-0.56807 -0.575697 1.309 
-0.517459 -0.577457 1.313 
-0.467238 -0.580095 1.319 
-0.417167 -0.583614 1.327 
0.458088 -0.514565 1.17 
0.526827 -0.398458 0.906 
0.543686 -0.384824 0.875 
0.572619 -0.380866 0.866 
0.567439 -0.334687 0.761 
0.574999 -0.321933 0.732 
0.581071 -0.309619 0.704 
0.589237 -0.299503 0.681 
0.606431 -0.294666 0.67 
0.610797 -0.281472 0.64 
-0.95134 -0.524945 1.2 
-0.910922 -0.537631 1.229 
-0.869639 -0.542443 1.24 
-0.830786 -0.549442 1.256 
-0.793144 -0.558192 1.276 
-0.723657 -0.544193 1.244 
-0.689233 -0.556442 1.272 
-0.646051 -0.563004 1.287 
-0.602135 -0.570003 1.303 
-0.553987 -0.57394 1.312 
-0.504357 -0.577002 1.319 
-0.453141 -0.578752 1.323 
0.141991 -0.222664 0.509 
0.457681 -0.508322 1.162 
0.52799 -0.397208 0.908 
0.543064 -0.382335 0.874 
0.568652 -0.376211 0.86 
0.566927 -0.33684 0.77 
0.572013 -0.322404 0.737 
0.579363 -0.310593 0.71 
0.58884 -0.300968 0.688 
0.601042 -0.293532 0.671 
0.62218 -0.290907 0.665 
-0.956171 -0.521696 1.199 
-0.927592 -0.536054 1.232 
-0.869732 -0.537795 1.236 
-0.841034 -0.551283 1.267 
-0.791145 -0.551718 1.268 
-0.725407 -0.540405 1.242 
-0.69004 -0.551718 1.268 
-0.649069 -0.559985 1.287 
-0.605655 -0.567382 1.304 
-0.558763 -0.572604 1.316 
-0.507835 -0.574344 1.32 
-0.456589 -0.576084 1.324 
0.141991 -0.22147 0.509 
0.456106 -0.503856 1.158 
0.525861 -0.395079 0.908 
0.541015 -0.380285 0.874 
0.563341 -0.372018 0.855 
0.564778 -0.335904 0.772 
0.57087 -0.321981 0.74 
0.579278 -0.310668 0.714 
0.588167 -0.30066 0.691 
0.598786 -0.292393 0.672 
0.623715 -0.291523 0.67 
-0.94165 -0.520182 1.202 
-0.869181 -0.524077 1.211 
-0.861573 -0.550043 1.271 
-0.796865 -0.540522 1.249 
-0.74707 -0.540522 1.249 
-0.703416 -0.545282 1.26 
-0.66666 -0.556534 1.286 
-0.621611 -0.56216 1.299 
-0.57728 -0.569517 1.316 
-0.52601 -0.570816 1.319 
-0.47486 -0.572547 1.323 
-0.424667 -0.576009 1.331 
0.41986 -0.496813 1.148 
0.469371 -0.495082 1.144 
0.533554 -0.390786 0.903 
0.546217 -0.374774 0.866 
0.573366 -0.370013 0.855 
0.567884 -0.330632 0.764 
0.574848 -0.317649 0.734 
0.580243 -0.305099 0.705 
0.589366 -0.295578 0.683 
0.606665 -0.290817 0.672 
0.630629 -0.289519 0.669 
-0.894002 -0.520807 1.21 
-0.866731 -0.533719 1.24 
-0.844977 -0.551797 1.282 
-0.787159 -0.549214 1.276 
-0.7184 -0.535871 1.245 
-0.685953 -0.549645 1.277 
-0.642501 -0.556101 1.292 
-0.598311 -0.562988 1.308 
-0.550756 -0.567722 1.319 
-0.500059 -0.569874 1.324 
-0.448287 -0.571166 1.327 
0.105253 -4.88956 11.36 
0.436013 -0.494121 1.148 
0.476456 -0.485943 1.129 
0.538054 -0.381351 0.886 
0.552668 -0.367578 0.854 
0.566927 -0.331422 0.77 
0.572789 -0.317649 0.738 
0.577731 -0.304736 0.708 
0.590552 -0.296989 0.69 
0.604625 -0.290533 0.675 
0.627793 -0.288811 0.671 
-0.888218 -0.516257 1.206 
-0.868003 -0.53338 1.246 
-0.787401 -0.540229 1.262 
-0.724239 -0.530811 1.24 
-0.694393 -0.546222 1.276 
-0.651087 -0.552643 1.291 
-0.605191 -0.55778 1.303 
-0.560461 -0.565057 1.32 
-0.509374 -0.566769 1.324 
-0.457624 -0.568054 1.327 
-0.0555693 -4.94981 11.563 
0.146765 -0.217889 0.509 
0.450985 -0.490144 1.145 
0.481003 -0.472165 1.103 
0.539987 -0.376277 0.879 
0.556059 -0.363862 0.85 
0.564778 -0.330473 0.772 
0.571642 -0.317202 0.741 
0.576844 -0.30436 0.711 
0.588167 -0.295799 0.691 
0.604132 -0.290234 0.678 
0.625577 -0.287665 0.672 
-0.860649 -0.513854 1.207 
-0.847225 -0.54919 1.29 
-0.730054 -0.527903 1.24 
-0.700927 -0.543655 1.277 
-0.656633 -0.54919 1.29 
-0.609895 -0.553447 1.3 
-0.567081 -0.562387 1.321 
-0.515974 -0.56409 1.325 
-0.463848 -0.564941 1.327 
-0.415898 -0.571753 1.343 
0.140797 -0.216696 0.509 
0.4173 -0.485756 1.141 
0.465057 -0.48533 1.14 
0.531663 -0.386136 0.907 
0.542781 -0.369106 0.867 
0.560033 -0.358038 0.841 
0.564778 -0.328662 0.772 
0.572413 -0.31589 0.742 
0.576844 -0.302693 0.711 
0.589018 -0.294604 0.692 
0.605023 -0.28907 0.679 
0.625577 -0.286089 0.672 
-0.867621 -0.522031 1.233 
-0.842479 -0.547011 1.292 
-0.714277 -0.528382 1.248 
-0.683158 -0.543201 1.283 
-0.637426 -0.547858 1.294 
-0.594439 -0.555902 1.313 
-0.546634 -0.560559 1.324 
-0.494968 -0.56183 1.327 
-0.444395 -0.564793 1.334 
-0.109804 -4.89558 11.563 
0.143184 -0.215502 0.509 
0.424582 -0.482233 1.139 
0.463533 -0.472919 1.117 
0.537926 -0.372154 0.879 
0.551459 -0.358182 0.846 
0.550356 -0.332356 0.785 
0.565948 -0.321348 0.759 
0.574213 -0.309493 0.731 
0.580246 -0.297638 0.703 
0.591833 -0.289594 0.684 
0.612767 -0.28663 0.677 
-0.869732 -0.520403 1.236 
-0.862536 -0.549034 1.304 
-0.709454 -0.528403 1.255 
-0.676234 -0.541876 1.287 
-0.626866 -0.54356 1.291 
-0.588322 -0.55577 1.32 
-0.537725 -0.557875 1.325 
-0.48673 -0.559981 1.33 
-0.43664 -0.56377 1.339 
-0.0834302 -4.91225 11.667 
0.146765 -0.214308 0.509 
0.16673 -0.213887 0.508 
0.534216 -0.377671 0.897 
0.546735 -0.358303 0.851 
0.560875 -0.346093 0.822 
0.565855 -0.32462 0.771 
0.573379 -0.311989 0.741 
0.576884 -0.298516 0.709 
0.589787 -0.290937 0.691 
0.607509 -0.286306 0.68 
-0.853299 -0.496151 1.185 
-0.874768 -0.545975 1.304 
-0.723076 -0.520435 1.243 
-0.695194 -0.537183 1.283 
-0.648059 -0.540532 1.291 
-0.602597 -0.545975 1.304 
-0.559054 -0.554349 1.324 
-0.508563 -0.556861 1.33 
-0.456909 -0.558536 1.334 
-0.408568 -0.565235 1.35 
0.143184 -0.213115 0.509 
0.162835 -0.212277 0.507 
0.491741 -0.388547 0.928 
0.544657 -0.357564 0.854 
0.557697 -0.344584 0.823 
0.564065 -0.324906 0.776 
0.5697 -0.311089 0.743 
0.576736 -0.299365 0.715 
0.585772 -0.289735 0.692 
0.603611 -0.28513 0.681 
-0.889098 -0.529594 1.272 
-0.862773 -0.544999 1.309 
-0.713829 -0.527929 1.268 
-0.673215 -0.535839 1.287 
-0.622872 -0.536672 1.289 
-0.585669 -0.549995 1.321 
-0.535425 -0.552493 1.327 
-0.484338 -0.554575 1.332 
-0.436414 -0.561237 1.348 
-0.0565785 -4.90166 11.773 
0.152434 -0.211505 0.508 
0.570463 -0.625354 1.502 
0.487388 -0.386371 0.928 
0.543289 -0.355977 0.855 
0.555767 -0.342654 0.823 
0.564419 -0.324335 0.779 
0.568722 -0.309763 0.744 
0.575863 -0.298105 0.716 
0.584149 -0.288113 0.692 
0.602014 -0.283533 0.681 
0.625468 -0.281867 0.677 
-0.864751 -0.543171 1.312 
-0.712691 -0.530751 1.282 
-0.664161 -0.532821 1.287 
-0.613803 -0.533649 1.289 
-0.577684 -0.548139 1.324 
-0.527278 -0.550623 1.33 
-0.476036 -0.552693 1.335 
-0.428197 -0.559731 1.352 
0.0257824 -4.78711 11.563 
0.158079 -0.209899 0.507 
0.580644 -0.621418 1.501 
0.485212 -0.384194 0.928 
0.542433 -0.356042 0.86 
0.553248 -0.341552 0.825 
0.562205 -0.323336 0.781 
0.565992 -0.308432 0.745 
0.574104 -0.297254 0.718 
0.583422 -0.287732 0.695 
0.59882 -0.281936 0.681 
0.619535 -0.279038 0.674 
-0.868249 -0.538448 1.308 
-0.687237 -0.52898 1.285 
-0.636007 -0.52898 1.285 
-0.597519 -0.540506 1.313 
-0.550154 -0.545446 1.325 
-0.501458 -0.549974 1.336 
-0.451549 -0.554091 1.346 
-0.39907 -0.555737 1.35 
0.154817 -0.209122 0.508 
0.566941 -0.618309 1.502 
0.473977 -0.438003 1.064 
0.53609 -0.360612 0.876 
0.548205 -0.343734 0.835 
0.55921 -0.330561 0.803 
0.563425 -0.312036 0.758 
0.571716 -0.30051 0.73 
0.580243 -0.290218 0.705 
0.588503 -0.28075 0.682 
0.607568 -0.277045 0.673 
-0.874129 -0.52965 1.294 
-0.678196 -0.525966 1.285 
-0.62599 -0.525147 1.283 
-0.591865 -0.540701 1.321 
-0.542057 -0.543567 1.328 
-0.493164 -0.548069 1.339 
-0.44405 -0.55339 1.352 
-0.140686 -4.86304 11.881 
0.16109 -0.20834 0.509 
0.588859 -0.615605 1.504 
0.47702 -0.380251 0.929 
0.542433 -0.352008 0.86 
0.551236 -0.336455 0.822 
0.560687 -0.320901 0.784 
0.564762 -0.306165 0.748 
0.572326 -0.294705 0.72 
0.584336 -0.286519 0.7 
0.593876 -0.277923 0.679 
0.610887 -0.273421 0.668 
-0.731037 -0.530685 1.304 
-0.664587 -0.521732 1.282 
-0.615869 -0.523767 1.287 
-0.580789 -0.538824 1.324 
-0.531992 -0.542894 1.334 
-0.482039 -0.546557 1.343 
-0.432644 -0.551847 1.356 
0.0595954 -0.132671 0.326 
0.170444 -0.208367 0.512 
0.604972 -0.614113 1.509 
0.481896 -0.378479 0.93 
0.542433 -0.349992 0.86 
0.553066 -0.333306 0.819 
0.562526 -0.319062 0.784 
0.567739 -0.30319 0.745 
0.574986 -0.291795 0.717 
0.581685 -0.281214 0.691 
0.596008 -0.27511 0.676 
-0.872716 -0.51913 1.283 
-0.68015 -0.51913 1.283 
-0.627528 -0.517916 1.28 
-0.595864 -0.535315 1.323 
-0.545992 -0.538147 1.33 
-0.49964 -0.54543 1.348 
-0.448544 -0.548667 1.356 
-0.39361 -0.547453 1.353 
0.0523913 -0.131097 0.324 
0.160838 -0.207166 0.512 
0.576279 -0.61017 1.508 
0.473786 -0.42809 1.058 
0.493861 -0.377108 0.932 
0.544862 -0.341905 0.845 
0.557325 -0.329362 0.814 
0.568042 -0.317223 0.784 
0.570673 -0.300229 0.742 
0.578413 -0.289305 0.715 
0.581137 -0.274738 0.679 
0.59925 -0.270692 0.669 
-0.877166 -0.511696 1.272 
-0.843997 -0.522557 1.299 
-0.68015 -0.516121 1.283 
-0.626057 -0.513707 1.277 
-0.595864 -0.532212 1.323 
-0.545992 -0.535028 1.33 
-0.501122 -0.543878 1.352 
-0.449867 -0.547096 1.36 
-0.394483 -0.545487 1.356 
0.0523913 -0.130338 0.324 
0.156622 -0.205161 0.51 
0.574641 -0.608645 1.513 
0.47175 -0.426011 1.059 
0.49492 -0.375726 0.934 
0.546244 -0.337108 0.838 
0.555443 -0.323028 0.803 
0.569899 -0.313374 0.779 
0.569684 -0.295271 0.734 
0.580995 -0.286421 0.712 
0.583326 -0.271939 0.676 
0.597638 -0.266307 0.662 
-0.870265 -0.509913 1.275 
-0.829073 -0.515912 1.29 
-0.673081 -0.512312 1.281 
-0.620068 -0.510712 1.277 
-0.59055 -0.529909 1.325 
-0.54016 -0.532309 1.331 
-0.496245 -0.542307 1.356 
-0.444141 -0.544707 1.362 
0.0418824 -0.129978 0.325 
0.0548395 -0.129978 0.325 
0.162989 -0.205965 0.515 
0.581738 -0.605096 1.513 
0.491444 -0.425527 1.064 
0.544928 -0.335543 0.839 
0.557121 -0.319945 0.8 
0.567663 -0.308347 0.771 
0.568292 -0.29195 0.73 
0.581847 -0.284351 0.711 
0.58174 -0.270354 0.676 
0.594284 -0.263955 0.66 
-0.874107 -0.500561 1.259 
-0.8442 -0.512886 1.29 
-0.714875 -0.520043 1.308 
-0.63049 -0.499368 1.256 
-0.611839 -0.526404 1.324 
-0.560321 -0.527597 1.327 
-0.518888 -0.539525 1.357 
-0.464787 -0.539525 1.357 
-0.413107 -0.542705 1.365 
0.163622 -0.205552 0.517 
0.589612 -0.602343 1.515 
0.491706 -0.425417 1.07 
0.5108 -0.371743 0.935 
0.553369 -0.322443 0.811 
0.567647 -0.312503 0.786 
0.566215 -0.295407 0.743 
0.574986 -0.285069 0.717 
0.575708 -0.271154 0.682 
0.591406 -0.265985 0.669 
-18.2243 -8.2554 20.887 
-0.847984 -0.506699 1.282 
-0.720687 -0.518952 1.313 
-0.638817 -0.496028 1.255 
-0.608018 -0.512232 1.296 
-0.569657 -0.524485 1.327 
-0.528045 -0.535947 1.356 
-0.472936 -0.534761 1.353 
-0.422711 -0.539504 1.365 
0.156335 -0.205921 0.521 
0.579336 -0.599186 1.516 
0.483725 -0.422513 1.069 
0.511346 -0.369946 0.936 
0.552687 -0.320145 0.81 
0.567647 -0.31066 0.786 
0.566215 -0.293664 0.743 
0.574986 -0.283388 0.717 
0.575708 -0.269554 0.682 
0.590522 -0.264021 0.668 
-17.3365 -7.82767 19.923 
-0.832776 -0.498192 1.268 
-0.674318 -0.499764 1.272 
-0.610369 -0.489155 1.245 
-0.587443 -0.520587 1.325 
-0.537442 -0.523337 1.332 
-0.491974 -0.531588 1.353 
-0.44127 -0.535517 1.363 
-0.386079 -0.534338 1.36 
0.57017 -0.597202 1.52 
0.471482 -0.418041 1.064 
0.499588 -0.372072 0.947 
0.548771 -0.324925 0.827 
0.556862 -0.309995 0.789 
0.561474 -0.295851 0.753 
0.5695 -0.28485 0.725 
0.581071 -0.276599 0.704 
0.582158 -0.263633 0.671 
0.593483 -0.256954 0.654 
-0.843731 -0.487798 1.249 
-0.679749 -0.49639 1.271 
-0.607428 -0.483892 1.239 
-0.569657 -0.518261 1.327 
-0.526488 -0.528025 1.352 
-0.471887 -0.527244 1.35 
-0.42302 -0.533492 1.366 
0.0918516 -1.53721 3.936 
0.58722 -0.592856 1.518 
0.490326 -0.421014 1.078 
0.508472 -0.369852 0.947 
0.55064 -0.315174 0.807 
0.567647 -0.306973 0.786 
0.567193 -0.289789 0.742 
0.575863 -0.279634 0.716 
0.576461 -0.265965 0.681 
0.588543 -0.259326 0.664 
0.591501 -0.248781 0.637 
-0.831348 -0.484481 1.248 
-0.661835 -0.48681 1.254 
-0.597691 -0.475552 1.225 
-0.557629 -0.515537 1.328 
-0.513805 -0.524854 1.352 
-0.459904 -0.524854 1.352 
-0.410206 -0.530289 1.366 
0.108659 -1.50507 3.877 
0.591558 -0.590073 1.52 
0.492854 -0.418486 1.078 
0.510693 -0.367631 0.947 
0.551163 -0.312506 0.805 
0.569491 -0.30513 0.786 
0.567399 -0.287272 0.74 
0.577543 -0.277955 0.716 
0.577307 -0.264756 0.682 
0.587656 -0.25738 0.663 
0.591501 -0.247287 0.637 
-0.821526 -0.479239 1.242 
-0.684357 -0.487342 1.263 
-0.620952 -0.477309 1.237 
-0.560743 -0.512423 1.328 
-0.514681 -0.519368 1.346 
-0.461704 -0.52014 1.348 
-0.413107 -0.526699 1.365 
0.0818863 -1.50524 3.901 
0.571671 -0.588051 1.524 
0.477242 -0.415572 1.077 
0.502226 -0.367339 0.952 
0.55064 -0.311389 0.807 
0.567647 -0.303286 0.786 
0.567399 -0.285537 0.74 
0.577543 -0.276276 0.716 
0.577307 -0.263157 0.682 
0.585884 -0.255054 0.661 
0.590933 -0.246179 0.638 
-0.824687 -0.474792 1.238 
-0.774078 -0.474025 1.236 
-0.644888 -0.477093 1.244 
-0.579022 -0.464053 1.21 
-0.532714 -0.509308 1.328 
-0.483382 -0.513143 1.338 
-0.434538 -0.518513 1.352 
-0.382889 -0.521581 1.36 
0.531658 -0.58371 1.522 
0.593115 -0.584477 1.524 
0.493311 -0.413813 1.079 
0.514538 -0.36434 0.95 
0.557825 -0.304128 0.793 
0.562755 -0.287636 0.75 
0.568159 -0.275747 0.719 
0.575242 -0.265776 0.693 
0.581992 -0.256572 0.669 
0.589558 -0.248518 0.648 
-0.833264 -0.466933 1.225 
-0.782505 -0.46579 1.222 
-0.664775 -0.473794 1.243 
-0.596906 -0.459691 1.206 
-0.532313 -0.505813 1.327 
-0.481937 -0.508481 1.334 
-0.433253 -0.513817 1.348 
-0.382889 -0.518391 1.36 
0.52383 -0.579379 1.52 
0.586352 -0.581284 1.525 
0.48825 -0.411283 1.079 
0.504459 -0.362874 0.952 
0.555244 -0.304936 0.8 
0.559131 -0.288546 0.757 
0.567661 -0.277111 0.727 
0.576948 -0.267963 0.703 
0.58174 -0.257671 0.676 
0.590683 -0.250048 0.656 
0.589152 -0.238231 0.625 
-0.787865 -0.46103 1.217 
-0.668986 -0.469743 1.24 
-0.603062 -0.457242 1.207 
-0.517921 -0.503837 1.33 
-0.465246 -0.504216 1.331 
-0.418065 -0.511414 1.35 
0.072514 -1.47325 3.889 
0.532356 -0.577329 1.524 
0.594283 -0.578466 1.527 
0.492854 -0.408373 1.078 
0.511156 -0.360641 0.952 
0.560562 -0.298893 0.789 
0.563252 -0.282603 0.746 
0.569942 -0.271617 0.717 
0.575988 -0.261389 0.69 
0.579882 -0.251161 0.663 
0.589854 -0.244342 0.645 
-0.815735 -0.457799 1.216 
-0.773432 -0.470223 1.249 
-0.617948 -0.457046 1.214 
-0.524159 -0.500718 1.33 
-0.470072 -0.499589 1.327 
-0.421883 -0.505236 1.342 
-0.36838 -0.505236 1.342 
0.490099 -0.566226 1.504 
0.559203 -0.575638 1.529 
0.61935 -0.574885 1.527 
0.500131 -0.397563 1.056 
0.548339 -0.305702 0.812 
0.562833 -0.29629 0.787 
0.566215 -0.279724 0.743 
0.575059 -0.269183 0.715 
0.576552 -0.257136 0.683 
0.582566 -0.2481 0.659 
0.588513 -0.239818 0.637 
-0.80718 -0.454948 1.216 
-0.661781 -0.460934 1.232 
-0.593767 -0.446717 1.194 
-0.517142 -0.496851 1.328 
-0.463149 -0.495728 1.325 
-0.414349 -0.500592 1.338 
-0.356419 -0.494232 1.321 
0.500789 -0.566814 1.515 
0.567116 -0.5728 1.531 
0.628153 -0.5728 1.531 
0.477895 -0.361414 0.966 
0.508924 -0.356176 0.952 
0.556424 -0.298934 0.799 
0.560728 -0.281349 0.752 
0.566473 -0.269003 0.719 
0.573617 -0.259275 0.693 
0.579556 -0.249922 0.668 
0.588038 -0.242439 0.648 
-0.816567 -0.450981 1.213 
-0.706127 -0.476262 1.281 
-0.602379 -0.446147 1.2 
-0.55133 -0.488159 1.313 
-0.481972 -0.489647 1.317 
-0.433706 -0.49448 1.33 
-0.384116 -0.498941 1.342 
0.466753 -0.556569 1.497 
0.538392 -0.56921 1.531 
0.600213 -0.569953 1.533 
0.494004 -0.399674 1.075 
0.496737 -0.358033 0.963 
0.551163 -0.29929 0.805 
0.559347 -0.287021 0.772 
0.567193 -0.275868 0.742 
0.575059 -0.265829 0.715 
0.577396 -0.254304 0.684 
0.582566 -0.245009 0.659 
0.587589 -0.236458 0.636 
-0.772323 -0.448875 1.215 
-0.669727 -0.456633 1.236 
-0.585211 -0.4389 1.188 
-0.548811 -0.482864 1.307 
-0.497038 -0.486189 1.316 
-0.447274 -0.489144 1.324 
-0.397766 -0.493208 1.335 
0.479517 -0.555644 1.504 
0.550239 -0.566727 1.534 
0.611397 -0.566727 1.534 
0.497368 -0.393828 1.066 
0.504864 -0.353558 0.957 
0.555938 -0.295925 0.801 
0.556619 -0.2793 0.756 
0.565804 -0.269325 0.729 
0.573651 -0.259719 0.703 
0.580281 -0.250483 0.678 
0.587606 -0.242355 0.656 
0.586626 -0.231642 0.627 
-0.772323 -0.446025 1.215 
-0.645691 -0.447127 1.218 
-0.582915 -0.436481 1.189 
-0.54892 -0.477229 1.3 
-0.490949 -0.480166 1.308 
-0.443163 -0.484938 1.321 
-0.393749 -0.488976 1.332 
0.468936 -0.552117 1.504 
0.539447 -0.56313 1.534 
0.602171 -0.564598 1.538 
0.665213 -0.566067 1.542 
0.509993 -0.350213 0.954 
0.557817 -0.294046 0.801 
0.558392 -0.277527 0.756 
0.566735 -0.267248 0.728 
0.574481 -0.257704 0.702 
0.57758 -0.247058 0.673 
0.58528 -0.238614 0.65 
0.588627 -0.229804 0.626 
-0.776089 -0.448647 1.23 
-0.635553 -0.443176 1.215 
-0.578415 -0.43661 1.197 
-0.539774 -0.47418 1.3 
-0.463199 -0.473815 1.299 
-0.420279 -0.484028 1.327 
-0.353831 -0.470168 1.289 
0.50019 -0.555885 1.524 
0.56831 -0.56318 1.544 
0.628235 -0.561721 1.54 
0.483425 -0.353082 0.968 
0.552005 -0.295086 0.809 
0.554648 -0.280131 0.768 
0.565453 -0.270647 0.742 
0.571779 -0.26007 0.713 
0.577476 -0.250221 0.686 
0.581682 -0.240008 0.658 
0.584818 -0.230889 0.633 
0.611981 -0.231619 0.635 
-0.810704 -0.445763 1.23 
-0.798201 -0.467145 1.289 
-0.648015 -0.441051 1.217 
-0.589644 -0.433803 1.197 
-0.559824 -0.467507 1.29 
-0.495563 -0.472581 1.304 
-0.444936 -0.474031 1.308 
-0.397894 -0.480192 1.325 
-0.328923 -0.457722 1.263 
0.52112 -0.555573 1.533 
0.588314 -0.561371 1.549 
0.64923 -0.560646 1.547 
0.493014 -0.351174 0.969 
0.556135 -0.291377 0.804 
0.559424 -0.273619 0.755 
0.565789 -0.259485 0.716 
0.574412 -0.250787 0.692 
0.573293 -0.238827 0.659 
0.586517 -0.233029 0.643 
0.597871 -0.227593 0.628 
-0.868201 -0.45332 1.259 
-0.796252 -0.461241 1.281 
-0.656578 -0.438197 1.217 
-0.601563 -0.433517 1.204 
-0.55939 -0.464122 1.289 
-0.489106 -0.466282 1.295 
-0.44018 -0.469163 1.303 
-0.394489 -0.476724 1.324 
-0.324154 -0.45224 1.256 
0.517524 -0.551977 1.533 
0.586946 -0.559899 1.555 
0.648106 -0.559179 1.553 
0.482646 -0.349622 0.971 
0.554425 -0.290571 0.807 
0.562982 -0.263567 0.732 
0.571132 -0.254205 0.706 
0.577209 -0.244843 0.68 
0.584529 -0.236202 0.656 
0.584616 -0.22612 0.628 
0.618391 -0.22936 0.637 
-0.858432 -0.451441 1.262 
-0.790969 -0.462172 1.292 
-0.627262 -0.432839 1.21 
-0.580936 -0.43427 1.214 
-0.547299 -0.461099 1.289 
-0.469066 -0.461457 1.29 
-0.423788 -0.468253 1.309 
-0.369046 -0.465034 1.3 
0.4507 -0.537293 1.502 
0.522139 -0.549455 1.536 
0.592492 -0.558041 1.56 
0.653846 -0.557325 1.558 
0.707689 -0.550886 1.54 
0.557007 -0.289036 0.808 
0.562699 -0.259346 0.725 
0.572835 -0.251118 0.702 
0.573289 -0.238956 0.668 
0.583479 -0.231801 0.648 
0.589567 -0.224289 0.627 
0.624366 -0.227867 0.637 
-0.861573 -0.451679 1.271 
-0.789421 -0.470869 1.325 
-0.614384 -0.428935 1.207 
-0.588101 -0.46163 1.299 
-0.532597 -0.458431 1.29 
-0.456965 -0.458431 1.29 
-0.411508 -0.465183 1.309 
-0.348067 -0.450613 1.268 
0.454222 -0.533771 1.502 
0.527111 -0.547275 1.54 
0.598443 -0.556514 1.566 
0.659188 -0.555093 1.562 
0.710377 -0.546564 1.538 
0.557696 -0.287497 0.809 
0.565309 -0.251249 0.707 
0.575867 -0.243786 0.686 
0.579257 -0.23348 0.657 
0.584616 -0.223174 0.628 
0.61742 -0.226017 0.636 
-0.871846 -0.444815 1.26 
-0.79139 -0.45117 1.278 
-0.66377 -0.421515 1.194 
-0.61978 -0.423987 1.201 
-0.584756 -0.433518 1.228 
-0.556799 -0.455406 1.29 
-0.475117 -0.455406 1.29 
-0.425658 -0.457524 1.296 
-0.376297 -0.460349 1.304 
0.034701 -0.524953 1.487 
0.461267 -0.530248 1.502 
0.536763 -0.546134 1.547 
0.606562 -0.553548 1.568 
0.668221 -0.552842 1.566 
0.717591 -0.542957 1.538 
0.556486 -0.285953 0.81 
0.561047 -0.25065 0.71 
0.574412 -0.244295 0.692 
0.573966 -0.232292 0.658 
0.582046 -0.222408 0.63 
0.611981 -0.224173 0.635 
-9.86417 -4.32497 12.333 
-0.787776 -0.447822 1.277 
-0.664291 -0.420819 1.2 
-0.610285 -0.416611 1.188 
-0.58851 -0.435548 1.242 
-0.554203 -0.452732 1.291 
-0.46568 -0.45203 1.289 
-0.41654 -0.454485 1.296 
-0.357644 -0.449225 1.281 
0.0382654 -0.522517 1.49 
0.466646 -0.52883 1.508 
0.542487 -0.54461 1.553 
0.612574 -0.551975 1.574 
0.672752 -0.549871 1.568 
0.721197 -0.53935 1.538 
0.561491 -0.283702 0.809 
0.567016 -0.247231 0.705 
0.57402 -0.238464 0.68 
0.57903 -0.229697 0.655 
0.582597 -0.22058 0.629 
0.613471 -0.222684 0.635 
-0.871356 -0.446221 1.281 
-0.77951 -0.461199 1.324 
-0.618961 -0.410342 1.178 
-0.588021 -0.421837 1.211 
-0.571105 -0.451097 1.295 
-0.466041 -0.449356 1.29 
-0.414933 -0.449704 1.291 
-0.357923 -0.446569 1.282 
0.0383167 -0.51972 1.492 
0.45271 -0.521461 1.497 
0.52848 -0.537833 1.544 
0.601882 -0.548632 1.575 
0.665518 -0.549329 1.577 
0.710377 -0.535743 1.538 
0.554187 -0.283895 0.815 
0.557019 -0.246275 0.707 
0.573617 -0.241398 0.693 
0.571747 -0.229555 0.659 
0.580778 -0.222936 0.64 
0.596821 -0.219453 0.63 
-9.67499 -4.1488 11.991 
-0.784752 -0.453942 1.312 
-0.645248 -0.413807 1.196 
-0.57657 -0.414845 1.199 
-0.466041 -0.44633 1.29 
-0.41429 -0.445984 1.289 
-0.361211 -0.443908 1.283 
0.0383938 -0.517259 1.495 
0.438081 -0.517259 1.495 
0.510667 -0.530752 1.534 
0.586735 -0.544592 1.574 
0.65155 -0.546322 1.579 
0.698664 -0.534212 1.544 
0.545383 -0.283368 0.819 
0.566037 -0.277486 0.802 
0.571189 -0.242887 0.702 
0.571573 -0.230431 0.666 
0.582857 -0.224549 0.649 
0.589973 -0.217629 0.629 
-9.69769 -4.08287 11.881 
-0.774204 -0.431277 1.255 
-0.670441 -0.414439 1.206 
-0.59759 -0.397944 1.158 
-0.447542 -0.442961 1.289 
-0.396152 -0.442961 1.289 
-0.340216 -0.437119 1.272 
0.0491082 -0.515815 1.501 
0.445689 -0.51444 1.497 
0.519212 -0.52853 1.538 
0.59525 -0.541932 1.577 
0.658956 -0.542619 1.579 
0.704992 -0.529904 1.542 
0.545383 -0.281447 0.819 
0.566037 -0.275605 0.802 
0.570354 -0.241584 0.703 
0.57101 -0.2299 0.669 
0.5816 -0.223714 0.651 
-9.94846 -4.05501 11.881 
-0.87531 -0.436184 1.278 
-0.772817 -0.439256 1.287 
-0.674386 -0.412293 1.208 
-0.59564 -0.392156 1.149 
-0.446848 -0.439256 1.287 
-0.39523 -0.438915 1.286 
-0.341553 -0.435843 1.277 
0.0562606 -0.513318 1.504 
0.4492 -0.510929 1.497 
0.523499 -0.525605 1.54 
0.599708 -0.538916 1.579 
0.66266 -0.538916 1.579 
0.708608 -0.526288 1.542 
0.544126 -0.279868 0.82 
0.564156 -0.273724 0.802 
0.571189 -0.239594 0.702 
0.573289 -0.22799 0.668 
0.582857 -0.221505 0.649 
-9.97632 -4.02715 11.881 
-9.41627 -3.99054 11.773 
-0.641471 -0.40302 1.189 
-0.575582 -0.390478 1.152 
-0.422743 -0.433187 1.278 
-0.37441 -0.436238 1.287 
0.0209613 -0.509113 1.502 
0.0809506 -0.509791 1.504 
0.456221 -0.507419 1.497 
0.532101 -0.52335 1.544 
0.607883 -0.535891 1.581 
0.670066 -0.535213 1.579 
0.713984 -0.521316 1.538 
0.544126 -0.277945 0.82 
0.564156 -0.271844 0.802 
0.567056 -0.238287 0.703 
0.56957 -0.22744 0.671 
0.580324 -0.221339 0.653 
-10.1812 -4.03631 11.991 
-9.6141 -3.99928 11.881 
-0.681741 -0.407637 1.211 
-0.591493 -0.384074 1.141 
-0.544089 -0.382728 1.137 
-0.410433 -0.429853 1.277 
-0.361774 -0.432546 1.285 
0.0209892 -0.506264 1.504 
0.0808429 -0.505591 1.502 
0.452106 -0.503235 1.495 
0.527111 -0.518382 1.54 
0.604175 -0.532183 1.581 
0.666363 -0.53151 1.579 
0.712224 -0.519055 1.542 
0.542864 -0.276358 0.821 
0.562275 -0.269963 0.802 
0.571189 -0.236301 0.702 
0.571863 -0.22553 0.67 
0.582494 -0.219471 0.652 
-9.52671 -3.93532 11.773 
-0.690234 -0.40814 1.221 
-0.598469 -0.38073 1.139 
-0.539304 -0.376719 1.127 
-0.408505 -0.424853 1.271 
-0.361774 -0.429533 1.285 
0.0245979 -0.504408 1.509 
0.0843092 -0.501734 1.501 
0.447178 -0.502069 1.502 
0.518537 -0.513434 1.536 
0.596005 -0.527807 1.579 
0.659791 -0.528476 1.581 
0.710021 -0.519116 1.553 
0.535137 -0.279447 0.836 
0.56007 -0.242678 0.726 
0.571189 -0.234655 0.702 
0.572579 -0.223624 0.669 
0.58044 -0.216605 0.648 
-9.24831 -3.83801 11.563 
-0.613437 -0.379054 1.142 
-0.558402 -0.378059 1.139 
-0.416458 -0.417889 1.259 
-0.373828 -0.426519 1.285 
-0.00371306 -0.50087 1.509 
0.0566721 -0.502861 1.515 
0.415519 -0.502861 1.515 
0.474034 -0.50087 1.509 
0.548355 -0.514146 1.549 
0.621926 -0.524104 1.579 
0.683143 -0.522776 1.575 
0.726043 -0.508836 1.533 
0.544187 -0.273171 0.823 
0.56007 -0.240975 0.726 
0.570354 -0.233341 0.703 
0.571143 -0.222719 0.671 
0.579183 -0.215749 0.65 
-9.55038 -3.84517 11.667 
-0.680448 -0.403401 1.224 
-0.54869 -0.372421 1.13 
-0.417079 -0.41263 1.252 
-0.375962 -0.422517 1.282 
-0.00371306 -0.497331 1.509 
0.0566721 -0.499308 1.515 
0.417412 -0.497331 1.509 
0.477256 -0.497001 1.508 
0.551275 -0.509855 1.547 
0.624837 -0.519742 1.577 
0.687708 -0.519742 1.577 
0.729638 -0.50524 1.533 
0.546715 -0.270582 0.821 
0.55895 -0.236636 0.718 
0.567935 -0.228726 0.694 
0.573289 -0.220157 0.668 
0.570226 -0.207633 0.63 
-10.032 -3.88783 11.881 
-9.13923 -3.71735 11.36 
-0.579012 -0.367153 1.122 
-0.431415 -0.409366 1.251 
-0.38642 -0.414602 1.267 
-0.0108194 -0.495101 1.513 
0.0496644 -0.496737 1.518 
0.410582 -0.489865 1.497 
0.471521 -0.491174 1.501 
0.545877 -0.50459 1.542 
0.620351 -0.515389 1.575 
0.68401 -0.516043 1.577 
0.727464 -0.502627 1.536 
0.542322 -0.271275 0.829 
0.551557 -0.23757 0.726 
0.569542 -0.229716 0.702 
0.571143 -0.219572 0.671 
0.569321 -0.205828 0.629 
0.593187 -0.201902 0.617 
-9.00772 -3.62703 11.164 
-0.574883 -0.361923 1.114 
-0.417331 -0.404158 1.244 
-0.376899 -0.41423 1.275 
-0.0179396 -0.492202 1.515 
0.0425444 -0.493177 1.518 
0.10191 -0.487654 1.501 
0.4492 -0.486354 1.497 
0.52112 -0.49805 1.533 
0.593251 -0.507472 1.562 
0.664338 -0.514294 1.583 
0.719637 -0.508771 1.566 
0.760153 -0.492202 1.515 
0.551818 -0.266406 0.82 
0.564377 -0.230669 0.71 
0.567641 -0.220922 0.68 
0.577258 -0.214425 0.66 
0.58297 -0.205003 0.631 
0.593981 -0.196881 0.606 
-8.58103 -3.48086 10.792 
-0.562829 -0.359956 1.116 
-0.405661 -0.401241 1.244 
-0.366942 -0.413497 1.282 
-0.0108337 -0.488649 1.515 
0.0495989 -0.488972 1.516 
0.377275 -0.463491 1.437 
0.461695 -0.481231 1.492 
0.5355 -0.494455 1.533 
0.607126 -0.503164 1.56 
0.67833 -0.509937 1.581 
0.729169 -0.501551 1.555 
0.527366 -0.286739 0.889 
0.549309 -0.265129 0.822 
0.557266 -0.231584 0.718 
0.564638 -0.221908 0.688 
0.573995 -0.215135 0.667 
0.572271 -0.202878 0.629 
0.596399 -0.202556 0.628 
-8.68227 -3.45555 10.792 
-0.56659 -0.354777 1.108 
-0.412082 -0.396082 1.237 
-0.371563 -0.405688 1.267 
-0.295318 -0.391279 1.222 
0.0105047 -0.486057 1.518 
0.0702756 -0.480934 1.502 
0.408007 -0.472288 1.475 
0.469977 -0.47549 1.485 
0.545573 -0.490219 1.531 
0.618101 -0.499505 1.56 
0.688581 -0.505589 1.579 
0.736302 -0.495343 1.547 
0.530938 -0.284334 0.888 
0.528109 -0.22894 0.715 
0.559072 -0.22926 0.716 
0.562959 -0.219014 0.684 
0.573834 -0.21293 0.665 
0.572271 -0.201403 0.629 
0.596399 -0.201083 0.628 
-0.582665 -0.343278 1.08 
-0.532126 -0.35345 1.112 
-0.399184 -0.39477 1.242 
-0.308869 -0.376971 1.186 
-0.0250454 -0.481543 1.515 
0.0354245 -0.482497 1.518 
0.0949327 -0.477411 1.502 
0.419803 -0.470419 1.48 
0.479778 -0.471372 1.483 
0.556344 -0.486629 1.531 
0.631496 -0.497754 1.566 
0.698803 -0.50125 1.577 
0.740907 -0.487583 1.534 
0.531536 -0.282569 0.889 
0.548713 -0.261909 0.824 
0.555714 -0.227581 0.716 
0.563043 -0.219317 0.69 
0.572579 -0.212642 0.669 
0.569321 -0.199928 0.629 
0.593453 -0.19961 0.628 
0.602079 -0.192935 0.607 
-0.555192 -0.348949 1.106 
-0.406204 -0.38744 1.228 
-0.368592 -0.399745 1.267 
-0.0427536 -0.47736 1.513 
0.0176246 -0.478937 1.518 
0.077269 -0.473573 1.501 
0.393475 -0.456536 1.447 
0.462076 -0.467579 1.482 
0.535227 -0.480199 1.522 
0.602954 -0.485878 1.54 
0.682037 -0.498814 1.581 
0.740827 -0.495974 1.572 
0.747786 -0.461584 1.463 
0.532421 -0.26534 0.841 
0.536312 -0.226217 0.717 
0.563322 -0.225586 0.715 
0.563684 -0.214859 0.681 
0.576953 -0.209811 0.665 
0.57853 -0.199084 0.631 
0.586924 -0.192143 0.609 
-0.571057 -0.338839 1.082 
-0.522888 -0.347295 1.109 
-0.39597 -0.385813 1.232 
-0.305086 -0.377045 1.204 
-0.0285606 -0.473811 1.513 
0.0318225 -0.474751 1.516 
0.091532 -0.470993 1.504 
0.414081 -0.460972 1.472 
0.47373 -0.461911 1.475 
0.549504 -0.47663 1.522 
0.619003 -0.483519 1.544 
0.695987 -0.49448 1.579 
0.744519 -0.485085 1.549 
0.520778 -0.279339 0.892 
0.539078 -0.260862 0.833 
0.547925 -0.225162 0.719 
0.566165 -0.221091 0.706 
0.569899 -0.212009 0.677 
0.562253 -0.197604 0.631 
0.586478 -0.197291 0.63 
0.594515 -0.190401 0.608 
-24.9207 -9.14791 29.432 
-0.56251 -0.340342 1.095 
-0.424381 -0.374843 1.206 
-0.386909 -0.38541 1.24 
-0.299648 -0.381681 1.228 
-0.0142822 -0.467466 1.504 
0.0458007 -0.468709 1.508 
0.133194 -0.384167 1.236 
0.403304 -0.453168 1.458 
0.467445 -0.459074 1.477 
0.539871 -0.470885 1.515 
0.607403 -0.476479 1.533 
0.687708 -0.490155 1.577 
0.749152 -0.489223 1.574 
0.752069 -0.453168 1.458 
0.528635 -0.265436 0.854 
0.546831 -0.257044 0.827 
0.566675 -0.222233 0.715 
0.566806 -0.211043 0.679 
0.563117 -0.197989 0.637 
0.582046 -0.195813 0.63 
0.58978 -0.189286 0.609 
-11.6332 -3.99468 12.95 
-27.6482 -10.2427 33.205 
-0.562498 -0.336232 1.09 
-0.529042 -0.34271 1.111 
-0.394003 -0.375408 1.217 
-0.297977 -0.380343 1.233 
-0.0107407 -0.463322 1.502 
0.0491409 -0.463322 1.502 
0.12998 -0.380343 1.233 
0.379473 -0.438027 1.42 
0.456661 -0.458695 1.487 
0.521149 -0.463322 1.502 
0.591475 -0.47165 1.529 
0.670782 -0.484914 1.572 
0.739519 -0.488925 1.585 
0.744469 -0.453451 1.47 
0.528819 -0.271762 0.881 
0.539078 -0.256955 0.833 
0.559853 -0.221173 0.717 
0.562087 -0.210068 0.681 
0.577124 -0.205749 0.667 
0.577395 -0.195261 0.633 
0.588351 -0.190634 0.618 
0.605491 -0.187858 0.609 
-24.502 -8.80965 28.778 
-0.843055 -0.382043 1.248 
-0.563499 -0.332757 1.087 
-0.531169 -0.339798 1.11 
-0.392708 -0.371329 1.213 
-0.0567584 -0.461636 1.508 
0.00334683 -0.459493 1.501 
0.062936 -0.457656 1.495 
0.135212 -0.375921 1.228 
0.376533 -0.43133 1.409 
0.457582 -0.456126 1.49 
0.519414 -0.458269 1.497 
0.590702 -0.467452 1.527 
0.669075 -0.480003 1.568 
0.740453 -0.48582 1.587 
0.745482 -0.450615 1.472 
0.527507 -0.266941 0.872 
0.537769 -0.255308 0.834 
0.555546 -0.223165 0.729 
0.560618 -0.211532 0.691 
0.571143 -0.20541 0.671 
0.57236 -0.194083 0.634 
0.58821 -0.191022 0.624 
0.59835 -0.18643 0.609 
-11.069 -3.78266 12.452 
-0.853392 -0.378509 1.246 
-0.573168 -0.329904 1.086 
-0.539142 -0.335676 1.105 
-0.406736 -0.36575 1.204 
-0.373632 -0.380939 1.254 
-0.0212372 -0.454758 1.497 
0.0385479 -0.455973 1.501 
0.112356 -0.373649 1.23 
0.33621 -0.414963 1.366 
0.442178 -0.454758 1.497 
0.495156 -0.448682 1.477 
0.571671 -0.46296 1.524 
0.639069 -0.46782 1.54 
0.720934 -0.48149 1.585 
0.751968 -0.461745 1.52 
0.522608 -0.269756 0.888 
0.532875 -0.257605 0.848 
0.550645 -0.250314 0.824 
0.563216 -0.21781 0.717 
0.563684 -0.206874 0.681 
0.578688 -0.202621 0.667 
0.58001 -0.191685 0.631 
0.585986 -0.185609 0.611 
-12.6023 -4.15286 13.777 
-24.502 -8.67467 28.778 
-0.840802 -0.376491 1.249 
-0.571213 -0.329166 1.092 
-0.535409 -0.333989 1.108 
-0.405384 -0.361721 1.2 
-0.373036 -0.377396 1.252 
-0.0176672 -0.44974 1.492 
0.0418157 -0.44974 1.492 
0.112356 -0.370764 1.23 
0.423845 -0.446726 1.482 
0.484108 -0.444615 1.475 
0.5569 -0.45607 1.513 
0.624563 -0.461496 1.531 
0.708887 -0.47717 1.583 
0.757368 -0.468127 1.553 
0.517524 -0.268276 0.89 
0.531393 -0.256822 0.852 
0.548771 -0.249286 0.827 
0.560634 -0.21643 0.718 
0.561313 -0.205578 0.682 
0.577285 -0.20166 0.669 
0.581671 -0.189301 0.628 
0.588352 -0.183573 0.609 
-12.3737 -4.07718 13.632 
-23.7709 -8.41996 28.152 
-0.834943 -0.373562 1.249 
-0.572782 -0.327503 1.095 
-0.535409 -0.331391 1.108 
-0.406838 -0.357711 1.196 
-0.37327 -0.371768 1.243 
-0.00365893 -0.444745 1.487 
0.0556247 -0.444745 1.487 
0.120419 -0.366085 1.224 
0.30941 -0.394798 1.32 
0.471865 -0.442652 1.48 
0.535174 -0.446241 1.492 
0.607411 -0.455812 1.524 
0.691407 -0.471663 1.577 
0.760975 -0.475851 1.591 
0.752898 -0.434576 1.453 
0.528746 -0.258413 0.864 
0.542985 -0.249141 0.833 
0.559136 -0.217438 0.727 
0.558995 -0.206072 0.689 
0.571994 -0.200988 0.672 
0.579091 -0.188426 0.63 
0.585986 -0.182743 0.611 
-12.7377 -4.13216 13.925 
-9.93846 -3.37101 11.36 
-0.851836 -0.370336 1.248 
-0.694191 -0.364401 1.228 
-0.530471 -0.330573 1.114 
-0.393142 -0.355202 1.197 
-0.0560809 -0.442148 1.49 
0.00331115 -0.440665 1.485 
0.062515 -0.440665 1.485 
0.122585 -0.361137 1.217 
0.308473 -0.390515 1.316 
0.459118 -0.443632 1.495 
0.512475 -0.438291 1.477 
0.587994 -0.451051 1.52 
0.660114 -0.459063 1.547 
0.744185 -0.473306 1.595 
0.748014 -0.438291 1.477 
0.527939 -0.25698 0.866 
0.541681 -0.247484 0.834 
0.558965 -0.216326 0.729 
0.559807 -0.204753 0.69 
0.571994 -0.199412 0.672 
0.579091 -0.186949 0.63 
0.585986 -0.181311 0.611 
-12.7377 -4.0995 13.925 
-9.76699 -3.28667 11.164 
-53.0309 -19.2934 65.535 
-0.694191 -0.361522 1.228 
-0.412822 -0.35004 1.189 
-0.37218 -0.356517 1.211 
-0.0280321 -0.437182 1.485 
0.0310668 -0.43571 1.48 
0.100326 -0.360344 1.224 
0.147053 -0.355339 1.207 
0.317892 -0.383896 1.304 
0.45392 -0.441892 1.501 
0.505547 -0.434827 1.477 
0.578954 -0.446014 1.515 
0.648216 -0.452196 1.536 
0.73578 -0.468977 1.593 
0.750118 -0.440126 1.495 
0.526515 -0.255244 0.867 
0.541019 -0.246117 0.836 
0.55802 -0.214911 0.73 
0.558189 -0.203135 0.69 
0.571267 -0.19813 0.673 
0.579447 -0.18606 0.632 
0.585509 -0.180172 0.612 
-13.1958 -4.20236 14.389 
-23.3297 -8.04695 27.553 
-52.8772 -19.1397 65.535 
-0.697071 -0.358642 1.228 
-0.520195 -0.3271 1.12 
-0.383756 -0.348712 1.194 
-0.0561562 -0.435744 1.492 
0.00329554 -0.431655 1.478 
0.0622203 -0.431655 1.478 
0.12198 -0.353677 1.211 
0.277098 -0.375289 1.285 
0.328584 -0.375581 1.286 
0.465194 -0.435744 1.492 
0.518699 -0.430779 1.475 
0.593557 -0.442753 1.516 
0.670821 -0.454143 1.555 
0.756379 -0.468746 1.605 
0.744029 -0.423186 1.449 
0.528315 -0.251166 0.86 
0.545592 -0.243573 0.834 
0.561773 -0.212031 0.726 
0.562176 -0.200057 0.685 
0.574992 -0.188959 0.647 
0.578206 -0.180489 0.618 
0.59504 -0.178153 0.61 
-11.265 -3.6425 12.573 
-53.0309 -18.986 65.535 
-0.538792 -0.31839 1.099 
-0.401735 -0.342146 1.181 
-0.365462 -0.352575 1.217 
-0.0244999 -0.429348 1.482 
0.034421 -0.42732 1.475 
0.102522 -0.352285 1.216 
0.149014 -0.34765 1.2 
0.291402 -0.375172 1.295 
0.339588 -0.371406 1.282 
0.479778 -0.429637 1.483 
0.535995 -0.42732 1.475 
0.614963 -0.441805 1.525 
0.697474 -0.456001 1.574 
0.770369 -0.462085 1.595 
0.743162 -0.409937 1.415 
0.536017 -0.247121 0.853 
0.552526 -0.214674 0.741 
0.557165 -0.203665 0.703 
0.566806 -0.196712 0.679 
0.577148 -0.184255 0.636 
0.58261 -0.178171 0.615 
0.60318 -0.177012 0.611 
-50.7686 -17.7208 61.667 
-0.53719 -0.316387 1.101 
-0.386573 -0.338226 1.177 
-0.330864 -0.3684 1.282 
-0.0279377 -0.425298 1.48 
0.0308989 -0.422999 1.472 
0.102438 -0.349146 1.215 
0.148518 -0.343686 1.196 
0.263477 -0.358917 1.249 
0.321549 -0.3684 1.282 
0.452564 -0.426734 1.485 
0.507288 -0.422999 1.472 
0.574817 -0.429608 1.495 
0.651818 -0.44139 1.536 
0.740445 -0.458344 1.595 
0.747002 -0.423861 1.475 
0.528746 -0.248282 0.864 
0.546244 -0.24081 0.838 
0.559906 -0.2092 0.728 
0.562239 -0.198568 0.691 
0.572221 -0.18851 0.656 
0.580198 -0.180464 0.628 
0.589815 -0.175866 0.612 
-30.0373 -10.253 35.973 
-0.670414 -0.281883 0.989 
-0.529042 -0.316655 1.111 
-0.376809 -0.336606 1.181 
-0.320579 -0.367388 1.289 
-0.0244172 -0.420972 1.477 
0.0343043 -0.418977 1.47 
0.10494 -0.345157 1.211 
0.150437 -0.338886 1.189 
0.2441 -0.345157 1.211 
0.30904 -0.364823 1.28 
0.360071 -0.364823 1.28 
0.500384 -0.419547 1.472 
0.560968 -0.420972 1.477 
0.642515 -0.436363 1.531 
0.728368 -0.451754 1.585 
0.761594 -0.434653 1.525 
0.519578 -0.247681 0.869 
0.542743 -0.24255 0.851 
0.552682 -0.208633 0.732 
0.556429 -0.199513 0.7 
0.567641 -0.193812 0.68 
0.574199 -0.186117 0.653 
0.580929 -0.180131 0.632 
0.587904 -0.174716 0.613 
-26.7446 -8.9285 31.586 
-52.7235 -18.525 65.535 
-0.552903 -0.287196 1.016 
-0.404171 -0.331293 1.172 
-0.367815 -0.340903 1.206 
-0.314533 -0.364365 1.289 
-0.0278811 -0.417508 1.477 
0.030794 -0.414681 1.467 
0.1021 -0.342317 1.211 
0.147152 -0.334967 1.185 
0.22631 -0.341186 1.207 
0.287164 -0.357016 1.263 
0.341258 -0.360973 1.277 
0.486733 -0.419204 1.483 
0.538496 -0.41355 1.463 
0.622115 -0.431076 1.525 
0.699483 -0.441535 1.562 
0.775899 -0.449733 1.591 
0.514055 -0.245925 0.87 
0.538648 -0.241403 0.854 
0.548052 -0.207765 0.735 
0.560859 -0.201828 0.714 
0.564512 -0.192783 0.682 
0.572221 -0.185433 0.656 
0.580709 -0.179497 0.635 
0.58838 -0.173844 0.615 
-32.6974 -10.6774 38.089 
-52.8772 -18.3713 65.535 
-0.626988 -0.270516 0.965 
-0.530212 -0.310603 1.108 
-0.370326 -0.330226 1.178 
-0.3231 -0.360782 1.287 
-0.0970787 -0.399467 1.425 
-0.00362202 -0.412642 1.472 
0.0545399 -0.408718 1.458 
0.120772 -0.336113 1.199 
0.16824 -0.329946 1.177 
0.22631 -0.338356 1.207 
0.283753 -0.349849 1.248 
0.340991 -0.357698 1.276 
0.48922 -0.414885 1.48 
0.540075 -0.408718 1.458 
0.625692 -0.4275 1.525 
0.701346 -0.436751 1.558 
0.777671 -0.44488 1.587 
0.519578 -0.243605 0.869 
0.543381 -0.238839 0.852 
0.551172 -0.204639 0.73 
0.558018 -0.19679 0.702 
0.567641 -0.190623 0.68 
0.574453 -0.180251 0.643 
0.579141 -0.173523 0.619 
0.598942 -0.172121 0.614 
-53.7994 -18.2176 65.535 
-0.662014 -0.272423 0.98 
-0.559941 -0.278816 1.003 
-0.523831 -0.308839 1.111 
-0.366969 -0.329409 1.185 
-0.314533 -0.358319 1.289 
-0.0967381 -0.394735 1.42 
-0.0139878 -0.409468 1.473 
0.0441302 -0.403909 1.453 
0.115244 -0.333579 1.2 
0.162029 -0.325796 1.172 
0.22631 -0.335525 1.207 
0.284842 -0.344698 1.24 
0.342905 -0.353594 1.272 
0.504411 -0.401407 1.444 
0.572878 -0.40919 1.472 
0.653016 -0.423089 1.522 
0.74605 -0.44227 1.591 
0.673014 -0.346922 1.248 
0.529544 -0.239621 0.862 
0.556093 -0.234617 0.844 
0.560634 -0.199591 0.718 
0.566279 -0.191808 0.69 
0.570683 -0.182357 0.656 
0.579031 -0.172905 0.622 
0.597033 -0.170959 0.615 
-49.5654 -16.2251 58.864 
-52.5698 -18.0639 65.535 
-0.633477 -0.266817 0.968 
-0.550182 -0.278669 1.011 
-0.368754 -0.323323 1.173 
-0.317063 -0.354745 1.287 
-0.0998568 -0.390578 1.417 
-0.0450777 -0.406014 1.473 
0.0135087 -0.401879 1.458 
0.0995882 -0.334899 1.215 
0.143033 -0.323598 1.174 
0.22631 -0.332694 1.207 
0.281167 -0.33738 1.224 
0.341557 -0.349233 1.267 
0.505336 -0.396091 1.437 
0.575547 -0.405187 1.47 
0.64882 -0.414559 1.504 
0.748839 -0.437988 1.589 
0.667136 -0.347027 1.259 
0.523877 -0.238702 0.866 
0.548731 -0.234567 0.851 
0.561773 -0.200113 0.726 
0.563866 -0.191017 0.693 
0.568471 -0.181094 0.657 
0.578172 -0.173376 0.629 
0.590781 -0.169793 0.616 
-50.6698 -16.0871 58.864 
-53.7994 -17.9102 65.535 
-0.661601 -0.266733 0.976 
-0.570562 -0.273565 1.001 
-0.39417 -0.312373 1.143 
-0.364155 -0.326311 1.194 
-0.304084 -0.354187 1.296 
-0.0996454 -0.386435 1.414 
-0.0311963 -0.401739 1.47 
0.0269247 -0.394634 1.444 
0.109798 -0.328497 1.202 
0.152996 -0.318659 1.166 
0.23783 -0.330137 1.208 
0.288121 -0.332597 1.217 
0.350748 -0.346534 1.268 
0.52263 -0.390534 1.429 
0.604343 -0.407205 1.49 
0.675328 -0.414311 1.516 
0.772168 -0.434808 1.591 
0.674052 -0.331503 1.213 
0.537902 -0.233938 0.856 
0.559906 -0.198957 0.728 
0.563851 -0.190485 0.697 
0.56178 -0.180373 0.66 
0.580893 -0.170534 0.624 
0.598975 -0.168621 0.617 
-49.9795 -15.949 58.864 
-53.0309 -17.7565 65.535 
-0.653114 -0.264715 0.977 
-0.569992 -0.270947 1 
-0.397783 -0.308338 1.138 
-0.363872 -0.318363 1.175 
-0.302604 -0.356566 1.316 
-0.109594 -0.383119 1.414 
-0.053785 -0.387183 1.429 
0.00322642 -0.39206 1.447 
0.0602417 -0.387725 1.431 
0.134658 -0.317821 1.173 
0.211103 -0.325407 1.201 
0.260278 -0.327033 1.207 
0.317597 -0.336787 1.243 
0.3769 -0.345728 1.276 
0.551363 -0.388538 1.434 
0.627205 -0.40046 1.478 
0.723268 -0.422135 1.558 
0.658657 -0.336787 1.243 
0.520641 -0.234098 0.864 
0.547377 -0.230847 0.852 
0.561773 -0.196708 0.726 
0.56468 -0.188037 0.694 
0.567793 -0.178283 0.658 
0.58382 -0.169071 0.624 
0.602844 -0.167445 0.618 
-55.3363 -17.6028 65.535 
-0.66004 -0.251949 0.938 
-0.647204 -0.261887 0.975 
-0.576451 -0.268333 0.999 
-0.39442 -0.305132 1.136 
-0.362346 -0.316682 1.179 
-0.304788 -0.348914 1.299 
-0.11275 -0.379266 1.412 
-0.0536344 -0.382758 1.425 
0.00992339 -0.385175 1.434 
0.0977739 -0.329843 1.228 
0.139562 -0.313727 1.168 
0.19538 -0.319905 1.191 
0.248955 -0.324202 1.207 
0.299045 -0.326351 1.215 
0.363786 -0.341662 1.272 
0.544942 -0.383026 1.426 
0.621207 -0.395382 1.472 
0.708067 -0.411767 1.533 
0.791262 -0.423585 1.577 
0.665142 -0.317487 1.182 
0.540018 -0.229117 0.853 
0.558965 -0.195811 0.729 
0.564637 -0.188021 0.7 
0.562474 -0.177009 0.659 
0.586746 -0.167608 0.624 
0.605743 -0.165996 0.618 
-54.5678 -17.4491 65.535 
-0.656495 -0.253476 0.952 
-0.632835 -0.259334 0.974 
-0.571193 -0.265724 0.998 
-0.38875 -0.302201 1.135 
-0.360447 -0.317112 1.191 
-0.300201 -0.351193 1.319 
-0.11275 -0.375954 1.412 
-0.0567764 -0.378084 1.42 
-0.000164965 -0.380481 1.429 
0.0565678 -0.378883 1.423 
0.131345 -0.310988 1.168 
0.180652 -0.31578 1.186 
0.231972 -0.321372 1.207 
0.279628 -0.320839 1.205 
0.340449 -0.333353 1.252 
0.516008 -0.378084 1.42 
0.584719 -0.386072 1.45 
0.65006 -0.390599 1.467 
0.764573 -0.421484 1.583 
0.661859 -0.325366 1.222 
0.524629 -0.227383 0.854 
0.560451 -0.200758 0.754 
0.561534 -0.190906 0.717 
0.563782 -0.182386 0.685 
0.581671 -0.167209 0.628 
0.597047 -0.164547 0.618 
-55.3363 -17.2954 65.535 
-0.657225 -0.246493 0.934 
-0.647204 -0.257314 0.975 
-0.605837 -0.256258 0.971 
-0.55715 -0.263384 0.998 
-0.370045 -0.301651 1.143 
-0.318838 -0.338335 1.282 
-0.23093 -0.355753 1.348 
-0.0683198 -0.365253 1.384 
-0.00350145 -0.375546 1.423 
0.0531184 -0.374754 1.42 
0.128496 -0.307985 1.167 
0.177421 -0.312207 1.183 
0.228761 -0.318013 1.205 
0.275883 -0.316958 1.201 
0.335626 -0.32857 1.245 
0.511956 -0.374226 1.418 
0.574903 -0.378449 1.434 
0.640449 -0.383463 1.453 
0.755574 -0.414869 1.572 
0.656127 -0.3225 1.222 
0.527397 -0.224853 0.852 
0.561195 -0.199253 0.755 
0.561534 -0.189225 0.717 
0.562136 -0.180252 0.683 
0.581122 -0.166 0.629 
0.596561 -0.163361 0.619 
-55.49 -17.1417 65.535 
-0.65344 -0.245349 0.938 
-0.639688 -0.254766 0.974 
-0.596538 -0.252935 0.967 
-0.551362 -0.26052 0.996 
-0.369074 -0.298186 1.14 
-0.312337 -0.334805 1.28 
-0.108896 -0.367501 1.405 
-0.0536344 -0.372732 1.425 
0.00649636 -0.371424 1.42 
0.0629755 -0.370639 1.417 
0.138009 -0.302109 1.155 
0.189315 -0.310741 1.188 
0.240065 -0.315187 1.205 
0.287389 -0.314403 1.202 
0.350095 -0.328266 1.255 
0.525258 -0.370901 1.418 
0.589586 -0.375871 1.437 
0.654079 -0.380056 1.453 
0.77669 -0.414583 1.585 
0.663766 -0.317803 1.215 
0.532139 -0.222331 0.85 
0.559245 -0.194344 0.743 
0.562712 -0.185712 0.71 
0.559798 -0.173942 0.665 
0.578172 -0.164525 0.629 
0.595576 -0.162433 0.621 
-52.5041 -15.9854 61.667 
-0.652145 -0.241853 0.933 
-0.641972 -0.252481 0.974 
-0.598806 -0.250667 0.967 
-0.554917 -0.257666 0.994 
-0.375437 -0.292142 1.127 
-0.317075 -0.327396 1.263 
-0.0908425 -0.357984 1.381 
-0.0300291 -0.366798 1.415 
0.026384 -0.366798 1.415 
0.11775 -0.30303 1.169 
0.162809 -0.300178 1.158 
0.216014 -0.310288 1.197 
0.264177 -0.310806 1.199 
0.315101 -0.313917 1.211 
0.512678 -0.368094 1.42 
0.571295 -0.36939 1.425 
0.630752 -0.370945 1.431 
0.739232 -0.398682 1.538 
0.658067 -0.314954 1.215 
0.529522 -0.220079 0.849 
0.562384 -0.188972 0.729 
0.563863 -0.180159 0.695 
0.565732 -0.171345 0.661 
0.582046 -0.163309 0.63 
0.599945 -0.160976 0.621 
-0.664617 -0.235555 0.917 
-0.648606 -0.243262 0.947 
-0.626977 -0.249683 0.972 
-0.575405 -0.247115 0.962 
-0.546821 -0.254821 0.992 
