# .PCD v.7 - Point Cloud Data file format
VERSION .7
FIELDS x y z
SIZE 4 4 4
TYPE F F F
COUNT 1 1 1
WIDTH 1936
HEIGHT 1
VIEWPOINT 0 0 0 1 0 0 0
POINTS 1936
DATA ascii
0.513935 0.0938594 0.541 
0.190236 0.0999513 0.571 
0.219241 0.0994262 0.568 
0.247489 0.0990761 0.566 
0.273194 0.0982009 0.561 
0.305313 0.0973257 0.556 
0.331495 0.0971506 0.555 
0.360382 0.0975007 0.557 
0.38475 0.0964504 0.551 
0.412251 0.0962754 0.55 
0.447397 0.0957502 0.547 
0.471163 0.0954001 0.545 
0.498885 0.094875 0.542 
0.525703 0.0946999 0.541 
0.202301 0.100662 0.57 
0.229426 0.100132 0.567 
0.259298 0.0994257 0.563 
0.290459 0.0987193 0.559 
0.31856 0.0980129 0.555 
0.345291 0.0980129 0.555 
0.373442 0.0974831 0.552 
0.400288 0.0971299 0.55 
0.431051 0.0971299 0.55 
0.463545 0.0964235 0.546 
0.492213 0.0958937 0.543 
0.517297 0.0955405 0.541 
0.194331 0.101547 0.57 
0.221006 0.101191 0.568 
0.250127 0.100835 0.566 
0.279416 0.1003 0.563 
0.308458 0.0992315 0.557 
0.335806 0.0988752 0.555 
0.362978 0.0992315 0.557 
0.388175 0.0981626 0.551 
0.416524 0.0979844 0.55 
0.452496 0.09745 0.547 
0.477061 0.0969155 0.544 
0.501412 0.0965592 0.542 
0.525703 0.096381 0.541 
0.205482 0.102253 0.569 
0.234243 0.102074 0.568 
0.265016 0.101355 0.564 
0.29254 0.100277 0.558 
0.319998 0.0999172 0.556 
0.346154 0.0997375 0.555 
0.373259 0.0993781 0.553 
0.402852 0.0988389 0.55 
0.431186 0.0984795 0.548 
0.460152 0.0981201 0.546 
0.485412 0.0974013 0.542 
0.510675 0.0974013 0.542 
0.190236 0.1035 0.571 
0.220617 0.102775 0.567 
0.249685 0.102412 0.565 
0.2763 0.101869 0.562 
0.304997 0.100962 0.557 
0.331228 0.100781 0.556 
0.358007 0.100781 0.556 
0.383038 0.0998747 0.551 
0.413961 0.0996934 0.55 
0.438048 0.0991497 0.547 
0.461849 0.0987871 0.545 
0.489622 0.0982434 0.542 
0.516457 0.0980621 0.541 
0.195216 0.104204 0.57 
0.229426 0.103656 0.567 
0.259298 0.102925 0.563 
0.289072 0.10201 0.558 
0.317698 0.101462 0.555 
0.344186 0.101645 0.556 
0.370682 0.101096 0.553 
0.399304 0.100731 0.551 
0.426778 0.100548 0.55 
0.450796 0.0999995 0.547 
0.47534 0.0992683 0.543 
0.503938 0.0990855 0.542 
0.529065 0.0989026 0.541 
0.21445 0.104537 0.567 
0.249676 0.103799 0.563 
0.2763 0.103615 0.562 
0.309879 0.102877 0.558 
0.334944 0.102324 0.555 
0.361023 0.10214 0.554 
0.385761 0.101402 0.55 
0.41567 0.101402 0.55 
0.438096 0.100665 0.546 
0.462696 0.100481 0.545 
0.495588 0.100112 0.543 
0.518978 0.0997432 0.541 
0.198759 0.105975 0.57 
0.228066 0.105604 0.568 
0.261047 0.104674 0.563 
0.285758 0.104116 0.56 
0.31192 0.103558 0.557 
0.337531 0.103187 0.555 
0.364008 0.102629 0.552 
0.389031 0.102443 0.551 
0.416524 0.102257 0.55 
0.438944 0.101513 0.546 
0.463543 0.101327 0.545 
0.492213 0.100956 0.543 
0.517297 0.100584 0.541 
0.199644 0.106861 0.57 
0.228066 0.106486 0.568 
0.260172 0.105549 0.563 
0.286116 0.104799 0.559 
0.312785 0.104424 0.557 
0.338393 0.104049 0.555 
0.371053 0.103299 0.551 
0.396016 0.103112 0.55 
0.42413 0.103299 0.551 
0.446547 0.102549 0.547 
0.470317 0.102174 0.545 
0.498962 0.101799 0.543 
0.52234 0.101424 0.541 
0.205482 0.107558 0.569 
0.233419 0.106991 0.566 
0.263671 0.106423 0.563 
0.288205 0.105478 0.558 
0.319134 0.1051 0.556 
0.345914 0.1051 0.556 
0.382876 0.104344 0.552 
0.407124 0.103966 0.55 
0.4304 0.103399 0.547 
0.455062 0.10321 0.546 
0.478751 0.102832 0.544 
0.50478 0.102454 0.542 
0.189349 0.108823 0.571 
0.215331 0.10806 0.567 
0.244866 0.107108 0.562 
0.271061 0.107108 0.562 
0.295141 0.106345 0.558 
0.326045 0.105964 0.556 
0.362293 0.105202 0.552 
0.387319 0.105011 0.551 
0.411502 0.10463 0.549 
0.435499 0.104249 0.547 
0.460152 0.104058 0.546 
0.483822 0.103677 0.544 
0.509833 0.103296 0.542 
0.195216 0.109518 0.57 
0.222771 0.109134 0.568 
0.251404 0.107789 0.561 
0.277552 0.107789 0.561 
0.304677 0.107212 0.558 
0.334082 0.106636 0.555 
0.367629 0.105867 0.551 
0.392597 0.105675 0.55 
0.418233 0.105675 0.55 
0.441489 0.104907 0.546 
0.466073 0.104522 0.544 
0.496431 0.10433 0.543 
0.523181 0.103946 0.541 
0.213569 0.109822 0.567 
0.240029 0.109435 0.565 
0.265421 0.109048 0.563 
0.289072 0.108079 0.558 
0.319134 0.107692 0.556 
0.345914 0.107692 0.556 
0.378414 0.107111 0.553 
0.403706 0.10653 0.55 
0.429484 0.106142 0.548 
0.455045 0.105949 0.547 
0.478751 0.105367 0.544 
0.50478 0.10498 0.542 
0.195216 0.111289 0.57 
0.221889 0.110899 0.568 
0.246613 0.109727 0.562 
0.274066 0.109532 0.561 
0.298609 0.108946 0.558 
0.331228 0.108556 0.556 
0.37038 0.107384 0.55 
0.39713 0.106994 0.548 
0.424215 0.107384 0.55 
0.448275 0.106603 0.546 
0.473653 0.106017 0.543 
0.502254 0.105822 0.542 
0.0015831 0.139726 0.71 
0.219736 0.111584 0.567 
0.24574 0.1106 0.562 
0.273194 0.110403 0.561 
0.297742 0.109813 0.558 
0.326321 0.109223 0.555 
0.358862 0.108632 0.552 
0.385288 0.108829 0.553 
0.410752 0.107845 0.548 
0.435499 0.107648 0.547 
0.461837 0.107845 0.548 
0.483822 0.107058 0.544 
0.511517 0.106664 0.542 
0.198759 0.11306 0.57 
0.224536 0.112664 0.568 
0.250979 0.111473 0.562 
0.277927 0.111077 0.56 
0.302943 0.11068 0.558 
0.332357 0.110085 0.555 
0.362293 0.10949 0.552 
0.387319 0.109292 0.551 
0.415009 0.108696 0.548 
0.439748 0.108498 0.547 
0.464393 0.1083 0.546 
0.48878 0.107506 0.542 
0.518978 0.107308 0.541 
0.202301 0.113946 0.57 
0.227263 0.113146 0.566 
0.254049 0.112546 0.563 
0.2783 0.111747 0.559 
0.30381 0.111547 0.558 
0.330897 0.110747 0.554 
0.362293 0.110348 0.552 
0.388325 0.109948 0.55 
0.414158 0.109548 0.548 
0.438898 0.109348 0.547 
0.463543 0.108948 0.545 
0.48878 0.108348 0.542 
0.517297 0.108149 0.541 
0.198759 0.114831 0.57 
0.225022 0.114227 0.567 
0.249676 0.113421 0.563 
0.275809 0.113018 0.561 
0.300342 0.112414 0.558 
0.324872 0.111608 0.554 
0.356076 0.111407 0.553 
0.383734 0.111205 0.552 
0.40586 0.109996 0.546 
0.432158 0.109996 0.546 
0.460995 0.110198 0.547 
0.486254 0.109191 0.542 
0.514776 0.108989 0.541 
0.189903 0.115717 0.57 
0.227263 0.114905 0.566 
0.2523 0.114296 0.563 
0.277057 0.113687 0.56 
0.302076 0.113281 0.558 
0.327455 0.112469 0.554 
0.356076 0.112266 0.553 
0.38047 0.11186 0.551 
0.405012 0.110845 0.546 
0.431249 0.111048 0.547 
0.459295 0.111048 0.547 
0.486254 0.110033 0.542 
0.513094 0.10983 0.541 
0.20053 0.116603 0.57 
0.230373 0.11558 0.565 
0.255799 0.115171 0.563 
0.280037 0.114352 0.559 
0.305862 0.113943 0.557 
0.331758 0.11333 0.554 
0.364866 0.11292 0.552 
0.394443 0.112307 0.549 
0.422672 0.112102 0.548 
0.446633 0.111284 0.544 
0.475307 0.110875 0.542 
0.503096 0.110875 0.542 
0.530459 0.110261 0.539 
0.216594 0.117076 0.568 
0.24354 0.116458 0.565 
0.268442 0.115839 0.562 
0.296008 0.115015 0.558 
0.32201 0.114396 0.555 
0.352001 0.113778 0.552 
0.382501 0.11316 0.549 
0.420969 0.112954 0.548 
0.443253 0.112129 0.544 
0.471989 0.112129 0.544 
0.498118 0.111923 0.543 
0.527109 0.111098 0.539 
0.209534 0.117958 0.568 
0.237355 0.117751 0.567 
0.263671 0.11692 0.563 
0.297742 0.115882 0.558 
0.322872 0.115259 0.555 
0.352001 0.114636 0.552 
0.377216 0.11422 0.55 
0.412552 0.113597 0.547 
0.43814 0.113182 0.545 
0.463543 0.113182 0.545 
0.493965 0.112974 0.544 
0.516341 0.112144 0.54 
0.198759 0.119259 0.57 
0.226384 0.118422 0.566 
0.253175 0.117795 0.563 
0.288205 0.116749 0.558 
0.316836 0.116121 0.555 
0.34147 0.115703 0.553 
0.373442 0.115493 0.552 
0.402354 0.114447 0.547 
0.428632 0.114656 0.548 
0.45255 0.113819 0.544 
0.478675 0.113401 0.542 
0.503008 0.113192 0.541 
0.532133 0.112773 0.539 
0.209534 0.119723 0.568 
0.237355 0.119513 0.567 
0.261922 0.11867 0.563 
0.299804 0.117405 0.557 
0.324012 0.116772 0.554 
0.357794 0.116562 0.553 
0.383507 0.115508 0.548 
0.410102 0.115086 0.546 
0.433955 0.114665 0.544 
0.461002 0.114665 0.544 
0.485464 0.114454 0.543 
0.509833 0.114243 0.542 
0.533121 0.113822 0.54 
0.208651 0.120606 0.568 
0.236474 0.120394 0.567 
0.261047 0.119544 0.563 
0.294274 0.118483 0.558 
0.31856 0.117846 0.555 
0.342567 0.117209 0.552 
0.375507 0.116784 0.55 
0.401504 0.116147 0.547 
0.4287 0.116147 0.547 
0.450874 0.115298 0.543 
0.47443 0.114873 0.541 
0.499646 0.114873 0.541 
0.524862 0.114873 0.541 
0.208651 0.121488 0.568 
0.235593 0.121275 0.567 
0.25971 0.120205 0.562 
0.287689 0.119136 0.557 
0.312524 0.118708 0.555 
0.337174 0.11828 0.553 
0.371541 0.11828 0.553 
0.397316 0.11828 0.553 
0.423524 0.117211 0.548 
0.4475 0.116141 0.543 
0.471938 0.115927 0.542 
0.498118 0.116141 0.543 
0.5215 0.115713 0.541 
0.206004 0.122371 0.568 
0.232539 0.12194 0.566 
0.257964 0.121078 0.562 
0.287172 0.119786 0.556 
0.312524 0.11957 0.555 
0.337174 0.119139 0.553 
0.368104 0.119139 0.553 
0.394883 0.118924 0.552 
0.421821 0.118062 0.548 
0.444098 0.1172 0.544 
0.469454 0.1172 0.544 
0.4939 0.116985 0.543 
0.517297 0.116554 0.541 
0.107667 0.152765 0.704 
0.228142 0.122819 0.566 
0.253598 0.121951 0.562 
0.284227 0.120866 0.557 
0.309632 0.120649 0.556 
0.335201 0.120215 0.554 
0.363808 0.119998 0.553 
0.389179 0.119347 0.55 
0.416802 0.118696 0.547 
0.44068 0.118262 0.545 
0.465228 0.118045 0.544 
0.48878 0.117612 0.542 
0.513935 0.117394 0.541 
0.105629 0.154077 0.705 
0.218961 0.12348 0.565 
0.247052 0.123043 0.563 
0.272707 0.122387 0.56 
0.304997 0.121732 0.557 
0.33434 0.121076 0.554 
0.36315 0.120639 0.552 
0.393167 0.120639 0.552 
0.420118 0.119765 0.548 
0.444914 0.119109 0.545 
0.470278 0.118672 0.543 
0.495588 0.118672 0.543 
0.520659 0.118235 0.541 
0.108915 0.155172 0.705 
0.22335 0.124358 0.565 
0.250979 0.123698 0.562 
0.277802 0.122817 0.558 
0.308458 0.122597 0.557 
0.339505 0.121937 0.554 
0.368963 0.121717 0.553 
0.398035 0.121937 0.554 
0.421821 0.120616 0.548 
0.446608 0.119956 0.545 
0.471122 0.119516 0.543 
0.495517 0.119296 0.542 
0.52234 0.119076 0.541 
0.191674 0.126344 0.57 
0.221202 0.125014 0.564 
0.248801 0.124793 0.563 
0.273957 0.123906 0.559 
0.299804 0.123463 0.557 
0.335201 0.122798 0.554 
0.35972 0.122354 0.552 
0.38747 0.121911 0.55 
0.412647 0.121024 0.546 
0.438096 0.121024 0.546 
0.462696 0.120803 0.545 
0.485412 0.120138 0.542 
0.513094 0.119916 0.541 
0.102489 0.157586 0.706 
0.211299 0.126783 0.568 
0.237851 0.12589 0.564 
0.262735 0.125221 0.561 
0.287338 0.124551 0.558 
0.315111 0.123882 0.555 
0.342329 0.123435 0.553 
0.368963 0.123435 0.553 
0.394025 0.123212 0.552 
0.419267 0.122319 0.548 
0.443186 0.121873 0.546 
0.466918 0.121426 0.544 
0.489559 0.120757 0.541 
0.518138 0.120757 0.541 
0.104831 0.158908 0.707 
0.213064 0.127666 0.568 
0.239179 0.126542 0.563 
0.265349 0.126092 0.561 
0.289419 0.125193 0.557 
0.317698 0.124744 0.555 
0.344283 0.12407 0.552 
0.370682 0.124294 0.553 
0.397174 0.124519 0.554 
0.423601 0.122946 0.547 
0.448275 0.122721 0.546 
0.471965 0.122047 0.543 
0.496359 0.121822 0.542 
0.524731 0.121372 0.54 
0.196642 0.128775 0.569 
0.227336 0.127643 0.564 
0.253598 0.12719 0.562 
0.2783 0.126511 0.559 
0.31136 0.125833 0.556 
0.341226 0.12538 0.554 
0.366581 0.124927 0.552 
0.391599 0.124701 0.551 
0.422672 0.124022 0.548 
0.447397 0.123796 0.547 
0.470278 0.12289 0.543 
0.494675 0.122664 0.542 
0.522214 0.122211 0.54 
0.193106 0.129659 0.569 
0.224309 0.128291 0.563 
0.25055 0.128291 0.563 
0.275317 0.127608 0.56 
0.305862 0.126924 0.557 
0.342087 0.126241 0.554 
0.366581 0.125785 0.552 
0.396313 0.126241 0.554 
0.426286 0.12419 0.545 
0.450859 0.123962 0.544 
0.47534 0.123734 0.543 
0.502917 0.12305 0.54 
0.525691 0.121911 0.535 
0.214572 0.129625 0.565 
0.242678 0.129166 0.563 
0.268836 0.128707 0.561 
0.293407 0.128019 0.558 
0.3295 0.12756 0.556 
0.359512 0.126872 0.553 
0.386463 0.126413 0.551 
0.416712 0.125725 0.548 
0.443106 0.125725 0.548 
0.465228 0.124807 0.544 
0.48878 0.124348 0.542 
0.518019 0.123889 0.54 
0.199294 0.131427 0.569 
0.237851 0.130272 0.564 
0.265421 0.130041 0.563 
0.289072 0.128886 0.558 
0.330364 0.128424 0.556 
0.360372 0.127731 0.553 
0.387164 0.1275 0.552 
0.420969 0.126576 0.548 
0.446512 0.126576 0.548 
0.467747 0.125421 0.543 
0.491241 0.124959 0.541 
0.521375 0.124728 0.54 
0.214572 0.131381 0.565 
0.24749 0.131148 0.564 
0.271837 0.130218 0.56 
0.317698 0.129055 0.555 
0.359512 0.12859 0.553 
0.387006 0.12859 0.553 
0.420885 0.12766 0.549 
0.44566 0.127428 0.548 
0.466904 0.126265 0.543 
0.492081 0.1258 0.541 
0.521247 0.125335 0.539 
0.203714 0.133195 0.569 
0.241357 0.132024 0.564 
0.267569 0.131556 0.562 
0.29567 0.130854 0.559 
0.342948 0.129684 0.554 
0.367439 0.129215 0.552 
0.395879 0.128981 0.551 
0.427068 0.127811 0.546 
0.451688 0.127577 0.545 
0.477027 0.127109 0.543 
0.499561 0.126406 0.54 
0.523342 0.12547 0.536 
0.21106 0.133136 0.565 
0.242233 0.132901 0.564 
0.268442 0.132429 0.562 
0.305862 0.131251 0.557 
0.338393 0.13078 0.555 
0.362293 0.130073 0.552 
0.390178 0.129366 0.549 
0.423674 0.128659 0.546 
0.449946 0.128895 0.547 
0.473653 0.127952 0.543 
0.496205 0.127245 0.54 
0.520409 0.12701 0.539 
0.208427 0.134014 0.565 
0.242233 0.133777 0.564 
0.268442 0.133303 0.562 
0.294113 0.133065 0.561 
0.331758 0.131405 0.554 
0.357794 0.131168 0.553 
0.394443 0.130219 0.549 
0.425439 0.12927 0.545 
0.451669 0.129507 0.546 
0.47534 0.128796 0.543 
0.500486 0.128321 0.541 
0.521816 0.127373 0.537 
0.212816 0.134892 0.565 
0.243109 0.134653 0.564 
0.268442 0.134176 0.562 
0.294637 0.134176 0.562 
0.331495 0.132505 0.555 
0.359512 0.132027 0.553 
0.399922 0.130356 0.546 
0.429613 0.130356 0.546 
0.454228 0.130117 0.545 
0.481246 0.12964 0.543 
0.504689 0.129162 0.541 
0.525008 0.127968 0.536 
0.213694 0.13577 0.565 
0.243109 0.13553 0.564 
0.268442 0.135049 0.562 
0.301535 0.133847 0.557 
0.338644 0.133126 0.554 
0.371053 0.132406 0.551 
0.413402 0.131444 0.547 
0.438898 0.131444 0.547 
0.461847 0.130723 0.544 
0.495366 0.129762 0.54 
0.519572 0.129522 0.539 
0.205641 0.137131 0.567 
0.230841 0.136406 0.564 
0.256674 0.136164 0.563 
0.280905 0.135197 0.559 
0.311662 0.134229 0.555 
0.345998 0.133504 0.552 
0.375837 0.133745 0.553 
0.41604 0.132052 0.546 
0.442298 0.132294 0.547 
0.473653 0.131327 0.543 
0.499646 0.130843 0.541 
0.521952 0.130118 0.538 
0.209675 0.137769 0.566 
0.236517 0.137525 0.565 
0.262735 0.136552 0.561 
0.288368 0.136308 0.56 
0.320282 0.135822 0.558 
0.354574 0.134361 0.552 
0.391439 0.132901 0.546 
0.420281 0.132901 0.546 
0.446547 0.133144 0.547 
0.479558 0.13217 0.543 
0.503008 0.131684 0.541 
0.524175 0.130467 0.536 
0.217205 0.138403 0.565 
0.243109 0.138158 0.564 
0.271061 0.137668 0.562 
0.299475 0.136689 0.558 
0.3303 0.135464 0.553 
0.369341 0.134974 0.551 
0.406708 0.133749 0.546 
0.434702 0.133749 0.546 
0.458466 0.133259 0.544 
0.488719 0.132524 0.541 
0.514547 0.132034 0.539 
0.203879 0.139774 0.567 
0.229495 0.139281 0.565 
0.257964 0.138542 0.562 
0.283148 0.138049 0.56 
0.313951 0.137062 0.556 
0.342948 0.136569 0.554 
0.388046 0.134597 0.546 
0.417736 0.134597 0.546 
0.446547 0.134844 0.547 
0.477871 0.133858 0.543 
0.5004 0.133118 0.54 
0.524175 0.132132 0.536 
0.212689 0.140655 0.567 
0.24048 0.139911 0.564 
0.268442 0.139415 0.562 
0.294637 0.139415 0.562 
0.323462 0.138671 0.559 
0.357147 0.136934 0.552 
0.393135 0.135446 0.546 
0.423745 0.135198 0.545 
0.451688 0.135198 0.545 
0.478675 0.134453 0.542 
0.502078 0.133957 0.54 
0.525841 0.132965 0.536 
0.213569 0.141536 0.567 
0.241357 0.140787 0.564 
0.267569 0.140288 0.562 
0.293241 0.140038 0.561 
0.32433 0.139539 0.559 
0.354574 0.137792 0.552 
0.386349 0.136294 0.546 
0.419433 0.136294 0.546 
0.447454 0.136044 0.545 
0.477871 0.135545 0.543 
0.5004 0.134796 0.54 
0.524319 0.134047 0.537 
0.213569 0.142417 0.567 
0.241357 0.141663 0.564 
0.266696 0.141161 0.562 
0.293241 0.14091 0.561 
0.323462 0.140408 0.559 
0.356076 0.1389 0.553 
0.386349 0.137142 0.546 
0.41604 0.137142 0.546 
0.453395 0.13664 0.544 
0.486307 0.136389 0.543 
0.508685 0.135384 0.539 
0.1858 0.144309 0.571 
0.221987 0.143045 0.566 
0.250119 0.14254 0.564 
0.275427 0.142034 0.562 
0.30381 0.141023 0.558 
0.336062 0.140012 0.554 
0.365917 0.139254 0.551 
0.398105 0.138243 0.547 
0.424592 0.137738 0.545 
0.471122 0.137232 0.543 
0.495366 0.136474 0.54 
0.519572 0.136221 0.539 
0.213569 0.144179 0.567 
0.239151 0.14367 0.565 
0.264949 0.142907 0.562 
0.290108 0.142399 0.56 
0.315381 0.141636 0.557 
0.350061 0.140619 0.553 
0.377046 0.14011 0.551 
0.409253 0.138839 0.546 
0.4397 0.139347 0.548 
0.471122 0.138076 0.543 
0.495366 0.137313 0.54 
0.519572 0.137059 0.539 
0.210927 0.14506 0.567 
0.236936 0.144804 0.566 
0.264076 0.143781 0.562 
0.289238 0.143269 0.56 
0.314516 0.142501 0.557 
0.35178 0.141478 0.553 
0.377046 0.140966 0.551 
0.408405 0.139687 0.546 
0.435443 0.140199 0.548 
0.466886 0.138664 0.542 
0.492922 0.138408 0.541 
0.518735 0.137896 0.539 
0.216212 0.145941 0.567 
0.241803 0.144911 0.563 
0.270188 0.144654 0.562 
0.294801 0.143882 0.559 
0.323462 0.143882 0.559 
0.355639 0.142852 0.555 
0.378071 0.141565 0.55 
0.408504 0.140278 0.545 
0.436295 0.14105 0.548 
0.461002 0.140021 0.544 
0.48457 0.139506 0.542 
0.514663 0.138991 0.54 
0.212689 0.146822 0.567 
0.240029 0.146304 0.565 
0.267569 0.145527 0.562 
0.291673 0.144491 0.558 
0.317112 0.144232 0.557 
0.348343 0.143196 0.553 
0.377216 0.14242 0.55 
0.40586 0.141384 0.546 
0.434649 0.141643 0.547 
0.460998 0.140607 0.543 
0.485412 0.140348 0.542 
0.50879 0.13983 0.54 
0.215331 0.147703 0.567 
0.244866 0.1464 0.562 
0.273681 0.1464 0.562 
0.299475 0.145358 0.558 
0.331758 0.144316 0.554 
0.361023 0.144316 0.554 
0.393006 0.142493 0.547 
0.421051 0.142493 0.547 
0.450874 0.141451 0.543 
0.477061 0.141711 0.544 
0.499646 0.14093 0.541 
0.20264 0.148321 0.566 
0.239604 0.147797 0.564 
0.269315 0.147273 0.562 
0.294801 0.146487 0.559 
0.320282 0.146225 0.558 
0.361884 0.145177 0.554 
0.399805 0.143342 0.547 
0.427916 0.14308 0.546 
0.459311 0.142556 0.544 
0.482886 0.142032 0.542 
0.506273 0.141508 0.54 
0.215711 0.149728 0.568 
0.24574 0.148146 0.562 
0.273681 0.148146 0.562 
0.297742 0.147092 0.558 
0.32977 0.146301 0.555 
0.378236 0.14472 0.549 
0.406708 0.143929 0.546 
0.438898 0.144192 0.547 
0.469454 0.143402 0.544 
0.492991 0.142874 0.542 
0.196137 0.149815 0.565 
0.226384 0.15008 0.566 
0.252725 0.14902 0.562 
0.27892 0.14902 0.562 
0.30381 0.147959 0.558 
0.350694 0.146898 0.554 
0.390318 0.145307 0.548 
0.414343 0.144777 0.546 
0.448343 0.143982 0.543 
0.474525 0.144247 0.544 
0.497124 0.143451 0.541 
0.194382 0.150693 0.565 
0.224141 0.151226 0.567 
0.248801 0.150159 0.563 
0.274554 0.149893 0.562 
0.299475 0.148826 0.558 
0.330364 0.148292 0.556 
0.385913 0.146425 0.549 
0.413495 0.145625 0.546 
0.444882 0.145625 0.546 
0.47368 0.145092 0.544 
0.496284 0.144292 0.541 
0.527803 0.143492 0.538 
0.216212 0.152107 0.567 
0.240929 0.151034 0.563 
0.266696 0.150766 0.562 
0.290806 0.149693 0.558 
0.317112 0.149425 0.557 
0.363399 0.148888 0.555 
0.407557 0.146474 0.546 
0.434702 0.146474 0.546 
0.459307 0.145401 0.542 
0.486254 0.145401 0.542 
0.508685 0.144596 0.539 
0.196485 0.152718 0.566 
0.224141 0.152988 0.567 
0.250996 0.152179 0.564 
0.278542 0.151909 0.563 
0.304677 0.15056 0.558 
0.344805 0.15029 0.557 
0.392737 0.148131 0.549 
0.426219 0.147322 0.546 
0.451705 0.146782 0.544 
0.476184 0.146512 0.543 
0.501239 0.145703 0.54 
0.187802 0.154412 0.569 
0.217093 0.153869 0.567 
0.243553 0.152784 0.563 
0.276792 0.152784 0.563 
0.305862 0.151155 0.557 
0.338139 0.150884 0.556 
0.379942 0.148984 0.549 
0.415191 0.14817 0.546 
0.443186 0.14817 0.546 
0.466904 0.147356 0.543 
0.492922 0.146813 0.541 
0.515265 0.145999 0.538 
0.199123 0.154477 0.566 
0.228142 0.154477 0.566 
0.263203 0.153385 0.562 
0.291327 0.152567 0.559 
0.318843 0.152021 0.557 
0.349132 0.152021 0.557 
0.388472 0.149837 0.549 
0.420281 0.149019 0.546 
0.444969 0.1482 0.543 
0.470278 0.1482 0.543 
0.497044 0.147381 0.54 
0.52028 0.146835 0.538 
0.199475 0.155631 0.567 
0.227664 0.155631 0.567 
0.260583 0.154259 0.562 
0.288722 0.153435 0.559 
0.316247 0.152886 0.557 
0.344805 0.152886 0.557 
0.379089 0.15069 0.549 
0.412552 0.150141 0.547 
0.436447 0.149592 0.545 
0.4593 0.148494 0.541 
0.488655 0.14822 0.54 
0.511921 0.147671 0.538 
0.18957 0.157064 0.569 
0.218469 0.156236 0.566 
0.243553 0.155408 0.563 
0.274168 0.155408 0.563 
0.306411 0.154028 0.558 
0.331228 0.153476 0.556 
0.35995 0.153199 0.555 
0.391743 0.151819 0.55 
0.420201 0.150991 0.547 
0.443253 0.150163 0.544 
0.467747 0.149887 0.543 
0.492849 0.149059 0.54 
0.5161 0.148507 0.538 
0.19256 0.158226 0.57 
0.218469 0.157115 0.566 
0.243553 0.156282 0.563 
0.275043 0.156282 0.563 
0.306411 0.154895 0.558 
0.331228 0.154339 0.556 
0.364398 0.152674 0.55 
0.397725 0.152674 0.55 
0.423745 0.151286 0.545 
0.4475 0.150731 0.543 
0.471875 0.149898 0.54 
0.496875 0.149343 0.538 
0.521952 0.149343 0.538 
0.198944 0.158553 0.568 
0.224625 0.157995 0.566 
0.253147 0.156599 0.561 
0.280291 0.157157 0.563 
0.309879 0.155761 0.558 
0.340478 0.155482 0.557 
0.377547 0.15297 0.548 
0.405754 0.152691 0.547 
0.436447 0.152133 0.545 
0.459307 0.151295 0.542 
0.4844 0.150458 0.539 
0.509301 0.149899 0.537 
0.189903 0.159997 0.57 
0.215331 0.159155 0.567 
0.240929 0.158032 0.563 
0.271544 0.158032 0.563 
0.301535 0.156348 0.557 
0.3295 0.156067 0.556 
0.362222 0.153821 0.548 
0.397854 0.154102 0.549 
0.426349 0.152699 0.544 
0.451705 0.152699 0.544 
0.476909 0.151576 0.54 
0.50189 0.151015 0.538 
-0.438609 0.207736 0.736 
0.209165 0.160036 0.567 
0.241803 0.158907 0.563 
0.276792 0.158907 0.563 
0.305223 0.157778 0.559 
0.335547 0.156931 0.556 
0.367148 0.154955 0.549 
0.394576 0.154673 0.548 
0.427194 0.153544 0.544 
0.451718 0.153262 0.543 
0.480265 0.152415 0.54 
0.50607 0.15185 0.538 
0.190788 0.161768 0.57 
0.224625 0.160633 0.566 
0.264478 0.159214 0.561 
0.29254 0.158362 0.558 
0.316836 0.157511 0.555 
0.349202 0.156943 0.553 
0.378558 0.155241 0.547 
0.417652 0.155241 0.547 
0.441527 0.154673 0.545 
0.467728 0.153821 0.542 
0.493612 0.15297 0.539 
0.518735 0.15297 0.539 
0.206522 0.161798 0.567 
0.252275 0.160085 0.561 
0.27892 0.160371 0.562 
0.304677 0.159229 0.558 
0.337275 0.158659 0.556 
0.368001 0.156661 0.549 
0.394576 0.156376 0.548 
0.427194 0.155234 0.544 
0.455939 0.154664 0.542 
0.481104 0.154093 0.54 
0.504398 0.153522 0.538 
0.195758 0.163252 0.569 
0.225504 0.162392 0.566 
0.254436 0.16067 0.56 
0.281539 0.161244 0.562 
0.305544 0.160096 0.558 
0.339867 0.159522 0.556 
0.37329 0.157227 0.548 
0.398833 0.157227 0.548 
0.430575 0.156079 0.544 
0.457623 0.155506 0.542 
0.482782 0.154932 0.54 
0.50607 0.154358 0.538 
0.194874 0.164136 0.569 
0.222472 0.162982 0.565 
0.250956 0.16154 0.56 
0.277552 0.161829 0.561 
0.302076 0.160963 0.558 
0.336668 0.160098 0.555 
0.371412 0.158367 0.549 
0.396405 0.15779 0.547 
0.428096 0.156636 0.543 
0.455096 0.156348 0.542 
0.480265 0.155771 0.54 
0.505234 0.155194 0.538 
0.196642 0.16502 0.569 
0.224625 0.16415 0.566 
0.250085 0.16241 0.56 
0.27668 0.1627 0.561 
0.301209 0.16183 0.558 
0.332956 0.16125 0.556 
0.372265 0.15922 0.549 
0.398105 0.15864 0.547 
0.428939 0.15748 0.543 
0.454249 0.15748 0.543 
0.478632 0.1569 0.541 
0.504398 0.15603 0.538 
0.201062 0.165904 0.569 
0.228212 0.164447 0.564 
0.253147 0.163572 0.561 
0.279295 0.163572 0.561 
0.30381 0.162697 0.558 
0.344186 0.162114 0.556 
0.381804 0.159781 0.548 
0.411798 0.159198 0.546 
0.43814 0.158907 0.545 
0.460991 0.158032 0.542 
0.485299 0.157449 0.54 
0.5161 0.156866 0.538 
0.208284 0.166202 0.567 
0.233931 0.16503 0.563 
0.260526 0.16415 0.56 
0.28714 0.164443 0.561 
0.31856 0.162685 0.555 
0.362689 0.161219 0.55 
0.390318 0.160633 0.548 
0.42113 0.160047 0.546 
0.444125 0.159167 0.543 
0.468519 0.158288 0.54 
0.494449 0.157995 0.539 
0.192222 0.167672 0.569 
0.217205 0.166494 0.565 
0.241816 0.165315 0.561 
0.271061 0.16561 0.562 
0.29567 0.164726 0.559 
0.339867 0.163842 0.556 
0.377046 0.162368 0.551 
0.405644 0.161484 0.548 
0.432265 0.160305 0.544 
0.456781 0.159716 0.542 
0.480265 0.159127 0.54 
0.503461 0.158243 0.537 
0.198061 0.16826 0.568 
0.224228 0.167372 0.565 
0.248345 0.16589 0.56 
0.278797 0.16589 0.56 
0.30381 0.165298 0.558 
0.36315 0.163521 0.552 
0.398833 0.162336 0.548 
0.426286 0.161447 0.545 
0.45255 0.161151 0.544 
0.474392 0.159966 0.54 
0.499192 0.158781 0.536 
0.196296 0.169143 0.568 
0.222472 0.168249 0.565 
0.247046 0.167058 0.561 
0.276187 0.16676 0.56 
0.301749 0.166463 0.559 
0.372943 0.163783 0.55 
0.40309 0.163187 0.548 
0.43311 0.161996 0.544 
0.458459 0.161103 0.541 
0.481888 0.160507 0.539 
0.513593 0.160209 0.538 
0.200709 0.170025 0.568 
0.225984 0.169127 0.565 
0.250532 0.16793 0.561 
0.279667 0.167631 0.56 
0.304677 0.167032 0.558 
0.372765 0.164936 0.551 
0.39956 0.164338 0.549 
0.424592 0.16314 0.545 
0.455085 0.162841 0.544 
0.476909 0.161644 0.54 
0.499192 0.160446 0.536 
0.183704 0.17151 0.57 
0.211434 0.170306 0.566 
0.238304 0.169403 0.563 
0.265349 0.168802 0.561 
0.290978 0.168501 0.56 
0.32259 0.167297 0.556 
0.392873 0.16489 0.548 
0.419512 0.163987 0.545 
0.450841 0.163987 0.545 
0.471875 0.162483 0.54 
0.498359 0.161279 0.536 
0.527353 0.160978 0.535 
0.208796 0.171185 0.566 
0.234346 0.17058 0.564 
0.261863 0.169673 0.561 
0.287498 0.169371 0.56 
0.312224 0.168161 0.556 
0.378588 0.166951 0.552 
0.416971 0.164834 0.545 
0.446633 0.164531 0.544 
0.469386 0.163624 0.541 
0.498359 0.162112 0.536 
0.529847 0.161809 0.535 
0.214952 0.172065 0.566 
0.239627 0.170849 0.562 
0.264876 0.170241 0.56 
0.290978 0.170241 0.56 
0.315111 0.168721 0.555 
0.364466 0.168417 0.554 
0.405754 0.166289 0.547 
0.430575 0.165377 0.544 
0.460141 0.164465 0.541 
0.486977 0.164161 0.54 
0.523879 0.162337 0.534 
0.213193 0.172944 0.566 
0.237881 0.171722 0.562 
0.267964 0.171416 0.561 
0.293588 0.171111 0.56 
0.316836 0.169583 0.555 
0.36209 0.168972 0.553 
0.402119 0.16775 0.549 
0.426286 0.166527 0.545 
0.456781 0.165611 0.542 
0.485357 0.165305 0.541 
0.523879 0.163166 0.534 
0.214952 0.173823 0.566 
0.239627 0.172595 0.562 
0.271451 0.172288 0.561 
0.297069 0.171981 0.56 
0.321726 0.170752 0.556 
0.361231 0.169831 0.553 
0.387764 0.168296 0.548 
0.41198 0.167067 0.544 
0.442407 0.167067 0.544 
0.466044 0.166453 0.542 
0.496694 0.16461 0.536 
0.186033 0.175629 0.569 
0.220717 0.174394 0.565 
0.245302 0.17316 0.561 
0.276563 0.172542 0.559 
0.302618 0.172542 0.559 
0.327497 0.171925 0.557 
0.362949 0.17069 0.553 
0.388616 0.169147 0.548 
0.414516 0.167912 0.544 
0.444098 0.167912 0.544 
0.469412 0.167295 0.542 
0.499289 0.165752 0.537 
0.523879 0.164826 0.534 
0.216327 0.175272 0.565 
0.240944 0.174031 0.561 
0.271837 0.173721 0.56 
0.298809 0.173721 0.56 
0.32259 0.17248 0.556 
0.357363 0.17217 0.555 
0.382182 0.170929 0.551 
0.408405 0.169378 0.546 
0.43236 0.168137 0.542 
0.458459 0.167827 0.541 
0.485357 0.167827 0.541 
0.509301 0.166586 0.537 
0.190454 0.177397 0.569 
0.229089 0.175838 0.564 
0.25489 0.174903 0.561 
0.287338 0.173967 0.558 
0.312224 0.173344 0.556 
0.342087 0.17272 0.554 
0.370011 0.172097 0.552 
0.39359 0.171162 0.549 
0.418742 0.169603 0.544 
0.444943 0.169603 0.544 
0.47278 0.168979 0.542 
0.495286 0.168044 0.539 
0.517513 0.167109 0.536 
0.211938 0.177028 0.565 
0.239201 0.175774 0.561 
0.267009 0.175148 0.559 
0.297407 0.175148 0.559 
0.322305 0.174521 0.557 
0.358007 0.174208 0.556 
0.381489 0.172328 0.55 
0.407557 0.171075 0.546 
0.43236 0.169821 0.542 
0.462675 0.169821 0.542 
0.489559 0.169508 0.541 
0.512638 0.168255 0.537 
0.19507 0.178535 0.567 
0.229965 0.177591 0.564 
0.258324 0.176016 0.559 
0.294801 0.176016 0.559 
0.319708 0.175387 0.557 
0.349202 0.174127 0.553 
0.389179 0.173182 0.55 
0.413671 0.171293 0.544 
0.444969 0.170978 0.543 
0.480265 0.170034 0.54 
0.503461 0.169089 0.537 
0.184499 0.179416 0.567 
0.215945 0.178467 0.564 
0.248345 0.177201 0.56 
0.274826 0.176885 0.559 
0.308145 0.176568 0.558 
0.336564 0.17467 0.552 
0.375157 0.17467 0.552 
0.406708 0.172771 0.546 
0.444125 0.171822 0.543 
0.479426 0.170873 0.54 
0.503461 0.169923 0.537 
0.182737 0.180297 0.567 
0.213316 0.179343 0.564 
0.241816 0.178389 0.561 
0.269999 0.177435 0.558 
0.298275 0.177753 0.559 
0.337422 0.175527 0.552 
0.371909 0.175209 0.551 
0.398955 0.173937 0.547 
0.434845 0.172666 0.543 
0.464359 0.172348 0.542 
0.489424 0.171394 0.539 
0.51668 0.17044 0.536 
0.188903 0.181178 0.567 
0.216327 0.180539 0.565 
0.248345 0.178941 0.56 
0.278797 0.178941 0.56 
0.309324 0.177983 0.557 
0.347016 0.177344 0.555 
0.377046 0.176065 0.551 
0.405754 0.174787 0.547 
0.430575 0.173829 0.544 
0.456778 0.17287 0.541 
0.482782 0.172551 0.54 
0.510851 0.171272 0.536 
0.183294 0.181738 0.566 
0.211938 0.181417 0.565 
0.239627 0.180454 0.562 
0.26865 0.178848 0.557 
0.297407 0.17949 0.559 
0.338279 0.177243 0.552 
0.367439 0.177243 0.552 
0.392455 0.176922 0.551 
0.420281 0.175316 0.546 
0.443307 0.174032 0.542 
0.471068 0.173711 0.541 
0.498455 0.172426 0.537 
0.52251 0.172105 0.536 
0.197713 0.18294 0.567 
0.225504 0.182617 0.566 
0.24966 0.181004 0.561 
0.275317 0.180681 0.56 
0.301749 0.180359 0.559 
0.334849 0.1781 0.552 
0.364205 0.177778 0.551 
0.389179 0.177455 0.55 
0.416125 0.175842 0.545 
0.440751 0.175196 0.543 
0.467728 0.174874 0.542 
0.49762 0.173261 0.537 
0.522366 0.172615 0.535 
0.204399 0.183497 0.566 
0.229965 0.182848 0.564 
0.259192 0.181227 0.559 
0.285248 0.181227 0.559 
0.313651 0.180579 0.557 
0.350233 0.180255 0.556 
0.377902 0.178634 0.551 
0.404904 0.177337 0.547 
0.428039 0.176364 0.544 
0.452576 0.175392 0.541 
0.481995 0.175392 0.541 
0.509185 0.173771 0.536 
-0.0279626 0.22933 0.704 
0.209305 0.18405 0.565 
0.237851 0.183725 0.564 
0.266531 0.18177 0.558 
0.293064 0.182096 0.559 
0.324872 0.180467 0.554 
0.358007 0.181119 0.556 
0.386616 0.179164 0.55 
0.412737 0.177535 0.545 
0.440781 0.176558 0.542 
0.465184 0.176232 0.541 
0.488443 0.174929 0.537 
0.520011 0.174603 0.536 
0.193846 0.185255 0.566 
0.221107 0.185255 0.566 
0.248359 0.183946 0.562 
0.27668 0.183619 0.561 
0.301749 0.182964 0.559 
0.343188 0.181 0.553 
0.375157 0.180673 0.552 
0.400535 0.179364 0.548 
0.43311 0.178055 0.544 
0.460981 0.177073 0.541 
0.485237 0.176418 0.539 
0.510729 0.175109 0.535 
-0.0236544 0.232175 0.706 
0.212439 0.185477 0.564 
0.238304 0.185148 0.563 
0.267398 0.183504 0.558 
0.293933 0.183833 0.559 
0.330217 0.180873 0.55 
0.35972 0.181531 0.552 
0.385761 0.180873 0.55 
0.419659 0.178571 0.543 
0.451739 0.177584 0.54 
0.479473 0.177913 0.541 
0.504295 0.176598 0.537 
0.529016 0.17594 0.535 
0.210687 0.186353 0.564 
0.236555 0.186023 0.563 
0.26614 0.184701 0.559 
0.292718 0.185032 0.56 
0.325352 0.181397 0.549 
0.359512 0.182719 0.553 
0.385761 0.181728 0.55 
0.418742 0.179745 0.544 
0.447544 0.178423 0.54 
0.472676 0.178093 0.539 
0.500123 0.177432 0.537 
0.527353 0.176771 0.535 
0.209811 0.18723 0.564 
0.235262 0.186566 0.562 
0.265747 0.185902 0.56 
0.291848 0.185902 0.56 
0.332781 0.182582 0.55 
0.369823 0.183578 0.553 
0.39359 0.18225 0.549 
0.422255 0.179926 0.542 
0.449222 0.179262 0.54 
0.477748 0.179262 0.54 
0.503461 0.178267 0.537 
0.18857 0.188773 0.566 
0.213812 0.187772 0.563 
0.240944 0.187105 0.561 
0.271352 0.186438 0.559 
0.299475 0.186105 0.558 
0.33449 0.183437 0.55 
0.370682 0.184437 0.553 
0.39359 0.183103 0.549 
0.418742 0.181435 0.544 
0.44333 0.180435 0.541 
0.469358 0.180101 0.54 
0.493612 0.179768 0.539 
0.517513 0.178767 0.536 
0.204399 0.189652 0.566 
0.229149 0.188312 0.562 
0.258324 0.187307 0.559 
0.290108 0.187642 0.56 
0.32509 0.184291 0.55 
0.353498 0.185296 0.553 
0.382182 0.184626 0.551 
0.408198 0.183621 0.548 
0.432314 0.181946 0.543 
0.457619 0.181275 0.541 
0.481888 0.180605 0.539 
0.505964 0.179935 0.537 
0.0442903 0.237323 0.705 
0.205794 0.190195 0.565 
0.230485 0.188849 0.561 
0.26133 0.187839 0.558 
0.28959 0.188175 0.559 
0.324825 0.185482 0.551 
0.352001 0.185819 0.552 
0.38047 0.185482 0.551 
0.405644 0.184472 0.548 
0.430575 0.183126 0.544 
0.454256 0.181779 0.54 
0.479426 0.181779 0.54 
0.502726 0.181106 0.538 
0.0399089 0.238418 0.705 
0.196485 0.191411 0.566 
0.223434 0.190397 0.563 
0.255718 0.189044 0.559 
0.283511 0.189044 0.559 
0.31856 0.187691 0.555 
0.35222 0.186338 0.551 
0.383894 0.186338 0.551 
0.415278 0.184309 0.545 
0.439063 0.183633 0.543 
0.465163 0.182618 0.54 
0.491024 0.181942 0.538 
0.515015 0.181266 0.536 
0.0851821 0.237475 0.699 
0.212938 0.191271 0.563 
0.237905 0.190252 0.56 
0.272707 0.190252 0.56 
0.302076 0.189573 0.558 
0.333386 0.187194 0.551 
0.367439 0.187534 0.552 
0.394576 0.186175 0.548 
0.426349 0.184816 0.544 
0.448383 0.183457 0.54 
0.48105 0.183118 0.539 
0.504295 0.182438 0.537 
0.0506459 0.239585 0.702 
0.210313 0.192146 0.563 
0.235715 0.191463 0.561 
0.271352 0.190781 0.559 
0.305544 0.19044 0.558 
0.335098 0.188051 0.551 
0.369341 0.188051 0.551 
0.395427 0.187027 0.548 
0.430575 0.185661 0.544 
0.45174 0.183955 0.539 
0.484337 0.183614 0.538 
0.509413 0.183614 0.538 
0.091567 0.239305 0.698 
0.222164 0.192678 0.562 
0.256995 0.191307 0.558 
0.285248 0.191649 0.559 
0.320285 0.190278 0.555 
0.346453 0.188564 0.55 
0.378758 0.188907 0.551 
0.411891 0.18685 0.545 
0.434886 0.185821 0.542 
0.459277 0.184792 0.539 
0.487608 0.184107 0.537 
0.514429 0.18445 0.538 
0.193308 0.195273 0.567 
0.224384 0.193207 0.561 
0.262197 0.192173 0.558 
0.301535 0.191829 0.557 
0.32977 0.19114 0.555 
0.36315 0.190107 0.552 
0.388616 0.188729 0.548 
0.417818 0.187696 0.545 
0.439968 0.186319 0.541 
0.466002 0.185974 0.54 
0.488443 0.184941 0.537 
0.515975 0.184941 0.537 
0.195605 0.195808 0.566 
0.223512 0.194078 0.561 
0.253113 0.193386 0.559 
0.281774 0.193386 0.559 
0.318271 0.192349 0.556 
0.346896 0.189581 0.548 
0.378925 0.190273 0.55 
0.409253 0.188889 0.546 
0.431518 0.187505 0.542 
0.455095 0.186813 0.54 
0.481104 0.186813 0.54 
0.505336 0.186467 0.539 
0.190665 0.197035 0.567 
0.219061 0.195645 0.563 
0.242252 0.193212 0.556 
0.271837 0.194602 0.56 
0.313951 0.193212 0.556 
0.344047 0.19217 0.553 
0.370197 0.191475 0.551 
0.396405 0.190085 0.547 
0.424658 0.189042 0.544 
0.446705 0.187652 0.54 
0.472749 0.188 0.541 
0.496124 0.187305 0.539 
0.519178 0.186262 0.536 
0.210687 0.196869 0.564 
0.236135 0.196171 0.562 
0.259996 0.194425 0.557 
0.288205 0.194774 0.558 
0.330093 0.194425 0.557 
0.357356 0.192331 0.551 
0.382501 0.191633 0.549 
0.411044 0.190237 0.545 
0.435798 0.188491 0.54 
0.461807 0.188491 0.54 
0.486774 0.187444 0.537 
0.514663 0.188491 0.54 
0.20316 0.198096 0.565 
0.227464 0.196342 0.56 
0.253981 0.195992 0.559 
0.284018 0.196342 0.56 
0.311054 0.195291 0.557 
0.345823 0.192486 0.549 
0.372765 0.193187 0.551 
0.398105 0.191785 0.547 
0.423813 0.190733 0.544 
0.450895 0.189681 0.541 
0.477792 0.189681 0.541 
0.50189 0.188629 0.538 
0.195605 0.199326 0.566 
0.223512 0.197565 0.561 
0.250059 0.196508 0.558 
0.280538 0.197213 0.56 
0.304997 0.196156 0.557 
0.336564 0.194395 0.552 
0.364008 0.194395 0.552 
0.391306 0.192634 0.547 
0.421205 0.19193 0.545 
0.445866 0.190169 0.54 
0.471036 0.190169 0.54 
0.496961 0.189817 0.539 
0.187471 0.200912 0.568 
0.214687 0.199144 0.563 
0.239217 0.197729 0.559 
0.270967 0.198083 0.56 
0.296343 0.197021 0.557 
0.326351 0.197375 0.558 
0.355644 0.194899 0.551 
0.383507 0.193838 0.548 
0.422968 0.192423 0.544 
0.449214 0.191362 0.541 
0.473553 0.191008 0.54 
0.502726 0.190301 0.538 
0.196485 0.201084 0.566 
0.224384 0.199308 0.561 
0.256995 0.198242 0.558 
0.284888 0.198953 0.56 
0.308768 0.197532 0.556 
0.344515 0.195755 0.551 
0.372584 0.19611 0.552 
0.410003 0.194334 0.547 
0.432403 0.192202 0.541 
0.456773 0.191847 0.54 
0.481943 0.191847 0.54 
0.515847 0.190426 0.536 
0.212439 0.20125 0.564 
0.237458 0.20018 0.561 
0.273957 0.199466 0.559 
0.298939 0.198752 0.557 
0.326632 0.198752 0.557 
0.36078 0.196611 0.551 
0.39117 0.195541 0.548 
0.422052 0.19447 0.545 
0.448373 0.193043 0.541 
0.472714 0.192686 0.54 
0.500123 0.191616 0.537 
0.201048 0.202126 0.564 
0.227464 0.200693 0.56 
0.259596 0.199976 0.558 
0.287689 0.199618 0.557 
0.311961 0.198542 0.554 
0.34147 0.198184 0.553 
0.3724 0.198184 0.553 
0.406495 0.196392 0.548 
0.430722 0.193884 0.541 
0.455095 0.193525 0.54 
0.480265 0.193525 0.54 
0.505964 0.19245 0.537 
0.203677 0.203003 0.564 
0.229613 0.201923 0.561 
0.260463 0.200843 0.558 
0.289419 0.200483 0.557 
0.313683 0.199403 0.554 
0.342567 0.198683 0.552 
0.373074 0.199403 0.554 
0.401387 0.197244 0.548 
0.427132 0.196164 0.545 
0.450895 0.194724 0.541 
0.474351 0.194004 0.539 
0.499289 0.193284 0.537 
0.194038 0.203879 0.564 
0.219545 0.203156 0.562 
0.250507 0.202071 0.559 
0.279667 0.202433 0.56 
0.306488 0.200625 0.555 
0.332956 0.200987 0.556 
0.359924 0.19918 0.551 
0.38521 0.198095 0.548 
0.410853 0.197734 0.547 
0.434959 0.195203 0.54 
0.458425 0.19448 0.538 
0.4844 0.194842 0.539 
0.508467 0.194119 0.537 
0.203677 0.204755 0.564 
0.230485 0.203666 0.561 
0.255718 0.20294 0.559 
0.283653 0.203666 0.561 
0.31024 0.201125 0.554 
0.336923 0.201125 0.554 
0.362293 0.200399 0.552 
0.387764 0.198946 0.548 
0.414343 0.19822 0.546 
0.44251 0.196042 0.54 
0.465916 0.194953 0.537 
0.49186 0.195316 0.538 
0.51821 0.194227 0.535 
0.211563 0.205631 0.564 
0.237922 0.203444 0.558 
0.264403 0.203808 0.559 
0.293407 0.203444 0.558 
0.317698 0.20235 0.555 
0.34514 0.201256 0.552 
0.376015 0.201256 0.552 
0.408405 0.199069 0.546 
0.439993 0.196881 0.54 
0.462579 0.195787 0.537 
0.488516 0.196152 0.538 
0.515847 0.195423 0.536 
0.204553 0.206508 0.564 
0.233554 0.205043 0.56 
0.259192 0.204677 0.559 
0.287172 0.203578 0.556 
0.316836 0.203212 0.555 
0.344047 0.20248 0.553 
0.373442 0.202114 0.552 
0.414343 0.199917 0.546 
0.449222 0.19772 0.54 
0.472635 0.196988 0.538 
0.49762 0.196622 0.537 
0.185275 0.207384 0.564 
0.215562 0.207016 0.563 
0.240523 0.205178 0.558 
0.268265 0.205178 0.558 
0.299266 0.204442 0.556 
0.332956 0.204442 0.556 
0.360578 0.202972 0.552 
0.38521 0.201501 0.548 
0.434924 0.198927 0.541 
0.457573 0.197456 0.537 
0.485173 0.197824 0.538 
0.510851 0.197088 0.536 
0.203316 0.207891 0.563 
0.233971 0.207152 0.561 
0.262666 0.206414 0.559 
0.294274 0.206045 0.558 
0.326594 0.204568 0.554 
0.359512 0.204198 0.553 
0.381804 0.202352 0.548 
0.427916 0.201614 0.546 
0.453415 0.199029 0.539 
0.480994 0.19866 0.538 
0.50752 0.197921 0.536 
0.199295 0.209136 0.564 
0.232642 0.208395 0.562 
0.262666 0.207282 0.559 
0.29254 0.206912 0.558 
0.325733 0.205428 0.554 
0.35758 0.205428 0.554 
0.380953 0.203204 0.548 
0.41095 0.202462 0.546 
0.449222 0.200237 0.54 
0.473425 0.199125 0.537 
0.504079 0.198383 0.535 
0.19526 0.210385 0.565 
0.227403 0.209268 0.562 
0.258729 0.207779 0.558 
0.288554 0.207406 0.557 
0.315404 0.206289 0.554 
0.35758 0.206289 0.554 
0.380953 0.204055 0.548 
0.411798 0.20331 0.546 
0.445851 0.201448 0.541 
0.468379 0.199587 0.536 
0.499289 0.199959 0.537 
0.527038 0.19847 0.533 
0.216436 0.210515 0.563 
0.243124 0.208646 0.558 
0.273467 0.208646 0.558 
0.305075 0.20715 0.554 
0.338033 0.206776 0.553 
0.369154 0.206402 0.552 
0.400654 0.204532 0.547 
0.431562 0.202289 0.541 
0.454245 0.201167 0.538 
0.480038 0.200419 0.536 
0.504079 0.200045 0.535 
0.186481 0.212141 0.565 
0.218186 0.21139 0.563 
0.243991 0.209512 0.558 
0.2726 0.209512 0.558 
0.304215 0.208011 0.554 
0.332619 0.208011 0.554 
0.366773 0.206884 0.551 
0.403315 0.205007 0.546 
0.432403 0.203129 0.541 
0.456753 0.202003 0.538 
0.488366 0.201252 0.536 
0.514054 0.200877 0.535 
0.194382 0.213019 0.565 
0.223434 0.212265 0.563 
0.253073 0.210002 0.557 
0.286823 0.210002 0.557 
0.311398 0.208494 0.553 
0.338892 0.208494 0.553 
0.375334 0.20774 0.551 
0.422052 0.205478 0.545 
0.449222 0.203593 0.54 
0.473425 0.202462 0.537 
0.504079 0.201708 0.535 
0.185603 0.213896 0.565 
0.215562 0.213139 0.563 
0.243991 0.211246 0.558 
0.271733 0.211246 0.558 
0.305626 0.210111 0.555 
0.330897 0.209732 0.554 
0.370011 0.208975 0.552 
0.406708 0.206703 0.546 
0.433243 0.204811 0.541 
0.456753 0.203675 0.538 
0.488366 0.202918 0.536 
0.513223 0.202539 0.535 
0.196137 0.214774 0.565 
0.228276 0.213634 0.562 
0.263064 0.212113 0.558 
0.293746 0.211733 0.557 
0.321429 0.210593 0.554 
0.358871 0.211353 0.556 
0.388616 0.208312 0.548 
0.422899 0.207172 0.545 
0.445851 0.205651 0.541 
0.468419 0.204131 0.537 
0.498455 0.204131 0.537 
0.522069 0.20261 0.533 
0.208934 0.21527 0.564 
0.244419 0.212599 0.557 
0.2726 0.21298 0.558 
0.304764 0.211835 0.555 
0.337174 0.211072 0.553 
0.370682 0.211072 0.553 
0.402467 0.2084 0.546 
0.428096 0.207255 0.543 
0.45174 0.205728 0.539 
0.475094 0.204965 0.537 
0.501792 0.204965 0.537 
0.185603 0.21653 0.565 
0.213812 0.215763 0.563 
0.244419 0.213464 0.557 
0.2726 0.213847 0.558 
0.303901 0.212698 0.555 
0.339505 0.212314 0.554 
0.376362 0.210781 0.55 
0.408303 0.209632 0.547 
0.434001 0.208099 0.543 
0.457589 0.206182 0.538 
0.480871 0.205416 0.536 
0.506687 0.205416 0.536 
0.192626 0.217408 0.565 
0.220326 0.217023 0.564 
0.253073 0.214329 0.557 
0.2799 0.214329 0.557 
0.308213 0.21356 0.555 
0.357144 0.213945 0.556 
0.386766 0.211251 0.549 
0.416802 0.210481 0.547 
0.442489 0.208173 0.541 
0.465048 0.206249 0.536 
0.490031 0.206249 0.536 
0.515847 0.206249 0.536 
0.2028 0.217899 0.564 
0.230485 0.21674 0.561 
0.262592 0.215195 0.557 
0.29115 0.215195 0.557 
0.319411 0.213263 0.552 
0.381804 0.211718 0.548 
0.406708 0.210945 0.546 
0.432265 0.210172 0.544 
0.457589 0.207854 0.538 
0.480871 0.207082 0.536 
0.50752 0.207082 0.536 
0.193504 0.219163 0.565 
0.221594 0.219163 0.565 
0.254346 0.215672 0.556 
0.283003 0.216448 0.558 
0.307351 0.215284 0.555 
0.370491 0.214896 0.554 
0.397981 0.212569 0.548 
0.422123 0.211017 0.544 
0.449222 0.209466 0.54 
0.473425 0.208302 0.537 
0.500958 0.208302 0.537 
0.18945 0.220431 0.566 
0.217697 0.219652 0.564 
0.247435 0.216536 0.556 
0.275573 0.216926 0.557 
0.300452 0.216147 0.555 
0.360162 0.215757 0.554 
0.392156 0.213031 0.547 
0.417897 0.211863 0.544 
0.448383 0.210305 0.54 
0.476649 0.208358 0.535 
0.505021 0.208747 0.536 
0.201404 0.220919 0.565 
0.228742 0.219355 0.561 
0.25521 0.2174 0.556 
0.282496 0.217791 0.557 
0.306797 0.216618 0.554 
0.372089 0.215054 0.55 
0.398105 0.213881 0.547 
0.426349 0.212708 0.544 
0.459241 0.209971 0.537 
0.487533 0.20958 0.536 
0.186811 0.222189 0.566 
0.213812 0.221012 0.563 
0.237922 0.219049 0.558 
0.263848 0.218264 0.556 
0.290285 0.218656 0.557 
0.320269 0.216694 0.552 
0.377902 0.216301 0.551 
0.403315 0.214338 0.546 
0.439993 0.211983 0.54 
0.471756 0.210805 0.537 
0.498359 0.210413 0.536 
0.196667 0.222281 0.564 
0.22335 0.222675 0.565 
0.245708 0.219128 0.556 
0.273842 0.219522 0.557 
0.298728 0.218734 0.555 
0.368963 0.217945 0.553 
0.39713 0.215975 0.548 
0.422968 0.214398 0.544 
0.455888 0.211245 0.536 
0.481636 0.210851 0.535 
0.184726 0.223553 0.565 
0.211563 0.223157 0.564 
0.240957 0.220387 0.557 
0.268168 0.219992 0.556 
0.294083 0.219992 0.556 
0.360578 0.218409 0.552 
0.39117 0.216826 0.548 
0.416285 0.214848 0.543 
0.453401 0.212474 0.537 
0.476588 0.211287 0.534 
0.509648 0.210891 0.533 
0.207689 0.223636 0.563 
0.238348 0.222047 0.559 
0.263848 0.220855 0.556 
0.290285 0.221253 0.557 
0.313408 0.219266 0.552 
0.37773 0.219266 0.552 
0.40586 0.216883 0.546 
0.447553 0.214103 0.539 
0.470922 0.213308 0.537 
0.495028 0.212911 0.536 
0.187691 0.225707 0.566 
0.218083 0.225308 0.565 
0.250027 0.221719 0.556 
0.278534 0.221719 0.556 
0.305075 0.220922 0.554 
0.353717 0.220124 0.552 
0.385761 0.219327 0.55 
0.417128 0.216535 0.543 
0.455869 0.213345 0.535 
0.480805 0.213345 0.535 
0.509648 0.212547 0.533 
0.2028 0.225786 0.564 
0.230896 0.224985 0.562 
0.262985 0.222583 0.556 
0.2889 0.222583 0.556 
0.313117 0.221382 0.553 
0.365061 0.220581 0.551 
0.40173 0.218179 0.545 
0.428884 0.217779 0.544 
0.465082 0.214977 0.537 
0.490111 0.214977 0.537 
0.514752 0.213776 0.534 
0.204553 0.226662 0.564 
0.231769 0.225858 0.562 
0.260787 0.223045 0.555 
0.289419 0.223849 0.557 
0.315123 0.221839 0.552 
0.365917 0.221437 0.551 
0.40586 0.219428 0.546 
0.434044 0.217821 0.542 
0.465916 0.215811 0.537 
0.49178 0.215811 0.537 
0.516273 0.214204 0.533 
0.205429 0.227538 0.564 
0.231769 0.226731 0.562 
0.259925 0.223907 0.555 
0.2889 0.224311 0.556 
0.315123 0.222697 0.552 
0.36098 0.22189 0.55 
0.411798 0.220276 0.546 
0.444149 0.218663 0.542 
0.468455 0.217049 0.538 
0.494283 0.216645 0.537 
0.186481 0.228819 0.565 
0.213694 0.228819 0.565 
0.237922 0.225985 0.558 
0.268548 0.22477 0.555 
0.297865 0.22477 0.555 
0.322842 0.223555 0.552 
0.367629 0.22315 0.551 
0.407453 0.22153 0.547 
0.43147 0.21991 0.543 
0.460052 0.217075 0.536 
0.488366 0.217075 0.536 
0.523248 0.214645 0.53 
0.208934 0.229291 0.564 
0.234424 0.227665 0.56 
0.2582 0.225632 0.555 
0.288036 0.226038 0.556 
0.314266 0.224412 0.552 
0.355432 0.224412 0.552 
0.383038 0.224006 0.551 
0.414516 0.22116 0.544 
0.44333 0.21994 0.541 
0.469326 0.219127 0.539 
0.495117 0.218314 0.537 
0.523248 0.215468 0.53 
0.216327 0.230575 0.565 
0.239661 0.226902 0.556 
0.266823 0.226494 0.555 
0.302177 0.226494 0.555 
0.326272 0.22527 0.552 
0.363544 0.224454 0.55 
0.389325 0.224046 0.549 
0.417051 0.222005 0.544 
0.445851 0.220781 0.541 
0.471838 0.219965 0.539 
0.495952 0.219148 0.537 
0.517484 0.216292 0.53 
0.214572 0.231453 0.565 
0.244824 0.226947 0.554 
0.272977 0.228176 0.557 
0.300994 0.227766 0.556 
0.324557 0.226128 0.552 
0.360126 0.225308 0.55 
0.388472 0.224899 0.549 
0.413584 0.22326 0.545 
0.439968 0.221621 0.541 
0.469326 0.220802 0.539 
0.49253 0.219573 0.536 
0.514335 0.217525 0.531 
0.214572 0.232331 0.565 
0.244824 0.227808 0.554 
0.278033 0.228219 0.555 
0.304449 0.22863 0.556 
0.329441 0.227396 0.553 
0.365917 0.226574 0.551 
0.398225 0.224518 0.546 
0.421347 0.223284 0.543 
0.450064 0.220817 0.537 
0.479265 0.220817 0.537 
0.502417 0.219995 0.535 
0.194382 0.233209 0.565 
0.226933 0.232383 0.563 
0.252164 0.229081 0.555 
0.284581 0.229494 0.556 
0.309937 0.229081 0.555 
0.344744 0.227017 0.55 
0.378925 0.227017 0.55 
0.410003 0.225779 0.547 
0.435798 0.22289 0.54 
0.465082 0.221651 0.537 
0.489199 0.221239 0.536 
0.511304 0.22 0.533 
0.202282 0.234086 0.565 
0.234843 0.232429 0.561 
0.259925 0.229943 0.555 
0.291304 0.229529 0.554 
0.319708 0.229529 0.554 
0.361835 0.227872 0.55 
0.39713 0.227043 0.548 
0.423813 0.225386 0.544 
0.463413 0.222486 0.537 
0.488286 0.221657 0.535 
0.512824 0.220414 0.532 
0.20316 0.234964 0.565 
0.233515 0.233717 0.562 
0.256475 0.230806 0.555 
0.285793 0.230806 0.555 
0.312524 0.230806 0.555 
0.346676 0.22831 0.549 
0.392021 0.227895 0.548 
0.417652 0.227479 0.547 
0.445866 0.224568 0.54 
0.475978 0.223736 0.538 
0.51296 0.221657 0.533 
0.201761 0.23626 0.566 
0.233515 0.23459 0.562 
0.258665 0.232085 0.556 
0.286656 0.231668 0.555 
0.314249 0.231668 0.555 
0.361835 0.229581 0.55 
0.393724 0.228746 0.548 
0.419351 0.228329 0.547 
0.445878 0.224989 0.539 
0.475142 0.224572 0.538 
0.51861 0.222067 0.532 
0.212439 0.236301 0.564 
0.239661 0.232949 0.556 
0.269895 0.232949 0.556 
0.294747 0.232111 0.554 
0.32201 0.23253 0.555 
0.372089 0.230435 0.55 
0.398833 0.229597 0.548 
0.422052 0.22834 0.545 
0.457589 0.225408 0.538 
0.484961 0.224151 0.535 
0.187028 0.237177 0.564 
0.220418 0.236336 0.562 
0.24699 0.233392 0.555 
0.276671 0.232972 0.554 
0.303585 0.233813 0.556 
0.330561 0.232131 0.552 
0.380258 0.230028 0.547 
0.408405 0.229608 0.546 
0.44251 0.227085 0.54 
0.467585 0.225823 0.537 
0.498989 0.224561 0.534 
0.193504 0.238476 0.565 
0.231769 0.237209 0.562 
0.254751 0.234255 0.555 
0.283557 0.233833 0.554 
0.309937 0.234255 0.555 
0.356912 0.231722 0.549 
0.381957 0.230878 0.547 
0.409253 0.230456 0.546 
0.432442 0.227924 0.54 
0.468419 0.226657 0.537 
0.502307 0.225391 0.534 
0.196137 0.239353 0.565 
0.232642 0.238083 0.562 
0.265961 0.235117 0.555 
0.291304 0.234693 0.554 
0.320569 0.234693 0.554 
0.37038 0.232999 0.55 
0.401619 0.231304 0.546 
0.427916 0.231304 0.546 
0.46344 0.227915 0.538 
0.489862 0.226221 0.534 
0.516131 0.225373 0.532 
0.220418 0.238956 0.562 
0.259062 0.235979 0.555 
0.288721 0.235554 0.554 
0.315694 0.235129 0.553 
0.369341 0.234279 0.551 
0.402467 0.232153 0.546 
0.431604 0.229602 0.54 
0.468419 0.228326 0.537 
0.498882 0.226625 0.533 
0.19526 0.241109 0.565 
0.229149 0.239829 0.562 
0.2582 0.236842 0.555 
0.287861 0.236415 0.554 
0.317986 0.236415 0.554 
0.374142 0.233854 0.548 
