# .PCD v.7 - Point Cloud Data file format
VERSION .7
FIELDS x y z
SIZE 4 4 4
TYPE F F F
COUNT 1 1 1
WIDTH 1932
HEIGHT 1
VIEWPOINT 0 0 0 1 0 0 0
POINTS 1932
DATA ascii
-0.426423 0.221313 0.587 
-0.379525 0.220559 0.585 
-0.351054 0.219805 0.583 
-0.322213 0.218674 0.58 
-0.295688 0.219051 0.581 
-0.268608 0.219051 0.581 
-0.239449 0.217166 0.576 
-0.211494 0.216035 0.573 
-0.186076 0.217543 0.577 
-0.158354 0.216412 0.574 
-0.131141 0.215658 0.572 
-0.104115 0.214904 0.57 
-0.077411 0.214527 0.569 
-0.0508898 0.214527 0.569 
-0.0243685 0.214527 0.569 
0.0021414 0.213396 0.566 
0.0283716 0.212265 0.563 
0.0548072 0.213019 0.565 
0.0812857 0.213396 0.566 
1.257 2.30324 6.109 
1.24899 1.86589 4.949 
3.07367 3.64846 9.677 
3.57789 3.70351 9.823 
4.01561 3.68503 9.774 
4.80742 3.96215 10.509 
5.69546 4.25999 11.299 
8.27999 5.66893 15.036 
8.16433 5.15354 13.669 
7.58254 4.43984 11.776 
8.13143 4.43984 11.776 
7.42721 3.79889 10.076 
8.80441 4.23549 11.234 
8.15642 3.70351 9.823 
7.66447 3.20433 8.499 
-0.471567 0.223739 0.591 
-0.44402 0.223739 0.591 
-0.394261 0.222604 0.588 
-0.365607 0.221847 0.586 
-0.334252 0.219197 0.579 
-0.307795 0.219575 0.58 
-0.280761 0.219575 0.58 
-0.252415 0.218439 0.577 
-0.22513 0.218061 0.576 
-0.197938 0.217682 0.575 
-0.171137 0.217682 0.575 
-0.144085 0.217304 0.574 
-0.116718 0.216168 0.571 
-0.0901032 0.216168 0.571 
-0.0632664 0.215411 0.569 
-0.0367451 0.215411 0.569 
-0.0102059 0.215032 0.568 
0.0161256 0.213139 0.563 
0.0423672 0.213139 0.563 
0.0684869 0.212761 0.562 
1.28457 2.64285 6.981 
1.24535 2.04432 5.4 
4.33559 5.60636 14.809 
3.56652 3.97847 10.509 
3.9502 3.87436 10.234 
4.47436 3.91563 10.343 
6.66638 4.74358 12.53 
8.63452 5.64914 14.922 
8.48782 5.13919 13.575 
7.50472 4.22871 11.17 
7.67475 4.04397 10.682 
8.08389 4.00005 10.566 
8.62345 4.02201 10.624 
5.77758 2.52549 6.671 
8.61343 3.50714 9.264 
-0.452436 0.224278 0.59 
-0.406577 0.222757 0.586 
-0.378616 0.222377 0.585 
-0.349547 0.221236 0.582 
-0.321312 0.220476 0.58 
-0.294278 0.220476 0.58 
-0.267244 0.220476 0.58 
-0.238968 0.219336 0.577 
-0.209868 0.217055 0.571 
-0.184859 0.218956 0.576 
-0.157188 0.217815 0.573 
-0.130253 0.217435 0.572 
-0.10341 0.217055 0.571 
-0.0763925 0.215915 0.568 
-0.0500057 0.216295 0.569 
-0.0234432 0.215915 0.568 
0.00302078 0.215154 0.566 
0.0335005 0.213254 0.561 
0.0598616 0.214014 0.563 
1.1908 2.71186 7.134 
1.27264 2.26558 5.96 
4.39475 5.99239 15.764 
3.22763 3.75266 9.872 
3.8032 3.87012 10.181 
4.19034 3.79105 9.973 
5.06922 4.12823 10.86 
6.06397 4.47643 11.776 
8.71194 5.89736 15.514 
8.43097 5.26976 13.863 
7.19073 4.1746 10.982 
8.01752 4.34528 11.431 
7.90331 4.01647 10.566 
9.35727 4.47643 11.776 
8.18082 3.69678 9.725 
8.26987 3.45615 9.092 
-0.474322 0.225576 0.591 
-0.446019 0.225194 0.59 
-0.410219 0.223667 0.586 
-0.382905 0.223667 0.586 
-0.353771 0.222522 0.583 
-0.324356 0.220996 0.579 
-0.297883 0.221377 0.58 
-0.270849 0.221377 0.58 
-0.242133 0.219851 0.576 
-0.213417 0.217942 0.571 
-0.188111 0.219469 0.575 
-0.160469 0.218324 0.572 
-0.133807 0.218324 0.572 
-0.106772 0.217561 0.57 
-0.0799224 0.216797 0.568 
-0.0535419 0.217179 0.569 
-0.0269257 0.216415 0.567 
-0.000496745 0.216034 0.566 
0.0291944 0.214507 0.562 
0.0555865 0.21527 0.564 
0.0820199 0.215652 0.565 
1.26872 2.35347 6.166 
1.26161 1.90804 4.999 
3.28895 4.01113 10.509 
3.60438 3.82601 10.024 
4.17884 3.92678 10.288 
5.02875 4.23899 11.106 
6.1397 4.69244 12.294 
8.0248 5.60963 14.697 
8.1581 5.25428 13.766 
7.76098 4.63404 12.141 
8.43181 4.69244 12.294 
7.41833 3.86571 10.128 
8.90553 4.36304 11.431 
8.1932 3.78746 9.923 
8.20461 3.50272 9.177 
8.84023 3.58708 9.398 
-0.462247 0.226877 0.592 
-0.430983 0.224961 0.587 
-0.402935 0.224578 0.586 
-0.374981 0.224195 0.585 
-0.345336 0.222662 0.581 
-0.318255 0.222662 0.581 
-0.290173 0.221895 0.579 
-0.262731 0.221512 0.578 
-0.234974 0.220746 0.576 
-0.20632 0.218829 0.571 
-0.180964 0.220362 0.575 
-0.153359 0.219213 0.572 
-0.126919 0.219596 0.573 
-0.100037 0.219213 0.572 
-0.0727343 0.217296 0.567 
-0.0463879 0.21768 0.568 
-0.0145926 0.217296 0.567 
0.0117311 0.21538 0.562 
0.0396018 0.214997 0.561 
0.0657502 0.214997 0.561 
1.29204 2.785 7.267 
1.27507 2.17756 5.682 
4.44712 5.85244 15.271 
3.55019 4.02746 10.509 
4.04002 4.02746 10.509 
4.57942 4.07153 10.624 
5.18733 4.16197 10.86 
6.78661 4.96103 12.945 
8.5186 5.71869 14.922 
8.50031 5.27567 13.766 
7.41795 4.28078 11.17 
8.03027 4.33021 11.299 
8.3638 4.23249 11.044 
9.18969 4.3808 11.431 
8.23065 3.7086 9.677 
8.52419 3.56719 9.308 
9.24838 3.58443 9.353 
-0.448924 0.226643 0.589 
-0.419323 0.225488 0.586 
-0.392679 0.225873 0.587 
-0.362829 0.224334 0.583 
-0.333352 0.222795 0.579 
-0.306365 0.222795 0.579 
-0.278895 0.22241 0.578 
-0.250647 0.221256 0.575 
-0.223456 0.220871 0.574 
-0.196017 0.220101 0.572 
-0.169948 0.220871 0.574 
-0.142445 0.219717 0.571 
-0.115831 0.219717 0.571 
-0.0889036 0.218947 0.569 
-0.0620534 0.217793 0.566 
-0.035798 0.218562 0.568 
-0.00400718 0.217408 0.565 
0.0248286 0.216253 0.562 
0.0511144 0.216638 0.563 
0.077356 0.216638 0.563 
1.30319 2.5327 6.582 
3.59685 5.45059 14.165 
3.89043 4.98114 12.945 
3.62872 4.02224 10.453 
4.2061 4.11035 10.682 
4.86341 4.24965 11.044 
6.02488 4.76065 12.372 
7.2936 5.25973 13.669 
8.33918 5.53062 14.373 
8.50891 5.22356 13.575 
8.02647 4.58634 11.919 
7.81951 4.17885 10.86 
8.61242 4.32276 11.234 
8.73429 4.13267 10.74 
7.47046 3.34308 8.688 
8.58203 3.58165 9.308 
8.89456 3.45043 8.967 
-0.447093 0.227558 0.589 
-0.417502 0.226399 0.586 
-0.390189 0.226399 0.586 
-0.360398 0.224853 0.582 
-0.332126 0.224081 0.58 
-0.304566 0.223694 0.579 
-0.27662 0.222922 0.577 
-0.24886 0.222149 0.575 
-0.221287 0.221376 0.573 
-0.194239 0.22099 0.572 
-0.167871 0.221376 0.573 
-0.140424 0.220217 0.57 
-0.114056 0.220604 0.571 
-0.0869824 0.219445 0.568 
-0.0602947 0.218672 0.566 
-0.0339731 0.219058 0.567 
-0.00312935 0.218286 0.565 
0.0230412 0.21674 0.561 
0.0510236 0.217127 0.562 
0.077356 0.217513 0.563 
1.3119 2.55993 6.626 
4.48726 6.62468 17.147 
3.52422 4.41632 11.431 
3.63219 3.95387 10.234 
4.28909 4.12695 10.682 
5.00567 4.31549 11.17 
7.16391 5.59429 14.48 
7.83883 5.59429 14.48 
8.20918 5.39416 13.962 
8.325 5.06847 13.119 
8.59044 4.87221 12.611 
7.60766 4.03848 10.453 
8.85225 4.41632 11.431 
8.22988 3.87273 10.024 
7.94155 3.48021 9.008 
8.68165 3.6135 9.353 
-0.473519 0.228861 0.59 
-0.444507 0.228085 0.588 
-0.415682 0.227309 0.586 
-0.388368 0.227309 0.586 
-0.35859 0.225758 0.582 
-0.330323 0.224982 0.58 
-0.302767 0.224594 0.579 
-0.27435 0.22343 0.576 
-0.247073 0.223042 0.575 
-0.219123 0.221879 0.572 
-0.192125 0.221491 0.571 
-0.165801 0.221879 0.572 
-0.138653 0.221103 0.57 
-0.112085 0.221103 0.57 
-0.0850673 0.219939 0.567 
-0.0585359 0.219551 0.566 
-0.0321545 0.219551 0.566 
-0.00225551 0.219551 0.566 
0.0239128 0.217612 0.561 
0.0545162 0.218 0.562 
0.0809985 0.218775 0.564 
1.28345 2.43795 6.285 
4.98765 7.22153 18.617 
3.55375 4.38288 11.299 
3.67665 3.94921 10.181 
4.28493 4.07644 10.509 
5.22411 4.46007 11.498 
7.36937 5.53455 14.268 
8.73604 6.01788 15.514 
8.39337 5.33983 13.766 
7.59108 4.48645 11.566 
8.42963 4.65169 11.992 
8.14009 4.21259 10.86 
9.04834 4.40848 11.365 
8.15547 3.75371 9.677 
8.30726 3.61057 9.308 
8.86789 3.66294 9.443 
-0.472602 0.229778 0.59 
-0.443594 0.228999 0.588 
-0.414771 0.22822 0.586 
-0.387457 0.22822 0.586 
-0.357071 0.226272 0.581 
-0.329422 0.225883 0.58 
-0.301867 0.225494 0.579 
-0.273455 0.224325 0.576 
-0.24618 0.223936 0.575 
-0.217853 0.222378 0.571 
-0.191238 0.222378 0.571 
-0.164624 0.222378 0.571 
-0.137768 0.221988 0.57 
-0.1112 0.221988 0.57 
-0.0841864 0.22082 0.567 
-0.0576565 0.220431 0.566 
-0.0312198 0.220041 0.565 
-0.004885 0.220041 0.565 
0.02126 0.218094 0.56 
0.0518044 0.218483 0.561 
0.0780917 0.218873 0.562 
1.28773 2.45589 6.306 
4.55382 6.5066 16.707 
3.37245 4.11497 10.566 
3.72411 3.96503 10.181 
4.24277 4.0067 10.288 
5.24695 4.45184 11.431 
7.67181 5.76742 14.809 
8.76015 6.04198 15.514 
8.47405 5.39899 13.863 
7.74721 4.5862 11.776 
8.60677 4.75795 12.217 
8.34174 4.32527 11.106 
8.85939 4.32527 11.106 
8.17051 3.76874 9.677 
8.34743 3.64256 9.353 
8.86789 3.67761 9.443 
-0.475352 0.230694 0.59 
-0.445575 0.229521 0.587 
-0.417502 0.22913 0.586 
-0.389523 0.228739 0.585 
-0.359779 0.227175 0.581 
-0.332126 0.226784 0.58 
-0.303514 0.225611 0.577 
-0.275661 0.224829 0.575 
-0.248427 0.224438 0.574 
-0.2209 0.223656 0.572 
-0.19356 0.222874 0.57 
-0.167285 0.223265 0.571 
-0.140178 0.222483 0.569 
-0.113857 0.222874 0.57 
-0.0868292 0.221701 0.567 
-0.0601881 0.220919 0.565 
-0.0338533 0.220919 0.565 
-0.00751848 0.220919 0.565 
0.0186498 0.218964 0.56 
0.0474463 0.219355 0.561 
0.0734635 0.218964 0.56 
1.36643 2.71985 6.956 
4.56686 6.47742 16.566 
3.29829 4.00157 10.234 
3.73619 3.96012 10.128 
4.23028 3.98084 10.181 
5.25197 4.4438 11.365 
7.76604 5.87918 15.036 
8.73604 6.06608 15.514 
8.51287 5.45924 13.962 
7.82277 4.66041 11.919 
8.64192 4.80704 12.294 
8.27801 4.31828 11.044 
8.59851 4.22288 10.8 
8.15547 3.78378 9.677 
8.33289 3.65709 9.353 
8.89635 3.71027 9.489 
9.07435 3.58827 9.177 
-0.448311 0.230433 0.587 
-0.419517 0.229648 0.585 
-0.391579 0.229256 0.584 
-0.361863 0.227685 0.58 
-0.334829 0.227685 0.58 
-0.305672 0.226115 0.576 
-0.278341 0.225722 0.575 
-0.251102 0.22533 0.574 
-0.223957 0.224937 0.573 
-0.195873 0.223367 0.569 
-0.170244 0.224545 0.572 
-0.142579 0.222975 0.568 
-0.116718 0.224152 0.571 
-0.0896298 0.222975 0.568 
-0.0628216 0.221797 0.565 
-0.0364222 0.221404 0.564 
-0.010152 0.221797 0.565 
0.0160396 0.219834 0.56 
0.0448315 0.220227 0.561 
0.0706003 0.219049 0.558 
1.41456 2.89553 7.376 
6.12603 9.13528 23.271 
3.43036 4.23966 10.8 
3.6511 3.93503 10.024 
4.18283 3.99666 10.181 
5.199 4.46145 11.365 
7.61443 5.85779 14.922 
8.5043 5.9948 15.271 
8.4261 5.48093 13.962 
7.94243 4.79592 12.217 
8.72994 4.91879 12.53 
8.16329 4.3111 10.982 
8.39236 4.17057 10.624 
8.01586 3.76152 9.582 
7.88312 3.504 8.926 
8.77986 3.70695 9.443 
9.54067 3.81765 9.725 
-0.453783 0.231345 0.587 
-0.425697 0.230951 0.586 
-0.396343 0.229769 0.583 
-0.367903 0.228981 0.581 
-0.340236 0.228586 0.58 
-0.311042 0.22701 0.576 
-0.283701 0.226616 0.575 
-0.256453 0.226222 0.574 
-0.229299 0.225828 0.573 
-0.201177 0.224251 0.569 
-0.175577 0.225433 0.572 
-0.147353 0.223069 0.566 
-0.122468 0.225828 0.573 
-0.0950919 0.224251 0.569 
-0.0682091 0.223069 0.566 
-0.0417537 0.222675 0.565 
-0.0153916 0.222281 0.564 
0.0108193 0.220704 0.56 
0.0368551 0.22031 0.559 
0.0629103 0.22031 0.559 
1.41606 3.22346 8.179 
3.0651 4.97018 12.611 
4.29727 5.66461 14.373 
3.36088 3.83276 9.725 
4.03498 4.05465 10.288 
4.98711 4.47911 11.365 
10.2684 8.28389 21.019 
7.77134 5.70678 14.48 
8.20301 5.54243 14.063 
9.12117 5.70678 14.48 
8.47686 4.93825 12.53 
8.51565 4.64109 11.776 
8.5488 4.37704 11.106 
7.7464 3.73975 9.489 
6.9417 3.17026 8.044 
8.75832 3.79493 9.629 
8.98625 3.70389 9.398 
-0.469056 0.233049 0.589 
-0.440103 0.232257 0.587 
-0.41204 0.231862 0.586 
-0.38407 0.231466 0.585 
-0.354363 0.229883 0.581 
-0.326719 0.229488 0.58 
-0.298135 0.228301 0.577 
-0.26983 0.227114 0.574 
-0.242653 0.226718 0.573 
-0.214814 0.225531 0.57 
-0.188247 0.225531 0.57 
-0.161111 0.22474 0.568 
-0.135348 0.225927 0.571 
-0.108352 0.225135 0.569 
-0.0813998 0.223948 0.566 
-0.0548239 0.223157 0.564 
-0.0284851 0.222761 0.563 
-0.00225152 0.223553 0.565 
0.0238275 0.221179 0.559 
0.0497935 0.220783 0.558 
0.0759379 0.221179 0.559 
1.43221 2.90777 7.349 
6.34936 9.43194 23.838 
3.44942 4.29696 10.86 
3.59574 3.90604 9.872 
4.11833 3.96618 10.024 
5.199 4.49677 11.365 
7.97979 6.18746 15.638 
8.43859 5.99556 15.153 
8.73872 5.72928 14.48 
7.99249 4.86435 12.294 
8.51187 4.83388 12.217 
8.25546 4.39429 11.106 
8.00055 4.00733 10.128 
7.97654 3.7727 9.535 
7.74182 3.46843 8.766 
8.82263 3.7545 9.489 
9.44848 3.82888 9.677 
-0.457431 0.233169 0.587 
-0.429338 0.232772 0.586 
-0.400653 0.231978 0.584 
-0.372153 0.231183 0.582 
-0.34384 0.230389 0.58 
-0.314622 0.2288 0.576 
-0.287275 0.228403 0.575 
-0.259568 0.227608 0.573 
-0.23286 0.227608 0.573 
-0.204713 0.226019 0.569 
-0.178818 0.226814 0.571 
-0.150338 0.224033 0.564 
-0.126249 0.228005 0.574 
-0.098628 0.226019 0.569 
-0.0717266 0.224828 0.566 
-0.0452651 0.22443 0.565 
-0.0188632 0.223636 0.563 
0.00736526 0.223239 0.562 
0.0333811 0.222047 0.559 
0.0594363 0.222047 0.559 
2.15168 5.3184 13.389 
1.28353 2.30389 5.8 
4.77277 6.58038 16.566 
3.25512 3.86298 9.725 
3.78391 3.94163 9.923 
4.6474 4.31383 10.86 
9.33672 7.7645 19.547 
7.94419 6.0191 15.153 
8.58368 5.97263 15.036 
8.81028 5.66756 14.268 
7.91536 4.73449 11.919 
9.07998 5.07491 12.776 
8.65689 4.54064 11.431 
7.7796 3.84392 9.677 
7.523 3.51343 8.845 
8.51303 3.76924 9.489 
9.08744 3.82485 9.629 
9.17477 3.67986 9.264 
-0.448458 0.233682 0.586 
-0.420426 0.233284 0.585 
-0.391814 0.232486 0.583 
-0.362764 0.23129 0.58 
-0.335151 0.230891 0.579 
-0.305503 0.228897 0.574 
-0.278749 0.228897 0.574 
-0.251555 0.228498 0.573 
-0.224063 0.227701 0.571 
-0.196411 0.226505 0.568 
-0.170535 0.227302 0.57 
-0.142956 0.225707 0.566 
-0.117399 0.227302 0.57 
-0.0831586 0.225707 0.566 
-0.0564762 0.224511 0.563 
-0.0302346 0.224511 0.563 
-0.00399299 0.224511 0.563 
0.0220905 0.222916 0.559 
0.0480596 0.222517 0.558 
0.0739354 0.222118 0.557 
1.46442 3.04505 7.636 
5.11533 7.79487 19.547 
4.20632 5.41338 13.575 
3.50158 3.91717 9.823 
4.04046 3.99733 10.024 
5.08103 4.50576 11.299 
10.9002 8.75831 21.963 
7.97914 5.8608 14.697 
8.35054 5.64866 14.165 
8.94589 5.60798 14.063 
8.13758 4.75301 11.919 
8.05495 4.40408 11.044 
8.38037 4.30678 10.8 
7.69351 3.72975 9.353 
6.71529 3.08094 7.726 
8.81816 3.83981 9.629 
8.87334 3.67671 9.22 
-0.461991 0.234993 0.587 
-0.43315 0.234193 0.585 
-0.405189 0.233792 0.584 
-0.377322 0.233392 0.583 
-0.348346 0.232191 0.58 
-0.31965 0.23099 0.577 
-0.291741 0.230189 0.575 
-0.26448 0.229789 0.574 
-0.236483 0.228588 0.571 
-0.209133 0.227787 0.569 
-0.182933 0.228188 0.57 
-0.155268 0.226586 0.566 
-0.13048 0.229389 0.573 
-0.0984547 0.227387 0.568 
-0.0717266 0.226586 0.566 
-0.0451849 0.225786 0.564 
-0.0188632 0.225385 0.563 
0.00735216 0.224585 0.561 
0.0333811 0.223784 0.559 
0.0593299 0.223384 0.558 
2.22785 5.54976 13.863 
3.27831 5.43447 13.575 
4.85488 6.74595 16.851 
3.23905 3.87399 9.677 
3.72709 3.91282 9.774 
4.62172 4.32356 10.8 
9.00596 7.59745 18.978 
8.21553 6.31079 15.764 
8.60339 6.06619 15.153 
8.8962 5.79677 14.48 
7.46851 4.52332 11.299 
8.75441 4.95287 12.372 
8.6719 4.60299 11.498 
7.59898 3.79872 9.489 
7.36247 3.47806 8.688 
8.48355 3.79872 9.489 
9.05752 3.85477 9.629 
9.41353 3.81714 9.535 
-0.445875 0.235102 0.585 
-0.418608 0.235102 0.585 
-0.390003 0.234298 0.583 
-0.360962 0.233092 0.58 
-0.333352 0.23269 0.579 
-0.303719 0.230681 0.574 
-0.276482 0.230279 0.573 
-0.249339 0.229877 0.572 
-0.221899 0.229073 0.57 
-0.194646 0.228269 0.568 
-0.168467 0.228671 0.569 
-0.141447 0.227868 0.567 
-0.114339 0.228269 0.568 
-0.0877101 0.227868 0.567 
-0.0608498 0.22626 0.563 
-0.0345467 0.225858 0.562 
-0.00835173 0.225858 0.562 
0.0177798 0.225054 0.56 
0.0438032 0.224653 0.559 
0.0692335 0.222643 0.554 
1.46855 3.1805 7.914 
4.07635 6.33528 15.764 
4.55414 5.9969 14.922 
3.42132 3.90831 9.725 
3.91365 3.9477 9.823 
5.08711 4.59392 11.431 
10.832 8.82655 21.963 
7.81633 5.81926 14.48 
8.36693 5.73407 14.268 
8.65278 5.49334 13.669 
7.76888 4.59392 11.431 
8.15861 4.51475 11.234 
8.53539 4.4384 11.044 
7.59151 3.72304 9.264 
6.74498 3.12986 7.788 
8.87585 3.90831 9.725 
8.8869 3.72304 9.264 
-0.463936 0.236414 0.586 
-0.435132 0.235607 0.584 
-0.407213 0.235204 0.583 
-0.379387 0.2348 0.582 
-0.35105 0.233993 0.58 
-0.32234 0.232783 0.577 
-0.293909 0.231573 0.574 
-0.26669 0.231169 0.573 
-0.238725 0.229959 0.57 
-0.211413 0.229152 0.568 
-0.185264 0.229555 0.569 
-0.158185 0.228749 0.567 
-0.132454 0.229959 0.57 
-0.103567 0.228749 0.567 
-0.0768668 0.227942 0.565 
-0.0503531 0.227135 0.563 
-0.0214492 0.226731 0.562 
0.00473732 0.226328 0.561 
0.0307205 0.225118 0.558 
0.0592236 0.224714 0.557 
2.23814 5.67353 14.063 
3.4235 5.75623 14.268 
4.95707 6.97905 17.299 
3.24001 3.92342 9.725 
3.65684 3.88469 9.629 
4.5299 4.28611 10.624 
8.97647 7.65642 18.978 
8.6335 6.68333 16.566 
8.53696 6.06607 15.036 
8.8962 5.84176 14.48 
7.25898 4.43054 10.982 
8.64474 4.92878 12.217 
8.6719 4.63871 11.498 
7.59898 3.82821 9.489 
7.10909 3.38443 8.389 
8.48355 3.82821 9.489 
9.05752 3.88469 9.629 
9.45993 3.86573 9.582 
-0.44602 0.236514 0.584 
-0.4188 0.236514 0.584 
-0.390238 0.235704 0.582 
-0.361863 0.234894 0.58 
-0.333675 0.234084 0.578 
-0.30408 0.232059 0.573 
-0.276405 0.231249 0.571 
-0.250228 0.231654 0.572 
-0.222394 0.230439 0.569 
-0.195528 0.230034 0.568 
-0.169351 0.230439 0.569 
-0.142328 0.229629 0.567 
-0.116104 0.230034 0.568 
-0.0896298 0.230034 0.568 
-0.0627104 0.228414 0.564 
-0.0362285 0.2272 0.561 
-0.0100801 0.2272 0.561 
0.016011 0.22639 0.559 
0.0419156 0.22558 0.557 
0.0736699 0.22477 0.555 
1.25809 2.33517 5.766 
5.27531 7.83818 19.354 
3.48544 4.42249 10.92 
3.59316 3.97822 9.823 
4.05101 3.97822 9.823 
6.06261 5.34911 13.208 
10.1893 8.16136 20.152 
7.93722 5.82092 14.373 
8.67122 5.86426 14.48 
8.13979 5.10733 12.611 
8.19886 4.79792 11.847 
7.97766 4.37389 10.8 
7.95334 4.10174 10.128 
7.74326 3.76965 9.308 
7.03769 3.24438 8.011 
8.69422 3.8061 9.398 
8.95929 3.73401 9.22 
-0.455873 0.237828 0.585 
-0.42714 0.237015 0.583 
-0.399281 0.236609 0.582 
-0.370874 0.235795 0.58 
-0.342655 0.234982 0.578 
-0.314075 0.233763 0.575 
-0.286275 0.23295 0.573 
-0.259568 0.23295 0.573 
-0.231641 0.23173 0.57 
-0.204713 0.231323 0.569 
-0.178192 0.231323 0.569 
-0.150338 0.229291 0.564 
-0.124929 0.230917 0.568 
-0.0977614 0.229291 0.564 
-0.0715999 0.229697 0.565 
-0.0449446 0.228071 0.561 
-0.0188297 0.228478 0.562 
0.00733905 0.227665 0.56 
0.0333214 0.226852 0.558 
0.0667716 0.225632 0.555 
2.18654 5.22816 12.86 
3.61886 5.75869 14.165 
4.72407 6.35753 15.638 
3.37437 3.93413 9.677 
3.71512 3.8207 9.398 
4.96453 4.56711 11.234 
11.1038 9.24034 22.729 
7.58027 5.75869 14.165 
8.48658 5.93066 14.588 
8.53001 5.51883 13.575 
7.45439 4.48987 11.044 
8.34582 4.70209 11.566 
8.62987 4.56711 11.234 
7.58418 3.78411 9.308 
6.98692 3.29748 8.111 
8.70068 3.8955 9.582 
9.0146 3.83899 9.443 
-0.468704 0.238329 0.584 
-0.441483 0.238329 0.584 
-0.412844 0.237513 0.582 
-0.384391 0.236697 0.58 
-0.356741 0.236289 0.579 
-0.328615 0.235472 0.577 
-0.299629 0.23384 0.573 
-0.271493 0.232616 0.57 
-0.244495 0.232208 0.569 
-0.217208 0.231391 0.567 
-0.19078 0.231391 0.567 
-0.164351 0.231391 0.567 
-0.138167 0.231799 0.568 
-0.111692 0.231799 0.568 
-0.0850673 0.231391 0.567 
-0.0582256 0.229759 0.563 
-0.0318704 0.228943 0.561 
-0.00570163 0.228127 0.559 
0.0203535 0.228127 0.559 
0.0528795 0.226086 0.554 
0.0789857 0.226902 0.556 
3.75077 6.59282 16.155 
5.39559 7.89832 19.354 
3.24516 4.06996 9.973 
3.59989 3.94916 9.677 
4.28411 4.17647 10.234 
6.73646 5.90925 14.48 
9.61562 7.59755 18.617 
8.03441 5.82274 14.268 
8.69944 5.82274 14.268 
7.24848 4.50703 11.044 
8.98073 5.21386 12.776 
8.37245 4.55845 11.17 
7.70442 3.94916 9.677 
7.28911 3.52964 8.649 
8.27834 3.79857 9.308 
8.8816 3.87244 9.489 
9.27869 3.85367 9.443 
-0.454186 0.239236 0.584 
-0.426235 0.238827 0.583 
-0.398376 0.238417 0.582 
-0.369973 0.237598 0.58 
-0.340574 0.235959 0.576 
-0.312637 0.23514 0.574 
-0.285385 0.23473 0.573 
-0.258226 0.234321 0.572 
-0.230755 0.233501 0.57 
-0.203471 0.232682 0.568 
-0.177308 0.233092 0.569 
-0.149461 0.231043 0.564 
-0.123828 0.232272 0.567 
-0.0967133 0.230634 0.563 
-0.0704717 0.230634 0.563 
-0.044073 0.229814 0.561 
-0.0179566 0.230224 0.562 
0.00820911 0.229405 0.56 
0.0341883 0.228585 0.558 
0.0659093 0.227356 0.555 
2.28702 5.56102 13.575 
3.62301 5.8449 14.268 
4.85515 6.61792 16.155 
3.34267 3.94453 9.629 
3.59657 3.74175 9.134 
4.86341 4.52419 11.044 
10.3078 8.42898 20.576 
7.98795 5.97599 14.588 
8.41657 5.80271 14.165 
8.24057 5.26812 12.86 
8.29418 4.94285 12.066 
8.24588 4.60202 11.234 
8.29332 4.35214 10.624 
7.77433 3.8499 9.398 
7.39445 3.46647 8.462 
8.48657 3.77698 9.22 
8.55367 3.62337 8.845 
-0.46326 0.240144 0.584 
-0.435292 0.239732 0.583 
-0.406719 0.23891 0.581 
-0.378985 0.238499 0.58 
-0.35013 0.237265 0.577 
-0.322116 0.236443 0.575 
-0.294288 0.23562 0.573 
-0.266646 0.234798 0.571 
-0.239191 0.233976 0.569 
-0.211174 0.232331 0.565 
-0.185821 0.233564 0.568 
-0.158224 0.23192 0.564 
-0.132638 0.233153 0.567 
-0.105835 0.232331 0.565 
-0.0792189 0.231508 0.563 
-0.0527891 0.230686 0.561 
-0.0265932 0.230275 0.56 
-0.000490602 0.229864 0.559 
0.0255188 0.229452 0.558 
0.0509733 0.226985 0.552 
0.077258 0.22863 0.556 
2.46762 5.4682 13.298 
3.72183 5.95425 14.48 
4.78663 6.48223 15.764 
3.35613 3.94017 9.582 
3.59161 3.7214 9.05 
5.04008 4.67334 11.365 
9.92213 8.11924 19.745 
7.95131 5.95425 14.48 
8.43857 5.82472 14.165 
8.20659 5.25355 12.776 
8.52375 5.08743 12.372 
8.50755 4.756 11.566 
8.26447 4.34479 10.566 
7.78893 3.8645 9.398 
7.67372 3.60462 8.766 
8.5009 3.79131 9.22 
8.52867 3.62066 8.805 
-0.462352 0.241051 0.584 
-0.433642 0.240226 0.582 
-0.405816 0.239813 0.581 
-0.377432 0.238987 0.579 
-0.348629 0.237749 0.576 
-0.321222 0.237336 0.575 
-0.292885 0.236098 0.572 
-0.265759 0.235685 0.571 
-0.238307 0.23486 0.569 
-0.210297 0.233209 0.565 
-0.184939 0.234447 0.568 
-0.157348 0.232796 0.564 
-0.131757 0.234034 0.567 
-0.104772 0.232796 0.564 
-0.078205 0.23197 0.562 
-0.0519175 0.231558 0.561 
-0.0257232 0.231145 0.56 
0.000377904 0.230732 0.559 
0.0263858 0.230319 0.558 
0.0518309 0.227843 0.552 
0.0781219 0.229494 0.556 
2.52961 5.48886 13.298 
3.70911 6.06631 14.697 
4.99509 6.89596 16.707 
3.29522 3.93565 9.535 
3.5008 3.68428 8.926 
4.79184 4.50732 10.92 
11.8308 9.83934 23.838 
8.03994 6.11254 14.809 
8.53624 5.97675 14.48 
8.2347 5.34316 12.945 
8.13758 4.91967 11.919 
8.74637 4.9498 11.992 
8.61782 4.5841 11.106 
7.80538 3.91667 9.489 
7.72267 3.66736 8.885 
8.36484 3.77014 9.134 
8.5904 3.68428 8.926 
-0.465982 0.241958 0.584 
-0.437259 0.24113 0.582 
-0.408722 0.240301 0.58 
-0.38103 0.239887 0.579 
-0.352208 0.238644 0.576 
-0.324796 0.23823 0.575 
-0.29644 0.236987 0.572 
-0.268364 0.235744 0.569 
-0.241843 0.235744 0.569 
-0.213429 0.233672 0.564 
-0.188137 0.234915 0.567 
-0.160568 0.233258 0.563 
-0.135281 0.234915 0.567 
-0.108661 0.234501 0.566 
-0.0818431 0.233258 0.563 
-0.0553052 0.232015 0.56 
-0.0292034 0.232015 0.56 
-0.00309058 0.231186 0.558 
0.022918 0.231186 0.558 
0.0484004 0.2287 0.552 
0.0745322 0.229943 0.555 
2.52961 5.50952 13.298 
4.0521 6.8635 16.566 
5.32018 7.56907 18.269 
3.25291 3.98941 9.629 
3.51142 3.78433 9.134 
4.62942 4.44971 10.74 
14.8737 12.6543 30.543 
8.41147 6.53122 15.764 
8.72385 6.2296 15.036 
8.8148 5.82647 14.063 
7.47898 4.60135 11.106 
9.32077 5.36327 12.945 
8.61242 4.65438 11.234 
7.79255 3.96994 9.582 
7.74561 3.73213 9.008 
8.24162 3.76693 9.092 
8.74641 3.80214 9.177 
-0.469811 0.242034 0.582 
-0.441923 0.241618 0.581 
-0.414129 0.241202 0.58 
-0.387095 0.241202 0.58 
-0.356957 0.239123 0.575 
-0.330156 0.239123 0.575 
-0.3023 0.238291 0.573 
-0.273668 0.236628 0.569 
-0.247147 0.236628 0.569 
-0.219075 0.234964 0.565 
-0.193422 0.235796 0.567 
-0.166405 0.234964 0.565 
-0.140318 0.23538 0.566 
-0.114339 0.236212 0.568 
-0.0874008 0.234964 0.565 
-0.0606336 0.233301 0.561 
-0.0344238 0.232885 0.56 
-0.00827743 0.231637 0.557 
0.0177163 0.232053 0.558 
0.043333 0.229974 0.553 
0.0692335 0.23039 0.554 
2.4263 5.53019 13.298 
3.98109 7.13085 17.147 
5.6766 8.46786 20.362 
3.29559 4.21189 10.128 
3.54707 3.96528 9.535 
4.51261 4.4664 10.74 
6.08306 5.41957 13.032 
9.66797 7.66898 18.441 
8.5186 6.20555 14.922 
9.00788 6.06665 14.588 
7.31016 4.56704 10.982 
9.87406 5.76515 13.863 
8.47658 4.64522 11.17 
7.75597 4.00437 9.629 
7.783 3.79852 9.134 
8.13324 3.76359 9.05 
8.8415 3.88959 9.353 
9.55121 4.00437 9.629 
-0.444631 0.242521 0.581 
-0.417551 0.242521 0.581 
-0.389798 0.242103 0.58 
-0.359012 0.239599 0.574 
-0.332257 0.239599 0.574 
-0.304971 0.239181 0.573 
-0.27632 0.237512 0.569 
-0.249799 0.237512 0.569 
-0.222101 0.23626 0.566 
-0.196065 0.236677 0.567 
-0.169338 0.23626 0.566 
-0.142704 0.235842 0.565 
-0.116987 0.237094 0.568 
-0.0898749 0.235425 0.564 
-0.0631357 0.233755 0.56 
-0.0370339 0.233755 0.56 
-0.0108931 0.23292 0.558 
0.0150883 0.232503 0.557 
0.0407555 0.230833 0.553 
0.0666513 0.23125 0.554 
2.4013 5.58883 13.389 
3.79472 6.91497 16.566 
5.55544 8.41184 20.152 
3.46136 4.48309 10.74 
3.58753 4.05941 9.725 
4.3829 4.38666 10.509 
5.92387 5.33295 12.776 
10.2596 8.24195 19.745 
8.32165 6.13482 14.697 
9.21443 6.27632 15.036 
7.2828 4.60998 11.044 
9.92911 5.87017 14.063 
8.60361 4.77152 11.431 
7.81202 4.07986 9.774 
7.94954 3.92291 9.398 
8.30726 3.88534 9.308 
8.82563 3.92291 9.398 
9.26367 3.92291 9.398 
-0.44734 0.243424 0.581 
-0.420259 0.243424 0.581 
-0.391825 0.242586 0.579 
-0.361687 0.240491 0.574 
-0.334349 0.240072 0.573 
-0.307641 0.240072 0.573 
-0.278973 0.238396 0.569 
-0.252451 0.238396 0.569 
-0.225136 0.237558 0.567 
-0.198708 0.237558 0.567 
-0.17228 0.237558 0.567 
-0.145337 0.23672 0.565 
-0.119634 0.237977 0.568 
-0.0921757 0.235463 0.562 
-0.0657459 0.234625 0.56 
-0.0395733 0.234206 0.559 
-0.012627 0.233787 0.558 
0.0133575 0.233368 0.557 
0.0390371 0.231692 0.553 
0.0648126 0.231692 0.553 
2.22111 5.42361 12.945 
3.25242 6.15765 14.697 
4.55391 7.12171 16.998 
4.21109 5.60963 13.389 
3.56507 4.13611 9.872 
3.83193 3.93751 9.398 
5.73194 5.24974 12.53 
9.47099 7.80003 18.617 
8.0413 6.06673 14.48 
9.41328 6.55191 15.638 
7.45713 4.81736 11.498 
9.50227 5.72695 13.669 
9.1773 5.18354 12.372 
7.98481 4.24336 10.128 
8.20221 4.11558 9.823 
8.57366 4.07452 9.725 
8.85059 3.99491 9.535 
8.86316 3.80931 9.092 
-0.452878 0.243906 0.58 
-0.425844 0.243906 0.58 
-0.397434 0.243065 0.578 
-0.368571 0.241803 0.575 
-0.340581 0.240962 0.573 
-0.313873 0.240962 0.573 
-0.285662 0.2397 0.57 
-0.259094 0.2397 0.57 
-0.232118 0.23928 0.569 
-0.204874 0.238439 0.567 
-0.178761 0.238859 0.568 
-0.150946 0.236757 0.563 
-0.12559 0.238439 0.567 
-0.098113 0.235916 0.561 
-0.071708 0.235075 0.559 
-0.0456529 0.235075 0.559 
-0.0195627 0.234654 0.558 
0.00817979 0.234654 0.558 
0.0339433 0.232972 0.554 
0.0595496 0.232131 0.552 
2.06021 5.44372 12.945 
2.77387 5.66912 13.481 
3.78907 6.2751 14.922 
5.06433 7.0863 16.851 
3.29407 3.99038 9.489 
3.4056 3.63714 8.649 
5.32746 4.98198 11.847 
11.5855 9.78608 23.271 
8.18654 6.32304 15.036 
9.39333 6.68302 15.892 
7.9398 5.23598 12.451 
9.03815 5.55432 13.208 
9.92202 5.70865 13.575 
8.26031 4.46768 10.624 
8.26102 4.21536 10.024 
8.4261 4.06944 9.677 
8.57993 3.93319 9.353 
8.68331 3.78811 9.008 
-0.459185 0.244807 0.58 
-0.432151 0.244807 0.58 
-0.403022 0.243541 0.577 
-0.376128 0.243541 0.577 
-0.346813 0.241852 0.573 
-0.320105 0.241852 0.573 
-0.290837 0.239742 0.568 
-0.264828 0.240164 0.569 
-0.237888 0.239742 0.568 
-0.209552 0.237631 0.563 
-0.184613 0.23932 0.567 
-0.15679 0.237209 0.562 
-0.131292 0.238476 0.565 
-0.104586 0.237631 0.563 
-0.0779267 0.236365 0.56 
-0.0516399 0.235521 0.558 
-0.0256773 0.235943 0.559 
0.000376552 0.235099 0.557 
0.0263385 0.235099 0.557 
0.0516431 0.232144 0.55 
0.0777003 0.233411 0.553 
2.54692 5.65124 13.389 
4.52414 8.01025 18.978 
5.46172 8.08875 19.164 
3.29056 4.18831 9.923 
3.47092 3.87343 9.177 
4.91217 4.74165 11.234 
13.9093 12.1331 28.746 
9.34175 7.43284 17.61 
9.32289 6.81871 16.155 
8.83472 5.97877 14.165 
7.84599 4.94045 11.705 
10.6169 6.25059 14.809 
8.33776 4.60912 10.92 
7.91832 4.12542 9.774 
8.33191 4.10473 9.725 
8.10045 3.7848 8.967 
8.75875 3.89158 9.22 
-0.46649 0.245284 0.579 
-0.440262 0.245708 0.58 
-0.411803 0.244861 0.578 
-0.384862 0.244861 0.578 
-0.353587 0.241895 0.571 
-0.327545 0.242319 0.572 
-0.299832 0.241472 0.57 
-0.272305 0.240624 0.568 
-0.24583 0.240624 0.568 
-0.217811 0.23893 0.564 
-0.191862 0.239353 0.565 
-0.164941 0.238506 0.563 
-0.138946 0.23893 0.564 
-0.112858 0.239353 0.565 
-0.0860635 0.238083 0.562 
-0.059549 0.236812 0.559 
-0.0334938 0.236812 0.559 
-0.00738541 0.235117 0.555 
0.0185166 0.235541 0.556 
0.0441123 0.233846 0.552 
0.0699677 0.23427 0.553 
2.40904 5.79066 13.669 
3.45405 6.52058 15.392 
4.52786 7.07766 16.707 
3.95476 5.27467 12.451 
3.6511 4.24651 10.024 
4.66548 4.65235 10.982 
8.01354 7.20094 16.998 
10.6594 8.7167 20.576 
8.49024 6.36977 15.036 
9.95699 6.90058 16.289 
7.60905 4.89976 11.566 
10.5124 6.32147 14.922 
8.79165 4.95864 11.705 
7.99627 4.24651 10.024 
8.25241 4.1406 9.774 
8.41308 4.00038 9.443 
8.81103 3.98132 9.398 
9.29336 4.00038 9.443 
-0.448372 0.246609 0.58 
-0.420611 0.246184 0.579 
-0.392944 0.245759 0.578 
-0.362837 0.243633 0.573 
-0.335543 0.243208 0.572 
-0.308882 0.243208 0.572 
-0.280247 0.241507 0.568 
-0.253773 0.241507 0.568 
-0.226898 0.241082 0.567 
-0.200116 0.240656 0.566 
-0.173735 0.240656 0.566 
-0.146572 0.239381 0.563 
-0.120972 0.240656 0.566 
-0.0935878 0.238105 0.56 
-0.0676065 0.238531 0.561 
-0.0412364 0.237255 0.558 
-0.0126044 0.23683 0.557 
0.0133335 0.236405 0.556 
0.0388959 0.234279 0.551 
0.0646954 0.234704 0.552 
2.16077 5.50406 12.945 
2.93998 5.8119 13.669 
3.6802 5.97942 14.063 
4.74542 6.54449 15.392 
3.45154 4.13495 9.725 
4.18666 4.28419 10.076 
5.54172 5.09886 11.992 
10.2519 8.56839 20.152 
8.0413 6.15672 14.48 
10.2319 7.22735 16.998 
7.50124 4.91773 11.566 
9.84708 6.02279 14.165 
9.00595 5.16221 12.141 
8.05824 4.32884 10.181 
8.31654 4.21914 9.923 
8.56142 4.11454 9.677 
9.01246 4.11454 9.677 
8.97454 3.90195 9.177 
-0.451197 0.247083 0.579 
-0.423477 0.246657 0.578 
-0.39585 0.24623 0.577 
-0.367677 0.245376 0.575 
-0.339691 0.244523 0.573 
-0.312437 0.244096 0.572 
-0.283777 0.242389 0.568 
-0.257303 0.242389 0.568 
-0.230422 0.241963 0.567 
-0.203274 0.241109 0.565 
-0.177252 0.241536 0.566 
-0.149805 0.239829 0.562 
-0.124489 0.241536 0.566 
-0.097068 0.238975 0.56 
-0.071093 0.239402 0.561 
-0.0447043 0.238122 0.558 
-0.0152006 0.237695 0.557 
0.0116059 0.237268 0.556 
0.0371838 0.235135 0.551 
0.0646954 0.235561 0.552 
2.18982 5.59842 13.119 
2.96084 5.87453 13.766 
3.65377 5.95817 13.962 
4.78303 6.62047 15.514 
3.46893 4.17097 9.774 
3.81007 4.04935 9.489 
5.09859 4.82175 11.299 
11.8678 10.1727 23.838 
8.12447 6.36784 14.922 
9.96017 7.19102 16.851 
7.9398 5.31336 12.451 
9.16201 5.71364 13.389 
9.52514 5.5613 13.032 
8.04183 4.41379 10.343 
8.26102 4.27766 10.024 
8.30246 4.06898 9.535 
8.66249 4.02972 9.443 
8.76428 3.87994 9.092 
-0.457602 0.247555 0.578 
-0.430661 0.247555 0.578 
-0.401625 0.24627 0.575 
-0.376128 0.247126 0.577 
-0.345602 0.244557 0.571 
-0.319546 0.244985 0.572 
-0.290325 0.242843 0.567 
-0.263897 0.242843 0.567 
-0.237469 0.242843 0.567 
-0.209552 0.24113 0.563 
-0.183962 0.241987 0.565 
-0.15679 0.240702 0.562 
-0.13106 0.241559 0.564 
-0.1044 0.240702 0.562 
-0.0779267 0.239845 0.56 
-0.0516399 0.238989 0.558 
-0.0256313 0.238989 0.558 
0.0003752 0.237704 0.555 
0.027155 0.238132 0.556 
0.0560174 0.235991 0.551 
0.081848 0.236419 0.552 
2.72557 5.89591 13.766 
4.37421 7.61081 17.77 
5.20247 7.61081 17.77 
3.2668 4.10393 9.582 
3.5398 3.91205 9.134 
4.97096 4.78406 11.17 
12.4807 10.8727 25.386 
8.48494 6.75165 15.764 
9.85545 7.21721 16.851 
8.39727 5.69547 13.298 
8.95607 5.65693 13.208 
9.90578 5.85437 13.669 
7.89348 4.38317 10.234 
8.28571 4.24998 9.923 
8.3656 4.0641 9.489 
9.11791 4.20715 9.823 
8.70134 3.82296 8.926 
-0.453112 0.248453 0.578 
-0.425434 0.248023 0.577 
-0.397158 0.247163 0.575 
-0.371001 0.247593 0.576 
-0.341764 0.245874 0.572 
-0.315103 0.245874 0.572 
-0.28592 0.243724 0.567 
-0.25995 0.244154 0.568 
-0.233064 0.243724 0.567 
-0.205179 0.242005 0.563 
-0.179573 0.242865 0.565 
-0.152424 0.241575 0.562 
-0.126903 0.242865 0.565 
-0.0996782 0.240715 0.56 
-0.0735764 0.240715 0.56 
-0.0473051 0.239856 0.558 
-0.0212966 0.239856 0.558 
0.00467821 0.238136 0.554 
0.0330228 0.237707 0.553 
0.0594417 0.236847 0.551 
2.19087 5.9173 13.766 
2.79321 5.8352 13.575 
3.81802 6.46321 15.036 
5.06433 7.24339 16.851 
3.31004 4.09861 9.535 
3.77297 4.11881 9.582 
4.86341 4.74725 11.044 
12.9045 11.3545 26.415 
8.71691 7.00181 16.289 
9.80309 7.24339 16.851 
8.47094 5.7948 13.481 
8.79623 5.60179 13.032 
9.9333 5.9173 13.766 
7.7403 4.33116 10.076 
7.62085 4.02038 9.353 
8.17305 4.02038 9.353 
8.90722 4.15965 9.677 
8.59235 3.81921 8.885 
-0.45681 0.248919 0.577 
-0.430661 0.249351 0.578 
-0.400927 0.247625 0.574 
-0.37678 0.249351 0.578 
-0.344997 0.2459 0.57 
-0.319546 0.246762 0.572 
-0.289813 0.244174 0.566 
-0.263897 0.244605 0.567 
-0.23705 0.244174 0.566 
-0.208808 0.242017 0.561 
-0.183962 0.243743 0.565 
-0.15679 0.242448 0.562 
-0.130827 0.24288 0.563 
-0.104028 0.241586 0.56 
-0.0777876 0.241154 0.559 
-0.0516399 0.240723 0.558 
-0.0256313 0.240723 0.558 
0.000374523 0.238997 0.554 
0.0262439 0.239429 0.555 
0.0518309 0.238134 0.552 
0.0775598 0.238134 0.552 
2.67513 6.06682 14.063 
4.48075 8.10865 18.796 
4.97408 7.52927 17.453 
3.30714 4.30238 9.973 
3.75307 4.28081 9.923 
4.46454 4.53361 10.509 
7.70459 7.02712 16.289 
9.85409 8.10865 18.796 
8.99928 6.80063 15.764 
8.62133 6.02324 13.962 
8.06279 5.23766 12.141 
10.5248 6.38864 14.809 
7.87458 4.48573 10.398 
7.51913 4.03491 9.353 
8.18394 4.11343 9.535 
8.07728 3.8507 8.926 
8.61131 3.90419 9.05 
-0.465684 0.250249 0.578 
-0.439503 0.250682 0.579 
-0.409665 0.24895 0.575 
-0.385528 0.250682 0.579 
-0.353587 0.247218 0.571 
-0.326972 0.247218 0.571 
-0.29878 0.245919 0.568 
-0.271825 0.245486 0.567 
-0.244532 0.24462 0.565 
-0.216652 0.242889 0.561 
-0.191523 0.244187 0.564 
-0.164941 0.243754 0.563 
-0.138207 0.242889 0.561 
-0.111859 0.242456 0.56 
-0.0856041 0.242023 0.559 
-0.059549 0.242023 0.559 
-0.0334339 0.24159 0.558 
-0.00737211 0.239858 0.554 
0.0184833 0.240291 0.555 
0.0441123 0.238992 0.552 
0.0695881 0.238126 0.55 
2.69413 6.56059 15.153 
3.40042 6.56059 15.153 
3.92431 6.26921 14.48 
4.11167 5.60462 12.945 
4.00004 4.75473 10.982 
4.38866 4.62484 10.682 
5.10979 4.83612 11.17 
9.93614 8.37944 19.354 
8.23031 6.36316 14.697 
9.12099 6.50993 15.036 
7.60022 5.03745 11.635 
9.98518 6.17742 14.268 
8.24369 4.78157 11.044 
7.75128 4.23172 9.774 
8.00617 4.12824 9.535 
7.83907 3.8295 8.845 
8.89503 4.12824 9.535 
8.50983 3.76153 8.688 
-0.449398 0.251581 0.579 
-0.419492 0.249843 0.575 
-0.393374 0.250278 0.576 
-0.366527 0.250278 0.576 
-0.336731 0.248105 0.571 
-0.309573 0.247671 0.57 
-0.281516 0.246367 0.567 
-0.255088 0.246367 0.567 
-0.227853 0.245498 0.565 
-0.200805 0.244629 0.563 
-0.174873 0.245064 0.564 
-0.147531 0.243326 0.56 
-0.121647 0.24376 0.561 
-0.0949874 0.242457 0.558 
-0.0692261 0.243326 0.56 
-0.0429703 0.242457 0.558 
-0.0169314 0.242022 0.557 
0.00898189 0.240719 0.554 
0.0346784 0.23985 0.552 
0.0604072 0.23985 0.552 
2.3217 6.33863 14.588 
2.83251 5.98147 13.766 
4.01069 6.90523 15.892 
4.91108 7.13726 16.426 
3.55545 4.47024 10.288 
4.12166 4.56627 10.509 
4.6874 4.64144 10.682 
11.6517 10.2331 23.551 
8.13982 6.53329 15.036 
9.34395 6.90523 15.892 
8.2698 5.66254 13.032 
8.76006 5.5878 12.86 
8.94753 5.34187 12.294 
7.20818 4.04442 9.308 
7.2619 3.84324 8.845 
8.11492 4.06397 9.353 
8.6752 4.12307 9.489 
8.4987 3.84324 8.845 
-0.461194 0.252045 0.578 
-0.434253 0.252045 0.578 
-0.403789 0.249865 0.573 
-0.381688 0.252917 0.58 
-0.348539 0.248556 0.57 
-0.322536 0.248992 0.571 
-0.293849 0.247248 0.567 
-0.267421 0.247248 0.567 
-0.239718 0.24594 0.564 
-0.211916 0.244196 0.56 
-0.187141 0.24594 0.564 
-0.160283 0.245068 0.562 
-0.133372 0.24376 0.559 
-0.107317 0.24376 0.559 
-0.0811162 0.243324 0.558 
-0.0551077 0.243324 0.558 
-0.0281816 0.242888 0.557 
0.00209221 0.241143 0.553 
0.0278677 0.241143 0.553 
0.0535462 0.240707 0.552 
0.0791315 0.240271 0.551 
2.74068 6.13237 14.063 
4.45343 8.04145 18.441 
4.85488 7.34811 16.851 
3.51754 4.58259 10.509 
4.09545 4.68333 10.74 
4.44969 4.53419 10.398 
15.7134 14.2065 32.579 
9.23135 7.61062 17.453 
9.07275 6.87411 15.764 
8.32992 5.83846 13.389 
8.1702 5.32739 12.217 
9.64387 5.87858 13.481 
7.02543 4.02051 9.22 
6.99348 3.77152 8.649 
7.99867 4.0785 9.353 
8.23712 3.98301 9.134 
8.70364 4.00176 9.177 
9.00501 3.94638 9.05 
-0.436804 0.253381 0.579 
-0.40557 0.250755 0.573 
-0.382829 0.253381 0.579 
-0.350311 0.249442 0.57 
-0.323743 0.249442 0.57 
-0.295611 0.248129 0.567 
-0.269183 0.248129 0.567 
-0.24147 0.246816 0.564 
-0.213656 0.245066 0.56 
-0.188894 0.246816 0.564 
-0.162029 0.245941 0.562 
-0.134867 0.244191 0.558 
-0.108859 0.244191 0.558 
-0.0828501 0.244191 0.558 
-0.0567397 0.243753 0.557 
-0.0272671 0.243315 0.556 
0.00381058 0.242002 0.553 
0.0295326 0.241565 0.552 
0.0552615 0.241565 0.552 
0.0808436 0.241127 0.551 
2.76438 6.11001 13.962 
4.51073 8.0701 18.441 
4.95005 7.43862 16.998 
3.6485 4.72627 10.8 
4.24569 4.83305 11.044 
4.45829 4.52628 10.343 
13.2631 11.8809 27.149 
8.79022 7.1883 16.426 
9.09742 6.84346 15.638 
8.47094 5.89952 13.481 
8.24613 5.34637 12.217 
9.27954 5.62776 12.86 
6.76393 3.85322 8.805 
6.89486 3.70312 8.462 
8.09556 4.11273 9.398 
8.57446 4.13242 9.443 
8.67953 3.97882 9.092 
-14.9609 6.70658 15.271 
-0.433355 0.253841 0.578 
-0.402196 0.251206 0.572 
-0.38013 0.25428 0.579 
-0.347654 0.250328 0.57 
-0.321086 0.250328 0.57 
-0.292451 0.248571 0.566 
-0.26701 0.249449 0.568 
-0.238418 0.247253 0.563 
-0.211423 0.246375 0.561 
-0.186265 0.247693 0.564 
-0.159409 0.246814 0.562 
-0.132029 0.244618 0.557 
-0.106258 0.245057 0.558 
-0.0801054 0.244618 0.557 
-0.0542407 0.245057 0.558 
-0.028131 0.244179 0.556 
-0.00219972 0.242422 0.552 
0.024431 0.242862 0.553 
0.0501157 0.242422 0.552 
0.0755698 0.241544 0.55 
2.65328 6.17606 14.063 
4.25835 7.94856 18.099 
4.51647 7.0364 16.022 
3.58724 4.79575 10.92 
4.31304 5.04959 11.498 
4.48038 4.66575 10.624 
5.44905 5.10976 11.635 
10.0865 8.49972 19.354 
8.47223 6.55331 14.922 
8.39794 6.00303 13.669 
7.55576 5.02017 11.431 
9.95096 6.17606 14.063 
7.08806 4.12733 9.398 
6.92629 3.79839 8.649 
7.77686 4.03027 9.177 
7.94355 3.90204 8.885 
8.92583 4.16729 9.489 
8.77181 3.90204 8.885 
-0.440402 0.25518 0.579 
-0.408417 0.252095 0.572 
-0.38576 0.254739 0.578 
-0.355094 0.252095 0.572 
-0.327285 0.251213 0.57 
-0.299134 0.249891 0.567 
-0.272706 0.249891 0.567 
-0.244975 0.248569 0.564 
-0.217524 0.247247 0.561 
-0.192058 0.248128 0.563 
-0.165816 0.248128 0.563 
-0.138087 0.245484 0.557 
-0.112125 0.245484 0.557 
-0.0860085 0.245043 0.556 
-0.0602013 0.245484 0.557 
-0.0341164 0.244602 0.555 
-0.00821798 0.243721 0.553 
0.0175893 0.244162 0.554 
0.0431763 0.242839 0.551 
0.0683587 0.241076 0.547 
2.82374 7.06129 16.022 
3.54156 7.004 15.892 
3.78945 6.19791 14.063 
4.38171 6.10977 13.863 
4.32281 5.253 11.919 
4.79077 5.15868 11.705 
5.43391 5.253 11.919 
11.5629 10.0172 22.729 
7.98188 6.33454 14.373 
8.98228 6.5765 14.922 
7.32807 4.97975 11.299 
9.30762 5.90086 13.389 
7.59137 4.51038 10.234 
7.40929 4.14193 9.398 
7.6628 4.04453 9.177 
7.52543 3.76203 8.536 
8.72342 4.14193 9.398 
8.43131 3.81183 8.649 
-0.446826 0.255637 0.578 
-0.415526 0.252983 0.572 
-0.391585 0.254752 0.576 
-0.362837 0.253426 0.573 
-0.33437 0.252099 0.57 
-0.306722 0.251214 0.568 
-0.278767 0.249887 0.565 
-0.252879 0.25033 0.566 
-0.225297 0.249003 0.563 
-0.198348 0.248118 0.561 
-0.172814 0.249003 0.563 
-0.145271 0.246791 0.558 
-0.119048 0.246349 0.557 
-0.092585 0.245022 0.554 
-0.0671245 0.246349 0.557 
-0.0410886 0.245907 0.556 
-0.0151187 0.245022 0.554 
0.010684 0.24458 0.553 
0.0362617 0.243253 0.55 
0.0618974 0.243253 0.55 
2.73681 7.38915 16.707 
2.98063 6.26487 14.165 
3.77761 6.50017 14.697 
4.78663 6.97208 15.764 
4.17467 5.27152 11.919 
4.67347 5.20827 11.776 
5.06935 5.05569 11.431 
11.8678 10.543 23.838 
8.25025 6.70185 15.153 
8.49549 6.35687 14.373 
8.09412 5.61384 12.693 
8.74254 5.65055 12.776 
8.60713 5.20827 11.776 
7.00385 3.98404 9.008 
7.03473 3.77529 8.536 
7.88015 4.00262 9.05 
8.74689 4.21713 9.535 
8.7238 4.00262 9.05 
-0.454121 0.256091 0.577 
-0.425746 0.255203 0.575 
-0.398251 0.25476 0.574 
-0.371497 0.25476 0.574 
-0.34174 0.25254 0.569 
-0.315218 0.25254 0.569 
-0.286668 0.250765 0.565 
-0.261254 0.251653 0.567 
-0.233584 0.250321 0.564 
-0.206193 0.24899 0.561 
-0.180686 0.249877 0.563 
-0.153622 0.248546 0.56 
-0.126609 0.246771 0.556 
-0.100513 0.246327 0.555 
-0.0747786 0.246771 0.556 
-0.049039 0.247658 0.558 
-0.0229066 0.246327 0.555 
0.00294606 0.244995 0.552 
0.028623 0.244552 0.551 
0.0543053 0.244552 0.551 
0.0796972 0.243664 0.549 
2.70418 6.10979 13.766 
4.79901 8.76347 19.745 
4.71827 7.22958 16.289 
4.008 5.29004 11.919 
4.45481 5.16399 11.635 
4.538 4.68953 10.566 
19.179 17.7058 39.893 
9.54491 8.03292 18.099 
8.31127 6.42669 14.48 
8.91978 6.3792 14.373 
8.10052 5.38857 12.141 
9.96627 6.19678 13.962 
6.75637 3.94345 8.885 
6.51841 3.58483 8.077 
7.90816 4.11166 9.264 
8.46059 4.17113 9.398 
9.44309 4.42634 9.973 
8.90849 3.97984 8.967 
-0.437845 0.257433 0.578 
-0.405928 0.254315 0.571 
-0.381971 0.256097 0.575 
-0.352699 0.254315 0.571 
-0.325514 0.25387 0.57 
-0.296324 0.251643 0.565 
-0.270945 0.252534 0.567 
-0.243223 0.251198 0.564 
-0.215781 0.249861 0.561 
-0.18997 0.250307 0.562 
-0.164067 0.250752 0.563 
-0.135867 0.247189 0.555 
-0.109998 0.247189 0.555 
-0.0841293 0.247189 0.555 
-0.0582606 0.247189 0.555 
-0.0323335 0.246744 0.554 
-0.00649962 0.246298 0.553 
0.019241 0.245853 0.552 
0.044807 0.244962 0.55 
0.0699303 0.243181 0.546 
2.67624 6.64605 14.922 
3.90887 7.70473 17.299 
3.86095 6.30889 14.165 
4.24445 5.92274 13.298 
4.44106 5.40743 12.141 
4.74178 5.12105 11.498 
5.7514 5.58068 12.53 
12.2771 10.7485 24.133 
7.98188 6.40153 14.373 
9.72448 7.19521 16.155 
7.59138 5.21324 11.705 
9.54475 6.08798 13.669 
7.20827 4.31 9.677 
7.36726 4.14565 9.308 
8.06543 4.24675 9.535 
8.11449 4.04945 9.092 
9.66143 4.58213 10.288 
8.75801 3.95725 8.885 
-0.442467 0.257884 0.577 
-0.410531 0.254756 0.57 
-0.387331 0.25699 0.575 
-0.358022 0.255202 0.571 
-0.330247 0.254309 0.569 
-0.302124 0.252968 0.566 
-0.275256 0.252521 0.565 
-0.24848 0.252074 0.564 
-0.221404 0.25118 0.562 
-0.194515 0.250286 0.56 
-0.169315 0.251627 0.563 
-0.141549 0.248945 0.557 
-0.115172 0.248051 0.555 
-0.0889812 0.247158 0.553 
-0.0634343 0.248051 0.555 
-0.0374302 0.247158 0.553 
-0.0116758 0.247604 0.554 
0.0140952 0.246711 0.552 
0.0396077 0.24537 0.549 
0.065078 0.244923 0.548 
2.94036 7.80044 17.453 
3.23399 6.72018 15.036 
3.55249 6.0672 13.575 
4.67173 6.77247 15.153 
4.2824 5.39277 12.066 
4.72835 5.26316 11.776 
5.65143 5.63635 12.611 
14.3113 12.8477 28.746 
8.38037 6.87929 15.392 
8.62257 6.51995 14.588 
8.36577 5.8634 13.119 
8.97725 5.8634 13.119 
8.45364 5.1693 11.566 
7.13525 4.10156 9.177 
7.09186 3.83161 8.573 
7.79992 3.98938 8.926 
8.56757 4.16011 9.308 
8.91632 4.12078 9.22 
-0.455017 0.258781 0.577 
-0.427381 0.258332 0.576 
-0.398448 0.256987 0.573 
-0.371091 0.256538 0.572 
-0.342021 0.254744 0.568 
-0.315547 0.254744 0.568 
-0.287036 0.25295 0.564 
-0.262135 0.254296 0.567 
-0.234044 0.252502 0.563 
-0.207065 0.251605 0.561 
-0.181561 0.252502 0.563 
-0.154216 0.250708 0.559 
-0.127244 0.248914 0.555 
-0.10101 0.248017 0.553 
-0.0755064 0.248914 0.555 
-0.0488632 0.249362 0.556 
-0.0228241 0.248017 0.553 
0.00294606 0.247568 0.552 
0.028571 0.246671 0.55 
0.0542067 0.246671 0.55 
0.079552 0.245774 0.548 
2.6828 6.17396 13.766 
5.18757 9.63408 21.481 
4.33196 6.74354 15.036 
4.14111 5.54876 12.372 
4.60109 5.41152 12.066 
4.67307 4.89755 10.92 
10.7319 10.0767 22.468 
9.40164 8.04283 17.933 
8.20519 6.44619 14.373 
9.18936 6.5915 14.697 
8.36538 5.58419 12.451 
9.55427 5.96406 13.298 
6.95615 4.0777 9.092 
6.51494 3.59288 8.011 
7.96574 4.15484 9.264 
8.64319 4.27638 9.535 
9.70331 4.56611 10.181 
-17.4644 7.99733 17.77 
-0.436947 0.260127 0.578 
-0.405041 0.256977 0.571 
-0.379752 0.257877 0.573 
-0.35058 0.256077 0.569 
-0.324059 0.256077 0.569 
-0.2944 0.253376 0.563 
-0.270064 0.255177 0.567 
-0.241917 0.253376 0.563 
-0.215292 0.252926 0.562 
-0.188761 0.252476 0.561 
-0.162902 0.252926 0.562 
-0.135004 0.249776 0.555 
-0.108939 0.249326 0.554 
-0.0831169 0.249326 0.554 
-0.0572948 0.249326 0.554 
-0.0313591 0.248426 0.552 
-0.00563024 0.248426 0.552 
0.0200258 0.247526 0.55 
0.0454955 0.246626 0.548 
0.070649 0.245276 0.545 
2.63589 6.61434 14.697 
4.24713 8.45908 18.796 
3.70013 6.10939 13.575 
4.42479 6.239 13.863 
4.44106 5.46402 12.141 
4.82715 5.2678 11.705 
6.14569 6.02568 13.389 
11.735 10.3497 22.997 
7.94574 6.42127 14.268 
10.6685 7.85467 17.453 
8.7485 5.98472 13.298 
9.36833 5.98472 13.298 
7.12721 4.27049 9.489 
6.49332 3.63503 8.077 
8.00357 4.18904 9.308 
8.60149 4.27049 9.489 
9.8577 4.65483 10.343 
-17.9548 8.25029 18.269 
-0.436049 0.261025 0.578 
-0.404154 0.257864 0.571 
-0.378201 0.258316 0.572 
-0.349696 0.256961 0.569 
-0.322607 0.256509 0.568 
-0.293525 0.254251 0.563 
-0.268708 0.255606 0.566 
-0.241042 0.254251 0.563 
-0.214037 0.253348 0.561 
-0.187889 0.253348 0.561 
-0.161741 0.253348 0.561 
-0.134142 0.250638 0.555 
-0.108078 0.250187 0.554 
-0.0821077 0.249735 0.553 
-0.0564341 0.250187 0.554 
-0.0305015 0.249284 0.552 
-0.00477261 0.249284 0.552 
0.0225483 0.247929 0.549 
0.0480497 0.247477 0.548 
0.0733235 0.246574 0.546 
2.58773 6.35086 14.063 
5.24177 10.2644 22.729 
3.84325 6.26054 13.863 
4.30643 6.00538 13.298 
4.55433 5.55198 12.294 
4.85251 5.25437 11.635 
6.08291 5.92455 13.119 
10.5955 9.29213 20.576 
8.01224 6.44344 14.268 
10.3791 7.60992 16.851 
8.87078 6.04648 13.389 
9.1197 5.80758 12.86 
7.10266 4.24414 9.398 
6.58989 3.709 8.213 
8.33956 4.43607 9.823 
8.41679 4.24414 9.398 
10.5244 5.04438 11.17 
8.90724 4.06802 9.008 
-0.43991 0.261017 0.576 
-0.40876 0.258298 0.57 
-0.384203 0.259657 0.573 
-0.355 0.257845 0.569 
-0.327902 0.257392 0.568 
-0.298774 0.255126 0.563 
-0.2735 0.256032 0.565 
-0.24629 0.255126 0.563 
-0.219658 0.254673 0.562 
-0.192774 0.253766 0.56 
-0.167268 0.254673 0.562 
-0.139316 0.251501 0.555 
-0.113447 0.251501 0.555 
-0.087105 0.250141 0.552 
-0.0615985 0.251047 0.554 
-0.0356473 0.250141 0.552 
-0.00991838 0.250141 0.552 
0.0174305 0.248782 0.549 
0.0429412 0.248329 0.548 
0.0682337 0.247422 0.546 
2.66766 6.92012 15.271 
4.11991 8.43637 18.617 
3.56265 6.02604 13.298 
4.65771 6.71076 14.809 
4.41191 5.53619 12.217 
4.95036 5.50175 12.141 
6.29865 6.28208 13.863 
14.4453 13.0264 28.746 
7.97381 6.56167 14.48 
10.295 7.77024 17.147 
8.48806 5.94493 13.119 
8.63621 5.64222 12.451 
7.38227 4.51931 9.973 
7.32387 4.21796 9.308 
7.68438 4.17808 9.22 
7.92755 4.08201 9.008 
9.01184 4.40692 9.725 
9.05927 4.21796 9.308 
-0.446293 0.261457 0.575 
-0.418033 0.260548 0.573 
-0.390643 0.260093 0.572 
-0.362073 0.258729 0.569 
-0.334372 0.257819 0.567 
-0.307401 0.257365 0.566 
-0.27953 0.256001 0.563 
-0.253738 0.256455 0.564 
-0.22624 0.255091 0.561 
-0.199735 0.254636 0.56 
-0.174253 0.255546 0.562 
-0.146478 0.252818 0.556 
-0.120562 0.252818 0.556 
-0.0937958 0.250544 0.551 
-0.0683608 0.251453 0.553 
-0.0423543 0.250089 0.55 
-0.0167794 0.250999 0.552 
0.0106261 0.250089 0.55 
0.0361958 0.249635 0.549 
0.0615598 0.248725 0.547 
2.78448 7.72912 16.998 
2.91709 6.30362 13.863 
3.9876 7.05434 15.514 
4.49665 6.73377 14.809 
4.20024 5.45286 11.992 
4.78856 5.48651 12.066 
5.8574 6.00578 13.208 
20.8917 19.3224 42.494 
9.07002 7.66228 16.851 
8.34476 6.48777 14.268 
8.88034 6.39456 14.063 
8.0332 5.38692 11.847 
8.18826 5.13774 11.299 
7.14532 4.21241 9.264 
6.57927 3.65767 8.044 
8.12476 4.27334 9.398 
8.5628 4.27334 9.398 
9.95859 4.72805 10.398 
-17.6752 8.25788 18.099 
-0.425746 0.26235 0.575 
-0.39617 0.260525 0.571 
-0.368261 0.259613 0.569 
-0.340538 0.2587 0.567 
-0.31411 0.2587 0.567 
-0.285145 0.256419 0.562 
-0.260333 0.257788 0.565 
-0.232755 0.256419 0.562 
-0.205825 0.255506 0.56 
-0.180365 0.256419 0.562 
-0.152525 0.253681 0.556 
