# .PCD v.7 - Point Cloud Data file format
VERSION .7
FIELDS x y z
SIZE 4 4 4
TYPE F F F
COUNT 1 1 1
WIDTH 1857
HEIGHT 1
VIEWPOINT 0 0 0 1 0 0 0
POINTS 1857
DATA ascii
0.597795 0.0488844 0.689 
0.613454 0.0476073 0.671 
0.625512 0.0461883 0.651 
-0.663083 0.0564077 0.778 
-0.637295 0.0573502 0.791 
-0.63003 0.0601779 0.83 
-0.611292 0.062208 0.858 
-0.585283 0.0637305 0.879 
-0.561652 0.0657606 0.907 
-0.535982 0.0678632 0.936 
-0.509714 0.0702559 0.969 
-0.466466 0.0705459 0.973 
-0.443187 0.0742435 1.024 
-0.350271 0.0690958 0.953 
-0.330142 0.0760561 1.049 
-0.280443 0.0758386 1.046 
-0.232132 0.0759836 1.048 
-0.183284 0.0759836 1.048 
-0.135591 0.0766362 1.057 
-0.088774 0.0788113 1.087 
-0.0396863 0.0820739 1.132 
0.017415 0.0861341 1.188 
0.0749325 0.0886717 1.223 
0.127298 0.0855541 1.18 
0.172411 0.0809139 1.116 
0.231466 0.0834515 1.151 
0.267959 0.0779412 1.075 
0.304751 0.0746786 1.03 
0.338033 0.0715609 0.987 
0.369251 0.0688058 0.949 
0.393096 0.0651806 0.899 
0.423386 0.0634405 0.875 
0.449847 0.0614829 0.848 
0.477831 0.0600329 0.828 
0.505197 0.0587278 0.81 
0.524853 0.0567702 0.783 
0.544143 0.0550301 0.759 
0.563486 0.0535076 0.738 
0.578441 0.0517675 0.714 
0.594586 0.0503174 0.694 
0.609769 0.0489398 0.675 
0.619382 0.0472723 0.652 
-18.2968 1.37872 18.617 
-0.644672 0.058357 0.788 
-0.624916 0.0599863 0.81 
-0.616882 0.0630226 0.851 
-0.590104 0.0644297 0.87 
-0.567872 0.0665774 0.899 
-0.542351 0.068651 0.927 
-0.51745 0.0711689 0.961 
-0.482003 0.072576 0.98 
-0.451462 0.0750939 1.014 
-0.360216 0.0702062 0.948 
-0.336661 0.0776859 1.049 
-0.286395 0.0773157 1.044 
-0.239328 0.0778341 1.051 
-0.190884 0.0780562 1.054 
-0.141487 0.0779081 1.052 
-0.0955294 0.0805001 1.087 
-0.0463911 0.0832402 1.124 
0.0080346 0.0863506 1.166 
0.0652178 0.0902757 1.219 
0.118932 0.0879799 1.188 
0.166217 0.0830181 1.121 
0.222364 0.0844992 1.141 
0.262737 0.0800558 1.081 
0.299508 0.0765751 1.034 
0.334253 0.0736128 0.994 
0.363736 0.0703543 0.95 
0.391699 0.0665774 0.899 
0.422509 0.0648741 0.876 
0.449058 0.0628745 0.849 
0.476544 0.0613193 0.828 
0.503939 0.0599863 0.81 
0.524305 0.0580608 0.784 
0.542964 0.0562094 0.759 
0.562339 0.0546542 0.738 
0.57814 0.0529509 0.715 
0.594363 0.0514697 0.695 
0.607819 0.0499145 0.674 
0.618369 0.0482853 0.652 
-18.7106 1.43494 18.978 
-0.646699 0.0594301 0.786 
-0.618601 0.0602618 0.797 
-0.616471 0.0638911 0.845 
-0.592793 0.0656302 0.868 
-0.569517 0.0676717 0.895 
-0.544902 0.0698644 0.924 
-0.519214 0.0722839 0.956 
-0.487067 0.0741742 0.981 
-0.455289 0.0765182 1.012 
-0.363162 0.0716791 0.948 
-0.349397 0.0796182 1.053 
-0.29832 0.0790889 1.046 
-0.251713 0.0797694 1.055 
-0.201195 0.0792401 1.048 
-0.152057 0.0790889 1.046 
-0.107253 0.0821134 1.086 
-0.0578332 0.0838524 1.109 
-0.00641378 0.0875573 1.158 
0.0495735 0.0912623 1.207 
0.105043 0.0905818 1.198 
0.152827 0.0850622 1.125 
0.205446 0.0851378 1.126 
0.251607 0.0824914 1.091 
0.287765 0.078484 1.038 
0.324488 0.075762 1.002 
0.354522 0.0723596 0.957 
0.384531 0.0697132 0.922 
0.411277 0.0670668 0.887 
0.437312 0.0647985 0.857 
0.465005 0.063135 0.835 
0.493665 0.0618496 0.818 
0.51684 0.0601106 0.795 
0.537174 0.0582959 0.771 
0.554527 0.0564057 0.746 
0.571129 0.0546666 0.723 
0.588934 0.05323 0.704 
0.600552 0.0514154 0.68 
0.61737 0.0502056 0.664 
0.631721 0.0489202 0.647 
-0.656305 0.0601883 0.78 
-0.625442 0.06096 0.79 
-0.617328 0.0642009 0.832 
-0.59941 0.0665158 0.862 
-0.575451 0.0684449 0.887 
-0.549763 0.0704512 0.913 
-0.525541 0.0729976 0.946 
-0.497224 0.0753897 0.977 
-0.463244 0.0773188 1.002 
-0.440236 0.0817172 1.059 
-0.363904 0.0804826 1.043 
-0.319219 0.0814857 1.056 
-0.269487 0.0813314 1.054 
-0.219106 0.0808684 1.048 
-0.168796 0.0801739 1.039 
-0.124307 0.0827975 1.073 
-0.0760249 0.0847266 1.098 
-0.0260687 0.0888935 1.152 
0.0288014 0.0926746 1.201 
0.086051 0.0940635 1.219 
0.136071 0.089588 1.161 
0.181668 0.0855754 1.109 
0.243038 0.089125 1.155 
0.273326 0.0815629 1.057 
0.310385 0.0784763 1.017 
0.343364 0.0753125 0.976 
0.373317 0.0723031 0.937 
0.399244 0.0689851 0.894 
0.427104 0.0668245 0.866 
0.456672 0.0652812 0.846 
0.484376 0.0637379 0.826 
0.507051 0.0618088 0.801 
0.527395 0.0598796 0.776 
0.548313 0.0582592 0.755 
0.564183 0.0563301 0.73 
0.579361 0.0545553 0.707 
0.596725 0.0531663 0.689 
0.610586 0.0516231 0.669 
0.623541 0.0501569 0.65 
-17.6752 1.42472 18.099 
-0.637716 0.0621874 0.79 
-0.623713 0.0645489 0.82 
-0.609055 0.0671466 0.853 
-0.584647 0.0689571 0.876 
-0.56244 0.0713187 0.906 
-0.536288 0.0735228 0.934 
-0.509636 0.0760418 0.966 
-0.467016 0.0764353 0.971 
-0.446515 0.0809223 1.028 
-0.35212 0.0747823 0.95 
-0.338265 0.082969 1.054 
-0.287767 0.0825754 1.049 
-0.24115 0.0833625 1.059 
-0.188708 0.0827328 1.051 
-0.140518 0.0832051 1.057 
-0.0940995 0.0858028 1.09 
-0.0448434 0.0888728 1.129 
0.00800015 0.0913918 1.161 
0.0671117 0.0959575 1.219 
0.11966 0.0926513 1.177 
0.166217 0.0882431 1.121 
0.22178 0.0895813 1.138 
0.262007 0.0848582 1.078 
0.29806 0.081001 1.029 
0.332907 0.077931 0.99 
0.364059 0.0745461 0.947 
0.38794 0.0708464 0.9 
0.420336 0.069272 0.88 
0.44615 0.0669892 0.851 
0.474397 0.0654148 0.831 
0.501398 0.0639192 0.812 
0.521315 0.0617938 0.785 
0.541558 0.0599832 0.762 
0.5589 0.058094 0.738 
0.576415 0.0564409 0.717 
0.593675 0.0549453 0.698 
0.605574 0.0531348 0.675 
0.617218 0.0514817 0.654 
0.638787 0.0507732 0.645 
-0.645876 0.0630134 0.785 
-0.613168 0.0634148 0.79 
-0.614283 0.0675889 0.842 
-0.592793 0.069676 0.868 
-0.56888 0.071763 0.894 
-0.544313 0.0740909 0.923 
-0.519214 0.0767399 0.956 
-0.484584 0.0783453 0.976 
-0.456189 0.0813957 1.014 
-0.361689 0.0760977 0.948 
-0.354008 0.0848473 1.057 
-0.304165 0.0846868 1.055 
-0.256683 0.0852487 1.062 
-0.203671 0.0838038 1.044 
-0.155901 0.0842854 1.05 
-0.110322 0.0869344 1.083 
-0.0611135 0.0887807 1.106 
-0.0100034 0.0928745 1.157 
0.0475401 0.096567 1.203 
0.102923 0.0959249 1.195 
0.150127 0.0907875 1.131 
0.200512 0.0897439 1.118 
0.249354 0.087978 1.096 
0.284814 0.0834025 1.039 
0.321696 0.0805127 1.003 
0.351915 0.0769004 0.958 
0.38001 0.0736896 0.918 
0.408981 0.0712814 0.888 
0.434649 0.068793 0.857 
0.465733 0.0675086 0.841 
0.491123 0.0656624 0.818 
0.514369 0.0638161 0.795 
0.534084 0.0618093 0.77 
0.551468 0.0598025 0.745 
0.568096 0.0579563 0.722 
0.586746 0.0565114 0.704 
0.597559 0.0545046 0.679 
0.616234 0.0533808 0.665 
0.630684 0.0520162 0.648 
-0.65704 0.0636603 0.778 
-0.623859 0.0644785 0.788 
-0.615295 0.067997 0.831 
-0.598764 0.0706154 0.863 
-0.574073 0.0725792 0.887 
-0.548345 0.0747067 0.913 
-0.523517 0.0773251 0.945 
-0.495199 0.0798617 0.976 
-0.462148 0.082071 1.003 
-0.438591 0.0866532 1.059 
-0.364823 0.0851804 1.041 
-0.322379 0.0868169 1.061 
-0.272154 0.0865714 1.058 
-0.22263 0.0864896 1.057 
-0.171886 0.0857532 1.048 
-0.125739 0.0876351 1.071 
-0.0778016 0.0899263 1.099 
-0.0278344 0.0941812 1.151 
0.0264645 0.0965541 1.18 
0.0841571 0.0997453 1.219 
0.134036 0.0948358 1.159 
0.179782 0.0906627 1.108 
0.240826 0.0943448 1.153 
0.273326 0.0864896 1.057 
0.309775 0.0830529 1.015 
0.343012 0.0797799 0.975 
0.370926 0.0761796 0.931 
0.397855 0.073152 0.894 
0.425267 0.0707791 0.865 
0.456973 0.0694699 0.849 
0.483678 0.0676697 0.827 
0.506438 0.0656241 0.802 
0.526867 0.0635784 0.777 
0.548759 0.0616964 0.754 
0.563768 0.059569 0.728 
0.579638 0.0577688 0.706 
0.59606 0.0562141 0.687 
0.610833 0.0545776 0.667 
0.625561 0.0531866 0.65 
-0.660877 0.0645355 0.774 
-0.636909 0.0657862 0.789 
-0.615607 0.0676205 0.811 
-0.606305 0.0709557 0.851 
-0.58262 0.0729568 0.875 
-0.561032 0.0755416 0.906 
-0.534264 0.0777928 0.933 
-0.50761 0.0804609 0.965 
-0.465987 0.0810446 0.972 
-0.446649 0.0860473 1.032 
-0.351741 0.0797939 0.957 
-0.33987 0.0882986 1.059 
-0.290236 0.0882152 1.058 
-0.242288 0.0887155 1.064 
-0.191065 0.0879651 1.055 
-0.14337 0.0888822 1.066 
-0.095793 0.0908833 1.09 
-0.0465562 0.0940517 1.128 
0.00618032 0.0965531 1.158 
0.063168 0.101389 1.216 
0.115805 0.0979706 1.175 
0.162878 0.0935515 1.122 
0.216709 0.0942185 1.13 
0.259138 0.0900495 1.08 
0.295149 0.0858806 1.03 
0.329498 0.082462 0.989 
0.359645 0.0789601 0.947 
0.384598 0.075208 0.902 
0.41718 0.0735405 0.882 
0.442703 0.0710391 0.852 
0.473355 0.069705 0.836 
0.498839 0.0678707 0.814 
0.517656 0.0654527 0.785 
0.539419 0.0637017 0.764 
0.556965 0.0617006 0.74 
0.574672 0.0599496 0.719 
0.590421 0.0581987 0.698 
0.603477 0.056281 0.675 
0.617067 0.0546968 0.656 
0.638758 0.0539463 0.647 
-0.646272 0.0665874 0.784 
-0.612062 0.0668422 0.787 
-0.614129 0.0713436 0.84 
-0.595511 0.0738916 0.87 
-0.568993 0.0757601 0.892 
-0.543973 0.0781382 0.92 
-0.519065 0.080941 0.953 
-0.483113 0.0823849 0.97 
-0.456861 0.0859521 1.012 
-0.432362 0.0907083 1.068 
-0.351063 0.0902837 1.063 
-0.300949 0.0901138 1.061 
-0.253392 0.0907932 1.069 
-0.200519 0.0894343 1.053 
-0.152732 0.0901987 1.062 
-0.105371 0.0920672 1.084 
-0.0564137 0.0947002 1.115 
-0.00460665 0.0981824 1.156 
0.0514487 0.102514 1.207 
0.106101 0.100985 1.189 
0.15337 0.0958892 1.129 
0.203439 0.0947002 1.115 
0.251607 0.0926618 1.091 
0.28832 0.0883302 1.04 
0.322545 0.0845932 0.996 
0.35341 0.081026 0.954 
0.378692 0.0771191 0.908 
0.409886 0.0750807 0.884 
0.436291 0.0726176 0.855 
0.468346 0.0714286 0.841 
0.493665 0.0694751 0.818 
0.513589 0.067097 0.79 
0.534387 0.0651435 0.767 
0.551553 0.0630202 0.742 
0.569549 0.0612366 0.721 
0.587261 0.0596229 0.702 
0.597902 0.0574996 0.677 
0.615511 0.0562256 0.662 
0.632697 0.0550365 0.648 
-0.644257 0.0679784 0.786 
-0.611486 0.0684109 0.791 
-0.611666 0.0728217 0.842 
-0.592816 0.0754163 0.872 
-0.566735 0.0774055 0.895 
-0.540271 0.0796541 0.921 
-0.516243 0.0826811 0.956 
-0.476124 0.0834595 0.965 
-0.454378 0.0879568 1.017 
-0.363162 0.0819893 0.948 
-0.348087 0.0920217 1.064 
-0.298494 0.0920217 1.064 
-0.25007 0.0924541 1.069 
-0.198183 0.0915028 1.058 
-0.149995 0.0921947 1.066 
-0.102097 0.0938379 1.085 
-0.0531865 0.0968649 1.12 
-0.00101631 0.100151 1.158 
0.0553822 0.104735 1.211 
0.109242 0.102314 1.183 
0.156461 0.0973839 1.126 
0.20746 0.096692 1.118 
0.254062 0.0940109 1.087 
0.291271 0.0898595 1.039 
0.324333 0.0857947 0.992 
0.354507 0.0820757 0.949 
0.38208 0.0783568 0.906 
0.413069 0.0762811 0.882 
0.439761 0.0738595 0.854 
0.471143 0.0725622 0.839 
0.496261 0.070573 0.816 
0.515307 0.0680649 0.787 
0.53726 0.0662487 0.766 
0.554264 0.0640865 0.741 
0.572115 0.0622703 0.72 
0.587168 0.0603676 0.698 
0.60017 0.0584649 0.676 
0.615793 0.0569946 0.659 
0.635718 0.0560433 0.648 
-0.643437 0.0691116 0.785 
-0.612259 0.0697279 0.792 
-0.611666 0.0741299 0.842 
-0.593495 0.0768591 0.873 
-0.566735 0.078796 0.895 
-0.539098 0.080909 0.919 
-0.515703 0.0840784 0.955 
-0.475138 0.0847827 0.963 
-0.453485 0.0893608 1.015 
-0.432587 0.0951715 1.081 
-0.343128 0.0936748 1.064 
-0.294638 0.094027 1.068 
-0.245317 0.094203 1.07 
-0.194531 0.0937628 1.065 
-0.145843 0.0943791 1.072 
-0.0972182 0.0956997 1.087 
-0.0483516 0.0993974 1.129 
0.00438495 0.102039 1.159 
0.0612787 0.107057 1.216 
0.114174 0.103623 1.177 
0.161135 0.0987811 1.122 
0.214003 0.0990453 1.125 
0.257221 0.0949954 1.079 
0.294974 0.0911216 1.035 
0.327298 0.0868957 0.987 
0.357039 0.08311 0.944 
0.385999 0.0794123 0.902 
0.417127 0.0773874 0.879 
0.445069 0.0751864 0.854 
0.474086 0.0735136 0.835 
0.49949 0.0715767 0.813 
0.517554 0.0689355 0.783 
0.540606 0.0672627 0.764 
0.555852 0.0648857 0.737 
0.574988 0.0632129 0.718 
0.588116 0.0610999 0.694 
0.601839 0.059163 0.672 
0.616201 0.0575783 0.654 
0.641741 0.0571381 0.649 
-0.641408 0.0705104 0.787 
-0.613178 0.0714959 0.798 
-0.608464 0.0755277 0.843 
-0.587386 0.0783051 0.874 
-0.563535 0.0807241 0.901 
-0.534853 0.0827848 0.924 
-0.510413 0.0859206 0.959 
-0.469113 0.0865477 0.966 
-0.450429 0.0919233 1.026 
-0.425758 0.0972094 1.085 
-0.345105 0.0954175 1.065 
-0.297407 0.0960447 1.072 
-0.247441 0.0960447 1.072 
-0.196738 0.0956863 1.068 
-0.147371 0.0959551 1.071 
-0.0987251 0.0972094 1.085 
-0.0500613 0.101062 1.128 
0.00258424 0.103839 1.159 
0.0593406 0.108857 1.215 
0.112536 0.105631 1.179 
0.159392 0.100524 1.122 
0.211877 0.100614 1.123 
0.258178 0.096403 1.076 
0.296295 0.0926401 1.034 
0.327832 0.0881604 0.984 
0.358126 0.0844871 0.943 
0.385999 0.0808137 0.902 
0.416178 0.0785739 0.877 
0.44559 0.0766028 0.855 
0.474086 0.0748109 0.835 
0.500104 0.0729294 0.814 
0.517554 0.070152 0.783 
0.540606 0.0684497 0.764 
0.555098 0.0659411 0.736 
0.574988 0.0643284 0.718 
0.587269 0.0620886 0.693 
0.600795 0.0602071 0.672 
0.615185 0.0585944 0.654 
0.639745 0.0580568 0.648 
-0.641814 0.071642 0.786 
-0.614418 0.0727358 0.798 
-0.608327 0.0766551 0.841 
-0.591459 0.079663 0.874 
-0.565215 0.0817594 0.897 
-0.535659 0.0836735 0.918 
-0.512199 0.0869548 0.954 
-0.472145 0.0877751 0.963 
-0.451218 0.0926971 1.017 
-0.430419 0.098804 1.084 
-0.355038 0.0975279 1.07 
-0.307446 0.0982571 1.078 
-0.256246 0.0978925 1.074 
-0.205034 0.0973456 1.068 
-0.154964 0.0971633 1.066 
-0.10666 0.0984394 1.08 
-0.058459 0.102176 1.121 
-0.00638609 0.105093 1.153 
0.0496967 0.110289 1.21 
0.104517 0.108648 1.192 
0.153098 0.102723 1.127 
0.203074 0.101447 1.113 
0.253361 0.098804 1.084 
0.291832 0.0948846 1.041 
0.323352 0.090145 0.989 
0.35376 0.0863168 0.947 
0.38208 0.0825797 0.906 
0.411664 0.0801187 0.879 
0.441306 0.0781135 0.857 
0.471143 0.0764728 0.839 
0.497478 0.0745587 0.818 
0.514652 0.071642 0.786 
0.536559 0.0697279 0.765 
0.553516 0.0674492 0.74 
0.570526 0.065444 0.718 
0.585486 0.0634387 0.696 
0.599282 0.0615246 0.675 
0.613924 0.059884 0.657 
0.634737 0.0589725 0.647 
-0.643408 0.0724924 0.782 
-0.615497 0.0735121 0.793 
-0.607879 0.0774055 0.835 
-0.594852 0.0809282 0.873 
-0.567491 0.0828749 0.894 
-0.538173 0.0848216 0.915 
-0.515021 0.0881589 0.951 
-0.475644 0.0890859 0.961 
-0.452372 0.0935356 1.009 
-0.435471 0.100488 1.084 
-0.36937 0.0994685 1.073 
-0.322035 0.100303 1.082 
-0.269093 0.0993757 1.072 
-0.218105 0.0989122 1.067 
-0.168845 0.0991903 1.07 
-0.119528 0.0996539 1.075 
-0.0714883 0.10262 1.107 
-0.0206633 0.106606 1.15 
0.0343993 0.111334 1.201 
0.0910555 0.112169 1.21 
0.141591 0.105031 1.133 
0.187194 0.101137 1.091 
0.244313 0.102342 1.104 
0.281572 0.097429 1.051 
0.316406 0.0932575 1.006 
0.346323 0.0889005 0.959 
0.371858 0.0845435 0.912 
0.401645 0.0819479 0.884 
0.431326 0.0798158 0.861 
0.463792 0.078518 0.847 
0.487822 0.0761077 0.821 
0.508788 0.0736048 0.794 
0.530674 0.0715654 0.772 
0.546839 0.0690624 0.745 
0.563609 0.0669303 0.722 
0.57989 0.0649836 0.701 
0.592465 0.0628515 0.678 
0.60934 0.0613682 0.662 
0.624723 0.059885 0.646 
-0.648952 0.0732361 0.777 
-0.623776 0.0745557 0.791 
-0.604715 0.0768178 0.815 
-0.596628 0.0808707 0.858 
-0.572207 0.0831329 0.882 
-0.547355 0.0856777 0.909 
-0.51943 0.0881284 0.935 
-0.492135 0.0911445 0.967 
-0.46047 0.0938779 0.996 
-0.450213 0.102078 1.083 
-0.392766 0.102455 1.087 
-0.336751 0.100853 1.07 
-0.288754 0.101513 1.077 
-0.237005 0.100853 1.07 
-0.188531 0.101607 1.078 
-0.138541 0.101795 1.08 
-0.089264 0.103021 1.093 
-0.0400018 0.107545 1.141 
0.0135271 0.110373 1.171 
0.0706669 0.11452 1.215 
0.122688 0.110373 1.171 
0.170557 0.104057 1.104 
0.227847 0.106791 1.133 
0.266369 0.100099 1.062 
0.302187 0.095763 1.016 
0.334061 0.0915215 0.971 
0.364866 0.0880341 0.934 
0.39091 0.0842639 0.894 
0.419999 0.0818133 0.868 
0.454091 0.0806822 0.856 
0.477831 0.0780431 0.828 
0.502702 0.0759695 0.806 
0.522842 0.0735188 0.78 
0.543426 0.0714452 0.758 
0.557378 0.0688061 0.73 
0.57358 0.0667325 0.708 
0.591159 0.0650359 0.69 
0.603579 0.062868 0.667 
0.618492 0.0612657 0.65 
-0.651829 0.0736768 0.769 
-0.629603 0.0753056 0.786 
-0.611073 0.077605 0.81 
-0.600215 0.0812457 0.848 
-0.57788 0.0837367 0.874 
-0.553122 0.0862278 0.9 
-0.526508 0.0888146 0.927 
-0.503633 0.0925511 0.966 
-0.467153 0.0942757 0.984 
-0.451258 0.100982 1.054 
-0.4193 0.105294 1.099 
-0.361042 0.103282 1.078 
-0.313679 0.10424 1.088 
-0.259583 0.102898 1.074 
-0.209719 0.102994 1.075 
-0.159019 0.102611 1.071 
-0.109914 0.103377 1.079 
-0.0616661 0.106922 1.116 
-0.00995157 0.110276 1.151 
0.0459368 0.115928 1.21 
0.100728 0.114108 1.191 
0.150407 0.107306 1.12 
0.201345 0.106635 1.113 
0.247989 0.104431 1.09 
0.286185 0.100024 1.044 
0.31913 0.0953296 0.995 
0.348977 0.0910182 0.95 
0.376698 0.0871858 0.91 
0.405297 0.0843116 0.88 
0.436677 0.0824912 0.861 
0.467394 0.0808625 0.844 
0.492324 0.0785631 0.82 
0.511065 0.0754972 0.788 
0.534585 0.0736768 0.769 
0.550401 0.07109 0.742 
0.566852 0.0688864 0.719 
0.581995 0.0667786 0.697 
0.595969 0.0647666 0.676 
0.610769 0.0630421 0.658 
0.627791 0.0617008 0.644 
-0.641709 0.0756505 0.777 
-0.617961 0.0772083 0.793 
-0.602979 0.0801292 0.823 
-0.594118 0.0843157 0.866 
-0.567822 0.0864577 0.888 
-0.54066 0.0887944 0.912 
-0.516176 0.0920074 0.945 
-0.477625 0.0930784 0.956 
-0.452998 0.0973623 1 
-0.441743 0.105833 1.087 
-0.391797 0.106028 1.089 
-0.336654 0.104664 1.075 
-0.287348 0.104957 1.078 
-0.234462 0.103788 1.066 
-0.187376 0.105249 1.081 
-0.137117 0.105346 1.082 
-0.0877261 0.106612 1.095 
-0.038095 0.110701 1.137 
0.0154644 0.114888 1.18 
0.0723755 0.118003 1.212 
0.124189 0.113719 1.168 
0.171492 0.107001 1.099 
0.229404 0.110214 1.132 
0.26422 0.103204 1.06 
0.300609 0.0989201 1.016 
0.331183 0.0941493 0.967 
0.363415 0.0909364 0.934 
0.390392 0.0872366 0.896 
0.419132 0.0846078 0.869 
0.45329 0.0834395 0.857 
0.476544 0.080616 0.828 
0.502694 0.0786687 0.808 
0.520962 0.0758452 0.779 
0.542248 0.0738006 0.758 
0.556244 0.0710745 0.73 
0.57248 0.0689325 0.708 
0.589231 0.0670826 0.689 
0.601506 0.0649407 0.667 
0.616472 0.0632855 0.65 
-0.654561 0.0759675 0.768 
-0.630043 0.0773523 0.782 
-0.614848 0.0801219 0.81 
-0.597755 0.0829905 0.839 
-0.579291 0.0860569 0.87 
-0.55484 0.0886287 0.896 
-0.527965 0.0912005 0.922 
-0.505506 0.0950582 0.961 
-0.469342 0.0968387 0.979 
-0.449246 0.102675 1.038 
-0.424036 0.10861 1.098 
-0.368783 0.107423 1.086 
-0.319629 0.107917 1.091 
-0.262186 0.105939 1.071 
-0.213654 0.106631 1.078 
-0.163256 0.106532 1.077 
-0.113582 0.107027 1.082 
-0.0649004 0.109995 1.112 
-0.0135399 0.113951 1.152 
0.0421769 0.119688 1.21 
0.0965386 0.117215 1.185 
0.145187 0.110786 1.12 
0.194218 0.109005 1.102 
0.244826 0.107917 1.091 
0.282669 0.103169 1.043 
0.317626 0.098916 1 
0.346025 0.0939702 0.95 
0.375103 0.0903103 0.913 
0.40302 0.087145 0.881 
0.43501 0.0853645 0.863 
0.464772 0.0834851 0.844 
0.489776 0.0811111 0.82 
0.509261 0.0780447 0.789 
0.534272 0.0763631 0.772 
0.548095 0.0733956 0.742 
0.565404 0.0712195 0.72 
0.580661 0.0690433 0.698 
0.59299 0.0667683 0.675 
0.60965 0.0651856 0.659 
0.624818 0.063603 0.643 
-0.643294 0.0779644 0.776 
-0.619643 0.079572 0.792 
-0.601857 0.0821842 0.818 
-0.592674 0.0864039 0.86 
-0.567368 0.0887147 0.883 
-0.542301 0.0914274 0.91 
-0.517465 0.0946424 0.942 
-0.480596 0.096049 0.956 
-0.453824 0.0999673 0.995 
-0.444302 0.10901 1.085 
-0.397721 0.110115 1.096 
-0.340311 0.108105 1.076 
-0.293124 0.10921 1.087 
-0.238667 0.107503 1.07 
-0.191088 0.108809 1.083 
-0.140869 0.10901 1.085 
-0.0910454 0.109914 1.094 
-0.0362326 0.113933 1.134 
0.0173857 0.119157 1.186 
0.0740135 0.121367 1.208 
0.125356 0.116746 1.162 
0.172727 0.110115 1.096 
0.230755 0.113531 1.13 
0.265365 0.106297 1.058 
0.301295 0.101776 1.013 
0.331309 0.0967523 0.963 
0.363694 0.0935372 0.931 
0.39091 0.0898199 0.894 
0.419999 0.0872077 0.868 
0.454091 0.086002 0.856 
0.476099 0.0828875 0.825 
0.502079 0.0808781 0.805 
0.523382 0.0782659 0.779 
0.54173 0.0757541 0.754 
0.556982 0.0731419 0.728 
0.573057 0.0709316 0.706 
0.590514 0.0691231 0.688 
0.602674 0.0669128 0.666 
0.617596 0.0651043 0.648 
-0.654864 0.0789661 0.774 
-0.625983 0.0798843 0.783 
-0.61132 0.0828429 0.812 
-0.592541 0.0855976 0.839 
-0.576522 0.0891684 0.874 
-0.550498 0.0916169 0.898 
-0.524501 0.0944736 0.926 
-0.501612 0.0984525 0.965 
-0.464567 0.100493 0.985 
-0.450108 0.108043 1.059 
-0.418155 0.112736 1.105 
-0.360678 0.110899 1.087 
-0.312009 0.111614 1.094 
-0.256236 0.110287 1.081 
-0.206422 0.110593 1.084 
-0.156184 0.110797 1.086 
-0.105468 0.110695 1.085 
-0.0565655 0.114062 1.118 
-0.00460665 0.117939 1.156 
0.0516619 0.123652 1.212 
0.104138 0.119061 1.167 
0.152239 0.113042 1.108 
0.206459 0.11447 1.122 
0.248194 0.109063 1.069 
0.286869 0.104982 1.029 
0.319863 0.100289 0.983 
0.349684 0.0959019 0.94 
0.38094 0.0928412 0.91 
0.409398 0.0897805 0.88 
0.441714 0.0880461 0.863 
0.469095 0.0856996 0.84 
0.494936 0.0834551 0.818 
0.51221 0.0801903 0.786 
0.534182 0.0780478 0.765 
0.549727 0.0752932 0.738 
0.565129 0.0728447 0.714 
0.581647 0.0708042 0.694 
0.594531 0.0685597 0.672 
0.607226 0.0665192 0.652 
0.625881 0.0652949 0.64 
-0.637266 0.0803758 0.776 
-0.616588 0.0824473 0.796 
-0.596959 0.0849331 0.82 
-0.586675 0.0891798 0.861 
-0.564952 0.0921835 0.89 
-0.536997 0.0945658 0.913 
-0.512855 0.0980874 0.947 
-0.471684 0.0987089 0.953 
-0.448785 0.103681 1.001 
-0.436188 0.112899 1.09 
-0.386797 0.113313 1.094 
-0.332736 0.112277 1.084 
-0.275498 0.110931 1.071 
-0.226631 0.111449 1.076 
-0.177955 0.112381 1.085 
-0.127617 0.112588 1.087 
-0.0778016 0.113831 1.099 
-0.0275926 0.118181 1.141 
0.0269579 0.1245 1.202 
0.0825692 0.123878 1.196 
0.131839 0.118078 1.14 
0.177024 0.113003 1.091 
0.234142 0.11611 1.121 
0.269019 0.109067 1.053 
0.30511 0.104613 1.01 
0.3351 0.0995375 0.961 
0.366057 0.0959123 0.926 
0.393751 0.0922871 0.891 
0.423067 0.0896977 0.866 
0.45594 0.0882476 0.852 
0.478199 0.0851403 0.822 
0.500176 0.0824473 0.796 
0.525128 0.0805829 0.778 
0.54263 0.0778899 0.752 
0.557708 0.0751969 0.726 
0.574436 0.0730218 0.705 
0.589603 0.0706395 0.682 
0.60408 0.0686716 0.663 
0.615827 0.0666 0.643 
-0.655831 0.0817917 0.778 
-0.624346 0.0824225 0.784 
-0.609547 0.0854712 0.813 
-0.587825 0.0878892 0.836 
-0.573806 0.0918842 0.874 
-0.549537 0.0947227 0.901 
-0.52275 0.0975613 0.928 
-0.498097 0.101346 0.964 
-0.462096 0.103343 0.983 
-0.446769 0.110913 1.055 
-0.417569 0.116485 1.108 
-0.35998 0.114592 1.09 
-0.310877 0.115223 1.096 
-0.257659 0.114277 1.087 
-0.201184 0.113857 1.083 
-0.151679 0.114592 1.09 
-0.100966 0.114698 1.091 
-0.0511708 0.117116 1.114 
0.000784877 0.122057 1.161 
0.0572637 0.127313 1.211 
0.108544 0.121531 1.156 
0.15512 0.116064 1.104 
0.209384 0.117641 1.119 
0.24892 0.111964 1.065 
0.286505 0.107444 1.022 
0.318774 0.102502 0.975 
0.35148 0.0985074 0.937 
0.382502 0.0953535 0.907 
0.411664 0.0924099 0.879 
0.444396 0.0907278 0.863 
0.469459 0.0878892 0.836 
0.495045 0.0855764 0.814 
0.512688 0.0823173 0.783 
0.533052 0.0798993 0.76 
0.549776 0.077271 0.735 
0.564964 0.0747479 0.711 
0.582582 0.0725402 0.69 
0.596034 0.0703324 0.669 
0.609403 0.0683349 0.65 
0.622967 0.0664426 0.632 
-0.634888 0.0831071 0.779 
-0.614585 0.086201 0.808 
-0.591919 0.0884413 0.829 
-0.577973 0.0923887 0.866 
-0.55437 0.0952691 0.893 
-0.527675 0.0980429 0.919 
-0.503306 0.101777 0.954 
-0.469421 0.104124 0.976 
-0.446081 0.109565 1.027 
-0.426905 0.117459 1.101 
-0.375587 0.117459 1.101 
-0.321619 0.116499 1.092 
-0.266754 0.114792 1.076 
-0.219822 0.116499 1.092 
-0.168614 0.116286 1.09 
-0.118133 0.116606 1.093 
-0.0682943 0.118526 1.111 
-0.0170453 0.122367 1.147 
0.038163 0.128235 1.202 
0.0920728 0.125354 1.175 
0.14255 0.11874 1.113 
0.192506 0.117566 1.102 
0.242908 0.116286 1.09 
0.279702 0.110738 1.038 
0.315756 0.106578 0.999 
0.344186 0.101243 0.949 
0.374503 0.0976162 0.915 
0.403018 0.094309 0.884 
0.435177 0.0923887 0.866 
0.463461 0.0900416 0.844 
0.487906 0.0873745 0.819 
0.506167 0.0840673 0.788 
0.531873 0.0823603 0.772 
0.544318 0.0789464 0.74 
0.563166 0.0768127 0.72 
0.578492 0.0744657 0.698 
0.590518 0.0715852 0.671 
0.6052 0.0695582 0.652 
0.622917 0.0681713 0.639 
-0.643743 0.0842092 0.778 
-0.615483 0.0866987 0.801 
-0.592584 0.0888634 0.821 
-0.580649 0.0930847 0.86 
-0.560678 0.0965483 0.892 
-0.533069 0.099146 0.916 
-0.507505 0.10261 0.948 
-0.47016 0.104125 0.962 
-0.447427 0.109537 1.012 
-0.432294 0.118304 1.093 
-0.383791 0.119062 1.1 
-0.329497 0.117979 1.09 
-0.276646 0.117114 1.082 
-0.229559 0.118845 1.098 
-0.173854 0.118088 1.091 
-0.123227 0.118304 1.093 
-0.0730098 0.119495 1.104 
-0.0222743 0.1235 1.141 
0.0324521 0.129669 1.198 
0.0871857 0.128046 1.183 
0.136121 0.120902 1.117 
0.183804 0.118088 1.091 
0.238527 0.120036 1.109 
0.275094 0.113109 1.045 
0.309858 0.108238 1 
0.343035 0.103259 0.954 
0.372066 0.099146 0.916 
0.40163 0.0960071 0.887 
0.432985 0.0938424 0.867 
0.461384 0.0914611 0.845 
0.485954 0.0887552 0.82 
0.504943 0.0852916 0.788 
0.530674 0.0835598 0.772 
0.543902 0.0802044 0.741 
0.562048 0.0779314 0.72 
0.578235 0.0756584 0.699 
0.590017 0.0729524 0.674 
0.605758 0.0711124 0.657 
0.618946 0.0691641 0.639 
-0.649412 0.0855277 0.779 
-0.617506 0.0871746 0.794 
-0.599507 0.0900292 0.82 
-0.579083 0.0928838 0.846 
-0.563252 0.0969461 0.883 
-0.53806 0.0999104 0.91 
-0.513619 0.103534 0.943 
-0.471159 0.103863 0.946 
-0.449187 0.109243 0.995 
-0.435196 0.118026 1.075 
-0.395478 0.12121 1.104 
-0.339658 0.119673 1.09 
-0.289913 0.120112 1.094 
-0.239173 0.1211 1.103 
-0.184024 0.119783 1.091 
-0.133172 0.119783 1.091 
-0.0833013 0.12121 1.104 
-0.0325358 0.123845 1.128 
0.0211599 0.130762 1.191 
0.0771877 0.13164 1.199 
0.125748 0.124394 1.133 
0.172254 0.120002 1.093 
0.227896 0.122528 1.116 
0.265495 0.115501 1.052 
0.29958 0.110011 1.002 
0.335798 0.105729 0.963 
0.364871 0.101338 0.923 
0.394193 0.0979342 0.892 
0.424044 0.0952992 0.868 
0.455405 0.0934327 0.851 
0.477618 0.090139 0.821 
0.499547 0.0872844 0.795 
0.521078 0.0847592 0.772 
0.539743 0.0821242 0.748 
0.556939 0.079599 0.725 
0.573621 0.0772934 0.704 
0.587484 0.0748779 0.682 
0.601111 0.0726821 0.662 
0.612875 0.0704863 0.642 
-0.660666 0.0866267 0.778 
-0.626811 0.0869607 0.781 
-0.610819 0.0899671 0.808 
-0.590183 0.0926393 0.832 
-0.573936 0.0964251 0.866 
-0.550823 0.0995428 0.894 
-0.524531 0.102549 0.921 
-0.498336 0.106112 0.953 
-0.465824 0.108896 0.978 
-0.443013 0.114797 1.031 
-0.421773 0.122591 1.101 
-0.370792 0.122703 1.102 
-0.317398 0.121923 1.095 
-0.26782 0.122591 1.101 
-0.214401 0.122369 1.099 
-0.162879 0.122146 1.097 
-0.11185 0.122257 1.098 
-0.0619423 0.124818 1.121 
-0.00997751 0.128493 1.154 
0.045709 0.13406 1.204 
0.0981065 0.129161 1.16 
0.145353 0.123371 1.108 
0.196286 0.122925 1.104 
0.244121 0.119474 1.073 
0.281799 0.114463 1.028 
0.315633 0.108005 0.97 
0.348568 0.104331 0.937 
0.379265 0.100879 0.906 
0.409864 0.0980953 0.881 
0.444785 0.0967591 0.869 
0.466861 0.0930847 0.836 
0.491911 0.0905238 0.813 
0.509603 0.0870721 0.782 
0.528596 0.0842884 0.757 
0.547492 0.0818389 0.735 
0.562755 0.0791666 0.711 
0.579971 0.077051 0.692 
0.591876 0.0744901 0.669 
0.605363 0.0723745 0.65 
0.620991 0.0707043 0.635 
-0.64336 0.0879484 0.779 
-0.619519 0.0897547 0.795 
-0.600781 0.0925772 0.82 
-0.575595 0.0947223 0.839 
-0.562067 0.0992383 0.879 
-0.538881 0.102625 0.909 
-0.513445 0.106125 0.94 
-0.47163 0.106577 0.944 
-0.449374 0.111996 0.992 
-0.432396 0.120125 1.064 
-0.399712 0.125431 1.111 
-0.342291 0.123399 1.093 
-0.293479 0.124302 1.101 
-0.24392 0.125205 1.109 
-0.187586 0.123286 1.092 
-0.137188 0.123737 1.096 
-0.086889 0.124866 1.106 
-0.036009 0.127237 1.127 
0.0173857 0.133898 1.186 
0.0737071 0.135818 1.203 
0.122012 0.127689 1.131 
0.168703 0.123286 1.092 
0.223422 0.125431 1.111 
0.26361 0.118657 1.051 
0.296833 0.112673 0.998 
0.337994 0.108948 0.965 
0.365114 0.103867 0.92 
0.396022 0.100819 0.893 
0.426373 0.0982222 0.87 
0.456727 0.0960771 0.851 
0.47831 0.0925772 0.82 
0.499523 0.0895289 0.793 
0.520248 0.0868194 0.769 
0.538736 0.0841098 0.745 
0.556526 0.081626 0.723 
0.573898 0.079368 0.703 
0.586817 0.0767714 0.68 
0.60123 0.0746263 0.661 
0.61196 0.0722554 0.64 
-0.657762 0.0888153 0.776 
-0.623995 0.0891587 0.779 
-0.60881 0.0923634 0.807 
-0.58889 0.0952247 0.832 
-0.569285 0.0985438 0.861 
-0.550049 0.102435 0.895 
-0.523668 0.105525 0.922 
-0.49477 0.108616 0.949 
-0.464305 0.111935 0.978 
-0.440983 0.117886 1.03 
-0.420063 0.126012 1.101 
-0.36975 0.126356 1.104 
-0.315985 0.12544 1.096 
-0.268043 0.126928 1.109 
-0.216742 0.127157 1.111 
-0.156631 0.126012 1.101 
-0.1056 0.126356 1.104 
-0.0550737 0.12853 1.123 
-0.00282519 0.132994 1.162 
0.053324 0.138144 1.207 
0.104498 0.131735 1.151 
0.151689 0.126356 1.104 
0.202963 0.126241 1.103 
0.247265 0.121892 1.065 
0.284081 0.116627 1.019 
0.319671 0.110332 0.964 
0.352501 0.10667 0.932 
0.381922 0.102893 0.899 
0.413924 0.100489 0.878 
0.447077 0.0987727 0.863 
0.468668 0.0949958 0.83 
0.492684 0.0922489 0.806 
0.510516 0.0888153 0.776 
0.529534 0.0858396 0.75 
0.548686 0.083436 0.729 
0.565081 0.0809181 0.707 
0.581963 0.0787435 0.688 
0.595288 0.07634 0.667 
0.607596 0.0740509 0.647 
0.622967 0.0723341 0.632 
-0.638127 0.090485 0.78 
-0.616429 0.0926891 0.799 
-0.59731 0.0955893 0.824 
-0.571791 0.0977934 0.843 
-0.559028 0.102666 0.885 
-0.533575 0.105798 0.912 
-0.506681 0.109162 0.941 
-0.467247 0.110206 0.95 
-0.44612 0.116238 1.002 
-0.426921 0.124243 1.071 
-0.390377 0.128651 1.109 
-0.335633 0.127491 1.099 
-0.286478 0.128419 1.107 
-0.237002 0.129579 1.117 
-0.170006 0.127491 1.099 
-0.119214 0.127955 1.103 
-0.0684173 0.129115 1.113 
-0.0170304 0.132943 1.146 
0.0378772 0.138396 1.193 
0.0930194 0.135031 1.164 
0.140315 0.128651 1.109 
0.188889 0.126563 1.091 
0.24062 0.127027 1.095 
0.275411 0.119951 1.034 
0.308543 0.113802 0.981 
0.347406 0.111598 0.962 
0.372047 0.10545 0.909 
0.40393 0.102782 0.886 
0.437187 0.100926 0.87 
0.461264 0.0974454 0.84 
0.487906 0.0950093 0.819 
0.506525 0.090601 0.781 
0.525548 0.0877008 0.756 
0.545208 0.0852647 0.735 
0.559757 0.0823646 0.71 
0.578655 0.0803924 0.693 
0.589797 0.0776083 0.669 
0.6052 0.0756362 0.652 
0.618043 0.0735481 0.634 
-0.64215 0.0915793 0.779 
-0.619062 0.0935778 0.796 
-0.6017 0.096752 0.823 
-0.573607 0.0985154 0.838 
-0.560063 0.103218 0.878 
-0.536877 0.106745 0.908 
-0.510895 0.110271 0.938 
-0.469167 0.110742 0.942 
-0.447832 0.11662 0.992 
-0.428314 0.124379 1.058 
-0.398702 0.130844 1.113 
-0.342774 0.129316 1.1 
-0.293888 0.130374 1.109 
-0.243726 0.131197 1.116 
-0.181793 0.129081 1.098 
-0.131329 0.129786 1.104 
-0.0800155 0.130021 1.106 
-0.0292881 0.133783 1.138 
0.0247564 0.139426 1.186 
0.0801711 0.139661 1.188 
0.127672 0.13155 1.119 
0.174043 0.127318 1.083 
0.229498 0.130139 1.107 
0.265352 0.12285 1.045 
0.29723 0.116267 0.989 
0.334302 0.11321 0.963 
0.365114 0.108155 0.92 
0.396466 0.105099 0.894 
0.428334 0.102748 0.874 
0.456727 0.100044 0.851 
0.477727 0.0962817 0.819 
0.500634 0.0925198 0.787 
0.521613 0.0898159 0.764 
0.539719 0.0869945 0.74 
0.557916 0.0845257 0.719 
0.576063 0.0821745 0.699 
0.588617 0.0794706 0.676 
0.604531 0.0774721 0.659 
0.61404 0.0748858 0.637 
-0.648952 0.0925514 0.777 
-0.620622 0.0937425 0.787 
-0.602489 0.0967204 0.812 
-0.579939 0.0993409 0.834 
-0.558583 0.102557 0.861 
-0.544344 0.107679 0.904 
-0.516652 0.110776 0.93 
-0.479921 0.112324 0.943 
-0.453998 0.11697 0.982 
-0.434 0.124355 1.044 
-0.410807 0.132574 1.113 
-0.35893 0.132574 1.113 
-0.305121 0.13174 1.106 
-0.255405 0.132693 1.114 
-0.204759 0.133527 1.121 
-0.145445 0.131859 1.107 
-0.0941015 0.132216 1.11 
-0.0432801 0.135075 1.134 
0.00993063 0.140078 1.176 
0.0662308 0.143294 1.203 
0.115288 0.135075 1.134 
0.162065 0.130191 1.093 
0.213984 0.130787 1.098 
0.253812 0.125189 1.051 
0.289259 0.11959 1.004 
0.322667 0.114826 0.964 
0.355313 0.110538 0.928 
0.386112 0.107083 0.899 
0.418969 0.10482 0.88 
0.446918 0.101842 0.855 
0.47026 0.098388 0.826 
0.493371 0.0946954 0.795 
0.513079 0.0915985 0.769 
0.533219 0.088978 0.747 
0.551307 0.0863575 0.725 
0.570054 0.0839752 0.705 
0.583245 0.0812356 0.682 
0.596997 0.0788533 0.662 
0.608885 0.076471 0.642 
0.626868 0.0750417 0.63 
-0.625612 0.0938793 0.778 
-0.60753 0.0967753 0.802 
-0.590764 0.100275 0.831 
-0.560003 0.101723 0.843 
-0.550359 0.107515 0.891 
-0.525391 0.111014 0.92 
-0.492999 0.113427 0.94 
-0.460654 0.116323 0.964 
-0.439871 0.123081 1.02 
-0.416945 0.130804 1.084 
-0.373856 0.133458 1.106 
-0.320265 0.132614 1.099 
-0.273447 0.134786 1.117 
-0.224554 0.136716 1.133 
-0.168107 0.13382 1.109 
-0.116416 0.13382 1.109 
-0.0650755 0.134544 1.115 
-0.0135987 0.139612 1.157 
0.0417237 0.144439 1.197 
0.0940946 0.139371 1.155 
0.141654 0.133458 1.106 
0.189362 0.130804 1.084 
0.2421 0.13201 1.094 
0.274606 0.123684 1.025 
0.30697 0.117771 0.976 
0.345962 0.115599 0.958 
0.372457 0.109807 0.91 
0.404386 0.107032 0.887 
0.437689 0.105101 0.871 
0.459816 0.100757 0.835 
0.486192 0.0982233 0.814 
0.50337 0.0938793 0.778 
0.524374 0.0912246 0.756 
0.543326 0.0885699 0.734 
0.558654 0.0856739 0.71 
0.576745 0.0835019 0.692 
0.588758 0.0807265 0.669 
0.605114 0.0787958 0.653 
0.617058 0.0765032 0.634 
-0.642535 0.095088 0.778 
-0.61874 0.0970436 0.794 
-0.602979 0.100588 0.823 
-0.573537 0.102177 0.836 
-0.55823 0.106699 0.873 
-0.537103 0.110732 0.906 
-0.510168 0.114155 0.934 
-0.468133 0.114521 0.937 
-0.448015 0.120877 0.989 
-0.428739 0.128943 1.055 
-0.400792 0.136154 1.114 
-0.347302 0.135543 1.109 
-0.296944 0.136154 1.114 
-0.24656 0.13701 1.121 
-0.193616 0.136521 1.117 
-0.141172 0.136154 1.114 
-0.089088 0.13591 1.112 
-0.0381955 0.139332 1.14 
0.0154644 0.144221 1.18 
0.0710617 0.145443 1.19 
0.119829 0.137743 1.127 
0.16563 0.132365 1.083 
0.219302 0.134321 1.099 
0.257234 0.127721 1.045 
0.291303 0.12161 0.995 
0.326481 0.117577 0.962 
0.357039 0.113055 0.925 
0.390204 0.110243 0.902 
0.422183 0.107677 0.881 
0.447998 0.104132 0.852 
0.471814 0.100466 0.822 
0.492751 0.0970436 0.794 
0.512412 0.0938658 0.768 
0.533219 0.0912992 0.747 
0.550547 0.0884881 0.724 
0.568959 0.0861659 0.705 
0.582186 0.0833548 0.682 
0.595969 0.0809104 0.662 
0.608834 0.0785882 0.643 
0.624896 0.0768771 0.629 
-0.626821 0.0962968 0.778 
-0.607257 0.0990198 0.8 
-0.590631 0.102609 0.829 
-0.559315 0.103971 0.84 
-0.548975 0.110283 0.891 
-0.523961 0.113873 0.92 
-0.491015 0.116225 0.939 
-0.455822 0.118452 0.957 
-0.438286 0.12625 1.02 
-0.412196 0.133182 1.076 
-0.372474 0.137019 1.107 
-0.320007 0.136647 1.104 
-0.272441 0.138628 1.12 
-0.223187 0.140484 1.135 
-0.167734 0.13838 1.118 
-0.115417 0.138133 1.116 
-0.0635136 0.13838 1.118 
-0.0118317 0.143579 1.16 
0.0435471 0.148035 1.196 
0.097007 0.14197 1.147 
0.144697 0.136524 1.103 
0.192019 0.133677 1.08 
0.243929 0.134543 1.087 
0.275894 0.126003 1.018 
0.309368 0.120557 0.974 
0.345296 0.117339 0.948 
0.373049 0.112388 0.908 
0.406679 0.110036 0.889 
0.439547 0.107932 0.872 
0.460009 0.103104 0.833 
0.486259 0.100505 0.812 
0.502162 0.0962968 0.778 
0.523891 0.0936975 0.757 
0.542633 0.0903556 0.73 
0.55928 0.0876326 0.708 
0.575549 0.0851571 0.688 
0.589071 0.0825578 0.667 
0.605283 0.0805774 0.651 
0.618052 0.0783494 0.633 
-0.638087 0.0973802 0.777 
-0.617363 0.0998868 0.797 
-0.599871 0.103271 0.824 
-0.571685 0.105151 0.839 
-0.554071 0.109662 0.875 
-0.534992 0.1143 0.912 
-0.504363 0.117057 0.934 
-0.462803 0.117558 0.938 
-0.444549 0.124702 0.995 
-0.422582 0.132347 1.056 
-0.393161 0.139365 1.112 
-0.339796 0.138739 1.107 
-0.291062 0.140117 1.118 
-0.241089 0.141371 1.128 
-0.186674 0.139992 1.117 
-0.134852 0.140243 1.119 
-0.0823251 0.139616 1.114 
-0.0312745 0.143626 1.146 
0.0228557 0.148264 1.183 
0.0771386 0.146634 1.17 
0.125483 0.139741 1.115 
0.171565 0.135104 1.078 
0.226955 0.138237 1.103 
0.264421 0.129715 1.035 
0.29786 0.123574 0.986 
0.333357 0.119814 0.956 
0.36408 0.115428 0.921 
0.396402 0.11242 0.897 
0.431372 0.110665 0.883 
0.453264 0.106153 0.847 
0.475977 0.102268 0.816 
0.495743 0.0986335 0.787 
0.516865 0.095751 0.764 
0.535967 0.0924924 0.738 
0.554909 0.0899858 0.718 
0.571986 0.0874793 0.698 
0.5846 0.0845967 0.675 
0.600546 0.0824661 0.658 
0.61203 0.0799596 0.638 
-0.648374 0.097953 0.772 
-0.622703 0.0996025 0.785 
-0.601047 0.10214 0.805 
-0.581027 0.105312 0.83 
-0.551488 0.107089 0.844 
-0.541523 0.113813 0.897 
-0.515312 0.117366 0.925 
-0.47526 0.118127 0.931 
-0.448102 0.122568 0.966 
-0.43604 0.132592 1.045 
-0.406977 0.139317 1.098 
-0.362927 0.142108 1.12 
-0.310169 0.141854 1.118 
-0.259905 0.142869 1.126 
-0.20908 0.144011 1.135 
-0.155765 0.143631 1.132 
-0.102274 0.142616 1.124 
-0.0501057 0.14325 1.129 
0.0026043 0.148198 1.168 
0.0585592 0.152132 1.199 
0.108241 0.143884 1.134 
0.15584 0.13919 1.097 
0.204142 0.137286 1.082 
0.248401 0.132211 1.042 
0.285569 0.127136 1.002 
0.319671 0.122314 0.964 
0.350988 0.117747 0.928 
0.384046 0.114701 0.904 
0.416753 0.112164 0.884 
0.443969 0.108738 0.857 
0.467539 0.105058 0.828 
0.489045 0.100998 0.796 
0.5083 0.0975724 0.769 
0.529992 0.0950347 0.749 
0.546802 0.0919896 0.725 
0.565379 0.0895788 0.706 
0.579007 0.0865336 0.682 
0.592883 0.083996 0.662 
0.607722 0.081839 0.645 
0.621964 0.0798089 0.629 
-0.630047 0.100052 0.779 
-0.609743 0.102749 0.8 
-0.59106 0.106088 0.826 
-0.563932 0.108271 0.843 
-0.547044 0.112895 0.879 
-0.528527 0.117904 0.918 
-0.496851 0.120601 0.939 
-0.454049 0.120858 0.941 
-0.438087 0.129078 1.005 
-0.410708 0.1355 1.055 
-0.380039 0.142435 1.109 
-0.329237 0.142821 1.112 
-0.279152 0.14372 1.119 
-0.230647 0.146032 1.137 
-0.175776 0.14449 1.125 
-0.123559 0.144747 1.127 
-0.0703356 0.143334 1.116 
-0.0189751 0.148472 1.156 
0.0359633 0.152967 1.191 
0.0882503 0.147573 1.149 
0.136128 0.141665 1.103 
0.182099 0.137555 1.071 
0.239167 0.141793 1.104 
0.272195 0.130491 1.016 
0.307599 0.12561 0.978 
0.34235 0.121757 0.948 
0.372266 0.117262 0.913 
0.40528 0.114565 0.892 
0.440344 0.112895 0.879 
0.457221 0.107244 0.835 
0.484519 0.103648 0.807 
0.501429 0.0995378 0.775 
0.52368 0.0969691 0.755 
0.539625 0.0936297 0.729 
0.557867 0.091061 0.709 
0.573411 0.0883638 0.688 
0.586998 0.0856667 0.667 
0.602334 0.0834833 0.65 
0.616085 0.0812999 0.633 
-0.641636 0.100612 0.774 
-0.619643 0.102952 0.792 
-0.602593 0.106461 0.819 
-0.574756 0.108411 0.834 
-0.55259 0.111791 0.86 
-0.537534 0.117251 0.902 
-0.510323 0.12076 0.929 
-0.467022 0.12076 0.929 
-0.44151 0.12583 0.968 
-0.431198 0.136879 1.053 
-0.400624 0.143508 1.104 
-0.354227 0.145588 1.12 
-0.302293 0.145718 1.121 
-0.252496 0.147148 1.132 
-0.200439 0.147668 1.136 
-0.14736 0.147538 1.135 
-0.0937918 0.146498 1.127 
-0.0416647 0.147928 1.138 
0.0117378 0.152608 1.174 
0.0669111 0.153648 1.182 
0.115915 0.145978 1.123 
0.162265 0.140779 1.083 
0.214119 0.141689 1.09 
0.256133 0.134409 1.034 
0.293438 0.1296 0.997 
0.32593 0.12427 0.956 
0.358088 0.12011 0.924 
0.392473 0.117511 0.904 
0.424513 0.114781 0.883 
0.448267 0.110491 0.85 
0.470092 0.106461 0.819 
0.493298 0.102302 0.787 
0.518052 0.099312 0.764 
0.534821 0.0959322 0.738 
0.551479 0.0929425 0.715 
0.568447 0.0903427 0.695 
0.58409 0.0873529 0.672 
0.599944 0.0850131 0.654 
0.612112 0.0825433 0.635 
-0.647534 0.10142 0.771 
-0.62429 0.103524 0.787 
-0.601794 0.106024 0.806 
-0.579627 0.108918 0.828 
-0.554102 0.111549 0.848 
-0.541883 0.117468 0.893 
-0.515385 0.12102 0.92 
-0.475585 0.121809 0.926 
-0.444099 0.125098 0.951 
-0.438867 0.137331 1.044 
-0.401418 0.141277 1.074 
-0.363463 0.146144 1.111 
-0.317851 0.149038 1.133 
-0.264106 0.148512 1.129 
-0.213356 0.149828 1.139 
-0.158776 0.150091 1.141 
-0.104853 0.149038 1.133 
-0.0520435 0.149038 1.133 
0.000789609 0.153642 1.168 
0.0564599 0.157063 1.194 
0.106009 0.148512 1.129 
0.153715 0.143908 1.094 
0.201712 0.141804 1.078 
0.246971 0.136279 1.036 
0.285569 0.131806 1.002 
0.319008 0.126545 0.962 
0.351366 0.122204 0.929 
0.385321 0.11931 0.907 
0.416753 0.116284 0.884 
0.445523 0.113127 0.86 
0.46641 0.108655 0.826 
0.487816 0.104445 0.794 
0.5083 0.101157 0.769 
0.529284 0.0983943 0.748 
0.545293 0.0951057 0.723 
0.564578 0.0927379 0.705 
0.5771 0.0895809 0.681 
0.592117 0.0868185 0.66 
0.60778 0.0847138 0.644 
0.621951 0.0826091 0.628 
-0.632051 0.103416 0.777 
-0.612705 0.106344 0.799 
-0.592749 0.109539 0.823 
-0.569209 0.112467 0.845 
-0.542363 0.115129 0.865 
-0.530485 0.121651 0.914 
-0.498559 0.124312 0.934 
-0.455512 0.124446 0.935 
-0.4344 0.131233 0.986 
-0.41405 0.139885 1.051 
-0.384514 0.147338 1.107 
-0.337126 0.149202 1.121 
-0.284876 0.149202 1.121 
-0.236569 0.15173 1.14 
-0.180706 0.150932 1.134 
-0.128301 0.151464 1.138 
-0.074134 0.149202 1.121 
-0.0224695 0.153194 1.151 
0.0322895 0.158651 1.192 
0.0848273 0.153194 1.151 
0.13246 0.14654 1.101 
0.177936 0.141881 1.066 
0.235737 0.146939 1.104 
0.267459 0.135226 1.016 
0.306139 0.1315 0.988 
0.337575 0.126043 0.947 
0.369623 0.12205 0.917 
0.401122 0.118722 0.892 
0.438728 0.117658 0.884 
0.454958 0.111535 0.838 
0.477511 0.107808 0.81 
0.496181 0.103816 0.78 
0.520931 0.101553 0.763 
0.536072 0.0978262 0.735 
0.552484 0.094765 0.712 
0.568397 0.0919699 0.691 
0.583221 0.089308 0.671 
0.598012 0.0869122 0.653 
0.611125 0.0845165 0.635 
-0.647049 0.103546 0.769 
-0.624718 0.105835 0.786 
-0.602298 0.108394 0.805 
-0.580211 0.111356 0.827 
-0.557384 0.114588 0.851 
-0.539012 0.1193 0.886 
-0.516253 0.123744 0.919 
-0.476509 0.124552 0.925 
-0.444171 0.127649 0.948 
-0.437113 0.139498 1.036 
-0.399709 0.143403 1.065 
-0.365189 0.149597 1.111 
-0.32215 0.153771 1.142 
-0.265625 0.151886 1.128 
-0.21607 0.15404 1.144 
-0.162606 0.153906 1.143 
-0.109043 0.153502 1.14 
-0.0556622 0.152828 1.135 
-0.00283492 0.157003 1.166 
0.0527497 0.160773 1.194 
0.102138 0.151482 1.125 
0.149766 0.146769 1.09 
0.197075 0.144211 1.071 
0.242854 0.140844 1.046 
0.279899 0.135189 1.004 
0.314331 0.130072 0.966 
0.347824 0.125898 0.935 
0.38094 0.122532 0.91 
0.41219 0.1193 0.886 
0.445809 0.117281 0.871 
0.462952 0.111625 0.829 
0.482835 0.107451 0.798 
0.502435 0.103816 0.771 
0.523009 0.100853 0.749 
0.540788 0.0977563 0.726 
0.559589 0.0951979 0.707 
0.572428 0.0919663 0.683 
0.589222 0.0896773 0.666 
0.600707 0.0868496 0.645 
0.616101 0.0848298 0.63 
-0.637124 0.104877 0.77 
-0.618412 0.107874 0.792 
-0.599118 0.111143 0.816 
-0.574148 0.113731 0.835 
-0.551253 0.117136 0.86 
-0.535538 0.12272 0.901 
-0.507784 0.126261 0.927 
-0.464076 0.126125 0.926 
-0.435005 0.130347 0.957 
-0.427522 0.142742 1.048 
-0.392044 0.147782 1.085 
-0.352801 0.152685 1.121 
-0.304305 0.154592 1.135 
-0.251845 0.154864 1.137 
-0.200073 0.155818 1.144 
-0.14688 0.155954 1.145 
-0.0926941 0.154592 1.135 
-0.0400368 0.155545 1.142 
0.0135964 0.160312 1.177 
0.0685149 0.160449 1.178 
0.118447 0.151731 1.114 
0.163183 0.14533 1.067 
0.220406 0.14928 1.096 
0.26002 0.139473 1.024 
0.301137 0.136477 1.002 
0.329441 0.129258 0.949 
0.363043 0.12558 0.922 
0.395889 0.122448 0.899 
0.429514 0.120132 0.882 
0.448747 0.114548 0.841 
0.4717 0.110734 0.813 
0.49079 0.106648 0.783 
0.514491 0.10406 0.764 
0.532821 0.100791 0.74 
0.546613 0.0971136 0.713 
0.564395 0.0945257 0.694 
0.580405 0.0919378 0.675 
0.593737 0.0892138 0.655 
0.608065 0.0868983 0.638 
-0.649447 0.104972 0.762 
-0.628432 0.107451 0.78 
-0.607257 0.110206 0.8 
-0.587068 0.113513 0.824 
-0.565974 0.117094 0.85 
-0.533166 0.11861 0.861 
-0.522812 0.125773 0.913 
-0.490777 0.128528 0.933 
-0.450166 0.129355 0.939 
-0.425009 0.135278 0.982 
-0.408588 0.145748 1.058 
-0.374895 0.152085 1.104 
-0.336328 0.158146 1.148 
-0.279124 0.15608 1.133 
-0.229311 0.158146 1.148 
-0.174884 0.15732 1.142 
-0.122507 0.158422 1.15 
-0.0678864 0.15608 1.133 
-0.0153963 0.159386 1.157 
0.0398307 0.164758 1.196 
0.0923024 0.15608 1.133 
0.140117 0.150707 1.094 
0.184121 0.145197 1.054 
0.241436 0.150294 1.091 
0.272913 0.138722 1.007 
0.309368 0.134176 0.974 
0.342746 0.12963 0.941 
0.375514 0.125911 0.914 
0.406222 0.122329 0.888 
0.443075 0.121089 0.879 
0.457613 0.114477 0.831 
0.479622 0.11062 0.803 
0.499021 0.106762 0.775 
0.522024 0.104145 0.756 
0.537754 0.100288 0.728 
0.556765 0.0976703 0.709 
0.569847 0.0943642 0.685 
0.585962 0.0918845 0.667 
0.598548 0.0891294 0.647 
0.614129 0.087063 0.632 
-0.636907 0.106434 0.764 
-0.620973 0.109917 0.789 
-0.598266 0.112564 0.808 
-0.575868 0.115629 0.83 
-0.554657 0.11939 0.857 
-0.532729 0.123569 0.887 
-0.51133 0.128585 0.923 
-0.464851 0.128027 0.919 
-0.436711 0.132485 0.951 
-0.427868 0.144466 1.037 
-0.392343 0.149342 1.072 
-0.357388 0.15589 1.119 
-0.312596 0.159651 1.146 
-0.256919 0.158258 1.136 
-0.206483 0.160208 1.15 
-0.152615 0.15993 1.148 
-0.0985887 0.159094 1.142 
-0.0454789 0.159512 1.145 
0.00808284 0.163412 1.173 
0.0633452 0.164945 1.184 
0.112225 0.156168 1.121 
0.155818 0.147949 1.062 
0.209958 0.151292 1.086 
0.251208 0.143073 1.027 
0.293543 0.140426 1.008 
0.322284 0.132903 0.954 
0.356755 0.129281 0.928 
0.391819 0.126634 0.909 
0.418903 0.122176 0.877 
0.444052 0.117997 0.847 
0.466405 0.113818 0.817 
0.484726 0.10936 0.785 
0.508033 0.106573 0.765 
0.528497 0.103369 0.742 
0.544869 0.100026 0.718 
0.562225 0.0972395 0.698 
0.576865 0.0943139 0.677 
0.591345 0.091667 0.658 
0.60689 0.089438 0.642 
0.620943 0.087209 0.626 
-0.630424 0.109171 0.775 
-0.610405 0.112129 0.796 
-0.589868 0.115369 0.819 
-0.569209 0.119031 0.845 
-0.539228 0.121144 0.86 
-0.527583 0.128046 0.909 
-0.49589 0.130864 0.929 
-0.453563 0.131146 0.931 
-0.426029 0.136217 0.967 
-0.414444 0.14819 1.052 
-0.379651 0.153966 1.093 
-0.346149 0.162136 1.151 
-0.291738 0.161713 1.148 
-0.238229 0.161713 1.148 
-0.183755 0.160868 1.142 
-0.132241 0.162981 1.157 
-0.0768233 0.159882 1.135 
-0.0243421 0.162699 1.155 
0.0304631 0.168052 1.193 
0.0834719 0.162981 1.157 
0.130512 0.154811 1.099 
0.174461 0.148613 1.055 
0.232962 0.154811 1.099 
0.263262 0.142556 1.012 
0.307364 0.141147 1.002 
0.333572 0.132977 0.944 
0.368373 0.129737 0.921 
0.398797 0.125793 0.893 
0.432529 0.123539 0.877 
0.452243 0.117341 0.833 
0.475742 0.113678 0.807 
0.495545 0.109734 0.779 
0.5182 0.106917 0.759 
0.533884 0.103113 0.732 
0.54938 0.0997326 0.708 
0.565929 0.0969153 0.688 
0.581482 0.0942388 0.669 
0.595264 0.0915624 0.65 
0.610184 0.0891677 0.633 
-0.639477 0.108238 0.76 
-0.622333 0.111514 0.783 
-0.600053 0.11422 0.802 
-0.580211 0.11778 0.827 
-0.558694 0.121483 0.853 
-0.526844 0.123335 0.866 
-0.515691 0.130741 0.918 
-0.471872 0.130456 0.916 
-0.442296 0.134443 0.944 
-0.41897 0.141422 0.993 
-0.399709 0.151676 1.065 
-0.364861 0.158085 1.11 
-0.326382 0.164779 1.157 
-0.268921 0.162642 1.142 
-0.218148 0.164494 1.155 
-0.163602 0.163782 1.15 
-0.110669 0.164779 1.157 
-0.0562017 0.163212 1.146 
-0.00282519 0.165491 1.162 
0.0526613 0.169763 1.192 
0.101866 0.159794 1.122 
0.147018 0.152388 1.07 
0.194682 0.150679 1.058 
0.242622 0.148828 1.045 
0.279063 0.142561 1.001 
0.312704 0.136865 0.961 
0.347452 0.133019 0.934 
0.382614 0.130171 0.914 
0.408933 0.125186 0.879 
0.440791 0.121911 0.856 
0.461597 0.117068 0.822 
0.479841 0.112369 0.789 
0.504176 0.109663 0.77 
0.52183 0.10596 0.744 
0.5408 0.102969 0.723 
0.558607 0.10012 0.703 
0.572026 0.0968449 0.68 
0.58774 0.0942813 0.662 
0.599908 0.0914329 0.642 
0.614135 0.0891542 0.626 
-0.628961 0.109851 0.763 
-0.614396 0.113738 0.79 
-0.593658 0.116906 0.812 
-0.573607 0.120649 0.838 
-0.548581 0.123816 0.86 
-0.524461 0.127704 0.887 
-0.503464 0.133463 0.927 
-0.45827 0.132887 0.923 
-0.430995 0.137926 0.958 
-0.419411 0.149731 1.04 
-0.38449 0.155202 1.078 
-0.354088 0.164417 1.142 
-0.304284 0.166288 1.155 
-0.24763 0.164417 1.142 
-0.194401 0.164417 1.142 
-0.143273 0.166864 1.159 
-0.0883279 0.165137 1.147 
-0.0351699 0.166576 1.157 
0.0191797 0.17032 1.183 
0.0733774 0.16816 1.168 
0.121362 0.159666 1.109 
0.164626 0.151891 1.055 
0.222109 0.157794 1.096 
0.256085 0.146996 1.021 
0.298915 0.144692 1.005 
0.327276 0.136342 0.947 
0.362787 0.133175 0.925 
0.395809 0.129863 0.902 
0.425131 0.125688 0.873 
0.447146 0.120649 0.838 
0.47054 0.116762 0.811 
0.489537 0.112443 0.781 
0.509777 0.108987 0.757 
0.529221 0.10582 0.735 
0.545847 0.102508 0.712 
0.562768 0.099629 0.692 
0.577825 0.0967496 0.672 
0.592831 0.0941581 0.654 
0.605206 0.0914226 0.635 
-0.64689 0.110454 0.759 
-0.626008 0.11351 0.78 
-0.60326 0.11613 0.798 
-0.583798 0.119768 0.823 
