# .PCD v.7 - Point Cloud Data file format
VERSION .7
FIELDS x y z
SIZE 4 4 4
TYPE F F F
COUNT 1 1 1
WIDTH 1893
HEIGHT 1
VIEWPOINT 0 0 0 1 0 0 0
POINTS 1893
DATA ascii
4.37028 0.0788122 4.756 
4.70686 0.0807842 4.875 
-20.6169 0.485327 26.777 
-34.4858 0.864117 47.676 
-0.464157 0.0306671 1.692 
-0.381422 0.030359 1.675 
-0.295831 0.0301234 1.662 
-0.169743 0.0293078 1.617 
0.0169496 0.0147173 0.812 
0.342783 0.012923 0.713 
0.522916 0.0133942 0.739 
0.608504 0.0136661 0.754 
0.650477 0.0138111 0.762 
4.47076 0.0860021 4.745 
4.83234 0.0885758 4.887 
-22.0213 0.582817 29.617 
-1.05814 0.0462837 2.352 
-0.414257 0.0335124 1.703 
-0.315266 0.0320562 1.629 
-0.192948 0.0319185 1.622 
0.00686531 0.0159986 0.813 
0.0768985 0.0166677 0.847 
0.511395 0.014444 0.734 
0.606594 0.0148769 0.756 
0.645227 0.0149556 0.76 
4.38395 0.0920165 4.676 
4.79775 0.0959325 4.875 
-22.7572 0.648493 30.543 
-1.06774 0.0497044 2.341 
-0.421027 0.0362857 1.709 
-0.326189 0.0346721 1.633 
-0.221478 0.0353727 1.666 
-0.124419 0.0329735 1.553 
0.0769893 0.0180049 0.848 
0.512535 0.0155844 0.734 
0.615629 0.0160727 0.757 
4.36295 0.102721 4.838 
4.53249 0.101468 4.779 
4.86271 0.103761 4.887 
-40.4852 1.27259 55.85 
-1.05718 0.053729 2.358 
-0.40154 0.0385992 1.694 
-0.311537 0.0372776 1.636 
-0.191133 0.0370953 1.628 
0.0245191 0.0185021 0.812 
0.0904835 0.0193907 0.851 
0.59796 0.0171805 0.754 
0.636463 0.0172716 0.758 
4.32831 0.105544 4.632 
4.7826 0.111081 4.875 
-28.1409 0.932884 38.328 
-1.06774 0.0569788 2.341 
-0.4145 0.0414745 1.704 
-0.323278 0.0400141 1.644 
-0.205657 0.0399898 1.643 
-0.121456 0.0376289 1.546 
0.0690842 0.0206399 0.848 
0.511139 0.0178165 0.732 
0.632095 0.018425 0.757 
4.32416 0.113008 4.643 
4.79437 0.118947 4.887 
-28.4982 0.992433 38.328 
-1.05718 0.0610561 2.358 
-0.402251 0.0439407 1.697 
-0.313061 0.0425684 1.644 
-0.186531 0.0422577 1.632 
-0.0924991 0.0433452 1.674 
0.073209 0.0220092 0.85 
0.513413 0.0189538 0.732 
0.628567 0.0196011 0.757 
4.31391 0.119937 4.632 
-59.6223 1.79873 65.535 
-47.2003 1.79873 65.535 
-0.436958 0.0469067 1.709 
-0.349984 0.045946 1.674 
-0.176389 0.0447933 1.632 
-0.0341633 0.0444913 1.621 
0.0838726 0.0233573 0.851 
0.613718 0.0208322 0.759 
4.41557 0.132788 4.838 
-25.3547 0.960816 33.131 
-0.464595 0.0496779 1.713 
-0.376891 0.0486629 1.678 
-0.291381 0.0474739 1.637 
-0.0419504 0.0472709 1.63 
0.0813237 0.0247084 0.852 
0.505646 0.0211414 0.729 
0.631407 0.0220114 0.759 
-35.328 1.42202 46.541 
-0.42849 0.052156 1.707 
-0.341772 0.0510866 1.672 
-0.102439 0.0473285 1.549 
0.0641151 0.0260322 0.852 
0.402936 0.021449 0.702 
0.503381 0.022274 0.729 
0.710672 0.0239545 0.784 
-0.465409 0.0550971 1.716 
-0.377564 0.0539733 1.681 
-0.293161 0.0528817 1.647 
-0.0264929 0.0518221 1.614 
0.0891613 0.0273238 0.851 
0.479018 0.023214 0.723 
0.613718 0.0243699 0.759 
0.712199 0.0251405 0.783 
-1.32091 0.070218 2.086 
-0.444403 0.0574603 1.707 
-0.358855 0.0565178 1.679 
-0.0290005 0.0543297 1.614 
0.0891613 0.028646 0.851 
0.470205 0.0244046 0.725 
0.510176 0.0245393 0.729 
0.701886 0.0262897 0.781 
-48.7276 2.30783 65.535 
-1.29946 0.0735294 2.088 
-0.446793 0.0600772 1.706 
-0.361248 0.0590912 1.678 
-0.0444556 0.0573656 1.629 
0.0829384 0.030109 0.855 
0.464573 0.025531 0.725 
0.503381 0.0256719 0.729 
0.696457 0.0274327 0.779 
0.756959 0.0276087 0.784 
-47.6075 2.40965 65.535 
-1.25269 0.0762955 2.075 
-0.430745 0.0623233 1.695 
-0.347383 0.0615511 1.674 
-0.273541 0.0625071 1.7 
0.0805633 0.0315477 0.858 
0.295464 0.0327611 0.891 
0.469079 0.0266575 0.725 
0.507474 0.0268413 0.73 
0.701298 0.028643 0.779 
0.736661 0.0286062 0.778 
-48.8294 2.51147 65.535 
-1.26758 0.0794427 2.073 
-1.09729 0.0854977 2.231 
-0.404172 0.0649185 1.694 
-0.321566 0.0641903 1.675 
-0.0289466 0.0617377 1.611 
0.0831324 0.0328425 0.857 
0.290003 0.0339921 0.887 
0.443355 0.0275156 0.718 
0.490029 0.0278222 0.726 
0.542847 0.0282821 0.738 
0.712486 0.029815 0.778 
0.752598 0.0299683 0.782 
-45.5711 2.61329 65.535 
-1.22485 0.082823 2.077 
-1.01109 0.0872094 2.187 
-0.383016 0.0670719 1.682 
-0.302082 0.0665136 1.668 
-0.0264764 0.0643204 1.613 
0.189174 0.0336157 0.843 
0.402418 0.028033 0.703 
0.472458 0.0289103 0.725 
0.51044 0.0291495 0.731 
0.640841 0.0302661 0.759 
0.718443 0.0308642 0.774 
0.755494 0.0309041 0.775 
-45.673 2.71511 65.535 
-1.21603 0.08634 2.084 
-1.094 0.0936316 2.26 
-0.425917 0.0694366 1.676 
-0.347383 0.0693537 1.674 
-0.270484 0.0696437 1.681 
0.00374146 0.0695194 1.678 
0.278852 0.0369141 0.891 
0.434119 0.0294981 0.712 
0.480539 0.0301196 0.727 
0.51867 0.0303681 0.733 
0.658764 0.0315696 0.762 
0.716038 0.0320668 0.774 
0.756001 0.0322325 0.778 
-48.2185 2.81693 65.535 
-1.11736 0.0949508 2.209 
-0.998327 0.0934464 2.174 
-0.397984 0.0721695 1.679 
-0.319535 0.0721265 1.678 
-0.0689933 0.0645614 1.502 
0.0678421 0.0768117 1.787 
0.274677 0.0386853 0.9 
0.317682 0.0388142 0.903 
0.475544 0.0312921 0.728 
0.512276 0.031464 0.732 
0.553859 0.0318938 0.742 
0.704626 0.0333553 0.776 
0.742705 0.0334413 0.778 
-18.4342 0.926153 20.795 
-1.41606 0.0962896 2.162 
-1.23222 0.0928157 2.084 
-1.11301 0.0986056 2.214 
-0.987467 0.0964232 2.165 
-0.396799 0.0745554 1.674 
-0.319726 0.0747781 1.679 
-0.0713269 0.066895 1.502 
0.00894492 0.0746445 1.676 
0.18067 0.0374113 0.84 
0.304761 0.0399945 0.898 
0.472314 0.0325122 0.73 
0.507033 0.0325568 0.731 
0.548508 0.0330021 0.741 
0.660814 0.0339819 0.763 
0.710309 0.0344273 0.773 
0.750201 0.0346055 0.777 
-1.63371 0.0960536 2.084 
-1.38891 0.0989112 2.146 
-1.2396 0.0963762 2.091 
-1.12766 0.101815 2.209 
-1.03026 0.102368 2.221 
-0.425708 0.0767415 1.665 
-0.349566 0.0770641 1.672 
-0.270496 0.0767415 1.665 
-0.0292161 0.0749439 1.626 
0.0772249 0.080567 1.748 
0.274797 0.0417123 0.905 
0.316979 0.0417123 0.905 
0.491379 0.0335542 0.728 
0.529641 0.0338308 0.734 
0.572303 0.0343378 0.745 
0.688411 0.03549 0.77 
0.728063 0.0356744 0.774 
-36.4178 1.90069 39.893 
-1.43185 0.100578 2.111 
-1.33661 0.100816 2.116 
-1.23973 0.101769 2.136 
-1.10463 0.105342 2.211 
-0.983911 0.103484 2.172 
-0.413864 0.0790425 1.659 
-0.340392 0.0799477 1.678 
-0.259523 0.0791378 1.661 
-0.0268704 0.0779943 1.637 
0.0697887 0.0841404 1.766 
0.271775 0.043309 0.909 
0.316979 0.0431184 0.905 
0.482047 0.0348282 0.731 
0.518943 0.0350188 0.735 
0.559223 0.0354 0.743 
0.668173 0.0364958 0.766 
0.707552 0.0366864 0.77 
0.749235 0.0369722 0.776 
-20.4845 1.14489 23.271 
-1.40478 0.106022 2.155 
-1.26015 0.102431 2.082 
-1.16746 0.109515 2.226 
-1.07852 0.111041 2.257 
-0.978929 0.11168 2.27 
-0.40146 0.0817184 1.661 
-0.329307 0.0830468 1.688 
-0.24662 0.0817184 1.661 
-0.0144475 0.0822104 1.671 
0.0770481 0.0858019 1.744 
0.272886 0.0446721 0.908 
0.319089 0.0446229 0.907 
0.47881 0.0360624 0.733 
0.513676 0.0361116 0.734 
0.555352 0.0366036 0.744 
0.649058 0.0380303 0.773 
0.680657 0.0377843 0.768 
0.721118 0.0380303 0.773 
-41.6401 2.30713 45.459 
-1.56299 0.103027 2.03 
-1.35017 0.107949 2.127 
-1.25515 0.108305 2.134 
-1.11645 0.112365 2.214 
-0.983369 0.111705 2.201 
-0.428038 0.0844513 1.664 
-0.353006 0.0850603 1.676 
-0.272919 0.0844513 1.664 
-0.042982 0.0799344 1.575 
0.0329602 0.0865829 1.706 
0.174823 0.0424794 0.837 
0.293749 0.0451693 0.89 
0.455941 0.0377595 0.744 
0.483366 0.0372012 0.733 
0.518943 0.0373027 0.735 
0.559976 0.0377595 0.744 
0.648284 0.0388253 0.765 
0.687517 0.0390283 0.769 
0.729945 0.0393835 0.776 
-36.9865 2.1301 40.724 
-1.57239 0.10639 2.034 
-1.35475 0.111359 2.129 
-1.26141 0.111882 2.139 
-1.09776 0.115648 2.211 
-0.464976 0.0876643 1.676 
-0.385242 0.0872982 1.669 
-0.309107 0.0877689 1.678 
-0.0812481 0.0814922 1.558 
-0.00927727 0.087612 1.675 
0.0767831 0.0909073 1.738 
0.275404 0.0474412 0.907 
0.417603 0.0401184 0.767 
0.469917 0.03902 0.746 
0.495217 0.0382878 0.732 
0.531922 0.0383924 0.734 
0.581964 0.0390723 0.747 
0.667927 0.0399092 0.763 
0.710867 0.0403277 0.771 
-44.535 2.632 48.868 
-1.57555 0.10955 2.034 
-1.30288 0.11332 2.104 
-1.16662 0.12016 2.231 
-0.445682 0.0900528 1.672 
-0.36753 0.089999 1.671 
-0.289124 0.0898374 1.668 
-0.0722546 0.0847208 1.573 
0.00373254 0.0901605 1.674 
0.0843467 0.0930151 1.727 
0.279492 0.0485811 0.902 
0.433395 0.0404484 0.751 
0.48093 0.0397482 0.738 
0.559976 0.0400714 0.744 
0.655535 0.040987 0.761 
0.701902 0.0416333 0.773 
0.740796 0.0417949 0.776 
-15.1728 0.984689 17.77 
-1.3437 0.117586 2.122 
-1.27777 0.121022 2.184 
-1.0818 0.124236 2.242 
-0.437627 0.0925952 1.671 
-0.360602 0.0928168 1.675 
-0.281349 0.0924289 1.668 
-0.0731733 0.088273 1.593 
0.00373254 0.0927614 1.674 
0.0868787 0.0955321 1.724 
0.879515 0.129389 2.335 
0.435728 0.0416152 0.751 
0.476987 0.0414489 0.748 
0.513932 0.040784 0.736 
0.64896 0.0422801 0.763 
0.689906 0.0426126 0.769 
0.734244 0.0431113 0.778 
-19.9721 1.2948 22.729 
-1.36328 0.121453 2.132 
-1.28044 0.124017 2.177 
-0.462372 0.0954762 1.676 
-0.381044 0.0946787 1.662 
-0.305769 0.0953623 1.674 
-0.225703 0.0945078 1.659 
-0.0216905 0.0928557 1.63 
0.0584472 0.0999766 1.755 
0.181317 0.0473393 0.831 
0.425945 0.0436935 0.767 
0.463114 0.042725 0.75 
0.506841 0.0420984 0.739 
0.660265 0.0433517 0.761 
0.71151 0.0440353 0.773 
-18.8287 1.23004 21.019 
-1.35475 0.12459 2.129 
-1.28655 0.128686 2.199 
-1.04577 0.132373 2.262 
-0.456892 0.0980216 1.675 
-0.375653 0.0972024 1.661 
-0.300029 0.0977876 1.671 
-0.220415 0.0970268 1.658 
-0.0263287 0.0938667 1.604 
0.0636457 0.102294 1.748 
0.184744 0.0485134 0.829 
0.43008 0.0449436 0.768 
0.482401 0.0439488 0.751 
0.6622 0.0467578 0.799 
0.683645 0.0448266 0.766 
0.744614 0.0456459 0.78 
-1.30085 0.126516 2.106 
-1.01069 0.137329 2.286 
-0.411286 0.0996629 1.659 
-0.339194 0.101225 1.685 
-0.257562 0.100023 1.665 
-0.0668214 0.0972599 1.619 
0.0088702 0.0998431 1.662 
0.110406 0.103027 1.715 
0.910212 0.139973 2.33 
0.48538 0.0451757 0.752 
0.521374 0.0447552 0.745 
0.669142 0.0455962 0.759 
-21.354 1.46908 23.838 
-1.29615 0.129973 2.109 
-0.915559 0.133239 2.162 
-0.377855 0.100885 1.637 
-0.308554 0.103226 1.675 
-0.22828 0.10224 1.659 
-0.0465828 0.0995288 1.615 
0.060895 0.107664 1.747 
0.185359 0.0509045 0.826 
0.464899 0.0462824 0.751 
0.492874 0.0454196 0.737 
0.650372 0.0478231 0.776 
0.728014 0.0482545 0.783 
0.766462 0.0483778 0.785 
-13.3866 0.995992 15.764 
-1.024 0.144306 2.284 
-0.392004 0.103807 1.643 
-0.322718 0.106208 1.681 
-0.241459 0.104944 1.661 
-0.0650209 0.103428 1.637 
0.0162369 0.102607 1.624 
0.187698 0.0521247 0.825 
0.470092 0.0487129 0.771 
0.492874 0.0465647 0.737 
0.554897 0.0485865 0.769 
0.654558 0.0482706 0.764 
0.742342 0.0495342 0.784 
-13.1743 1.0043 15.514 
-1.12743 0.136332 2.106 
-0.889157 0.139504 2.155 
-0.343203 0.10869 1.679 
-0.262262 0.10759 1.662 
-0.0927139 0.105648 1.632 
-0.0160543 0.101893 1.574 
0.176376 0.0534712 0.826 
0.903036 0.152063 2.349 
0.4754 0.0486161 0.751 
0.502928 0.047904 0.74 
0.573948 0.0502992 0.777 
0.658981 0.0495223 0.765 
0.748695 0.0506876 0.783 
-37.7358 2.81687 42.494 
-1.25058 0.139472 2.104 
-1.02755 0.151404 2.284 
-0.368892 0.106659 1.609 
-0.293989 0.111431 1.681 
-0.212174 0.109642 1.654 
-0.0501863 0.109443 1.651 
0.0712182 0.114945 1.734 
0.9026 0.156905 2.367 
0.492256 0.0503132 0.759 
0.558261 0.0511749 0.772 
0.644414 0.0516389 0.779 
0.73963 0.0520367 0.785 
0.776219 0.0520367 0.785 
-1.31484 0.142266 2.097 
-1.12321 0.141112 2.08 
-0.939072 0.146675 2.162 
-0.339315 0.109294 1.611 
-0.273083 0.112958 1.665 
-0.194303 0.112279 1.655 
-0.0366818 0.109973 1.621 
0.0844598 0.113704 1.676 
1.79004 0.371437 5.475 
0.489301 0.0503391 0.742 
0.574415 0.0526457 0.776 
0.732955 0.053392 0.787 
0.767682 0.0532563 0.785 
-52.8775 4.11061 59.234 
-1.29103 0.146148 2.106 
-1.04093 0.155725 2.244 
-0.890439 0.148091 2.134 
-0.310949 0.117141 1.688 
-0.215133 0.114989 1.657 
-0.0584776 0.115753 1.668 
0.0179052 0.107564 1.55 
0.855913 0.369604 5.326 
1.90182 0.385357 5.553 
0.552507 0.0533656 0.769 
0.638391 0.0542678 0.782 
0.742342 0.0544066 0.784 
0.777891 0.0543372 0.783 
-50.9651 4.07905 57.492 
-1.27346 0.149278 2.104 
-1.02956 0.160701 2.265 
-0.873733 0.152542 2.15 
-0.326031 0.117635 1.658 
-0.222856 0.117564 1.657 
-0.0685961 0.117919 1.662 
0.00824043 0.109546 1.544 
0.787638 0.376885 5.312 
1.21706 0.436128 6.147 
0.549376 0.0548442 0.773 
0.579777 0.0542056 0.764 
0.658276 0.053638 0.756 
0.767192 0.0558375 0.787 
-28.3732 2.24964 31.028 
-1.3027 0.15291 2.109 
-1.04557 0.162335 2.239 
-0.885432 0.153852 2.122 
-0.346204 0.113323 1.563 
-0.24725 0.119486 1.648 
-0.171057 0.119921 1.654 
-0.0161971 0.115136 1.588 
0.149577 0.115498 1.593 
1.13008 0.441546 6.09 
1.95249 0.393694 5.43 
0.632928 0.0556827 0.768 
0.656534 0.0546676 0.754 
0.756705 0.0569152 0.785 
-31.786 2.53972 34.294 
-1.34243 0.157001 2.12 
-1.02378 0.165666 2.237 
-0.871362 0.158186 2.136 
-0.332058 0.115899 1.565 
-0.225567 0.122787 1.658 
-0.081311 0.122787 1.658 
0.00343153 0.113974 1.539 
0.134577 0.120047 1.621 
0.9496 0.413609 5.585 
1.86193 0.410054 5.537 
0.574759 0.057024 0.77 
0.649623 0.0563575 0.761 
0.751128 0.0579867 0.783 
-33.7204 2.73704 36.199 
-12.7029 1.14573 15.153 
-0.985489 0.168537 2.229 
-0.393157 0.121431 1.606 
-0.320679 0.122338 1.618 
-0.192079 0.125363 1.658 
-0.0566567 0.127858 1.691 
0.0347626 0.117197 1.55 
0.134245 0.122263 1.617 
1.03154 0.44255 5.853 
1.90956 0.423496 5.601 
0.579347 0.0578423 0.765 
0.650477 0.0576154 0.762 
0.734919 0.0589764 0.78 
0.770286 0.0589008 0.779 
-37.6698 3.27903 42.494 
-1.03278 0.171228 2.219 
-0.874282 0.162894 2.111 
-0.345975 0.12138 1.573 
-0.225975 0.12817 1.661 
-0.0847977 0.129328 1.676 
0.00581885 0.118679 1.538 
0.101711 0.124929 1.619 
0.816833 0.412136 5.341 
1.70642 0.480349 6.225 
1.99718 0.383816 4.974 
0.650997 0.0589537 0.764 
0.731556 0.0601111 0.779 
0.767101 0.0599568 0.777 
-11.961 1.12315 14.268 
-0.893114 0.166017 2.109 
-0.369546 0.126028 1.601 
-0.233717 0.130751 1.661 
-0.156297 0.130751 1.661 
0.0034293 0.121069 1.538 
0.0953063 0.125634 1.596 
0.804582 0.422717 5.37 
1.71018 0.526939 6.694 
1.97298 0.443419 5.633 
0.631535 0.0599832 0.762 
0.660923 0.0591174 0.751 
0.734244 0.0612427 0.778 
0.768526 0.0610853 0.776 
-0.94679 0.17435 2.172 
-0.395159 0.128756 1.604 
-0.319797 0.128515 1.601 
-0.218758 0.133653 1.665 
-0.080872 0.136703 1.703 
0.0130297 0.123859 1.543 
0.0951272 0.127873 1.593 
0.796238 0.43106 5.37 
1.15398 0.464212 5.783 
1.89865 0.447034 5.569 
2.03026 0.383619 4.779 
0.654887 0.0612474 0.763 
0.727367 0.0626923 0.781 
0.759858 0.0623712 0.777 
-0.960804 0.176579 2.158 
-0.725754 0.182389 2.229 
-0.341873 0.129939 1.588 
-0.273186 0.135012 1.65 
-0.197707 0.135994 1.662 
-0.0626069 0.139922 1.71 
0.0300428 0.127239 1.555 
0.111427 0.132066 1.614 
0.804582 0.439403 5.37 
1.13826 0.470415 5.749 
1.87404 0.451841 5.522 
2.03026 0.391044 4.779 
0.654227 0.0625965 0.765 
0.72002 0.0635784 0.777 
0.758183 0.0637421 0.779 
-1.19755 0.174846 2.097 
-0.913648 0.177931 2.134 
-0.395405 0.133824 1.605 
-0.319797 0.13349 1.601 
-0.251781 0.138493 1.661 
-0.174152 0.138326 1.659 
-0.0495825 0.143329 1.719 
0.042231 0.129988 1.559 
0.120705 0.13374 1.604 
0.825856 0.450248 5.4 
1.65458 0.543299 6.516 
1.90182 0.463005 5.553 
2.04511 0.398469 4.779 
0.645088 0.0645355 0.774 
0.696785 0.064202 0.77 
0.741239 0.0649524 0.779 
-9.12078 0.907253 10.682 
-0.957061 0.180058 2.12 
-0.840839 0.176406 2.077 
-0.356885 0.135893 1.6 
-0.288837 0.139035 1.637 
-0.216301 0.141498 1.666 
-0.1374 0.140224 1.651 
-0.0204626 0.147868 1.741 
0.0918961 0.134194 1.58 
0.156006 0.126465 1.489 
1.03413 0.489723 5.766 
1.6547 0.498556 5.87 
1.96421 0.403007 4.745 
2.09833 0.386954 4.556 
0.653862 0.0656531 0.773 
0.706356 0.0653983 0.77 
0.751885 0.0662476 0.78 
-1.67715 0.191481 2.214 
-0.944776 0.183524 2.122 
-0.728235 0.192519 2.226 
-0.346291 0.138119 1.597 
-0.279004 0.141751 1.639 
-0.205824 0.144 1.665 
-0.12637 0.141924 1.641 
-0.0204626 0.150573 1.741 
0.0891016 0.13613 1.574 
0.155482 0.128346 1.484 
1.02803 0.495741 5.732 
0.797949 0.216216 2.5 
2.03229 0.392217 4.535 
0.645081 0.0720433 0.833 
0.702482 0.0666811 0.771 
0.74608 0.067373 0.779 
-9.59802 1.00058 11.365 
-1.20768 0.185677 2.109 
-0.910842 0.18867 2.143 
-0.385191 0.141217 1.604 
-0.310815 0.141393 1.606 
-0.243746 0.146059 1.659 
-0.16662 0.146235 1.661 
-0.0600553 0.150813 1.713 
0.0447105 0.137431 1.561 
0.13109 0.139016 1.579 
0.873898 0.483429 5.491 
1.68935 0.539511 6.128 
2.01072 0.416694 4.733 
1.07443 0.159617 1.813 
0.657195 0.0695518 0.79 
0.739721 0.0694637 0.789 
-9.41379 0.99503 11.106 
-1.22905 0.190745 2.129 
-0.927276 0.193344 2.158 
-0.406401 0.145053 1.619 
-0.325828 0.142813 1.594 
-0.258948 0.147024 1.641 
-0.184462 0.148636 1.659 
-0.0957248 0.150966 1.685 
-0.0177373 0.155804 1.739 
0.111464 0.141469 1.579 
0.171818 0.131345 1.466 
0.80405 0.221387 2.471 
2.04781 0.427184 4.768 
1.08408 0.162613 1.815 
0.656222 0.0747213 0.834 
0.739432 0.0707792 0.79 
-1.63365 0.201527 2.211 
-0.943698 0.193871 2.127 
-0.419754 0.147841 1.622 
-0.338211 0.145289 1.594 
-0.269213 0.148206 1.626 
-0.197231 0.151123 1.658 
-0.118576 0.149391 1.639 
-0.025932 0.159053 1.745 
0.100814 0.142737 1.566 
0.162596 0.133531 1.465 
1.73 0.578514 6.347 
0.898769 0.21839 2.396 
2.00696 0.406792 4.463 
1.17835 0.172634 1.894 
0.664257 0.0726446 0.797 
-1.658 0.205426 2.216 
-0.944585 0.197361 2.129 
-0.409421 0.150269 1.621 
-0.327687 0.147488 1.591 
-0.259585 0.15101 1.629 
-0.186589 0.153421 1.655 
-0.108523 0.152123 1.641 
0.0635789 0.143502 1.548 
0.137691 0.143038 1.543 
0.183148 0.0746245 0.805 
0.80792 0.224801 2.425 
2.03736 0.433471 4.676 
1.09939 0.168438 1.817 
0.652334 0.0773128 0.834 
0.702039 0.0708238 0.764 
-1.69472 0.209152 2.219 
-1.32918 0.215278 2.284 
-0.415401 0.123191 1.307 
-0.377243 0.150996 1.602 
-0.301629 0.150525 1.597 
-0.234306 0.155238 1.647 
-0.157921 0.155615 1.651 
-0.0821447 0.157877 1.675 
0.110052 0.146943 1.559 
0.171583 0.137989 1.464 
0.796041 0.243366 2.582 
0.906518 0.224987 2.387 
2.00459 0.415853 4.412 
1.18861 0.179179 1.901 
0.717914 0.0756867 0.803 
-1.70579 0.211833 2.211 
-1.60179 0.213078 2.224 
-0.924018 0.208288 2.174 
-0.403386 0.154923 1.617 
-0.322135 0.152144 1.588 
-0.254055 0.155785 1.626 
-0.180678 0.157893 1.648 
-0.103802 0.157797 1.647 
0.101863 0.148024 1.545 
0.167148 0.14036 1.465 
0.801708 0.244216 2.549 
0.917644 0.228695 2.387 
0.640672 0.0799044 0.834 
0.775483 0.0784673 0.819 
-1.64619 0.21556 2.214 
-0.929529 0.212152 2.179 
-0.396275 0.125695 1.291 
-0.344557 0.154709 1.589 
-0.273727 0.156559 1.608 
-0.203599 0.160356 1.647 
-0.12637 0.159772 1.641 
0.0873467 0.15023 1.543 
0.154854 0.143901 1.478 
0.784954 0.259665 2.667 
0.827781 0.236396 2.428 
1.19999 0.185475 1.905 
0.705335 0.0744822 0.765 
-1.65651 0.219 2.214 
-1.30693 0.224539 2.27 
-0.428159 0.130075 1.315 
-0.364799 0.158463 1.602 
-0.289948 0.158364 1.601 
-0.220973 0.162519 1.643 
-0.143602 0.161629 1.634 
-0.0681421 0.16331 1.651 
0.155168 0.146495 1.481 
0.771548 0.264897 2.678 
0.807671 0.238684 2.413 
1.16982 0.186457 1.885 
0.651038 0.0824959 0.834 
-1.70536 0.221636 2.206 
-1.60525 0.223445 2.224 
-0.465085 0.133926 1.333 
-0.390862 0.129907 1.293 
-0.353071 0.160149 1.594 
-0.281572 0.161756 1.61 
-0.210763 0.165072 1.643 
-0.133692 0.164469 1.637 
-0.00487354 0.557908 5.553 
0.151583 0.1498 1.491 
0.763034 0.270464 2.692 
0.815169 0.242433 2.413 
1.10847 0.182654 1.818 
1.26282 0.192399 1.915 
0.653116 0.0838922 0.835 
-1.69205 0.225574 2.211 
-1.42052 0.212209 2.08 
-0.462667 0.135895 1.332 
-0.390357 0.132426 1.298 
-0.353735 0.162931 1.597 
-0.282097 0.164564 1.613 
-0.210506 0.16742 1.641 
-0.133692 0.167012 1.637 
-0.057531 0.16742 1.641 
0.15632 0.152219 1.492 
0.779764 0.274647 2.692 
1.61098 0.305356 2.993 
1.11251 0.185682 1.82 
1.24997 0.193844 1.9 
0.700852 0.0779458 0.764 
-1.70678 0.227766 2.199 
-1.62033 0.230045 2.221 
-1.3392 0.237088 2.289 
-0.43799 0.136722 1.32 
-0.378176 0.137343 1.326 
-0.326442 0.165412 1.597 
-0.256581 0.168416 1.626 
-0.181682 0.169245 1.634 
-0.105392 0.169038 1.632 
0.0996209 0.156505 1.511 
0.178059 0.082758 0.799 
0.806055 0.279244 2.696 
1.6015 0.309074 2.984 
1.09652 0.186749 1.803 
1.24014 0.196175 1.894 
0.712337 0.0797543 0.77 
-1.71175 0.231393 2.201 
-1.62232 0.233285 2.219 
-1.20732 0.242011 2.302 
-0.404007 0.136985 1.303 
-0.377796 0.169786 1.615 
-0.302333 0.169681 1.614 
-0.230199 0.171994 1.636 
-0.152816 0.170732 1.624 
-0.0774053 0.171363 1.63 
0.119231 0.156855 1.492 
0.34035 0.18072 1.719 
0.812938 0.270396 2.572 
1.60349 0.311397 2.962 
1.1064 0.190287 1.81 
1.23747 0.197751 1.881 
-11.2202 1.37196 12.86 
-1.70425 0.235666 2.209 
-1.60653 0.236946 2.221 
-0.456116 0.141997 1.331 
-0.388452 0.13997 1.312 
-0.350301 0.171122 1.604 
-0.278974 0.173255 1.624 
-0.205407 0.175069 1.641 
-0.128369 0.174322 1.634 
0.00358096 0.565107 5.297 
0.141408 0.160667 1.506 
0.340152 0.183284 1.718 
0.825602 0.281433 2.638 
1.03184 0.190752 1.788 
1.1526 0.197153 1.848 
1.23671 0.190645 1.787 
0.735778 0.0823603 0.772 
-9.32752 1.20209 11.106 
-1.62555 0.239639 2.214 
-1.32928 0.24018 2.219 
-1.14439 0.236175 2.182 
-0.460943 0.144281 1.333 
-0.391332 0.141575 1.308 
-0.353893 0.174155 1.609 
-0.281844 0.175995 1.626 
-0.208337 0.177943 1.644 
-0.130828 0.176753 1.633 
-0.0544119 0.175779 1.624 
0.133318 0.161708 1.494 
0.335008 0.186061 1.719 
0.828945 0.29549 2.73 
1.02579 0.193963 1.792 
1.12975 0.197534 1.825 
1.23212 0.200349 1.851 
0.717515 0.083668 0.773 
-10.6407 1.35834 12.372 
-1.6593 0.241981 2.204 
-1.31799 0.238468 2.172 
-1.14305 0.233747 2.129 
-0.995916 0.22661 2.064 
-0.432574 0.144486 1.316 
-0.391148 0.176545 1.608 
-0.319541 0.178412 1.625 
-0.2471 0.180827 1.647 
-0.167748 0.178082 1.622 
-0.0922594 0.178302 1.624 
0.095406 0.589581 5.37 
0.175451 0.171165 1.559 
0.770649 0.301817 2.749 
0.788833 0.262402 2.39 
1.02858 0.196747 1.792 
1.13072 0.20004 1.822 
1.22432 0.201468 1.835 
0.685021 0.0831123 0.757 
-9.83964 1.28782 11.566 
-1.31249 0.23839 2.141 
-1.26642 0.249636 2.242 
-1.07665 0.236275 2.122 
-0.902654 0.235607 2.116 
-0.391391 0.179155 1.609 
-0.320525 0.181493 1.63 
-0.2477 0.183831 1.651 
-0.167437 0.180268 1.619 
-0.0921458 0.180602 1.622 
0.0870627 0.597925 5.37 
0.172141 0.172697 1.551 
0.766378 0.306088 2.749 
0.779645 0.266784 2.396 
0.89383 0.260994 2.344 
1.05959 0.197527 1.774 
1.18542 0.204987 1.841 
1.22289 0.197193 1.771 
0.732918 0.0856246 0.769 
-1.32034 0.23833 2.111 
-1.31398 0.256281 2.27 
-1.11371 0.23833 2.111 
-1.00233 0.235282 2.084 
-0.373239 0.182558 1.617 
-0.291203 0.184703 1.636 
-0.216919 0.186396 1.651 
-0.138355 0.184251 1.632 
-0.0618669 0.183009 1.621 
0.170879 0.579285 5.131 
0.337679 0.194073 1.719 
0.835628 0.309118 2.738 
0.86954 0.276603 2.45 
1.02571 0.201751 1.787 
1.12141 0.204009 1.807 
1.21233 0.202315 1.792 
0.686466 0.0853517 0.756 
-10.8462 1.44336 12.611 
-1.32792 0.253055 2.211 
-1.18912 0.249164 2.177 
-1.06866 0.244814 2.139 
-0.402638 0.184727 1.614 
-0.317395 0.187702 1.64 
-0.243746 0.189877 1.659 
-0.162607 0.185528 1.621 
-0.087052 0.185528 1.621 
0.101798 0.603051 5.269 
0.18471 0.180378 1.576 
0.779996 0.31154 2.722 
0.805703 0.274229 2.396 
0.909341 0.271825 2.375 
1.02478 0.202696 1.771 
1.13046 0.206931 1.808 
1.21736 0.203611 1.779 
0.722419 0.0878997 0.768 
-10.3665 1.40843 12.141 
-1.34572 0.263335 2.27 
-1.18235 0.252546 2.177 
-1.04846 0.246514 2.125 
-0.383653 0.186538 1.608 
-0.315615 0.190715 1.644 
-0.241604 0.192803 1.662 
-0.160188 0.188162 1.622 
-0.0844292 0.187814 1.619 
0.115973 0.599869 5.171 
0.189968 0.183174 1.579 
0.794863 0.314957 2.715 
0.835988 0.28062 2.419 
1.55571 0.348367 3.003 
1.0448 0.204519 1.763 
1.17666 0.21148 1.823 
0.676173 0.0875848 0.755 
-1.32346 0.248757 2.116 
-1.32431 0.269683 2.294 
-1.1399 0.252519 2.148 
-1.02974 0.251696 2.141 
-0.371623 0.189272 1.61 
-0.286819 0.192799 1.64 
-0.211917 0.194209 1.652 
-0.13263 0.190918 1.624 
-0.0567598 0.19033 1.619 
0.192745 0.596853 5.077 
1.03096 0.669975 5.699 
0.777542 0.282262 2.401 
0.879821 0.279205 2.375 
1.54023 0.333518 2.837 
1.13013 0.211961 1.803 
1.2436 0.208904 1.777 
0.72934 0.0898159 0.764 
-1.34774 0.267291 2.244 
-1.24481 0.267649 2.247 
-1.06414 0.256095 2.15 
-0.374124 0.191773 1.61 
-0.273848 0.197014 1.654 
-0.194257 0.194513 1.633 
-0.116695 0.19213 1.613 
-0.0416159 0.192607 1.617 
0.147252 0.180815 1.518 
1.02789 0.676804 5.682 
0.779485 0.286707 2.407 
0.895711 0.283253 2.378 
1.01436 0.208806 1.753 
1.193 0.217025 1.822 
0.724829 0.0908838 0.763 
-1.34045 0.266554 2.209 
-1.26718 0.27295 2.262 
-1.07343 0.260883 2.162 
-0.40137 0.195361 1.619 
-0.273848 0.199584 1.654 
-0.188603 0.196447 1.628 
-0.111406 0.194154 1.609 
-0.0366139 0.19524 1.618 
0.149611 0.183173 1.518 
1.0221 0.681771 5.65 
0.78638 0.294429 2.44 
1.54908 0.367432 3.045 
1.0235 0.211168 1.75 
1.19866 0.219856 1.822 
1.33873 0.219615 1.82 
-11.1603 1.57176 12.86 
-1.28916 0.278175 2.276 
-1.14389 0.273042 2.234 
-0.947335 0.258253 2.113 
-0.416154 0.159254 1.303 
-0.284444 0.200565 1.641 
-0.191368 0.19922 1.63 
-0.113694 0.196287 1.606 
-0.0391519 0.197876 1.619 
0.149611 0.185532 1.518 
0.995831 0.68456 5.601 
0.829288 0.325475 2.663 
0.890438 0.288931 2.364 
1.02175 0.21352 1.747 
1.20042 0.223542 1.829 
1.25264 0.217798 1.782 
0.676449 0.0921547 0.754 
-1.33608 0.28493 2.302 
-1.17837 0.274037 2.214 
-1.05479 0.269705 2.179 
-0.922318 0.268591 2.17 
-0.321115 0.202124 1.633 
-0.231832 0.206209 1.666 
-0.150477 0.201258 1.626 
-0.0742757 0.200144 1.617 
0.0978373 0.626796 5.064 
0.183404 0.186281 1.505 
0.796494 0.333202 2.692 
0.819566 0.296193 2.393 
1.00915 0.215863 1.744 
1.18946 0.227003 1.834 
1.22975 0.218958 1.769 
0.673827 0.09345 0.755 
-1.2801 0.283242 2.26 
-1.19555 0.288255 2.3 
-1.02234 0.273467 2.182 
-0.912204 0.271963 2.17 
-0.318772 0.204787 1.634 
-0.223798 0.208547 1.664 
-0.141756 0.202155 1.613 
-0.0669039 0.203157 1.621 
0.105434 0.633034 5.051 
0.186331 0.186865 1.491 
0.775582 0.337384 2.692 
0.795956 0.298031 2.378 
1.54573 0.367338 2.931 
1.08192 0.220703 1.761 
1.23557 0.227847 1.818 
1.30578 0.225341 1.798 
-1.27387 0.285358 2.249 
-1.15471 0.287007 2.262 
-0.969451 0.26696 2.104 
-0.898718 0.275334 2.17 
-0.595833 0.275588 2.172 
-0.223798 0.211132 1.664 
-0.141492 0.20428 1.61 
-0.0669039 0.205676 1.621 
0.0975861 0.640882 5.051 
0.187761 0.188293 1.484 
1.18046 0.744798 5.87 
0.790556 0.302487 2.384 
1.56037 0.381027 3.003 
1.05522 0.221282 1.744 
1.21046 0.231814 1.827 
1.28544 0.2275 1.793 
-1.30512 0.291935 2.273 
-1.18783 0.294375 2.292 
-0.961083 0.269715 2.1 
-0.890241 0.279219 2.174 
-0.480947 0.286926 2.234 
-0.211789 0.212048 1.651 
-0.13067 0.205497 1.6 
-0.0567598 0.207938 1.619 
0.112407 0.64372 5.012 
0.194416 0.190342 1.482 
0.776578 0.344336 2.681 
0.811757 0.305806 2.381 
1.55748 0.380427 2.962 
1.06396 0.224121 1.745 
1.2236 0.233368 1.817 
1.29524 0.230542 1.795 
-1.24924 0.293126 2.255 
-1.08602 0.281687 2.167 
-0.952867 0.275318 2.118 
-0.881973 0.284287 2.187 
-0.475066 0.291046 2.239 
-0.176622 0.209413 1.611 
-0.100966 0.208243 1.602 
-0.0264929 0.209803 1.614 
0.155757 0.196154 1.509 
0.975631 0.725991 5.585 
0.802766 0.340183 2.617 
0.886081 0.308335 2.372 
1.00529 0.226442 1.742 
1.1698 0.237881 1.83 
1.21187 0.228652 1.759 
1.35672 0.237751 1.829 
-1.17758 0.291894 2.219 
-1.0416 0.288606 2.194 
-0.907576 0.285054 2.167 
-0.641313 0.300708 2.286 
-0.174011 0.211785 1.61 
-0.098661 0.211127 1.605 
-0.0239704 0.212179 1.613 
0.155654 0.198367 1.508 
0.993055 0.728355 5.537 
0.802515 0.342407 2.603 
1.9167 0.531303 4.039 
0.999878 0.229148 1.742 
1.09597 0.232305 1.766 
1.22757 0.236515 1.798 
1.35091 0.240066 1.825 
-1.19395 0.294277 2.211 
-1.04215 0.285626 2.146 
-0.932991 0.285892 2.148 
-0.849545 0.291615 2.191 
-0.489636 0.298403 2.242 
-0.149737 0.215351 1.618 
-0.0743216 0.215351 1.618 
0.00108706 0.21402 1.608 
0.181065 0.200311 1.505 
0.21642 0.105679 0.794 
0.790846 0.31158 2.341 
1.57378 0.398359 2.993 
1.04318 0.230657 1.733 
1.22614 0.239574 1.8 
-1.27055 0.301213 2.237 
-1.15273 0.297712 2.211 
-0.951968 0.284921 2.116 
-0.857526 0.295423 2.194 
-0.611844 0.322219 2.393 
-0.226246 0.203053 1.508 
-0.120274 0.214633 1.594 
-0.0464674 0.216922 1.611 
0.111846 0.671502 4.987 
0.217288 0.203726 1.513 
0.213953 0.106913 0.794 
0.781563 0.314409 2.335 
1.9247 0.533889 3.965 
1.02094 0.234427 1.741 
1.22393 0.243044 1.805 
-1.24592 0.306323 2.249 
-1.04627 0.29066 2.134 
-0.648636 0.318445 2.338 
-0.487237 0.306051 2.247 
-0.15689 0.219834 1.614 
-0.0816102 0.219697 1.613 
-0.00640787 0.219016 1.608 
0.185618 0.204851 1.504 
0.191233 0.10515 0.772 
0.807999 0.349909 2.569 
0.89279 0.31504 2.313 
1.5796 0.414061 3.04 
1.03391 0.235769 1.731 
1.31367 0.245849 1.805 
-1.20223 0.303205 2.201 
-1.02306 0.293975 2.134 
-0.638833 0.326348 2.369 
-0.480682 0.309817 2.249 
-0.164005 0.22179 1.61 
-0.0888522 0.221515 1.608 
-0.0139028 0.221515 1.608 
0.174744 0.208152 1.511 
0.185475 0.106487 0.773 
0.798471 0.358584 2.603 
0.86986 0.324833 2.358 
1.91156 0.549516 3.989 
1.60104 0.397156 2.883 
1.21231 0.250306 1.817 
0.743841 0.113237 0.822 
-1.06201 0.297987 2.139 
-0.60718 0.231118 1.659 
-0.618503 0.332955 2.39 
-0.460943 0.314148 2.255 
-0.156307 0.224013 1.608 
-0.0814584 0.224292 1.61 
-0.0063999 0.223734 1.606 
0.17486 0.210639 1.512 
0.184274 0.107688 0.773 
0.799391 0.363046 2.606 
0.803189 0.316655 2.273 
0.922302 0.319999 2.297 
1.61259 0.422253 3.031 
1.05004 0.241148 1.731 
0.730946 0.114096 0.819 
-1.15777 0.310044 2.201 
-0.606448 0.233414 1.657 
-0.628062 0.335823 2.384 
-0.471872 0.317933 2.257 
-0.208671 0.208903 1.483 
-0.105282 0.224257 1.592 
-0.031391 0.226511 1.608 
0.0436396 0.226934 1.611 
0.208708 0.21158 1.502 
0.205168 0.110438 0.784 
0.77066 0.327371 2.324 
0.877091 0.326666 2.319 
1.58055 0.434992 3.088 
1.59101 0.401325 2.849 
1.31222 0.25398 1.803 
-1.15832 0.309049 2.17 
-0.862065 0.294237 2.066 
-0.659522 0.336678 2.364 
-0.515922 0.327136 2.297 
-0.404587 0.323718 2.273 
-0.145676 0.228013 1.601 
-0.0702989 0.225592 1.584 
0.00358538 0.22901 1.608 
0.169824 0.21491 1.509 
0.801539 0.372141 2.613 
0.803189 0.323718 2.273 
0.917533 0.326709 2.294 
1.60591 0.423696 2.975 
1.3305 0.257066 1.805 
-1.05523 0.30695 2.132 
-0.699924 0.340351 2.364 
-0.572127 0.338623 2.352 
-0.443425 0.324658 2.255 
-0.18768 0.213223 1.481 
-0.107282 0.228197 1.585 
-0.0238961 0.231508 1.608 
0.0509581 0.231076 1.605 
0.211041 0.216247 1.502 
0.803276 0.364107 2.529 
0.848671 0.335456 2.33 
1.92395 0.587552 4.081 
1.58987 0.414497 2.879 
0.74271 0.118777 0.825 
-1.00552 0.308225 2.118 
-0.663195 0.344024 2.364 
-0.526703 0.336602 2.313 
-0.411106 0.330345 2.27 
-0.158896 0.230514 1.584 
-0.0849576 0.230223 1.582 
-0.00637998 0.232988 1.601 
0.170162 0.220036 1.512 
1.09129 0.783659 5.385 
0.771924 0.343588 2.361 
0.866282 0.337475 2.319 
1.66842 0.461755 3.173 
1.30506 0.261511 1.797 
-1.87369 0.301367 2.049 
-0.597641 0.24327 1.654 
-0.599231 0.346814 2.358 
-0.461352 0.331959 2.257 
-0.194583 0.217825 1.481 
-0.11884 0.231651 1.575 
-0.0451694 0.230327 1.566 
0.0285685 0.236505 1.608 
0.212807 0.220326 1.498 
1.13539 0.770846 5.241 
0.782766 0.333136 2.265 
0.91909 0.336666 2.289 
1.13769 0.218267 1.484 
-1.8655 0.304253 2.047 
-0.659522 0.35137 2.364 
-0.542132 0.346762 2.333 
-0.420201 0.336209 2.262 
-0.163654 0.23172 1.559 
-0.0920979 0.234544 1.578 
-0.0138077 0.237368 1.597 
0.060591 0.237219 1.596 
0.23945 0.221464 1.49 
1.21009 0.807081 5.43 
0.796843 0.336655 2.265 
1.5755 0.421674 2.837 
0.734232 0.12292 0.827 
-1.84554 0.311038 2.071 
-0.638717 0.353691 2.355 
-0.424774 0.337771 2.249 
-0.164372 0.231739 1.543 
-0.0943698 0.236545 1.575 
-0.0212114 0.239399 1.594 
0.0532186 0.239999 1.598 
0.23019 0.223779 1.49 
1.11313 0.782926 5.213 
0.764492 0.343028 2.284 
2.2009 0.643853 4.287 
1.16776 0.223779 1.49 
-1.1159 0.323815 2.134 
-0.697135 0.359171 2.367 
-0.493864 0.348094 2.294 
-0.177722 0.226701 1.494 
-0.112572 0.236109 1.556 
-0.0378461 0.237475 1.565 
0.035884 0.242786 1.6 
0.213411 0.225487 1.486 
1.10649 0.828506 5.46 
0.778468 0.344907 2.273 
2.22198 0.654762 4.315 
1.14615 0.225487 1.486 
-1.84876 0.317473 2.071 
-1.16456 0.376032 2.453 
-0.417534 0.341694 2.229 
-0.155585 0.23776 1.551 
-0.0836687 0.238833 1.558 
-0.0112626 0.243432 1.588 
0.0629916 0.244352 1.594 
0.241295 0.225803 1.473 
1.22368 0.841741 5.491 
0.915533 0.350891 2.289 
1.03366 0.261214 1.704 
-1.86262 0.314342 2.03 
-1.34692 0.353674 2.284 
-1.08245 0.338653 2.187 
-0.5963 0.270675 1.748 
-0.172701 0.233976 1.511 
-0.105184 0.240634 1.554 
-0.0259676 0.24497 1.582 
0.0556665 0.247293 1.597 
1.13825 0.9342 6.033 
0.795075 0.351506 2.27 
2.25532 0.680249 4.393 
1.29803 0.277953 1.795 
-1.85363 0.321406 2.055 
-1.3146 0.354251 2.265 
-1.17589 0.381152 2.437 
-0.606816 0.273234 1.747 
-0.15718 0.241328 1.543 
-0.0807787 0.242267 1.549 
0.00351848 0.246802 1.578 
0.0780463 0.24993 1.598 
1.17574 0.943573 6.033 
0.89086 0.360976 2.308 
0.997467 0.264632 1.692 
1.2938 0.280429 1.793 
-1.85392 0.326336 2.066 
-1.18803 0.329496 2.086 
-1.08783 0.346081 2.191 
-0.623667 0.275001 1.741 
-0.404528 0.346871 2.196 
-0.115747 0.242304 1.534 
-0.0444195 0.243252 1.54 
0.058257 0.252729 1.6 
0.246029 0.228562 1.447 
0.788021 0.358559 2.27 
1.75419 0.64051 4.055 
1.24574 0.282425 1.788 
-1.86378 0.322368 2.021 
-1.38846 0.365914 2.294 
-1.14441 0.328589 2.06 
-1.09264 0.348847 2.187 
-0.625463 0.276111 1.731 
-0.421588 0.350283 2.196 
-0.137912 0.245963 1.542 
-0.0660391 0.245963 1.542 
0.0532852 0.255215 1.6 
0.190743 0.231927 1.454 
1.19018 0.989915 6.206 
0.901618 0.368148 2.308 
2.30019 0.716835 4.494 
1.28147 0.289509 1.815 
-1.84886 0.324542 2.015 
-1.35983 0.365613 2.27 
-1.11565 0.332756 2.066 
-1.16159 0.397987 2.471 
-0.608833 0.281055 1.745 
-0.463927 0.357399 2.219 
-0.168838 0.248037 1.54 
-0.0982555 0.251097 1.559 
0.0458562 0.257862 1.601 
0.155241 0.242239 1.504 
0.214106 0.230159 1.429 
0.775959 0.366579 2.276 
0.937386 0.366096 2.273 
1.01669 0.272035 1.689 
1.2749 0.281538 1.748 
-1.85698 0.337104 2.073 
-1.24406 0.350439 2.155 
-1.1233 0.353529 2.174 
-0.94831 0.357594 2.199 
-0.602373 0.283278 1.742 
-0.554126 0.370441 2.278 
-0.394831 0.357594 2.199 
-0.130555 0.25043 1.54 
-0.0184998 0.255959 1.574 
0.140751 0.243762 1.499 
0.202189 0.234005 1.439 
0.779496 0.370116 2.276 
1.75619 0.66494 4.089 
1.19821 0.285392 1.755 
1.2649 0.27905 1.716 
-1.86036 0.342131 2.084 
-1.22014 0.348862 2.125 
-1.13883 0.355429 2.165 
-1.15977 0.403695 2.459 
-0.643663 0.281552 1.715 
-0.556705 0.282045 1.718 
-0.483333 0.365936 2.229 
-0.218927 0.247241 1.506 
-0.13338 0.253643 1.545 
-0.0160645 0.258568 1.575 
0.150868 0.247405 1.507 
0.22804 0.232958 1.419 
0.897546 0.380219 2.316 
1.84441 0.682785 4.159 
1.2415 0.291238 1.774 
1.26187 0.276955 1.687 
-1.32415 0.3457 2.086 
-1.1697 0.346032 2.088 
-1.11983 0.362438 2.187 
-0.965881 0.360781 2.177 
-0.620532 0.283388 1.71 
-0.528961 0.282725 1.706 
-0.471883 0.36857 2.224 
-0.1743 0.256209 1.546 
-0.104026 0.260684 1.573 
0.0907999 0.265821 1.604 
0.178407 0.24262 1.464 
0.184232 0.125619 0.758 
0.923501 0.38564 2.327 
1.86859 0.686263 4.141 
1.21391 0.291343 1.758 
1.26047 0.283388 1.71 
-1.85211 0.348272 2.082 
-1.23714 0.358476 2.143 
-1.13725 0.358476 2.143 
-1.06447 0.367844 2.199 
-0.918528 0.364164 2.177 
-0.57372 0.287885 1.721 
-0.560712 0.380724 2.276 
-0.43524 0.373197 2.231 
-0.151057 0.25995 1.554 
-0.0797382 0.26363 1.576 
0.116813 0.265135 1.585 
0.199815 0.240545 1.438 
0.910212 0.389757 2.33 
1.86289 0.700225 4.186 
1.20845 0.294074 1.758 
1.26177 0.28755 1.719 
-1.85071 0.348806 2.066 
-1.27321 0.36839 2.182 
-1.12576 0.356065 2.109 
-1.05572 0.365858 2.167 
-0.924018 0.367039 2.174 
-0.579068 0.290559 1.721 
-0.567784 0.38426 2.276 
-0.426364 0.378014 2.239 
-0.144277 0.263208 1.559 
-0.0725761 0.266754 1.58 
0.11435 0.267598 1.585 
0.196569 0.244299 1.447 
0.920602 0.394728 2.338 
1.87589 0.706728 4.186 
1.20845 0.296806 1.758 
1.26177 0.290221 1.719 
-1.84503 0.345541 2.028 
-1.34905 0.383707 2.252 
-1.16015 0.358831 2.106 
-1.09793 0.372121 2.184 
-0.946456 0.371269 2.179 
-0.551844 0.290166 1.703 
-0.528828 0.380129 2.231 
-0.413371 0.382344 2.244 
-0.130909 0.268016 1.573 
-0.0584331 0.271935 1.596 
0.123025 0.267505 1.57 
0.326413 0.254896 1.496 
1.83457 0.730441 4.287 
1.14219 0.294425 1.728 
1.23971 0.298515 1.752 
1.28744 0.290847 1.707 
-1.84892 0.354882 2.064 
-1.24915 0.371044 2.158 
-1.12358 0.367261 2.136 
-1.04463 0.374655 2.179 
-0.633477 0.287825 1.674 
-0.495976 0.289545 1.684 
-0.424397 0.386346 2.247 
-0.138329 0.270632 1.574 
-0.0657895 0.27407 1.594 
0.100077 0.273898 1.593 
0.174222 0.262551 1.527 
1.84655 0.741916 4.315 
1.13753 0.296594 1.725 
1.23699 0.301237 1.752 
1.2908 0.294875 1.715 
-1.84598 0.354445 2.043 
-1.33558 0.389838 2.247 
-1.15416 0.36659 2.113 
-1.08415 0.376479 2.17 
-0.931491 0.374744 2.16 
-0.552035 0.391225 2.255 
-0.430803 0.389317 2.244 
-0.143129 0.272904 1.573 
-0.0707427 0.276547 1.594 
0.0786324 0.279323 1.61 
0.147375 0.267872 1.544 
0.755599 0.389838 2.247 
2.02327 0.705073 4.064 
1.21532 0.306041 1.764 
1.26949 0.29754 1.715 
1.09931 0.225887 1.302 
-1.36182 0.353068 2.017 
-1.25841 0.38055 2.174 
-1.11284 0.367072 2.097 
-1.04075 0.376349 2.15 
-0.888353 0.372673 2.129 
-0.502102 0.295303 1.687 
-0.44019 0.388777 2.221 
-0.151932 0.273597 1.563 
-0.0805983 0.278848 1.593 
0.0736296 0.281824 1.61 
0.143593 0.272197 1.555 
0.312056 0.259593 1.483 
1.90413 0.743771 4.249 
1.17713 0.305981 1.748 
1.25844 0.30528 1.744 
1.06109 0.231936 1.325 
-1.84779 0.361147 2.045 
-1.35084 0.398233 2.255 
-1.16895 0.373685 2.116 
-1.09865 0.383575 2.172 
-0.946112 0.375275 2.125 
-0.78637 0.382692 2.167 
-0.474595 0.373155 2.113 
-0.391527 0.391875 2.219 
-0.121287 0.278145 1.575 
-0.0479976 0.278851 1.579 
0.0858157 0.283266 1.604 
0.155573 0.274436 1.554 
0.31581 0.261191 1.479 
2.0167 0.726708 4.115 
1.19343 0.310109 1.756 
1.27705 0.303398 1.718 
1.08968 0.230463 1.305 
-1.84072 0.367352 2.062 
-1.21935 0.381427 2.141 
-1.10962 0.378042 2.122 
-1.01643 0.38018 2.134 
-0.866491 0.376973 2.116 
-0.514369 0.386593 2.17 
-0.420052 0.396213 2.224 
-0.138241 0.280235 1.573 
-0.0655419 0.282908 1.588 
0.0636239 0.286827 1.61 
0.135135 0.279523 1.569 
0.20129 0.260995 1.465 
1.90383 0.77568 4.354 
1.18054 0.310878 1.745 
1.29852 0.309274 1.736 
1.09442 0.231778 1.301 
-1.38049 0.364087 2.026 
-1.17224 0.38026 2.116 
-1.09847 0.389066 2.165 
-0.927174 0.382237 2.127 
-0.78481 0.390324 2.172 
-0.444512 0.376486 2.095 
-0.170897 0.27621 1.537 
-0.101776 0.283218 1.576 
-0.0279224 0.279265 1.554 
0.114134 0.284297 1.582 
0.18419 0.278726 1.551 
0.31759 0.263451 1.466 
1.16031 0.311073 1.731 
1.08479 0.234338 1.304 
-1.31103 0.40403 2.229 
-1.14052 0.381735 2.106 
-1.05968 0.388079 2.141 
-0.904892 0.385904 2.129 
-0.734608 0.386811 2.134 
-0.458624 0.380648 2.1 
-0.378092 0.398955 2.201 
-0.11315 0.283492 1.564 
-0.0398658 0.280773 1.549 
0.0831158 0.290017 1.6 
0.154538 0.284217 1.568 
0.210494 0.262828 1.45 
1.00061 0.30053 1.658 
1.02964 0.236727 1.306 
-13.8534 3.10748 16.998 
-1.19659 0.390492 2.136 
-1.0996 0.391406 2.141 
-0.934203 0.386287 2.113 
-0.791325 0.3936 2.153 
-0.46975 0.385007 2.106 
-0.390645 0.404751 2.214 
-0.112789 0.285008 1.559 
-0.0397371 0.282266 1.544 
0.0483134 0.292503 1.6 
0.121584 0.289395 1.583 
0.188827 0.279706 1.53 
0.323759 0.267458 1.463 
1.18464 0.308774 1.689 
-1.90569 0.384223 2.084 
-1.15853 0.388832 2.109 
-1.08486 0.397866 2.158 
-0.870995 0.392151 2.127 
-0.551357 0.410035 2.224 
-0.419108 0.409113 2.219 
-0.131912 0.286877 1.556 
-0.0593098 0.286508 1.554 
0.0128271 0.280055 1.519 
0.0875921 0.29333 1.591 
0.159716 0.289642 1.571 
0.217402 0.267518 1.451 
0.980797 0.305129 1.655 
1.2089 0.320616 1.739 
-1.21393 0.400662 2.155 
-1.09643 0.394526 2.122 
-0.793544 0.396385 2.132 
-0.53391 0.410701 2.209 
-0.403681 0.41442 2.229 
-0.12177 0.288179 1.55 
-0.0491409 0.285948 1.538 
0.0223112 0.282973 1.522 
0.097112 0.294686 1.585 
0.169479 0.292083 1.571 
0.233559 0.275536 1.482 
0.954974 0.406053 2.184 
1.14985 0.302123 1.625 
-1.22406 0.406259 2.167 
-1.06067 0.40176 2.143 
-0.547901 0.416946 2.224 
-0.175512 0.284025 1.515 
-0.107529 0.291149 1.553 
-0.0346904 0.2874 1.533 
0.0371708 0.290587 1.55 
0.111817 0.296961 1.584 
0.183421 0.293399 1.565 
0.323095 0.273714 1.46 
0.988687 0.309522 1.651 
1.23541 0.314209 1.676 
-1.16567 0.40112 2.122 
-1.04872 0.404334 2.139 
-0.433451 0.413407 2.187 
-0.148725 0.289215 1.53 
-0.0794852 0.296965 1.571 
-0.00609704 0.289215 1.53 
0.0776068 0.300367 1.589 
0.150334 0.297721 1.575 
0.215429 0.280519 1.484 
0.753587 0.452914 2.396 
1.17835 0.325508 1.722 
1.23949 0.317191 1.678 
-1.12651 0.405751 2.129 
-0.443645 0.416805 2.187 
-0.126505 0.295213 1.549 
-0.053885 0.292926 1.537 
0.0175125 0.288924 1.516 
0.114134 0.301502 1.582 
0.185971 0.298453 1.566 
0.329674 0.27806 1.459 
0.782096 0.437197 2.294 
1.18906 0.328184 1.722 
1.25067 0.319989 1.679 
-1.10858 0.40733 2.12 
-0.412081 0.429809 2.237 
-0.0690118 0.298772 1.555 
0.00339808 0.292816 1.524 
0.128392 0.302807 1.576 
0.196855 0.295314 1.537 
0.344358 0.279367 1.454 
1.13892 0.329514 1.715 
1.21518 0.325671 1.695 
-1.94678 0.40888 2.111 
-1.12916 0.413335 2.134 
-0.428997 0.425925 2.199 
-0.0638084 0.299445 1.546 
0.00811768 0.294603 1.521 
0.137924 0.304675 1.573 
0.208795 0.297702 1.537 
0.746764 0.464469 2.398 
0.970764 0.423988 2.189 
1.18722 0.330048 1.704 
1.2626 0.325593 1.681 
-1.11554 0.415284 2.127 
-0.398761 0.441251 2.26 
-0.0300635 0.300676 1.54 
0.10417 0.308485 1.58 
0.177027 0.307119 1.573 
0.24748 0.303604 1.555 
0.764408 0.452185 2.316 
1.18608 0.333867 1.71 
1.24767 0.3284 1.682 
-0.454354 0.434135 2.206 
-0.0563462 0.302871 1.539 
0.0268984 0.297952 1.514 
0.167251 0.309563 1.573 
0.238734 0.307201 1.561 
0.783119 0.452044 2.297 
1.164 0.323732 1.645 
-1.24951 0.437563 2.206 
-0.431823 0.435579 2.196 
-0.0132889 0.304866 1.537 
0.130426 0.31161 1.571 
0.203002 0.310618 1.566 
0.764359 0.4572 2.305 
1.17553 0.335412 1.691 
1.25775 0.334222 1.685 
-1.1704 0.430795 2.155 
-0.178966 0.464579 2.324 
0.0245624 0.302856 1.515 
0.177139 0.31465 1.574 
0.2513 0.31565 1.579 
0.769848 0.459781 2.3 
1.14292 0.342437 1.713 
1.20563 0.337639 1.689 
-0.44079 0.109795 0.545 
-1.21729 0.438978 2.179 
-0.280806 0.260889 1.295 
0.00103839 0.30944 1.536 
0.155031 0.316894 1.573 
0.227043 0.315081 1.564 
0.20148 0.148072 0.735 
1.13277 0.35356 1.755 
1.17512 0.342077 1.698 
1.25252 0.339458 1.685 
-0.421848 0.111454 0.549 
-0.370474 0.113484 0.559 
-0.28505 0.263104 1.296 
-0.139607 0.473019 2.33 
0.152684 0.319541 1.574 
0.224756 0.317714 1.565 
0.200066 0.149011 0.734 
1.13822 0.356287 1.755 
1.15237 0.333549 1.643 
-0.435755 0.111284 0.544 
-0.407348 0.112307 0.549 
-0.308715 0.117625 0.575 
-0.224032 0.282096 1.379 
-0.00135157 0.315032 1.54 
0.160021 0.321987 1.574 
0.232199 0.32035 1.566 
0.202347 0.150151 0.734 
1.12539 0.3584 1.752 
1.18008 0.349603 1.709 
-0.440827 0.112129 0.544 
-0.410011 0.112954 0.548 
-0.372805 0.114603 0.556 
-0.309609 0.118519 0.575 
-0.224195 0.284445 1.38 
-0.00135157 0.317424 1.54 
0.160021 0.324432 1.574 
0.232199 0.322783 1.566 
0.962182 0.351228 1.704 
0.998291 0.335769 1.629 
1.15774 0.341746 1.658 
-0.428026 0.11339 0.546 
-0.40014 0.114636 0.552 
-0.358086 0.116297 0.56 
-0.3202 0.118374 0.57 
-0.225021 0.140179 0.675 
-0.188247 0.478687 2.305 
0.0128946 0.317117 1.527 
0.174694 0.326878 1.574 
0.248216 0.327085 1.575 
0.963638 0.350553 1.688 
1.07804 0.353668 1.703 
1.1787 0.354498 1.707 
0.976218 0.214111 1.031 
-0.408309 0.114656 0.548 
-0.370678 0.116749 0.558 
-0.330827 0.119259 0.57 
-0.306395 0.120096 0.574 
-0.290642 0.27074 1.294 
-0.166976 0.482896 2.308 
0.027005 0.318025 1.52 
0.188765 0.328277 1.569 
0.265569 0.33288 1.591 
0.957845 0.355895 1.701 
0.992704 0.339785 1.624 
1.15964 0.361963 1.73 
1.25495 0.361544 1.728 
-0.439136 0.114665 0.544 
-0.410212 0.115086 0.546 
-0.374907 0.116772 0.554 
-0.33642 0.119302 0.566 
-0.313873 0.120777 0.573 
-0.268981 0.12141 0.576 
-0.279722 0.271907 1.29 
-0.159805 0.486482 2.308 
0.113484 0.331558 1.573 
0.186327 0.330715 1.569 
0.262435 0.334509 1.587 
0.944315 0.360435 1.71 
0.966636 0.339357 1.61 
1.13692 0.369499 1.753 
1.17067 0.354955 1.684 
1.27009 0.357906 1.698 
-0.429101 0.115085 0.542 
-0.405526 0.116784 0.55 
-0.376984 0.117209 0.552 
-0.337806 0.11912 0.561 
-0.31688 0.121455 0.572 
-0.289955 0.122092 0.575 
-0.25094 0.124003 0.584 
-0.180456 0.487732 2.297 
0.0175818 0.323173 1.522 
0.172358 0.334427 1.575 
0.244052 0.332091 1.564 
0.912331 0.359907 1.695 
0.958197 0.346954 1.634 
1.07116 0.35842 1.688 
1.17889 0.364153 1.715 
1.25516 0.363092 1.71 
-0.439173 0.116141 0.543 
-0.412847 0.116569 0.545 
-0.386574 0.117852 0.551 
-0.366131 0.119563 0.559 
-0.330247 0.121702 0.569 
-0.305861 0.122558 0.573 
-0.27435 0.1232 0.576 
-0.25094 0.124911 0.584 
-0.187838 0.491942 2.3 
0.0175702 0.325324 1.521 
0.177252 0.336874 1.575 
0.249867 0.335804 1.57 
0.919222 0.363182 1.698 
0.952074 0.345429 1.615 
1.07896 0.361899 1.692 
1.17605 0.365107 1.707 
1.26018 0.364893 1.706 
-0.439173 0.116985 0.543 
-0.414625 0.1172 0.544 
-0.394994 0.118924 0.552 
-0.369934 0.119139 0.553 
-0.338136 0.121294 0.563 
-0.31688 0.123233 0.572 
-0.291234 0.123664 0.574 
-0.262286 0.125603 0.583 
-0.223482 0.127757 0.593 
-0.22746 0.51232 2.378 
0.00578102 0.329195 1.528 
0.177589 0.339967 1.578 
0.250345 0.33889 1.573 
0.905497 0.365605 1.697 
0.960227 0.356556 1.655 
1.04251 0.356556 1.655 
1.18263 0.360865 1.675 
0.973014 0.22212 1.031 
-0.423143 0.117828 0.543 
-0.402963 0.119347 0.55 
-0.378013 0.119564 0.551 
-0.357446 0.1213 0.559 
-0.323489 0.123253 0.568 
-0.299629 0.124338 0.573 
-0.268086 0.124989 0.576 
-0.233223 0.128461 0.592 
-0.206324 0.128895 0.594 
-0.162066 0.131933 0.608 
0.12232 0.33873 1.561 
0.196328 0.3409 1.571 
0.2747 0.34741 1.601 
0.92722 0.369543 1.703 
0.948672 0.348278 1.605 
1.06621 0.362816 1.672 
1.18263 0.363467 1.675 
0.959268 0.223505 1.03 
-0.428259 0.118454 0.542 
-0.405642 0.119983 0.549 
-0.380745 0.120202 0.55 
-0.360275 0.12195 0.558 
-0.327019 0.124136 0.568 
-0.302661 0.12501 0.572 
-0.272087 0.125666 0.575 
-0.248699 0.127414 0.583 
-0.209309 0.129381 0.592 
-0.181699 0.130692 0.598 
-0.155813 0.5031 2.302 
0.184944 0.34487 1.578 
0.260134 0.347056 1.588 
0.906528 0.370222 1.694 
0.961914 0.349241 1.598 
1.14219 0.377653 1.728 
1.18594 0.366288 1.676 
1.27799 0.369566 1.691 
-0.428309 0.119076 0.541 
-0.404903 0.120616 0.548 
-0.380053 0.120836 0.549 
-0.360275 0.122817 0.558 
-0.327324 0.124798 0.567 
-0.303019 0.125679 0.571 
-0.27793 0.126779 0.576 
-0.254134 0.12832 0.583 
-0.220346 0.130301 0.592 
-0.194381 0.131401 0.597 
-0.158027 0.133602 0.607 
-0.148853 0.507337 2.305 
0.199402 0.346882 1.576 
0.277361 0.352605 1.602 
0.953264 0.361629 1.643 
1.02358 0.359428 1.633 
1.17006 0.375495 1.706 
1.24942 0.373074 1.695 
-0.431712 0.119694 0.54 
-0.406073 0.120803 0.545 
-0.384163 0.121911 0.55 
-0.362439 0.123241 0.556 
-0.329086 0.125679 0.567 
-0.30426 0.126344 0.57 
-0.280615 0.127674 0.576 
-0.256411 0.129004 0.582 
-0.223647 0.130999 0.591 
-0.198091 0.132329 0.597 
-0.166789 0.134767 0.608 
-0.140044 0.136319 0.615 
0.168846 0.35199 1.588 
0.241028 0.349331 1.576 
0.199883 0.159814 0.721 
0.99345 0.358418 1.617 
1.15761 0.381027 1.719 
1.27084 0.373491 1.685 
-0.419838 0.12098 0.542 
-0.401855 0.123212 0.552 
-0.375445 0.122989 0.551 
-0.353972 0.124774 0.559 
-0.320277 0.12656 0.567 
-0.295922 0.127453 0.571 
-0.271194 0.128346 0.575 
-0.247368 0.129908 0.582 
-0.223268 0.131694 0.59 
-0.198091 0.133256 0.597 
-0.165845 0.135712 0.608 
-0.138863 0.137051 0.614 
-0.110424 0.137274 0.615 
-0.0528463 0.141738 0.635 
0.214908 0.353118 1.582 
0.187821 0.161158 0.722 
0.958905 0.355574 1.593 
1.13891 0.383698 1.719 
1.2397 0.38102 1.707 
-0.418996 0.121822 0.542 
