# .PCD v.7 - Point Cloud Data file format
VERSION .7
FIELDS x y z
SIZE 4 4 4
TYPE F F F
COUNT 1 1 1
WIDTH 1815
HEIGHT 1
VIEWPOINT 0 0 0 1 0 0 0
POINTS 1815
DATA ascii
-0.554328 -0.144787 0.808 
-0.50036 -0.144429 0.806 
-0.458199 -0.142995 0.798 
-0.427335 -0.145146 0.81 
-0.397757 -0.148192 0.827 
-0.368332 -0.151955 0.848 
-0.339275 -0.156793 0.875 
-0.304973 -0.160198 0.894 
-0.271255 -0.165036 0.921 
-0.235021 -0.169874 0.948 
-0.193451 -0.172204 0.961 
-0.145101 -0.168082 0.938 
-0.102353 -0.169695 0.947 
-0.058336 -0.170053 0.949 
-0.0143852 -0.173458 0.968 
0.0340026 -0.182955 1.021 
0.0867861 -0.194603 1.086 
0.147274 -0.20858 1.164 
0.226221 -0.232054 1.295 
0.30694 -0.248539 1.387 
0.358729 -0.239938 1.339 
0.388453 -0.220227 1.229 
0.438846 -0.216822 1.21 
0.465775 -0.203921 1.138 
0.49739 -0.195499 1.091 
0.523619 -0.186718 1.042 
0.549124 -0.179192 1 
0.572501 -0.172204 0.961 
0.58903 -0.164319 0.917 
0.596599 -0.154822 0.864 
0.607386 -0.147654 0.824 
0.621497 -0.142099 0.793 
0.631058 -0.136186 0.76 
0.647189 -0.132244 0.738 
0.662192 -0.128481 0.717 
0.674268 -0.124539 0.695 
-0.685753 -0.144242 0.812 
-0.641523 -0.142821 0.804 
-0.608556 -0.143887 0.81 
-0.570801 -0.143887 0.81 
-0.531073 -0.143354 0.807 
-0.467649 -0.140867 0.793 
-0.436661 -0.142821 0.804 
-0.40713 -0.145664 0.82 
-0.377458 -0.149039 0.839 
-0.346821 -0.152769 0.86 
-0.316366 -0.157565 0.887 
-0.282774 -0.162006 0.912 
-0.245271 -0.165381 0.931 
-0.207948 -0.170355 0.959 
-0.161547 -0.168579 0.949 
-0.116327 -0.169289 0.953 
-0.0720587 -0.169645 0.955 
-0.0276324 -0.170178 0.958 
0.0176421 -0.176395 0.993 
0.0686256 -0.189363 1.066 
0.12597 -0.20162 1.135 
0.199203 -0.224535 1.264 
0.27568 -0.239812 1.35 
0.345878 -0.244963 1.379 
0.382493 -0.228443 1.286 
0.426608 -0.220272 1.24 
0.453934 -0.206416 1.162 
0.484046 -0.196646 1.107 
0.508547 -0.186698 1.051 
0.541089 -0.181191 1.02 
0.560354 -0.172487 0.971 
0.581912 -0.165737 0.933 
0.597247 -0.158276 0.891 
0.600063 -0.148683 0.837 
0.614643 -0.142999 0.805 
0.624619 -0.136959 0.771 
0.64085 -0.132874 0.748 
0.655841 -0.128966 0.726 
0.667831 -0.12488 0.703 
-0.693507 -0.14122 0.802 
-0.661852 -0.142453 0.809 
-0.619607 -0.142276 0.808 
-0.584106 -0.142805 0.811 
-0.545632 -0.142629 0.81 
-0.483629 -0.14034 0.797 
-0.448721 -0.141044 0.801 
-0.418063 -0.143333 0.814 
-0.388528 -0.146503 0.832 
-0.359837 -0.150729 0.856 
-0.329283 -0.155131 0.881 
-0.293453 -0.157948 0.897 
-0.26006 -0.163231 0.927 
-0.223168 -0.167985 0.954 
-0.179826 -0.169041 0.96 
-0.134799 -0.168689 0.958 
-0.0893933 -0.167281 0.95 
-0.0447811 -0.166048 0.943 
0.000661162 -0.172211 0.978 
0.0493196 -0.183656 1.043 
0.103098 -0.193341 1.098 
0.166501 -0.20866 1.185 
0.251038 -0.230495 1.309 
0.333029 -0.24599 1.397 
0.372779 -0.230319 1.308 
0.41079 -0.217113 1.233 
0.448512 -0.207956 1.181 
0.477549 -0.197215 1.12 
0.5009 -0.186474 1.059 
0.534672 -0.181191 1.029 
0.552059 -0.171683 0.975 
0.577281 -0.165872 0.942 
0.593491 -0.158476 0.9 
0.595196 -0.148439 0.843 
0.611156 -0.142981 0.812 
0.625026 -0.137698 0.782 
0.637791 -0.132768 0.754 
0.6533 -0.128894 0.732 
0.663002 -0.124316 0.706 
0.673238 -0.120266 0.683 
-0.671049 -0.141545 0.811 
-0.632467 -0.14137 0.81 
-0.595447 -0.141545 0.811 
-0.556958 -0.14137 0.81 
-0.509132 -0.141719 0.812 
-0.462497 -0.13945 0.799 
-0.430046 -0.141021 0.808 
-0.400155 -0.143814 0.824 
-0.371406 -0.147653 0.846 
-0.341784 -0.152017 0.871 
-0.308794 -0.155856 0.893 
-0.27495 -0.160394 0.919 
-0.238177 -0.164583 0.943 
-0.198754 -0.168423 0.965 
-0.148962 -0.164757 0.944 
-0.10574 -0.165979 0.951 
-0.0616724 -0.166677 0.955 
-0.0173572 -0.168597 0.966 
0.0305582 -0.176625 1.012 
0.0824898 -0.187446 1.074 
0.142299 -0.201234 1.153 
0.219505 -0.22532 1.291 
0.294626 -0.237362 1.36 
0.353541 -0.234395 1.343 
0.382413 -0.214324 1.228 
0.433922 -0.211532 1.212 
0.459662 -0.198267 1.136 
0.494561 -0.191286 1.096 
0.518762 -0.181861 1.042 
0.542829 -0.174008 0.997 
0.566839 -0.167375 0.959 
0.586031 -0.160394 0.919 
0.593944 -0.151144 0.866 
0.604278 -0.143988 0.825 
0.617801 -0.138403 0.793 
0.627515 -0.132644 0.76 
0.644621 -0.128978 0.739 
0.65885 -0.125139 0.717 
0.670063 -0.121125 0.694 
-0.691245 -0.141323 0.817 
-0.647569 -0.140112 0.81 
-0.609814 -0.140112 0.81 
-0.572766 -0.140285 0.811 
-0.535625 -0.140458 0.812 
-0.477437 -0.137863 0.797 
-0.443604 -0.138901 0.803 
-0.413257 -0.141323 0.817 
-0.384361 -0.144782 0.837 
-0.354838 -0.148761 0.86 
-0.322805 -0.152566 0.882 
-0.286395 -0.157409 0.91 
-0.24827 -0.160177 0.926 
-0.212197 -0.165712 0.958 
-0.167719 -0.165885 0.959 
-0.123405 -0.166404 0.962 
-0.0766702 -0.165539 0.957 
-0.0319636 -0.16502 0.954 
0.0144539 -0.170556 0.986 
0.064823 -0.18301 1.058 
0.121149 -0.194254 1.123 
0.190177 -0.212935 1.231 
0.270138 -0.230579 1.333 
0.342738 -0.237844 1.375 
0.381382 -0.222968 1.289 
0.423167 -0.212762 1.23 
0.451199 -0.199789 1.155 
0.484449 -0.190967 1.104 
0.509865 -0.181107 1.047 
0.541591 -0.175572 1.015 
0.560471 -0.167096 0.966 
0.581677 -0.160523 0.928 
0.597995 -0.153604 0.888 
0.599064 -0.143917 0.832 
0.613311 -0.138382 0.8 
0.624575 -0.132847 0.768 
0.640595 -0.128868 0.745 
0.655377 -0.125063 0.723 
0.667156 -0.121084 0.7 
-0.697966 -0.139368 0.813 
-0.661696 -0.13971 0.815 
-0.619882 -0.138853 0.81 
-0.583565 -0.139196 0.812 
-0.54639 -0.139368 0.813 
-0.500347 -0.13851 0.808 
-0.456959 -0.136796 0.798 
-0.426076 -0.138853 0.81 
-0.397431 -0.14211 0.829 
-0.367014 -0.145367 0.848 
-0.339461 -0.150681 0.879 
-0.303244 -0.153081 0.893 
-0.269531 -0.15771 0.92 
-0.233302 -0.162338 0.947 
-0.193556 -0.16611 0.969 
-0.145634 -0.163024 0.951 
-0.100145 -0.163538 0.954 
-0.0557957 -0.163881 0.956 
-0.0114125 -0.166452 0.971 
0.0353798 -0.173995 1.015 
0.0878217 -0.184795 1.078 
0.148058 -0.198166 1.156 
0.226221 -0.221994 1.295 
0.302293 -0.234165 1.366 
0.355247 -0.227308 1.326 
0.38941 -0.210166 1.226 
0.436355 -0.205366 1.198 
0.465489 -0.194223 1.133 
0.497713 -0.186509 1.088 
0.521205 -0.177252 1.034 
0.542968 -0.169024 0.986 
0.566826 -0.162681 0.949 
0.587879 -0.15651 0.913 
0.590329 -0.146224 0.853 
0.60645 -0.140739 0.821 
0.618017 -0.13491 0.787 
0.629743 -0.129768 0.757 
0.6457 -0.125996 0.735 
0.658681 -0.122054 0.712 
0.670489 -0.118282 0.69 
-0.686575 -0.139124 0.819 
-0.643651 -0.138104 0.813 
-0.604267 -0.137765 0.811 
-0.567164 -0.137934 0.812 
-0.529317 -0.137934 0.812 
-0.486627 -0.136576 0.804 
-0.447477 -0.136066 0.801 
-0.416286 -0.138104 0.813 
-0.388631 -0.141842 0.835 
-0.360182 -0.146088 0.86 
-0.328286 -0.149825 0.882 
-0.291408 -0.152034 0.895 
-0.257225 -0.15662 0.922 
-0.221454 -0.161886 0.953 
-0.179449 -0.164094 0.966 
-0.134284 -0.163925 0.965 
-0.0885651 -0.162566 0.957 
-0.0436375 -0.161377 0.95 
0.000659134 -0.165623 0.975 
0.0487995 -0.175306 1.032 
0.102441 -0.185328 1.091 
0.165658 -0.200277 1.179 
0.245461 -0.221001 1.301 
0.325394 -0.23493 1.383 
0.368714 -0.22219 1.308 
0.410123 -0.20911 1.231 
0.445474 -0.199258 1.173 
0.477976 -0.190424 1.121 
0.499954 -0.179553 1.057 
0.535192 -0.174966 1.03 
0.550927 -0.165284 0.973 
0.575442 -0.159508 0.939 
0.591513 -0.152373 0.897 
0.593078 -0.142691 0.84 
0.609651 -0.137595 0.81 
0.621829 -0.132159 0.778 
0.633561 -0.127233 0.749 
0.650623 -0.123835 0.729 
0.662063 -0.119758 0.705 
0.672252 -0.115851 0.682 
-0.678496 -0.138019 0.82 
-0.634809 -0.136841 0.813 
-0.596181 -0.136673 0.812 
-0.557646 -0.136505 0.811 
-0.520486 -0.136673 0.812 
-0.478478 -0.135495 0.805 
-0.441504 -0.135663 0.806 
-0.410451 -0.137851 0.819 
-0.380914 -0.141049 0.838 
-0.352461 -0.145425 0.864 
-0.3205 -0.149297 0.887 
-0.285451 -0.152663 0.907 
-0.24827 -0.155861 0.926 
-0.21264 -0.161584 0.96 
-0.168418 -0.162089 0.963 
-0.124046 -0.162762 0.967 
-0.0783204 -0.161415 0.959 
-0.0334458 -0.160574 0.954 
0.0113092 -0.164782 0.979 
0.060663 -0.175554 1.043 
0.116402 -0.187 1.111 
0.188787 -0.205683 1.222 
0.26505 -0.221841 1.318 
0.339859 -0.23093 1.372 
0.37938 -0.21696 1.289 
0.420229 -0.206524 1.227 
0.449016 -0.194237 1.154 
0.482326 -0.186326 1.107 
0.506127 -0.176059 1.046 
0.539498 -0.171178 1.017 
0.557469 -0.162594 0.966 
0.57817 -0.156029 0.927 
0.593895 -0.149128 0.886 
0.595761 -0.139871 0.831 
0.610825 -0.134653 0.8 
0.623809 -0.129604 0.77 
0.63828 -0.125396 0.745 
0.651539 -0.121188 0.72 
0.665117 -0.117653 0.699 
-0.707385 -0.136912 0.821 
-0.669118 -0.136912 0.821 
-0.625473 -0.135745 0.814 
-0.587532 -0.135745 0.814 
-0.550266 -0.135912 0.815 
-0.51165 -0.135745 0.814 
-0.466144 -0.133577 0.801 
-0.432557 -0.134744 0.808 
-0.402226 -0.137246 0.823 
-0.372709 -0.140581 0.843 
-0.344095 -0.145084 0.87 
-0.310871 -0.148586 0.891 
-0.276596 -0.152588 0.915 
-0.240595 -0.156924 0.941 
-0.201544 -0.160759 0.964 
-0.156124 -0.160259 0.961 
-0.111679 -0.160759 0.964 
-0.0665391 -0.160259 0.961 
-0.0218145 -0.160759 0.964 
0.0238133 -0.165595 0.993 
0.0766903 -0.177269 1.063 
0.135619 -0.190443 1.142 
0.20555 -0.207286 1.243 
0.285916 -0.223295 1.339 
0.350409 -0.224629 1.347 
0.382914 -0.207119 1.242 
0.427672 -0.200949 1.205 
0.453723 -0.188442 1.13 
0.489811 -0.182272 1.093 
0.514535 -0.173433 1.04 
0.538649 -0.165929 0.995 
0.561507 -0.159258 0.955 
0.582541 -0.153088 0.918 
0.593984 -0.145084 0.87 
0.600985 -0.137412 0.824 
0.614561 -0.132076 0.792 
0.627622 -0.12724 0.763 
0.641456 -0.123071 0.738 
0.654791 -0.119235 0.715 
0.666944 -0.115567 0.693 
-0.700584 -0.135802 0.822 
-0.660659 -0.135471 0.82 
-0.617377 -0.134645 0.815 
-0.578679 -0.13448 0.814 
-0.541403 -0.134645 0.815 
-0.50218 -0.134315 0.813 
-0.45629 -0.132002 0.799 
-0.425342 -0.133985 0.811 
-0.396621 -0.137124 0.83 
-0.366559 -0.140428 0.85 
-0.338479 -0.145384 0.88 
-0.302195 -0.147697 0.894 
-0.267811 -0.151827 0.919 
-0.232075 -0.156618 0.948 
-0.192843 -0.160748 0.973 
-0.145824 -0.158931 0.962 
-0.101195 -0.159262 0.964 
-0.0560875 -0.158766 0.961 
-0.0114008 -0.160253 0.97 
0.0367383 -0.166696 1.009 
0.0913405 -0.178426 1.08 
0.152043 -0.191477 1.159 
0.22849 -0.210476 1.274 
0.308208 -0.225345 1.364 
0.359519 -0.217911 1.319 
0.39291 -0.203372 1.231 
0.433827 -0.195938 1.186 
0.464363 -0.186025 1.126 
0.497568 -0.179087 1.084 
0.522306 -0.170661 1.033 
0.542843 -0.1624 0.983 
0.565306 -0.155957 0.944 
0.585425 -0.149845 0.907 
0.588253 -0.140428 0.85 
0.604973 -0.135306 0.819 
0.616447 -0.129689 0.785 
0.628911 -0.124898 0.756 
0.644821 -0.121263 0.734 
0.655906 -0.117133 0.709 
0.668546 -0.113664 0.688 
-0.693765 -0.134688 0.823 
-0.651423 -0.13387 0.818 
-0.611796 -0.133543 0.816 
-0.573059 -0.133379 0.815 
-0.535728 -0.133543 0.816 
-0.495254 -0.132888 0.812 
-0.45121 -0.131088 0.801 
-0.420076 -0.133052 0.813 
-0.391583 -0.136325 0.833 
-0.36292 -0.140253 0.857 
-0.333151 -0.144671 0.884 
-0.29492 -0.146144 0.893 
-0.261239 -0.150727 0.921 
-0.225659 -0.1558 0.952 
-0.185285 -0.159237 0.973 
-0.139214 -0.158418 0.968 
-0.0923041 -0.157927 0.965 
-0.0469819 -0.156782 0.958 
-0.00236567 -0.159237 0.973 
0.0448417 -0.16611 1.015 
0.0985972 -0.17773 1.086 
0.161445 -0.192295 1.175 
0.234981 -0.208988 1.277 
0.314566 -0.223226 1.364 
0.364558 -0.215207 1.315 
0.398972 -0.201623 1.232 
0.436391 -0.192786 1.178 
0.468777 -0.183949 1.124 
0.498911 -0.176093 1.076 
0.526611 -0.168892 1.032 
0.545197 -0.160219 0.979 
0.567896 -0.154 0.941 
0.585102 -0.14729 0.9 
0.588731 -0.138289 0.845 
0.605073 -0.133215 0.814 
0.616946 -0.127815 0.781 
0.629089 -0.123069 0.752 
0.646476 -0.119796 0.732 
0.656421 -0.115541 0.706 
0.6698 -0.112268 0.686 
-0.689929 -0.13341 0.823 
-0.64761 -0.132599 0.818 
-0.604399 -0.132599 0.818 
-0.564887 -0.132275 0.816 
-0.526853 -0.132275 0.816 
-0.487022 -0.131789 0.813 
-0.446366 -0.130978 0.808 
-0.413257 -0.132437 0.817 
-0.383442 -0.135355 0.835 
-0.356901 -0.140218 0.865 
-0.323537 -0.143298 0.884 
-0.286485 -0.145405 0.897 
-0.252859 -0.150268 0.927 
-0.21734 -0.15578 0.961 
-0.174703 -0.157725 0.973 
-0.12797 -0.157887 0.974 
-0.081809 -0.156428 0.965 
-0.0366392 -0.155618 0.96 
0.00823331 -0.158049 0.975 
0.0561558 -0.165344 1.02 
0.112035 -0.178636 1.102 
0.17971 -0.196467 1.212 
0.251987 -0.209597 1.293 
0.330366 -0.221755 1.368 
0.374826 -0.210894 1.301 
0.411032 -0.199061 1.228 
0.441958 -0.187876 1.159 
0.476722 -0.180581 1.114 
0.501597 -0.171341 1.057 
0.533665 -0.165992 1.024 
0.552438 -0.157725 0.973 
0.574444 -0.151565 0.935 
0.584975 -0.14346 0.885 
0.59226 -0.135679 0.837 
0.60563 -0.130168 0.803 
0.620635 -0.125629 0.775 
0.632183 -0.120928 0.746 
0.647285 -0.117362 0.724 
0.661277 -0.113957 0.703 
0.67035 -0.110067 0.679 
-0.685196 -0.132452 0.825 
-0.635677 -0.131489 0.819 
-0.596774 -0.131328 0.818 
-0.559329 -0.131489 0.819 
-0.519883 -0.131168 0.817 
-0.477674 -0.130044 0.81 
-0.43992 -0.130044 0.81 
-0.407627 -0.13181 0.821 
-0.376108 -0.134218 0.836 
-0.34924 -0.139035 0.866 
-0.315296 -0.141924 0.884 
-0.280604 -0.145296 0.905 
-0.245798 -0.149791 0.933 
-0.208816 -0.154608 0.963 
-0.165632 -0.156213 0.973 
-0.119257 -0.156855 0.977 
-0.073115 -0.155571 0.969 
-0.027892 -0.15525 0.967 
0.0175 -0.15814 0.985 
0.069227 -0.168575 1.05 
0.127959 -0.182543 1.137 
0.194483 -0.19619 1.222 
0.270576 -0.211121 1.315 
0.342973 -0.218185 1.359 
0.379408 -0.203735 1.269 
0.42024 -0.195226 1.216 
0.447895 -0.183346 1.142 
0.482255 -0.176442 1.099 
0.507753 -0.167933 1.046 
0.534162 -0.16119 1.004 
0.558391 -0.154929 0.965 
0.576484 -0.148025 0.922 
0.587881 -0.14048 0.875 
0.592742 -0.132452 0.825 
0.609008 -0.127796 0.796 
0.623382 -0.123301 0.768 
0.637721 -0.119287 0.743 
0.64973 -0.115273 0.718 
0.663214 -0.111902 0.697 
-0.71641 -0.131488 0.827 
-0.677863 -0.131488 0.827 
-0.627788 -0.130693 0.822 
-0.58804 -0.130375 0.82 
-0.54915 -0.130216 0.819 
-0.510352 -0.130057 0.818 
-0.46472 -0.12799 0.805 
-0.431444 -0.129262 0.813 
-0.400327 -0.131488 0.827 
-0.369217 -0.134191 0.844 
-0.341212 -0.138802 0.873 
-0.306718 -0.141664 0.891 
-0.273522 -0.146116 0.919 
-0.23646 -0.149773 0.942 
-0.198277 -0.154225 0.97 
-0.154012 -0.155178 0.976 
-0.105163 -0.154701 0.973 
-0.0591351 -0.152953 0.962 
-0.0144595 -0.154701 0.973 
0.0333699 -0.159312 1.002 
0.0874143 -0.170601 1.073 
0.148058 -0.183797 1.156 
0.216613 -0.197153 1.24 
0.297867 -0.214006 1.346 
0.356318 -0.211462 1.33 
0.389689 -0.196994 1.239 
0.427216 -0.18809 1.183 
0.457891 -0.178551 1.123 
0.491606 -0.172032 1.082 
0.520998 -0.165354 1.04 
0.541547 -0.157245 0.989 
0.563877 -0.150886 0.949 
0.578634 -0.143572 0.903 
0.586353 -0.135622 0.853 
0.599687 -0.129898 0.817 
0.613569 -0.12497 0.786 
0.628696 -0.120836 0.76 
0.643148 -0.11702 0.736 
0.653521 -0.112886 0.71 
0.666306 -0.109547 0.689 
-0.704412 -0.130361 0.828 
-0.662602 -0.129731 0.824 
-0.616294 -0.129416 0.822 
-0.579387 -0.129731 0.824 
-0.53901 -0.129259 0.821 
-0.498304 -0.128629 0.817 
-0.455153 -0.127212 0.808 
-0.421626 -0.128472 0.816 
-0.390643 -0.130833 0.831 
-0.361226 -0.134297 0.853 
-0.331643 -0.138548 0.88 
-0.294589 -0.140437 0.892 
-0.261522 -0.14516 0.922 
-0.226133 -0.150198 0.954 
-0.185856 -0.153662 0.976 
-0.140364 -0.153662 0.976 
-0.0942894 -0.152717 0.97 
-0.0488245 -0.15193 0.965 
-0.00389732 -0.153977 0.978 
0.0445766 -0.158858 1.009 
0.100377 -0.171138 1.087 
0.165076 -0.18704 1.188 
0.235295 -0.199635 1.268 
0.313203 -0.212387 1.349 
0.36465 -0.205932 1.308 
0.400561 -0.193809 1.231 
0.433758 -0.183576 1.166 
0.468012 -0.176019 1.118 
0.498722 -0.168776 1.072 
0.528214 -0.162479 1.032 
0.54712 -0.15382 0.977 
0.569 -0.147679 0.938 
0.577447 -0.139178 0.884 
0.589062 -0.131935 0.838 
0.602637 -0.126582 0.804 
0.617819 -0.122174 0.776 
0.629548 -0.117608 0.747 
0.646579 -0.114459 0.727 
0.658 -0.110681 0.703 
0.668168 -0.10706 0.68 
-0.692834 -0.129074 0.828 
-0.648709 -0.127983 0.821 
-0.611929 -0.128295 0.823 
-0.574963 -0.128607 0.825 
-0.535859 -0.128451 0.824 
-0.494434 -0.127671 0.819 
-0.45236 -0.12658 0.812 
-0.417576 -0.127516 0.818 
-0.385943 -0.129698 0.832 
-0.358012 -0.133751 0.858 
-0.326545 -0.137336 0.881 
-0.288722 -0.138895 0.891 
-0.257457 -0.144663 0.928 
-0.221127 -0.14934 0.958 
-0.179975 -0.152302 0.977 
-0.134712 -0.152613 0.979 
-0.0884431 -0.151522 0.972 
-0.0430936 -0.151366 0.971 
0.00218735 -0.152925 0.981 
0.0493284 -0.157446 1.01 
0.10385 -0.169605 1.088 
0.16962 -0.186129 1.194 
0.241121 -0.199224 1.278 
0.31763 -0.210447 1.35 
0.366741 -0.202809 1.301 
0.4034 -0.191429 1.228 
0.435802 -0.180361 1.157 
0.471106 -0.173502 1.113 
0.500429 -0.16602 1.065 
0.528376 -0.159472 1.023 
0.548466 -0.151834 0.974 
0.571305 -0.146066 0.937 
0.576912 -0.137025 0.879 
0.58943 -0.129854 0.833 
0.604122 -0.124865 0.801 
0.619033 -0.120501 0.773 
0.631335 -0.116136 0.745 
0.646391 -0.112706 0.723 
0.659396 -0.109277 0.701 
0.669363 -0.105691 0.678 
-0.690638 -0.128097 0.83 
-0.646454 -0.127016 0.823 
-0.608832 -0.127171 0.824 
-0.571118 -0.127325 0.825 
-0.53331 -0.127479 0.826 
-0.491215 -0.126553 0.82 
-0.450233 -0.125782 0.815 
-0.415786 -0.126862 0.822 
-0.382524 -0.12856 0.833 
-0.354838 -0.132727 0.86 
-0.322439 -0.135968 0.881 
-0.284569 -0.137511 0.891 
-0.253677 -0.14353 0.93 
-0.21734 -0.148314 0.961 
-0.176139 -0.151401 0.981 
-0.13068 -0.15171 0.983 
-0.0843443 -0.150784 0.977 
-0.0386868 -0.150321 0.974 
0.00675982 -0.151401 0.981 
0.0540895 -0.156031 1.011 
0.109322 -0.168532 1.092 
0.17793 -0.1852 1.2 
0.251792 -0.199399 1.292 
0.327227 -0.209122 1.355 
0.370793 -0.198627 1.287 
0.408689 -0.188441 1.221 
0.43993 -0.177329 1.149 
0.475017 -0.170693 1.106 
0.502763 -0.162976 1.056 
0.527938 -0.155877 1.01 
0.551673 -0.149549 0.969 
0.574049 -0.143839 0.932 
0.578399 -0.134733 0.873 
0.589039 -0.127634 0.827 
0.606337 -0.123312 0.799 
0.62022 -0.118837 0.77 
0.633103 -0.11467 0.743 
0.647065 -0.11112 0.72 
0.659827 -0.107725 0.698 
0.671531 -0.104484 0.677 
-0.689252 -0.127265 0.833 
-0.644179 -0.126043 0.825 
-0.60646 -0.126196 0.826 
-0.567272 -0.126043 0.825 
-0.530742 -0.126502 0.828 
-0.487393 -0.125279 0.82 
-0.445714 -0.124668 0.816 
-0.412176 -0.126043 0.825 
-0.378253 -0.127571 0.835 
-0.350712 -0.131849 0.863 
-0.317323 -0.134752 0.882 
-0.28091 -0.137043 0.897 
-0.248697 -0.142543 0.933 
-0.212028 -0.14728 0.964 
-0.170736 -0.150488 0.985 
-0.124698 -0.150335 0.984 
-0.0784327 -0.149571 0.979 
-0.0327007 -0.149113 0.976 
0.0128695 -0.15003 0.982 
0.0610295 -0.156141 1.022 
0.117278 -0.168516 1.103 
0.185697 -0.183641 1.202 
0.261632 -0.198766 1.301 
0.3354 -0.206864 1.354 
0.373788 -0.19403 1.27 
0.41389 -0.185474 1.214 
0.446121 -0.174474 1.142 
0.478362 -0.167141 1.094 
0.507579 -0.160266 1.049 
0.528358 -0.152169 0.996 
0.555738 -0.147127 0.963 
0.573804 -0.140557 0.92 
0.58183 -0.132613 0.868 
0.590423 -0.125279 0.82 
0.609478 -0.12146 0.795 
0.621322 -0.116724 0.764 
0.636296 -0.113057 0.74 
0.649032 -0.10939 0.716 
0.659531 -0.105724 0.692 
-0.718142 -0.125366 0.829 
-0.68524 -0.126425 0.836 
-0.640089 -0.125215 0.828 
-0.60077 -0.125064 0.827 
-0.561543 -0.124913 0.826 
-0.524309 -0.125215 0.828 
-0.481023 -0.124005 0.82 
-0.441723 -0.123703 0.818 
-0.408036 -0.125064 0.827 
-0.374404 -0.126727 0.838 
-0.346149 -0.13081 0.865 
-0.312549 -0.133684 0.884 
-0.278405 -0.137162 0.907 
-0.24368 -0.141548 0.936 
-0.206464 -0.146084 0.966 
-0.16545 -0.149714 0.99 
-0.116459 -0.14805 0.979 
-0.0707551 -0.147899 0.978 
-0.0251703 -0.147899 0.978 
0.0206233 -0.149411 0.988 
0.0700485 -0.156973 1.038 
0.129642 -0.169524 1.121 
0.200919 -0.18374 1.215 
0.279384 -0.199316 1.318 
0.34573 -0.202189 1.337 
0.384243 -0.190393 1.259 
0.420057 -0.180564 1.194 
0.451008 -0.171188 1.132 
0.480185 -0.163173 1.079 
0.514253 -0.158182 1.046 
0.532866 -0.149714 0.99 
0.560879 -0.145026 0.959 
0.569585 -0.136406 0.902 
0.579079 -0.129147 0.854 
0.591888 -0.123249 0.815 
0.609781 -0.119317 0.789 
0.622792 -0.114932 0.76 
0.638296 -0.111454 0.737 
0.650744 -0.107824 0.713 
0.661913 -0.104346 0.69 
-0.71213 -0.123929 0.828 
-0.680045 -0.125126 0.836 
-0.633898 -0.124228 0.83 
-0.594495 -0.124078 0.829 
-0.553173 -0.12348 0.825 
-0.516591 -0.123929 0.828 
-0.473379 -0.122731 0.82 
-0.434628 -0.122582 0.819 
-0.401779 -0.124228 0.83 
-0.368779 -0.126174 0.843 
-0.339649 -0.130065 0.869 
-0.305685 -0.132909 0.888 
-0.272927 -0.137249 0.917 
-0.23646 -0.140991 0.942 
-0.197664 -0.144733 0.967 
-0.156852 -0.148774 0.994 
-0.108631 -0.14623 0.977 
-0.0629639 -0.14593 0.975 
-0.0176267 -0.146829 0.981 
0.0284704 -0.148774 0.994 
0.0789399 -0.157006 1.049 
0.136974 -0.168232 1.124 
0.207263 -0.182451 1.219 
0.286611 -0.198016 1.323 
0.349066 -0.198465 1.326 
0.388562 -0.187689 1.254 
0.420632 -0.176613 1.18 
0.453866 -0.168531 1.126 
0.482066 -0.160449 1.072 
0.518632 -0.156408 1.045 
0.538372 -0.147577 0.986 
0.564181 -0.142488 0.952 
0.565725 -0.13246 0.885 
0.578104 -0.125874 0.841 
0.593815 -0.121085 0.809 
0.610446 -0.117044 0.782 
0.626215 -0.113302 0.757 
0.639653 -0.10956 0.732 
0.65076 -0.105818 0.707 
0.663405 -0.102675 0.686 
-0.705262 -0.12279 0.829 
-0.671447 -0.123679 0.835 
-0.629498 -0.123087 0.831 
-0.590053 -0.122938 0.83 
-0.549374 -0.122494 0.827 
-0.511445 -0.122642 0.828 
-0.467712 -0.121309 0.819 
-0.431112 -0.121753 0.822 
-0.397099 -0.123087 0.831 
-0.364834 -0.125308 0.846 
-0.334633 -0.128863 0.87 
-0.301181 -0.131974 0.891 
-0.267811 -0.136121 0.919 
-0.232075 -0.140416 0.948 
-0.191852 -0.143379 0.968 
-0.150523 -0.147082 0.993 
-0.10256 -0.144712 0.977 
-0.0569629 -0.144564 0.976 
-0.0115888 -0.146045 0.986 
0.0347524 -0.147674 0.997 
0.0864367 -0.157154 1.061 
0.144471 -0.167078 1.128 
0.216072 -0.181593 1.226 
0.296393 -0.196998 1.33 
0.352726 -0.193887 1.309 
0.392878 -0.184111 1.243 
0.422163 -0.17241 1.164 
0.457999 -0.165745 1.119 
0.485993 -0.157894 1.066 
0.523619 -0.15434 1.042 
0.541739 -0.145304 0.981 
0.567373 -0.139972 0.945 
0.567424 -0.1299 0.877 
0.581857 -0.123975 0.837 
0.597133 -0.119235 0.805 
0.611791 -0.11494 0.776 
0.62625 -0.111089 0.75 
0.640931 -0.107682 0.727 
0.652539 -0.104127 0.703 
0.66581 -0.101165 0.683 
-0.700059 -0.121942 0.832 
-0.662868 -0.122235 0.834 
-0.622499 -0.121942 0.832 
-0.583018 -0.121795 0.831 
-0.54363 -0.121649 0.83 
-0.503118 -0.121209 0.827 
-0.461201 -0.12033 0.821 
-0.427055 -0.121502 0.829 
-0.390758 -0.122235 0.834 
-0.359901 -0.12502 0.853 
-0.328775 -0.128391 0.876 
-0.29419 -0.131176 0.895 
-0.26009 -0.135133 0.922 
-0.224415 -0.139676 0.953 
-0.18434 -0.143047 0.976 
-0.14084 -0.145099 0.99 
-0.0933563 -0.143047 0.976 
-0.048355 -0.144513 0.986 
-0.00240457 -0.144953 0.989 
0.044179 -0.146565 1 
0.0979616 -0.158144 1.079 
0.157597 -0.16811 1.147 
0.229092 -0.182473 1.245 
0.307878 -0.195664 1.335 
0.357904 -0.189215 1.291 
0.398972 -0.180568 1.232 
0.428982 -0.169722 1.158 
0.460436 -0.161808 1.104 
0.491956 -0.155505 1.061 
0.52508 -0.150815 1.029 
0.545043 -0.143047 0.976 
0.570213 -0.137771 0.94 
0.570308 -0.127658 0.871 
0.584844 -0.121942 0.832 
0.600388 -0.117399 0.801 
0.613838 -0.113002 0.771 
0.62702 -0.109044 0.744 
0.643021 -0.105966 0.723 
0.654257 -0.102449 0.699 
0.66915 -0.0998107 0.681 
-0.695263 -0.120939 0.834 
-0.657177 -0.121084 0.835 
-0.616776 -0.120794 0.833 
-0.575175 -0.120214 0.829 
-0.539124 -0.120794 0.833 
-0.497294 -0.120069 0.828 
-0.455377 -0.119199 0.822 
-0.423152 -0.120939 0.834 
-0.3852 -0.121229 0.836 
-0.354517 -0.12413 0.856 
-0.323807 -0.127755 0.881 
-0.287879 -0.130075 0.897 
-0.254299 -0.134425 0.927 
-0.217923 -0.138776 0.957 
-0.178206 -0.142691 0.984 
-0.132476 -0.142836 0.985 
-0.0862137 -0.142256 0.981 
-0.0392032 -0.143126 0.987 
0.00680116 -0.143126 0.987 
0.053822 -0.145881 1.006 
0.108621 -0.157337 1.085 
0.171371 -0.169373 1.168 
0.248045 -0.186049 1.283 
0.322242 -0.19475 1.343 
0.365928 -0.185179 1.277 
0.406459 -0.176914 1.22 
0.439288 -0.167053 1.152 
0.468591 -0.158787 1.095 
0.496377 -0.151682 1.046 
0.524806 -0.146026 1.007 
0.549599 -0.140371 0.968 
0.567071 -0.133845 0.923 
0.570433 -0.125145 0.863 
0.588032 -0.119199 0.822 
0.60882 -0.115864 0.799 
0.616144 -0.110499 0.762 
0.631991 -0.107163 0.739 
0.647498 -0.104118 0.718 
0.658203 -0.100638 0.694 
0.675625 -0.0984626 0.679 
-0.691466 -0.120791 0.842 
-0.648347 -0.120074 0.837 
-0.608607 -0.119931 0.836 
-0.564189 -0.118783 0.828 
-0.529405 -0.119644 0.834 
-0.487003 -0.118783 0.828 
-0.444077 -0.117635 0.82 
-0.41427 -0.120074 0.837 
-0.375706 -0.120217 0.838 
-0.347091 -0.123947 0.864 
-0.313922 -0.126816 0.884 
-0.279198 -0.129829 0.905 
-0.243825 -0.133559 0.931 
-0.207104 -0.138006 0.962 
-0.167831 -0.14274 0.995 
-0.118647 -0.139441 0.972 
-0.0743978 -0.141449 0.986 
-0.0285265 -0.14188 0.989 
0.017571 -0.14188 0.989 
0.0657287 -0.14647 1.021 
0.121531 -0.157086 1.095 
0.188486 -0.171575 1.196 
0.265432 -0.18506 1.29 
0.338178 -0.192233 1.34 
0.377913 -0.18133 1.264 
0.414019 -0.171862 1.198 
0.447895 -0.163829 1.142 
0.475673 -0.155508 1.084 
0.505325 -0.149339 1.041 
0.525649 -0.141736 0.988 
0.553762 -0.137289 0.957 
0.56364 -0.128681 0.897 
0.578033 -0.120361 0.839 
0.592865 -0.115627 0.806 
0.60775 -0.111467 0.777 
0.624076 -0.108024 0.753 
0.639039 -0.104724 0.73 
0.650936 -0.101281 0.706 
0.662534 -0.098125 0.684 
-0.702686 -0.117638 0.829 
-0.672057 -0.119057 0.839 
-0.632951 -0.119057 0.839 
-0.590306 -0.118348 0.834 
-0.551433 -0.118348 0.834 
-0.51256 -0.118348 0.834 
-0.468575 -0.117071 0.825 
-0.432728 -0.11778 0.83 
-0.394516 -0.117922 0.831 
-0.36349 -0.120476 0.849 
-0.333074 -0.123882 0.873 
-0.300087 -0.127146 0.896 
-0.265243 -0.130552 0.92 
-0.228646 -0.134241 0.946 
-0.189039 -0.137505 0.969 
-0.147883 -0.141336 0.996 
-0.100135 -0.139492 0.983 
-0.054538 -0.140059 0.987 
-0.00857686 -0.140769 0.992 
0.0378883 -0.14162 0.998 
0.0894799 -0.150134 1.058 
0.147977 -0.160068 1.128 
0.216555 -0.172839 1.218 
0.30282 -0.188874 1.331 
0.354989 -0.183766 1.295 
0.394502 -0.174542 1.23 
0.425384 -0.164325 1.158 
0.457005 -0.156662 1.104 
0.486816 -0.149992 1.057 
0.521375 -0.145877 1.028 
0.541048 -0.13864 0.977 
0.563771 -0.133248 0.939 
0.564298 -0.123173 0.868 
0.586333 -0.117071 0.825 
0.605096 -0.113381 0.799 
0.613776 -0.108131 0.762 
0.630547 -0.105009 0.74 
0.646166 -0.102029 0.719 
0.656046 -0.0984813 0.694 
0.673515 -0.0963527 0.679 
-0.691466 -0.118175 0.842 
-0.650671 -0.117894 0.84 
-0.611519 -0.117894 0.84 
-0.565552 -0.116491 0.83 
-0.530039 -0.117192 0.835 
-0.488179 -0.116491 0.83 
-0.44516 -0.115368 0.822 
-0.414765 -0.117613 0.838 
-0.376154 -0.117754 0.839 
-0.347091 -0.121263 0.864 
-0.314278 -0.12421 0.885 
-0.279506 -0.127157 0.906 
-0.243039 -0.130245 0.928 
-0.207104 -0.135017 0.962 
-0.167494 -0.139368 0.993 
-0.118769 -0.136561 0.973 
-0.0746241 -0.138806 0.989 
-0.0286131 -0.139227 0.992 
0.0176243 -0.139227 0.992 
0.0655356 -0.142877 1.018 
0.121531 -0.153683 1.095 
0.187383 -0.166876 1.189 
0.260569 -0.179087 1.276 
0.337926 -0.187929 1.339 
0.377614 -0.177262 1.263 
0.413328 -0.167859 1.196 
0.447895 -0.16028 1.142 
0.474795 -0.151859 1.082 
0.503869 -0.145684 1.038 
0.524585 -0.138385 0.986 
0.553183 -0.134175 0.956 
0.560993 -0.125613 0.895 
0.572197 -0.117894 0.84 
0.589515 -0.113684 0.81 
0.606025 -0.109614 0.781 
0.620218 -0.105824 0.754 
0.634502 -0.102456 0.73 
0.64838 -0.0993679 0.708 
0.660208 -0.0962802 0.686 
-0.701839 -0.114924 0.828 
-0.671045 -0.116728 0.841 
-0.631846 -0.116728 0.841 
-0.589123 -0.116034 0.836 
-0.550815 -0.116173 0.837 
-0.511191 -0.116034 0.836 
-0.467141 -0.114785 0.827 
-0.432222 -0.115756 0.834 
-0.392877 -0.115618 0.833 
-0.362127 -0.118255 0.852 
-0.332254 -0.121863 0.878 
-0.297634 -0.1245 0.897 
-0.262384 -0.127693 0.92 
-0.226422 -0.131718 0.949 
-0.18622 -0.134633 0.97 
-0.144933 -0.13838 0.997 
-0.0971791 -0.136576 0.984 
-0.0516275 -0.137409 0.99 
-0.00551098 -0.138103 0.995 
0.0410306 -0.138658 0.999 
0.0930305 -0.147263 1.061 
0.152153 -0.157256 1.133 
0.225044 -0.169748 1.223 
0.314336 -0.185432 1.336 
0.361667 -0.178076 1.283 
0.399787 -0.168915 1.217 
0.434005 -0.160588 1.157 
0.461364 -0.151843 1.094 
0.488471 -0.144765 1.043 
0.522152 -0.14074 1.014 
0.54583 -0.13491 0.972 
0.553014 -0.125888 0.907 
0.560515 -0.118255 0.852 
0.583319 -0.114924 0.828 
0.60013 -0.110898 0.799 
0.611845 -0.106457 0.767 
0.625643 -0.102848 0.741 
0.642362 -0.100072 0.721 
0.653467 -0.0967412 0.697 
0.66824 -0.0942428 0.679 
-0.693502 -0.114598 0.835 
-0.659015 -0.115833 0.844 
-0.617473 -0.115421 0.841 
-0.571398 -0.114049 0.831 
-0.536511 -0.114872 0.837 
-0.494526 -0.114186 0.832 
-0.450816 -0.112951 0.823 
-0.419973 -0.11501 0.838 
-0.380914 -0.11501 0.838 
-0.350421 -0.117892 0.859 
-0.319055 -0.121185 0.883 
-0.283878 -0.123793 0.902 
-0.24827 -0.127087 0.926 
-0.212418 -0.131616 0.959 
-0.172791 -0.135596 0.988 
-0.12597 -0.134772 0.982 
-0.0809338 -0.136008 0.991 
-0.0347781 -0.136145 0.992 
0.0114825 -0.136419 0.994 
0.0587437 -0.138615 1.01 
0.113992 -0.14932 1.088 
0.173787 -0.157555 1.148 
0.247293 -0.171416 1.249 
0.33218 -0.184043 1.341 
0.372022 -0.173475 1.264 
0.409458 -0.164829 1.201 
0.443735 -0.157143 1.145 
0.470186 -0.148634 1.083 
0.496627 -0.141772 1.033 
0.524208 -0.136419 0.994 
0.552171 -0.132028 0.962 
0.553569 -0.122421 0.892 
0.562425 -0.115421 0.841 
0.587317 -0.112676 0.821 
0.607296 -0.109383 0.797 
0.61291 -0.10403 0.758 
0.630281 -0.101148 0.737 
0.644793 -0.0981286 0.715 
0.655357 -0.0948348 0.691 
0.67463 -0.0930507 0.678 
-0.689824 -0.113979 0.84 
-0.655319 -0.114793 0.846 
-0.614431 -0.114522 0.844 
-0.56964 -0.113436 0.836 
-0.532578 -0.113843 0.839 
-0.489943 -0.113029 0.833 
-0.446243 -0.111808 0.824 
-0.414765 -0.113708 0.838 
-0.376603 -0.113979 0.84 
-0.347091 -0.117235 0.864 
-0.313922 -0.119949 0.884 
-0.279815 -0.12307 0.907 
-0.241991 -0.125377 0.924 
-0.207104 -0.130533 0.962 
-0.166819 -0.134197 0.989 
-0.120233 -0.133654 0.985 
-0.0748505 -0.134604 0.992 
-0.0286708 -0.134875 0.994 
0.0176776 -0.135011 0.995 
0.0654068 -0.13786 1.016 
0.121753 -0.148851 1.097 
0.184862 -0.159163 1.173 
0.255464 -0.169747 1.251 
0.338736 -0.181009 1.334 
0.376571 -0.170019 1.253 
0.413104 -0.16147 1.19 
0.448095 -0.154414 1.138 
0.473394 -0.145866 1.075 
0.503047 -0.140167 1.033 
0.523983 -0.133247 0.982 
0.552928 -0.129312 0.953 
0.557232 -0.120628 0.889 
0.567605 -0.113843 0.839 
0.589356 -0.110587 0.815 
0.60733 -0.107059 0.789 
0.616349 -0.102445 0.755 
0.632554 -0.0994602 0.733 
0.6458 -0.0963393 0.71 
0.656901 -0.0932185 0.687 
-0.70697 -0.110259 0.822 
-0.685739 -0.113076 0.843 
-0.649514 -0.113613 0.847 
-0.610035 -0.113613 0.847 
-0.56584 -0.112674 0.84 
-0.526688 -0.112674 0.84 
-0.482892 -0.111601 0.832 
-0.443045 -0.111332 0.83 
-0.406794 -0.112003 0.835 
-0.371839 -0.11321 0.844 
-0.341561 -0.116295 0.867 
-0.308097 -0.118978 0.887 
-0.274573 -0.122466 0.913 
-0.235322 -0.124209 0.926 
-0.200254 -0.129441 0.965 
-0.158975 -0.132526 0.988 
-0.113953 -0.133733 0.997 
-0.0671442 -0.133062 0.992 
-0.0209701 -0.133465 0.995 
0.0254838 -0.133867 0.998 
0.0741652 -0.137891 1.028 
0.131937 -0.149025 1.111 
0.200136 -0.160828 1.199 
0.270329 -0.169816 1.266 
0.344912 -0.176791 1.318 
0.381372 -0.165926 1.237 
0.416711 -0.156804 1.169 
0.451045 -0.150098 1.119 
0.479368 -0.142988 1.066 
0.511188 -0.13816 1.03 
0.528673 -0.130246 0.971 
0.551471 -0.125148 0.933 
0.561799 -0.118173 0.881 
0.577265 -0.112137 0.836 
0.591906 -0.107711 0.803 
0.60739 -0.103955 0.775 
0.620263 -0.100199 0.747 
0.636665 -0.0973824 0.726 
0.649263 -0.0942973 0.703 
0.660686 -0.0913463 0.681 
-0.701398 -0.10991 0.829 
-0.67555 -0.112032 0.845 
-0.635411 -0.111899 0.844 
-0.593953 -0.111501 0.841 
-0.55279 -0.111369 0.84 
-0.513637 -0.111369 0.84 
-0.468271 -0.10991 0.829 
-0.433259 -0.110838 0.836 
-0.393349 -0.110573 0.834 
-0.362127 -0.11296 0.852 
-0.33301 -0.116672 0.88 
-0.297634 -0.118926 0.897 
-0.262384 -0.121975 0.92 
-0.227376 -0.12635 0.953 
-0.186604 -0.12887 0.972 
-0.145079 -0.132317 0.998 
-0.0986605 -0.132449 0.999 
-0.0517318 -0.131521 0.992 
-0.00552206 -0.132184 0.997 
0.0409895 -0.132317 0.998 
0.0925044 -0.139874 1.055 
0.15175 -0.149817 1.13 
0.222049 -0.161352 1.217 
0.302139 -0.174875 1.319 
0.354796 -0.170633 1.287 
0.392223 -0.161352 1.217 
0.427871 -0.153132 1.155 
0.456265 -0.145045 1.094 
0.489637 -0.140006 1.056 
0.516405 -0.134173 1.012 
0.538515 -0.128207 0.967 
0.543152 -0.119324 0.9 
0.557827 -0.11349 0.856 
0.57957 -0.110043 0.83 
0.595165 -0.105933 0.799 
0.609453 -0.102088 0.77 
0.621876 -0.0983757 0.742 
0.637882 -0.0955915 0.721 
0.650998 -0.0926747 0.699 
0.662064 -0.0897579 0.677 
-0.695344 -0.108884 0.831 
-0.670043 -0.111112 0.848 
-0.629031 -0.11085 0.846 
-0.58472 -0.109933 0.839 
-0.547565 -0.110326 0.842 
-0.506508 -0.109933 0.839 
-0.461831 -0.108622 0.829 
-0.426254 -0.109409 0.835 
-0.388726 -0.109802 0.838 
-0.35676 -0.112029 0.855 
-0.327657 -0.115829 0.884 
-0.291314 -0.117794 0.899 
-0.25607 -0.120939 0.923 
-0.221127 -0.125525 0.958 
-0.180343 -0.128277 0.979 
-0.138564 -0.131945 1.007 
-0.0915368 -0.131814 1.006 
-0.0440699 -0.130111 0.993 
0.00222525 -0.130766 0.998 
0.0489377 -0.13129 1.002 
0.101845 -0.139807 1.067 
0.160671 -0.148193 1.131 
0.233025 -0.160509 1.225 
0.313806 -0.173612 1.325 
0.360259 -0.166537 1.271 
0.399037 -0.158413 1.209 
0.435331 -0.150813 1.151 
0.462215 -0.142559 1.088 
0.494069 -0.137318 1.048 
0.518568 -0.131159 1.001 
0.544333 -0.126311 0.964 
0.544801 -0.116484 0.889 
0.561839 -0.111636 0.852 
0.581075 -0.107836 0.823 
0.599866 -0.104429 0.797 
0.60984 -0.0999745 0.763 
0.625948 -0.0969608 0.74 
0.63902 -0.0938162 0.716 
0.650794 -0.0908025 0.693 
0.665352 -0.088444 0.675 
-0.69008 -0.107982 0.834 
-0.664481 -0.110183 0.851 
-0.622613 -0.109794 0.848 
-0.580337 -0.109276 0.844 
-0.540998 -0.109276 0.844 
-0.498687 -0.108629 0.839 
-0.454103 -0.107334 0.829 
-0.419472 -0.10837 0.837 
-0.382278 -0.108888 0.841 
-0.350421 -0.111219 0.859 
-0.319416 -0.114455 0.884 
-0.283878 -0.116786 0.902 
-0.247734 -0.119634 0.924 
-0.21419 -0.125202 0.967 
-0.171916 -0.127273 0.983 
-0.129305 -0.13051 1.008 
-0.0821588 -0.130251 1.006 
-0.0348131 -0.128568 0.993 
0.0115171 -0.129086 0.997 
0.05886 -0.131028 1.012 
0.113154 -0.139832 1.08 
0.171668 -0.146824 1.134 
0.245642 -0.159383 1.231 
0.327881 -0.17246 1.332 
0.366837 -0.162232 1.253 
0.406914 -0.15524 1.199 
0.441184 -0.147989 1.143 
0.466773 -0.139703 1.079 
0.497898 -0.134524 1.039 
0.518983 -0.127791 0.987 
0.549532 -0.124296 0.96 
0.54785 -0.114585 0.885 
0.563805 -0.109665 0.847 
0.584053 -0.106169 0.82 
0.601784 -0.102673 0.793 
0.61136 -0.0982711 0.759 
0.628843 -0.0955522 0.738 
0.640774 -0.0923153 0.713 
0.65132 -0.0892079 0.689 
0.667563 -0.0871363 0.673 
-0.68606 -0.10707 0.837 
-0.658643 -0.108989 0.852 
-0.617478 -0.108733 0.85 
-0.57514 -0.108221 0.846 
-0.534441 -0.107965 0.844 
-0.490996 -0.10707 0.837 
-0.448743 -0.106302 0.831 
-0.413957 -0.107326 0.839 
-0.376638 -0.107837 0.843 
-0.346549 -0.110779 0.866 
-0.313256 -0.113338 0.886 
-0.278405 -0.116024 0.907 
-0.241597 -0.118711 0.928 
-0.206678 -0.123699 0.967 
-0.164948 -0.126258 0.987 
-0.121716 -0.1292 1.01 
-0.0740482 -0.128177 1.002 
-0.0271264 -0.127153 0.994 
0.0192622 -0.127537 0.997 
0.0671172 -0.130223 1.018 
0.122669 -0.139434 1.09 
0.187382 -0.149156 1.166 
0.256656 -0.158366 1.238 
0.336705 -0.169623 1.326 
0.373265 -0.158878 1.242 
0.412062 -0.151842 1.187 
0.446913 -0.14519 1.135 
0.471192 -0.136875 1.07 
0.500612 -0.131503 1.028 
0.522382 -0.125234 0.979 
0.547126 -0.120629 0.943 
0.551073 -0.112187 0.877 
0.565626 -0.107198 0.838 
0.588089 -0.104255 0.815 
0.603799 -0.100546 0.786 
0.613546 -0.0963244 0.753 
0.633138 -0.0940218 0.735 
0.643788 -0.0906959 0.709 
0.652969 -0.0874978 0.684 
-0.704849 -0.104127 0.824 
-0.683427 -0.10678 0.845 
-0.646328 -0.107159 0.848 
-0.608234 -0.107412 0.85 
-0.565939 -0.106907 0.846 
-0.525262 -0.106654 0.844 
-0.480165 -0.10539 0.834 
-0.443409 -0.105896 0.838 
-0.403867 -0.105769 0.837 
-0.369649 -0.107159 0.848 
-0.338688 -0.109939 0.87 
-0.304991 -0.112467 0.89 
-0.270021 -0.115247 0.912 
-0.234997 -0.119038 0.942 
-0.196567 -0.12245 0.969 
-0.154527 -0.124977 0.989 
-0.11106 -0.12801 1.013 
-0.0628356 -0.125988 0.997 
-0.0163816 -0.126114 0.998 
0.0301355 -0.126114 0.998 
0.0790336 -0.130032 1.029 
0.136869 -0.140141 1.109 
0.208403 -0.150756 1.193 
0.283704 -0.162003 1.282 
0.347477 -0.163898 1.297 
0.3856 -0.154926 1.226 
0.419271 -0.146712 1.161 
0.450552 -0.139636 1.105 
0.482519 -0.134202 1.062 
0.510478 -0.128768 1.019 
0.525667 -0.121312 0.96 
0.539516 -0.114741 0.908 
0.553002 -0.109055 0.863 
0.573292 -0.10539 0.834 
0.590879 -0.101726 0.805 
0.606543 -0.0981873 0.777 
0.616288 -0.0941435 0.745 
0.635283 -0.0918689 0.727 
0.647078 -0.0888361 0.703 
0.657603 -0.0859296 0.68 
-0.698822 -0.10347 0.829 
-0.67611 -0.105967 0.849 
-0.632789 -0.105343 0.844 
-0.596262 -0.105842 0.848 
-0.55608 -0.105717 0.847 
-0.514162 -0.105218 0.843 
-0.468673 -0.103845 0.832 
-0.432476 -0.104469 0.837 
-0.394404 -0.104718 0.839 
-0.360803 -0.106341 0.852 
-0.330513 -0.109461 0.877 
-0.296241 -0.111958 0.897 
-0.261239 -0.114953 0.921 
-0.227318 -0.119696 0.959 
-0.186237 -0.122068 0.978 
-0.144391 -0.125313 1.004 
-0.0988581 -0.126935 1.017 
-0.0503423 -0.124189 0.995 
-0.00397702 -0.124564 0.998 
0.0424974 -0.124439 0.997 
0.0934297 -0.13068 1.047 
0.152147 -0.139791 1.12 
0.220225 -0.15065 1.207 
0.298016 -0.162382 1.301 
0.352039 -0.159387 1.277 
0.392546 -0.152023 1.218 
0.426076 -0.14416 1.155 
0.455014 -0.136171 1.091 
0.490565 -0.132053 1.058 
0.512323 -0.125313 1.004 
0.536108 -0.119821 0.96 
0.541525 -0.111708 0.895 
0.558478 -0.106965 0.857 
0.578173 -0.103346 0.828 
0.59442 -0.0996011 0.798 
0.607078 -0.0957319 0.767 
0.621038 -0.0924868 0.741 
0.636112 -0.0897409 0.719 
0.648205 -0.0868702 0.696 
0.659131 -0.0841243 0.674 
-0.69018 -0.102429 0.831 
-0.668693 -0.105141 0.853 
-0.62746 -0.104894 0.851 
-0.588485 -0.105017 0.852 
-0.546197 -0.104524 0.848 
-0.503086 -0.103785 0.842 
-0.461086 -0.103168 0.837 
-0.422281 -0.103538 0.84 
-0.385409 -0.104155 0.845 
-0.351756 -0.10588 0.859 
-0.320427 -0.108838 0.883 
-0.284647 -0.110934 0.9 
-0.250248 -0.114385 0.928 
-0.216139 -0.119439 0.969 
-0.17362 -0.121288 0.984 
-0.13178 -0.125109 1.015 
-0.0846373 -0.125355 1.017 
-0.0364291 -0.122643 0.995 
0.0099881 -0.123137 0.999 
0.0572877 -0.124739 1.012 
0.109515 -0.130779 1.061 
0.170206 -0.140023 1.136 
0.240049 -0.150623 1.222 
0.319853 -0.16221 1.316 
0.362365 -0.154198 1.251 
0.40386 -0.148035 1.201 
0.438015 -0.141009 1.144 
0.46639 -0.133367 1.082 
0.497716 -0.128437 1.042 
0.514828 -0.121041 0.982 
0.540048 -0.116604 0.946 
0.544622 -0.108715 0.882 
0.564481 -0.104771 0.85 
0.582068 -0.10095 0.819 
0.59828 -0.0973752 0.79 
0.61018 -0.0935542 0.759 
0.629397 -0.0912122 0.74 
0.639666 -0.0878842 0.713 
0.648362 -0.0846795 0.687 
0.664537 -0.0827073 0.671 
-0.682642 -0.101746 0.836 
-0.658305 -0.104059 0.855 
-0.616403 -0.103937 0.854 
-0.573897 -0.10345 0.85 
-0.533021 -0.103207 0.848 
-0.491168 -0.10272 0.844 
-0.449152 -0.102111 0.839 
-0.412001 -0.102598 0.843 
-0.374477 -0.103085 0.847 
-0.343304 -0.105641 0.868 
-0.311569 -0.108684 0.893 
-0.273573 -0.110144 0.905 
-0.239828 -0.11416 0.938 
-0.201962 -0.117568 0.966 
-0.16116 -0.120732 0.992 
-0.117703 -0.123653 1.016 
-0.0695164 -0.122193 1.004 
-0.0226517 -0.121828 1.001 
0.0239572 -0.121584 0.999 
0.0719327 -0.124019 1.019 
0.126812 -0.131686 1.082 
0.190841 -0.141788 1.165 
0.261345 -0.151159 1.242 
0.337227 -0.159678 1.312 
0.374999 -0.150307 1.235 
0.411548 -0.143005 1.175 
0.448219 -0.136919 1.125 
0.475162 -0.129495 1.064 
0.503055 -0.12414 1.02 
0.522528 -0.117812 0.968 
0.535981 -0.111239 0.914 
0.54883 -0.105519 0.867 
0.567493 -0.101625 0.835 
0.588257 -0.0985819 0.81 
0.603598 -0.0950525 0.781 
0.613778 -0.0911579 0.749 
0.638296 -0.0896974 0.737 
0.644355 -0.0859245 0.706 
0.65328 -0.0828819 0.681 
-0.700144 -0.0992459 0.826 
-0.677664 -0.101649 0.846 
-0.636164 -0.101529 0.845 
-0.602428 -0.10249 0.853 
-0.561351 -0.10225 0.851 
-0.519233 -0.101769 0.847 
-0.477489 -0.101288 0.843 
-0.436117 -0.100808 0.839 
-0.397957 -0.101048 0.841 
-0.362597 -0.10213 0.85 
-0.331338 -0.104773 0.872 
-0.299028 -0.107777 0.897 
-0.26324 -0.1103 0.918 
-0.229097 -0.114625 0.954 
-0.188695 -0.117149 0.975 
-0.147217 -0.120393 1.002 
-0.102319 -0.122555 1.02 
-0.0535415 -0.119792 0.997 
-0.00709944 -0.120273 1.001 
0.0394784 -0.120032 0.999 
0.0894011 -0.124718 1.038 
0.147207 -0.133249 1.109 
0.213784 -0.143222 1.192 
0.290132 -0.154276 1.284 
0.348344 -0.153555 1.278 
0.389399 -0.146586 1.22 
0.423951 -0.139257 1.159 
0.452452 -0.131327 1.093 
0.486356 -0.126881 1.056 
0.511232 -0.121114 1.008 
0.530526 -0.115106 0.958 
0.540356 -0.108137 0.9 
0.555131 -0.103091 0.858 
0.575007 -0.0996064 0.829 
0.591441 -0.0960018 0.799 
0.605864 -0.0925174 0.77 
0.618417 -0.0891531 0.742 
0.634521 -0.0866299 0.721 
0.645887 -0.0837462 0.697 
0.656962 -0.0811029 0.675 
-0.692382 -0.0983184 0.829 
-0.670303 -0.100809 0.85 
-0.631426 -0.100928 0.851 
-0.594542 -0.101402 0.855 
-0.551447 -0.100809 0.85 
-0.508817 -0.100216 0.845 
-0.469431 -0.100216 0.845 
-0.430046 -0.100216 0.845 
-0.392509 -0.10069 0.849 
-0.355431 -0.101402 0.855 
-0.324807 -0.104367 0.88 
-0.289272 -0.106383 0.897 
-0.255739 -0.109941 0.927 
-0.221244 -0.114448 0.965 
-0.17937 -0.116464 0.982 
-0.137952 -0.120259 1.014 
-0.0911365 -0.120852 1.019 
-0.0426984 -0.118243 0.997 
0.00379096 -0.118836 1.002 
0.050948 -0.119903 1.011 
0.101757 -0.12441 1.049 
0.161566 -0.133424 1.125 
0.230933 -0.143979 1.214 
0.307885 -0.154178 1.3 
0.356007 -0.14896 1.256 
0.399367 -0.143504 1.21 
0.432412 -0.136151 1.148 
0.459666 -0.128324 1.082 
0.493598 -0.124173 1.047 
0.510798 -0.116938 0.986 
0.53304 -0.111957 0.944 
0.541586 -0.105078 0.886 
0.561831 -0.101283 0.854 
0.579092 -0.0974882 0.822 
0.594873 -0.0939302 0.792 
0.608654 -0.0904908 0.763 
0.623954 -0.0876445 0.739 
0.637017 -0.0847981 0.715 
0.646905 -0.0818331 0.69 
0.659383 -0.0794612 0.67 
-0.685015 -0.0972645 0.831 
-0.664169 -0.0999565 0.854 
-0.626558 -0.100308 0.857 
-0.585243 -0.100074 0.855 
-0.542202 -0.0994883 0.85 
-0.50081 -0.0991372 0.847 
-0.460786 -0.0990201 0.846 
-0.422848 -0.0993713 0.849 
-0.383276 -0.0993713 0.849 
-0.347752 -0.100542 0.859 
-0.318819 -0.10417 0.89 
-0.279828 -0.105106 0.898 
-0.246982 -0.109086 0.932 
-0.210967 -0.113066 0.966 
-0.169721 -0.115641 0.988 
-0.127675 -0.119386 1.02 
-0.0797399 -0.118801 1.015 
-0.032047 -0.117396 1.003 
0.0146591 -0.117045 1 
0.062311 -0.119035 1.017 
0.114245 -0.123951 1.059 
0.177046 -0.134134 1.146 
0.246549 -0.143497 1.226 
0.324005 -0.153095 1.308 
0.365841 -0.145487 1.243 
0.402299 -0.138113 1.18 
0.44141 -0.133314 1.139 
0.467147 -0.125941 1.076 
0.493743 -0.120205 1.027 
0.516298 -0.114587 0.979 
0.528064 -0.107681 0.92 
0.54426 -0.102649 0.877 
0.564454 -0.0990201 0.846 
0.583899 -0.0957429 0.818 
0.596933 -0.0918804 0.785 
0.610925 -0.0886031 0.757 
0.62999 -0.0863793 0.738 
0.640081 -0.083219 0.711 
0.648603 -0.0801759 0.685 
0.664635 -0.0783032 0.669 
-0.682158 -0.0966663 0.837 
-0.658514 -0.0989761 0.857 
-0.618569 -0.0989761 0.857 
-0.575248 -0.0983987 0.852 
-0.536793 -0.0986297 0.854 
-0.497402 -0.0989761 0.857 
-0.449984 -0.0973592 0.843 
-0.413127 -0.0979367 0.848 
-0.374923 -0.0982832 0.851 
-0.339986 -0.0996691 0.863 
-0.311223 -0.10348 0.896 
-0.272769 -0.104751 0.907 
-0.238625 -0.108446 0.939 
-0.199631 -0.111103 0.962 
-0.15978 -0.114683 0.993 
-0.116696 -0.117917 1.021 
-0.0680918 -0.116184 1.006 
-0.0211387 -0.115838 1.003 
0.0256881 -0.116184 1.006 
0.0737323 -0.118032 1.022 
0.127662 -0.124153 1.075 
0.192155 -0.134201 1.162 
0.264122 -0.143902 1.246 
0.336421 -0.150254 1.301 
0.374781 -0.141823 1.228 
0.410911 -0.134894 1.168 
0.449415 -0.130274 1.128 
0.474575 -0.122305 1.059 
0.502166 -0.117224 1.015 
0.522408 -0.111449 0.965 
0.533873 -0.104866 0.908 
0.548274 -0.0997846 0.864 
0.567428 -0.0962043 0.833 
0.586604 -0.0930861 0.806 
0.602489 -0.0898523 0.778 
0.6133 -0.0862721 0.747 
0.634236 -0.0844242 0.731 
0.642709 -0.0811905 0.703 
0.653377 -0.0785341 0.68 
-0.697168 -0.0938847 0.824 
-0.673951 -0.0960495 0.843 
-0.64294 -0.0973028 0.854 
-0.606666 -0.0978725 0.859 
-0.56333 -0.0973028 0.854 
-0.521685 -0.096961 0.851 
-0.485418 -0.0976446 0.857 
-0.439236 -0.0962774 0.845 
-0.401743 -0.0967331 0.849 
-0.364304 -0.0973028 0.854 
-0.330958 -0.0992398 0.871 
-0.299361 -0.102316 0.898 
-0.263527 -0.104709 0.919 
-0.227656 -0.108013 0.948 
-0.187534 -0.110406 0.969 
-0.147217 -0.114166 1.002 
-0.10272 -0.116672 1.024 
-0.0538637 -0.11428 1.003 
-0.00714909 -0.114849 1.008 
0.0399131 -0.115077 1.01 
0.0894872 -0.118381 1.039 
0.146543 -0.125787 1.104 
0.212708 -0.13513 1.186 
0.289228 -0.14584 1.28 
0.346981 -0.145043 1.273 
0.386846 -0.138093 1.212 
0.425751 -0.132054 1.159 
0.452929 -0.123736 1.086 
0.482219 -0.118495 1.04 
0.510282 -0.113938 1 
0.530718 -0.108583 0.953 
0.538324 -0.101632 0.892 
0.555846 -0.0974167 0.855 
0.574797 -0.0939986 0.825 
0.591693 -0.0906944 0.796 
0.605097 -0.0872763 0.766 
0.61905 -0.0843139 0.74 
0.634112 -0.0818073 0.718 
0.646193 -0.0791867 0.695 
0.657107 -0.0766801 0.673 
-0.685015 -0.0933911 0.831 
-0.664169 -0.095976 0.854 
-0.62802 -0.0965379 0.859 
-0.585928 -0.0962007 0.856 
-0.544754 -0.095976 0.854 
-0.503766 -0.0957512 0.852 
-0.464054 -0.0957512 0.852 
-0.425338 -0.095976 0.854 
-0.385082 -0.0958636 0.853 
-0.346942 -0.0963131 0.857 
-0.318819 -0.100022 0.89 
-0.28014 -0.101033 0.899 
-0.247247 -0.104854 0.933 
-0.210093 -0.108113 0.962 
-0.169205 -0.110698 0.985 
-0.128051 -0.114969 1.023 
-0.079897 -0.114295 1.017 
-0.0323985 -0.113957 1.014 
0.0164074 -0.113733 1.012 
0.0738045 -0.114969 1.023 
0.127306 -0.120476 1.072 
0.191659 -0.130253 1.159 
0.264334 -0.140143 1.247 
0.334869 -0.145537 1.295 
0.373866 -0.13767 1.225 
0.409503 -0.130815 1.164 
0.449415 -0.126769 1.128 
0.472929 -0.119015 1.059 
0.499603 -0.113845 1.013 
0.521449 -0.108563 0.966 
0.531876 -0.101932 0.907 
0.546931 -0.0970998 0.864 
0.566134 -0.0936159 0.833 
0.585352 -0.0905815 0.806 
0.600507 -0.0873224 0.777 
0.612139 -0.0839509 0.747 
0.630765 -0.0817032 0.727 
0.641795 -0.0788936 0.702 
0.654338 -0.0765335 0.681 
-0.692486 -0.0912134 0.823 
-0.670022 -0.09343 0.843 
-0.643449 -0.0953141 0.86 
-0.604767 -0.0955358 0.862 
-0.561314 -0.0949816 0.857 
-0.518327 -0.0944275 0.852 
-0.482547 -0.0952033 0.859 
-0.438903 -0.0944275 0.852 
-0.39966 -0.0945383 0.853 
-0.361589 -0.0949816 0.857 
-0.328399 -0.0969766 0.875 
-0.295176 -0.0995257 0.898 
-0.26009 -0.102186 0.922 
-0.22418 -0.105511 0.952 
-0.183773 -0.107838 0.973 
-0.143258 -0.111606 1.007 
-0.0980432 -0.113601 1.025 
-0.0495811 -0.112049 1.011 
-0.00246779 -0.112493 1.015 
0.0545176 -0.112936 1.019 
0.104917 -0.11615 1.048 
0.164915 -0.124573 1.124 
0.235092 -0.13477 1.216 
0.311205 -0.143747 1.297 
0.357618 -0.138316 1.248 
0.391466 -0.130226 1.175 
0.4356 -0.127122 1.147 
0.461703 -0.119143 1.075 
0.487051 -0.113379 1.023 
0.514348 -0.109057 0.984 
0.524345 -0.102075 0.921 
0.541404 -0.0974199 0.879 
0.559848 -0.0936517 0.845 
0.582214 -0.0909917 0.821 
0.592518 -0.086891 0.784 
0.609001 -0.0841203 0.759 
0.622305 -0.0812387 0.733 
0.636767 -0.0788004 0.711 
0.647294 -0.0761405 0.687 
0.661517 -0.0741455 0.669 
-0.684897 -0.0911368 0.834 
-0.66229 -0.0934316 0.855 
-0.626078 -0.093978 0.86 
-0.58395 -0.0936501 0.857 
-0.545909 -0.093978 0.86 
-0.505236 -0.0938687 0.859 
-0.463031 -0.0934316 0.855 
-0.423674 -0.0935408 0.856 
-0.384224 -0.0936501 0.857 
-0.343878 -0.0935408 0.856 
-0.316408 -0.0973655 0.891 
-0.278581 -0.0986769 0.903 
-0.244348 -0.101955 0.933 
-0.206458 -0.104796 0.959 
-0.166313 -0.107747 0.986 
-0.125116 -0.112009 1.025 
-0.0768877 -0.111353 1.019 
-0.0277541 -0.111134 1.017 
0.029301 -0.11179 1.023 
0.0773596 -0.112336 1.028 
0.131124 -0.117582 1.076 
0.194923 -0.126433 1.157 
0.273829 -0.138126 1.264 
0.339326 -0.140858 1.289 
0.376477 -0.132771 1.215 
0.413859 -0.12687 1.161 
0.450641 -0.122171 1.118 
0.473072 -0.114959 1.052 
0.501262 -0.110369 1.01 
0.521193 -0.104906 0.96 
0.531157 -0.0984583 0.901 
0.547708 -0.0940872 0.861 
