# .PCD v.7 - Point Cloud Data file format
VERSION .7
FIELDS x y z
SIZE 4 4 4
TYPE F F F
COUNT 1 1 1
WIDTH 1893
HEIGHT 1
VIEWPOINT 0 0 0 1 0 0 0
POINTS 1893
DATA ascii
-0.327924 0.196243 0.6 
-0.306537 0.197878 0.605 
-0.29222 0.204747 0.626 
-0.265128 0.203112 0.621 
-0.244627 0.206709 0.632 
-0.221167 0.208345 0.637 
-0.196112 0.211943 0.648 
-0.17238 0.214559 0.656 
-0.147787 0.216849 0.663 
-0.123002 0.219792 0.672 
-0.0977858 0.22339 0.683 
-0.0713824 0.226007 0.691 
-0.0445314 0.229604 0.702 
-0.0167327 0.232221 0.71 
0.0117692 0.236146 0.722 
0.0410031 0.238762 0.73 
0.0713552 0.243014 0.743 
0.102608 0.246939 0.755 
0.13306 0.247593 0.757 
0.163455 0.24792 0.758 
0.184881 0.234511 0.717 
0.201855 0.221755 0.678 
0.216878 0.208672 0.638 
0.231964 0.198533 0.607 
0.251943 0.195262 0.597 
0.280363 0.198533 0.607 
0.310082 0.20213 0.618 
0.340679 0.205728 0.629 
0.374478 0.210634 0.644 
0.405745 0.213578 0.653 
0.441697 0.218484 0.668 
0.473938 0.221101 0.676 
0.512744 0.226334 0.692 
0.549702 0.230259 0.704 
0.588438 0.234511 0.717 
0.628211 0.238762 0.73 
0.670821 0.243669 0.745 
0.714627 0.248575 0.76 
0.759629 0.253481 0.775 
-0.424244 0.186779 0.567 
-0.405889 0.188756 0.573 
-0.38505 0.189744 0.576 
-0.363972 0.190732 0.579 
-0.347953 0.194685 0.591 
-0.328783 0.197321 0.599 
-0.307447 0.198968 0.604 
-0.29228 0.205227 0.623 
-0.266155 0.204239 0.62 
-0.245331 0.207533 0.63 
-0.221612 0.20885 0.634 
-0.199152 0.213462 0.648 
-0.174655 0.215109 0.653 
-0.150442 0.217745 0.661 
-0.125591 0.22038 0.669 
-0.0990965 0.224333 0.681 
-0.0728973 0.227298 0.69 
-0.0460462 0.230592 0.7 
-0.0150464 0.233557 0.709 
0.0134624 0.237839 0.722 
0.0427151 0.240474 0.73 
0.0729993 0.244427 0.742 
0.104102 0.248051 0.753 
0.134657 0.249039 0.756 
0.165015 0.249369 0.757 
0.184881 0.236192 0.717 
0.201557 0.223015 0.677 
0.21572 0.210498 0.639 
0.229871 0.200615 0.609 
0.247891 0.195674 0.594 
0.276145 0.198968 0.604 
0.30619 0.202921 0.616 
0.336654 0.206545 0.627 
0.36915 0.210827 0.64 
0.400215 0.213792 0.649 
0.435938 0.218733 0.664 
0.467981 0.221368 0.672 
0.507289 0.226968 0.689 
0.544848 0.231251 0.702 
0.583443 0.235533 0.715 
0.623075 0.239816 0.728 
0.664639 0.244427 0.742 
0.70732 0.249039 0.756 
0.753068 0.25431 0.772 
-0.435442 0.187777 0.566 
-0.415794 0.189104 0.57 
-0.395139 0.1901 0.573 
-0.375543 0.191759 0.578 
-0.354939 0.193086 0.582 
-0.336295 0.19574 0.59 
-0.318075 0.199057 0.6 
-0.297586 0.20138 0.607 
-0.27834 0.205029 0.618 
-0.256165 0.20702 0.624 
-0.23277 0.208347 0.628 
-0.21071 0.211333 0.637 
-0.189096 0.215645 0.65 
-0.164437 0.217304 0.655 
-0.139802 0.219627 0.662 
-0.115465 0.223608 0.674 
-0.089777 0.226594 0.683 
-0.0633714 0.229579 0.692 
-0.0362999 0.232897 0.702 
-0.00841917 0.235883 0.711 
0.0202913 0.240196 0.724 
0.049563 0.242186 0.73 
0.0799598 0.246168 0.742 
0.111461 0.250481 0.755 
0.140999 0.249485 0.752 
0.170297 0.24849 0.749 
0.1884 0.233892 0.705 
0.203916 0.22029 0.664 
0.219979 0.210337 0.634 
0.232876 0.199721 0.602 
0.254317 0.19773 0.596 
0.282277 0.200716 0.605 
0.312475 0.204697 0.617 
0.342536 0.208015 0.627 
0.375154 0.212328 0.64 
0.408182 0.216309 0.652 
0.442832 0.220622 0.665 
0.475697 0.223608 0.674 
0.514498 0.228916 0.69 
0.552219 0.233229 0.703 
0.590976 0.237542 0.716 
0.630769 0.241855 0.729 
0.672505 0.246499 0.743 
0.716302 0.251476 0.758 
0.759325 0.255789 0.771 
-0.418925 0.189439 0.567 
-0.399116 0.190775 0.571 
-0.379647 0.192446 0.576 
-0.35854 0.193448 0.579 
-0.340671 0.196455 0.588 
-0.322624 0.199796 0.598 
-0.301781 0.201801 0.604 
-0.283678 0.206144 0.617 
-0.259919 0.206812 0.619 
-0.238281 0.209485 0.627 
-0.214985 0.211156 0.632 
-0.194593 0.216502 0.648 
-0.16954 0.217504 0.651 
-0.14535 0.220177 0.659 
-0.120884 0.223518 0.669 
-0.0957615 0.227193 0.68 
-0.0695599 0.2302 0.689 
-0.0425186 0.232539 0.696 
-0.0149827 0.23588 0.706 
0.0134437 0.240891 0.721 
0.0425981 0.24323 0.728 
0.0727041 0.246905 0.739 
0.103549 0.250246 0.749 
0.134479 0.252251 0.755 
0.164579 0.252251 0.755 
0.184881 0.239555 0.717 
0.20126 0.225857 0.676 
0.216878 0.213161 0.638 
0.23092 0.203137 0.608 
0.248445 0.197792 0.592 
0.276183 0.200799 0.601 
0.306136 0.204808 0.613 
0.337046 0.208817 0.625 
0.369493 0.213161 0.638 
0.401118 0.216502 0.648 
0.434859 0.220511 0.66 
0.46816 0.223852 0.67 
0.507428 0.229532 0.687 
0.54338 0.233207 0.698 
0.581028 0.237216 0.71 
0.622208 0.242228 0.725 
0.664583 0.247239 0.74 
0.707217 0.251917 0.754 
0.751945 0.256929 0.769 
-0.433347 0.190096 0.565 
-0.413003 0.191105 0.568 
-0.39242 0.192114 0.571 
-0.37354 0.194133 0.577 
-0.353574 0.195815 0.582 
-0.334912 0.198507 0.59 
-0.31614 0.201535 0.599 
-0.296162 0.204227 0.607 
-0.276443 0.207591 0.617 
-0.253477 0.208937 0.621 
-0.230929 0.210956 0.627 
-0.208559 0.213647 0.635 
-0.186994 0.218021 0.648 
-0.162652 0.22004 0.654 
-0.137832 0.222059 0.66 
-0.113546 0.226096 0.672 
-0.087917 0.229124 0.681 
-0.0616593 0.232489 0.691 
-0.0345548 0.235517 0.7 
-0.00671376 0.237872 0.707 
0.0218981 0.242582 0.721 
0.0512048 0.245274 0.729 
0.0814797 0.248975 0.74 
0.112782 0.253012 0.752 
0.141813 0.25133 0.747 
0.170676 0.249984 0.743 
0.189514 0.236526 0.703 
0.205159 0.221386 0.658 
0.221194 0.211629 0.629 
0.234525 0.201535 0.599 
0.256681 0.200189 0.595 
0.284172 0.202881 0.603 
0.314346 0.206918 0.615 
0.345477 0.210956 0.627 
0.376974 0.214657 0.638 
0.410609 0.219031 0.651 
0.44461 0.223068 0.663 
0.476727 0.22576 0.671 
0.516234 0.231479 0.688 
0.553935 0.235853 0.701 
0.593504 0.240564 0.715 
0.632449 0.244601 0.727 
0.67417 0.249311 0.741 
0.717957 0.254358 0.756 
0.759972 0.258396 0.768 
-0.429372 0.191421 0.565 
-0.408287 0.192098 0.567 
-0.389083 0.193792 0.572 
-0.36884 0.195147 0.576 
-0.35008 0.197519 0.583 
-0.331321 0.200229 0.591 
-0.312446 0.203279 0.6 
-0.294296 0.207344 0.612 
-0.272102 0.209038 0.617 
-0.249509 0.210732 0.622 
-0.226517 0.212426 0.627 
-0.204413 0.215475 0.636 
-0.182435 0.219541 0.648 
-0.158293 0.221913 0.655 
-0.133592 0.224284 0.662 
-0.108819 0.227672 0.672 
-0.0831259 0.230721 0.681 
-0.0567978 0.234109 0.691 
-0.0297146 0.237836 0.702 
-0.00173965 0.23953 0.707 
0.0268959 0.243596 0.719 
0.0563336 0.246984 0.729 
0.0866859 0.25071 0.74 
0.118386 0.255453 0.754 
0.146872 0.252743 0.746 
0.174483 0.249694 0.737 
0.193319 0.234787 0.693 
0.208441 0.21988 0.649 
0.224207 0.210393 0.621 
0.237739 0.200907 0.593 
0.263144 0.202262 0.597 
0.29079 0.204973 0.605 
0.320636 0.208699 0.616 
0.351919 0.212765 0.628 
0.382959 0.216153 0.638 
0.417996 0.221235 0.653 
0.45219 0.2253 0.665 
0.485181 0.22835 0.674 
0.522688 0.233093 0.688 
0.561311 0.237836 0.702 
0.601051 0.242579 0.716 
0.640148 0.246645 0.728 
0.68204 0.251388 0.742 
0.726008 0.25647 0.757 
-0.440544 0.190699 0.559 
-0.421999 0.192405 0.564 
-0.40093 0.193087 0.566 
-0.383713 0.195816 0.574 
-0.362086 0.196498 0.576 
-0.343832 0.199227 0.584 
-0.325489 0.202298 0.593 
-0.305411 0.204686 0.6 
-0.289465 0.210485 0.617 
-0.264867 0.210485 0.617 
-0.242605 0.212532 0.623 
-0.219165 0.213897 0.627 
-0.198194 0.218331 0.64 
-0.174567 0.220719 0.647 
-0.151302 0.224472 0.658 
-0.126399 0.22686 0.665 
-0.100789 0.228907 0.671 
-0.0751405 0.232318 0.681 
-0.0486952 0.23573 0.691 
-0.0215137 0.239823 0.703 
0.00659686 0.242894 0.712 
0.0353759 0.245623 0.72 
0.0650598 0.249375 0.731 
0.0956208 0.253128 0.742 
0.127059 0.256881 0.753 
0.156036 0.255175 0.748 
0.18064 0.248011 0.727 
0.197513 0.233683 0.685 
0.213721 0.219014 0.642 
0.228506 0.209121 0.613 
0.243042 0.200933 0.589 
0.270597 0.204003 0.598 
0.299361 0.207415 0.608 
0.328923 0.210826 0.618 
0.360427 0.21492 0.63 
0.392276 0.218673 0.641 
0.427609 0.22379 0.656 
0.461371 0.227542 0.667 
0.49601 0.231295 0.678 
0.533069 0.23573 0.691 
0.569542 0.239482 0.702 
0.609446 0.244258 0.716 
0.650466 0.249034 0.73 
0.691672 0.253469 0.743 
0.734885 0.258245 0.757 
-0.432678 0.19201 0.559 
-0.414797 0.194071 0.565 
-0.39366 0.194758 0.567 
-0.375636 0.197162 0.574 
-0.35521 0.198536 0.578 
-0.337339 0.201627 0.587 
-0.318215 0.204375 0.595 
-0.297463 0.206436 0.601 
-0.278053 0.209871 0.611 
-0.256185 0.211932 0.617 
-0.233839 0.213993 0.623 
-0.210678 0.215711 0.628 
-0.190667 0.22155 0.645 
-0.165719 0.22258 0.648 
-0.142043 0.226015 0.658 
-0.11757 0.22945 0.668 
-0.091483 0.230824 0.672 
-0.0659432 0.235289 0.685 
-0.0390285 0.237694 0.692 
-0.0116217 0.241472 0.703 
0.0166854 0.245594 0.715 
0.0456334 0.247998 0.722 
0.0754488 0.251433 0.732 
0.106347 0.255555 0.744 
0.136192 0.255899 0.745 
0.165671 0.255555 0.744 
0.186931 0.244564 0.712 
0.202011 0.22945 0.668 
0.218374 0.219145 0.638 
0.231199 0.20781 0.605 
0.248567 0.202314 0.589 
0.276668 0.205749 0.599 
0.305567 0.209184 0.609 
0.335262 0.212619 0.619 
0.366918 0.216741 0.631 
0.401395 0.221893 0.646 
0.434424 0.225672 0.657 
0.467628 0.229107 0.667 
0.503111 0.233228 0.679 
0.539551 0.23735 0.691 
0.576128 0.241129 0.702 
0.617023 0.246281 0.717 
0.658215 0.25109 0.731 
0.700522 0.255899 0.745 
0.741006 0.259677 0.756 
-0.422946 0.193667 0.56 
-0.404197 0.195396 0.565 
-0.385049 0.197125 0.57 
-0.365503 0.198854 0.575 
-0.346749 0.201275 0.582 
-0.328549 0.204387 0.591 
-0.3086 0.206808 0.598 
-0.290473 0.210958 0.61 
-0.268335 0.212687 0.615 
-0.245402 0.214071 0.619 
-0.222507 0.2158 0.624 
-0.201113 0.219604 0.635 
-0.178566 0.223062 0.645 
-0.154984 0.226175 0.654 
-0.13029 0.228596 0.661 
-0.105195 0.231362 0.669 
-0.0795796 0.234475 0.678 
-0.0532467 0.237587 0.687 
-0.0262715 0.241392 0.698 
0.00157196 0.243812 0.705 
0.033547 0.247962 0.717 
0.0631722 0.252112 0.729 
0.0933746 0.255225 0.738 
0.124627 0.259029 0.749 
0.153457 0.2573 0.744 
0.178935 0.251421 0.727 
0.196765 0.237933 0.688 
0.210834 0.223754 0.647 
0.225656 0.213379 0.617 
0.239709 0.204387 0.591 
0.264162 0.205079 0.593 
0.292657 0.208537 0.603 
0.32195 0.211996 0.613 
0.353734 0.216492 0.626 
0.385346 0.220296 0.637 
0.419124 0.224792 0.65 
0.45257 0.228596 0.661 
0.485444 0.231708 0.67 
0.522092 0.236204 0.683 
0.558169 0.240008 0.694 
0.597656 0.24485 0.708 
0.640911 0.250729 0.725 
0.680901 0.254879 0.737 
0.72474 0.260067 0.752 
-0.434789 0.193239 0.555 
-0.41638 0.19498 0.56 
-0.398276 0.197069 0.566 
-0.379029 0.19881 0.571 
-0.35876 0.200203 0.575 
-0.339925 0.20264 0.582 
-0.322164 0.206122 0.592 
-0.301588 0.208211 0.598 
-0.28332 0.212389 0.61 
-0.260699 0.213782 0.614 
-0.238529 0.215871 0.62 
-0.21588 0.21796 0.626 
-0.194887 0.222486 0.639 
-0.171002 0.224575 0.645 
-0.147765 0.228405 0.656 
-0.122539 0.230146 0.661 
-0.0972048 0.232583 0.668 
-0.0717351 0.236413 0.679 
-0.0452568 0.239547 0.688 
-0.0181386 0.243725 0.7 
0.00985265 0.245814 0.706 
0.0385915 0.249644 0.717 
0.0683011 0.253822 0.729 
0.0988339 0.257652 0.74 
0.129377 0.259741 0.746 
0.158478 0.258697 0.743 
0.182024 0.25034 0.719 
0.198675 0.236065 0.678 
0.213721 0.223531 0.642 
0.228133 0.213085 0.612 
0.241391 0.203684 0.585 
0.268787 0.206818 0.594 
0.297884 0.210648 0.605 
0.326262 0.213433 0.613 
0.358139 0.21796 0.626 
0.39044 0.222138 0.638 
0.424349 0.226664 0.651 
0.457221 0.230146 0.661 
0.490157 0.23328 0.67 
0.528441 0.238502 0.685 
0.562241 0.241288 0.693 
0.604339 0.247207 0.71 
0.646902 0.252778 0.726 
0.687948 0.257304 0.739 
0.730031 0.26183 0.752 
-0.429582 0.194541 0.555 
-0.411126 0.196293 0.56 
-0.392966 0.198396 0.566 
-0.373673 0.200149 0.571 
-0.353981 0.201902 0.576 
-0.335615 0.204706 0.584 
-0.31661 0.20751 0.592 
-0.296473 0.209964 0.599 
-0.277143 0.213469 0.609 
-0.254939 0.215221 0.614 
-0.232713 0.217325 0.62 
-0.210007 0.219428 0.626 
-0.188893 0.223985 0.639 
-0.165208 0.226438 0.646 
-0.141396 0.229593 0.655 
-0.116338 0.231696 0.661 
-0.0910746 0.2345 0.669 
-0.0654619 0.238356 0.68 
-0.0389157 0.241861 0.69 
-0.0115887 0.245717 0.701 
0.0164987 0.24782 0.707 
0.0453174 0.251325 0.717 
0.0751396 0.255532 0.729 
0.105776 0.259387 0.74 
0.135826 0.260439 0.743 
0.165226 0.260089 0.742 
0.186406 0.248872 0.71 
0.201406 0.233449 0.666 
0.218032 0.223284 0.637 
0.231199 0.212067 0.605 
0.246457 0.204706 0.584 
0.274821 0.208562 0.595 
0.304563 0.212768 0.607 
0.333096 0.215572 0.615 
0.364593 0.219778 0.627 
0.397667 0.224335 0.64 
0.431779 0.228892 0.653 
0.46272 0.231346 0.66 
0.497183 0.235201 0.671 
0.536428 0.24081 0.687 
0.568742 0.242913 0.693 
0.61186 0.249222 0.711 
0.653713 0.25448 0.726 
0.697702 0.260089 0.742 
0.735125 0.262893 0.75 
-0.425141 0.196195 0.556 
-0.405148 0.197254 0.559 
-0.387657 0.199724 0.566 
-0.368317 0.201488 0.571 
-0.348578 0.203252 0.576 
-0.332398 0.207487 0.588 
-0.311057 0.208898 0.592 
-0.292796 0.21278 0.603 
-0.27143 0.214897 0.609 
-0.249586 0.217014 0.615 
-0.227263 0.219132 0.621 
-0.204461 0.221249 0.627 
-0.182899 0.225483 0.639 
-0.15964 0.228659 0.648 
-0.135251 0.231129 0.655 
-0.110304 0.233599 0.662 
-0.0849257 0.236422 0.67 
-0.0591699 0.240304 0.681 
-0.03249 0.243832 0.691 
-0.00501282 0.247361 0.701 
0.023229 0.250537 0.71 
0.0520434 0.253007 0.717 
0.0820906 0.257594 0.73 
0.11287 0.261476 0.741 
0.14222 0.261123 0.74 
0.170794 0.259711 0.736 
0.190891 0.247714 0.702 
0.205159 0.232188 0.658 
0.220491 0.221249 0.627 
0.234917 0.211721 0.6 
0.25323 0.207134 0.587 
0.281345 0.210663 0.597 
0.310257 0.214191 0.607 
0.339967 0.21772 0.617 
0.371065 0.221602 0.628 
0.405563 0.226895 0.643 
0.439916 0.231482 0.656 
0.468911 0.232893 0.66 
0.504979 0.237481 0.673 
0.542082 0.242068 0.686 
0.576072 0.244891 0.694 
0.6194 0.251243 0.712 
0.661433 0.256536 0.727 
0.705612 0.262181 0.743 
0.74216 0.264652 0.75 
-0.419925 0.197499 0.556 
-0.40062 0.19892 0.56 
-0.383023 0.201406 0.567 
-0.363596 0.203182 0.572 
-0.343175 0.204603 0.576 
-0.327438 0.209221 0.589 
-0.305504 0.210287 0.592 
-0.289997 0.216325 0.609 
-0.265717 0.216325 0.609 
-0.243816 0.218457 0.615 
-0.221794 0.220943 0.622 
-0.199213 0.22343 0.629 
-0.176904 0.226982 0.639 
-0.153799 0.230534 0.649 
-0.129304 0.23302 0.656 
-0.104094 0.235152 0.662 
-0.0788754 0.238704 0.672 
-0.0528592 0.242256 0.682 
-0.0260456 0.245808 0.692 
0.00156527 0.24936 0.702 
0.0299314 0.252557 0.711 
0.0590972 0.256109 0.721 
0.0889385 0.259306 0.73 
0.119982 0.263569 0.742 
0.148758 0.262148 0.738 
0.176249 0.259306 0.73 
0.194663 0.245808 0.692 
0.208441 0.230534 0.649 
0.223123 0.219522 0.618 
0.237739 0.210642 0.593 
0.262826 0.209576 0.59 
0.290716 0.212773 0.599 
0.319324 0.21597 0.608 
0.349214 0.219522 0.618 
0.383531 0.225206 0.634 
0.41719 0.229823 0.647 
0.449831 0.233376 0.657 
0.480372 0.235507 0.663 
0.519035 0.24119 0.679 
0.552539 0.244032 0.687 
0.590903 0.24865 0.7 
0.632954 0.254333 0.716 
0.67351 0.258951 0.729 
0.71703 0.264279 0.744 
-0.428292 0.196658 0.55 
-0.411536 0.19916 0.557 
-0.392825 0.200948 0.562 
-0.373715 0.202736 0.567 
-0.355444 0.205239 0.574 
-0.336036 0.207384 0.58 
-0.318308 0.21096 0.59 
-0.295785 0.211675 0.592 
-0.277199 0.216681 0.606 
-0.254709 0.218111 0.61 
-0.233411 0.220972 0.618 
-0.210462 0.222759 0.623 
-0.1892 0.22705 0.635 
-0.165174 0.228838 0.64 
-0.141841 0.232413 0.65 
-0.117353 0.235274 0.658 
-0.0923666 0.238492 0.667 
-0.0666622 0.24171 0.676 
-0.0401814 0.24457 0.684 
-0.0131194 0.248504 0.695 
0.0147777 0.251722 0.704 
0.0434534 0.255297 0.714 
0.0731278 0.259588 0.726 
0.103197 0.262448 0.734 
0.133723 0.264951 0.741 
0.162824 0.264236 0.739 
0.184741 0.253867 0.71 
0.202054 0.237062 0.663 
0.218148 0.226335 0.633 
0.231849 0.215608 0.603 
0.250137 0.208457 0.583 
0.278069 0.212033 0.593 
0.307307 0.215966 0.604 
0.335228 0.218469 0.611 
0.367827 0.223474 0.625 
0.400913 0.228123 0.638 
0.435036 0.232771 0.651 
0.465239 0.234916 0.657 
0.500408 0.239207 0.669 
0.537322 0.243855 0.682 
0.571962 0.247073 0.691 
0.612524 0.252437 0.706 
0.654283 0.2578 0.721 
0.701027 0.264594 0.74 
0.735466 0.266382 0.745 
-0.418199 0.198667 0.552 
-0.400498 0.200827 0.558 
-0.383675 0.203706 0.566 
-0.363023 0.204786 0.569 
-0.343927 0.206945 0.575 
-0.326586 0.210544 0.585 
-0.305855 0.212344 0.59 
-0.285243 0.218822 0.608 
-0.261003 0.218822 0.608 
-0.23949 0.221341 0.615 
-0.217418 0.22386 0.622 
-0.195097 0.22674 0.63 
-0.171869 0.229259 0.637 
-0.149003 0.233218 0.648 
-0.124309 0.235377 0.654 
-0.0992865 0.237897 0.661 
-0.0740371 0.241496 0.671 
-0.0479905 0.245095 0.681 
-0.0211771 0.249054 0.692 
0.00648567 0.251933 0.7 
0.0347863 0.254812 0.708 
0.0639918 0.258771 0.719 
0.0940744 0.26273 0.73 
0.125203 0.267049 0.742 
0.153742 0.265249 0.737 
0.180143 0.260931 0.725 
0.19636 0.245095 0.681 
0.211038 0.231418 0.643 
0.224895 0.219902 0.611 
0.239741 0.209104 0.581 
0.266072 0.211624 0.588 
0.29493 0.215583 0.599 
0.322537 0.218102 0.606 
0.35299 0.222061 0.617 
0.387992 0.228179 0.634 
0.421742 0.232858 0.647 
0.452379 0.235377 0.654 
0.483573 0.237897 0.661 
0.523041 0.244015 0.678 
0.554939 0.246175 0.684 
0.596679 0.252293 0.701 
0.637101 0.257332 0.715 
0.678639 0.26237 0.729 
0.720323 0.267049 0.742 
-0.42339 0.19815 0.547 
-0.40819 0.201411 0.556 
-0.3888 0.20286 0.56 
-0.370401 0.205033 0.566 
-0.352137 0.207569 0.573 
-0.332741 0.209742 0.579 
-0.313936 0.21264 0.587 
-0.292514 0.214089 0.591 
-0.269647 0.219161 0.605 
-0.247151 0.22061 0.609 
-0.226531 0.224232 0.619 
-0.203483 0.226044 0.624 
-0.181754 0.230028 0.635 
-0.158655 0.233289 0.644 
-0.133806 0.234738 0.648 
-0.109638 0.23836 0.658 
-0.0847989 0.242345 0.669 
-0.0589961 0.245967 0.679 
-0.0321609 0.247779 0.684 
-0.00496276 0.251401 0.694 
0.0230327 0.255024 0.704 
0.0518256 0.258646 0.714 
0.0816407 0.262993 0.726 
0.111499 0.265167 0.732 
0.141066 0.265891 0.734 
0.17033 0.265891 0.734 
0.189531 0.252488 0.697 
0.20576 0.237273 0.655 
0.220225 0.22387 0.618 
0.236146 0.215901 0.596 
0.253802 0.210829 0.582 
0.281765 0.214452 0.592 
0.310009 0.217712 0.601 
0.338971 0.220972 0.61 
0.371033 0.225681 0.623 
0.404766 0.230753 0.637 
0.438266 0.2351 0.649 
0.469146 0.237636 0.656 
0.505115 0.242345 0.669 
0.540531 0.24633 0.68 
0.576823 0.250314 0.691 
0.616617 0.255386 0.705 
0.656612 0.260095 0.718 
0.70337 0.266978 0.737 
0.738719 0.269151 0.743 
-0.41302 0.201256 0.552 
-0.394555 0.203079 0.557 
-0.377697 0.205996 0.565 
-0.357057 0.20709 0.568 
-0.337945 0.209277 0.574 
-0.320549 0.212923 0.584 
-0.299302 0.214382 0.588 
-0.284305 0.220944 0.606 
-0.260145 0.220944 0.606 
-0.238711 0.223497 0.613 
-0.216719 0.226049 0.62 
-0.194478 0.228965 0.628 
-0.168881 0.232247 0.637 
-0.145963 0.236257 0.648 
-0.121056 0.23808 0.653 
-0.0961861 0.240997 0.661 
-0.0708899 0.244643 0.671 
-0.0447964 0.248289 0.681 
-0.0179054 0.251935 0.691 
0.00976891 0.255216 0.7 
0.0379994 0.257404 0.706 
0.0671768 0.261414 0.717 
0.0973648 0.265789 0.729 
0.128336 0.2698 0.74 
0.156345 0.267248 0.733 
0.181518 0.261414 0.717 
0.197796 0.246101 0.675 
0.212057 0.232247 0.637 
0.227015 0.222038 0.609 
0.241214 0.210736 0.578 
0.267915 0.213652 0.586 
0.296248 0.217298 0.596 
0.326261 0.22058 0.605 
0.357331 0.224955 0.617 
0.389357 0.22933 0.629 
0.424317 0.234799 0.644 
0.454185 0.236987 0.65 
0.487485 0.240632 0.66 
0.525475 0.246101 0.675 
0.558933 0.249018 0.683 
0.60161 0.255581 0.701 
0.640335 0.259956 0.713 
0.68283 0.265425 0.728 
0.72261 0.269435 0.739 
-0.418259 0.200716 0.547 
-0.401525 0.203285 0.554 
-0.383547 0.205486 0.56 
-0.365091 0.207688 0.566 
-0.345552 0.209523 0.571 
-0.327875 0.212825 0.58 
-0.306853 0.214293 0.584 
-0.290369 0.21943 0.598 
-0.26831 0.220898 0.602 
-0.246745 0.223099 0.608 
-0.226165 0.226769 0.618 
-0.202505 0.22787 0.621 
-0.180609 0.231539 0.631 
-0.157669 0.234841 0.64 
-0.133806 0.237777 0.648 
-0.109304 0.240713 0.656 
-0.0846722 0.245116 0.668 
-0.0587355 0.248051 0.676 
-0.0320199 0.249886 0.681 
-0.00495561 0.254289 0.693 
0.0229673 0.257592 0.702 
0.0516079 0.260894 0.711 
0.0811909 0.264931 0.722 
0.111042 0.267499 0.729 
0.14049 0.268233 0.731 
0.169865 0.2686 0.732 
0.188716 0.254656 0.694 
0.204848 0.241079 0.657 
0.218029 0.227503 0.62 
0.234134 0.21943 0.598 
0.250703 0.212091 0.578 
0.279429 0.216494 0.59 
0.307573 0.219797 0.599 
0.336434 0.223099 0.608 
0.366606 0.226769 0.618 
0.400107 0.231906 0.632 
0.434725 0.237043 0.646 
0.463331 0.238511 0.65 
0.500535 0.244015 0.665 
0.535766 0.248051 0.676 
0.571873 0.252088 0.687 
0.613219 0.257959 0.703 
0.652192 0.262362 0.715 
0.694978 0.267866 0.73 
0.732017 0.270802 0.738 
-0.414104 0.203107 0.55 
-0.394315 0.204215 0.553 
-0.377654 0.207169 0.561 
-0.358455 0.209015 0.566 
-0.340043 0.2116 0.573 
-0.321628 0.214555 0.581 
-0.300006 0.215662 0.584 
-0.284312 0.222679 0.603 
-0.25984 0.22231 0.602 
-0.238581 0.224895 0.609 
-0.217469 0.228218 0.618 
-0.195639 0.231542 0.627 
-0.172002 0.233388 0.632 
-0.149593 0.23782 0.644 
-0.12488 0.239666 0.649 
-0.100379 0.24299 0.658 
-0.0753854 0.247052 0.669 
-0.0493691 0.250375 0.678 
-0.0225363 0.252591 0.684 
0.00480945 0.256653 0.695 
0.032892 0.259607 0.703 
0.0618723 0.263669 0.714 
0.0914768 0.266993 0.723 
0.123853 0.271055 0.734 
0.152282 0.269578 0.73 
0.179397 0.266624 0.722 
0.197085 0.250375 0.678 
0.210563 0.235235 0.637 
0.225216 0.224525 0.608 
0.238378 0.214555 0.581 
0.261992 0.214924 0.582 
0.289605 0.218247 0.591 
0.317936 0.221571 0.6 
0.347554 0.225264 0.61 
0.379189 0.229695 0.622 
0.41373 0.235235 0.637 
0.446709 0.239297 0.648 
0.478377 0.242251 0.656 
0.514529 0.247052 0.669 
0.548481 0.250375 0.678 
0.587395 0.255545 0.692 
0.625648 0.259977 0.704 
0.665787 0.264777 0.717 
0.708899 0.270317 0.732 
-0.421567 0.201795 0.543 
-0.406548 0.20514 0.552 
-0.38663 0.206255 0.555 
-0.369101 0.208856 0.562 
-0.34978 0.210714 0.567 
-0.331214 0.213316 0.574 
-0.312627 0.216289 0.582 
-0.29191 0.218147 0.587 
-0.274454 0.222978 0.6 
-0.253039 0.225208 0.606 
-0.231523 0.227809 0.613 
-0.209111 0.230039 0.619 
-0.186816 0.233012 0.627 
-0.163884 0.235985 0.635 
-0.140968 0.240073 0.646 
-0.116105 0.241931 0.651 
-0.0916742 0.246019 0.662 
-0.0659719 0.248621 0.669 
-0.0398877 0.252337 0.679 
-0.0129873 0.255682 0.688 
0.0146098 0.258655 0.696 
0.0429056 0.261999 0.705 
0.0720198 0.265716 0.715 
0.101931 0.269432 0.725 
0.13246 0.272777 0.734 
0.160841 0.27129 0.73 
0.18318 0.261628 0.704 
0.200144 0.247877 0.667 
0.214159 0.234127 0.63 
0.229021 0.224093 0.603 
0.24173 0.214059 0.576 
0.267451 0.216289 0.582 
0.295149 0.219633 0.591 
0.323564 0.222978 0.6 
0.353856 0.227066 0.611 
0.384405 0.230782 0.621 
0.420364 0.2371 0.638 
0.452089 0.240445 0.647 
0.485269 0.244161 0.657 
0.520804 0.248621 0.669 
0.555659 0.252337 0.679 
0.595603 0.257911 0.694 
0.63315 0.261999 0.705 
0.674389 0.267202 0.719 
0.714787 0.271662 0.731 
-0.416474 0.203069 0.543 
-0.395474 0.20606 0.551 
-0.378252 0.208678 0.558 
-0.360471 0.211296 0.565 
-0.340937 0.213166 0.57 
-0.321561 0.21541 0.576 
-0.301708 0.217654 0.582 
-0.282897 0.224385 0.6 
-0.258976 0.224385 0.6 
-0.23819 0.227377 0.608 
-0.217117 0.230743 0.617 
-0.195327 0.234109 0.626 
-0.171458 0.235604 0.63 
-0.148664 0.239344 0.64 
-0.124688 0.242336 0.648 
-0.100379 0.246076 0.658 
-0.0750473 0.249068 0.666 
-0.0490778 0.252059 0.674 
-0.0224375 0.254677 0.681 
0.00479561 0.259165 0.693 
0.0328452 0.262531 0.702 
0.0615257 0.265522 0.71 
0.0908441 0.268514 0.718 
0.121466 0.273002 0.73 
0.150157 0.272254 0.728 
0.17795 0.270384 0.723 
0.196072 0.254303 0.68 
0.209397 0.238596 0.638 
0.223791 0.227377 0.608 
0.237424 0.217654 0.582 
0.25794 0.21541 0.576 
0.287244 0.220271 0.589 
0.314946 0.223263 0.597 
0.344989 0.227377 0.608 
0.375302 0.231117 0.618 
0.409 0.236352 0.632 
0.443128 0.241214 0.645 
0.472477 0.243084 0.65 
0.508359 0.247946 0.663 
0.542858 0.251685 0.673 
0.582386 0.257295 0.688 
0.620452 0.261783 0.7 
0.659474 0.26627 0.712 
0.703317 0.272254 0.728 
-0.425388 0.204342 0.543 
-0.403227 0.207353 0.551 
-0.383335 0.208482 0.554 
-0.365813 0.211116 0.561 
-0.34712 0.213374 0.567 
-0.328522 0.216008 0.574 
-0.308832 0.218266 0.58 
-0.288356 0.222405 0.591 
-0.263198 0.225792 0.6 
-0.242068 0.228427 0.607 
-0.220381 0.231061 0.614 
-0.198455 0.234071 0.622 
-0.175332 0.236329 0.628 
-0.152449 0.239716 0.637 
-0.127333 0.243103 0.646 
-0.103151 0.246866 0.656 
-0.077819 0.2495 0.663 
-0.0520066 0.252511 0.671 
-0.0255563 0.255522 0.679 
0.00154074 0.260037 0.691 
0.0294263 0.263048 0.699 
0.0578677 0.265682 0.706 
0.0873546 0.269822 0.717 
0.117719 0.273961 0.728 
0.146339 0.273209 0.726 
0.175525 0.273585 0.727 
0.193538 0.258909 0.688 
0.207478 0.243103 0.646 
0.220596 0.229932 0.611 
0.235334 0.2209 0.587 
0.253006 0.216008 0.574 
0.281177 0.220147 0.585 
0.308664 0.223158 0.593 
0.339591 0.22805 0.606 
0.367952 0.230684 0.613 
0.401353 0.235953 0.627 
0.43655 0.241598 0.642 
0.465744 0.243479 0.647 
0.499896 0.247619 0.658 
0.534925 0.251758 0.669 
0.572509 0.256651 0.682 
0.61113 0.261543 0.695 
0.64895 0.265682 0.706 
0.6934 0.27208 0.723 
-0.429208 0.205615 0.543 
-0.409811 0.206751 0.546 
-0.386428 0.208645 0.551 
-0.369753 0.211674 0.559 
-0.351818 0.214325 0.566 
-0.332161 0.216218 0.571 
-0.312106 0.218111 0.576 
-0.292656 0.220762 0.583 
-0.269783 0.226821 0.599 
-0.248775 0.229471 0.606 
-0.225727 0.230607 0.609 
-0.204425 0.234015 0.618 
-0.182114 0.237045 0.626 
-0.159165 0.240074 0.634 
-0.135367 0.242725 0.641 
-0.108638 0.24689 0.652 
-0.0835314 0.249541 0.659 
-0.0580404 0.252949 0.668 
-0.0317848 0.255978 0.676 
-0.00489125 0.259007 0.684 
0.0227056 0.262794 0.694 
0.0510998 0.266581 0.704 
0.0802913 0.270367 0.714 
0.109823 0.273018 0.721 
0.139913 0.275669 0.728 
0.169169 0.276047 0.729 
0.188444 0.262415 0.693 
0.203912 0.247647 0.654 
0.217326 0.234015 0.618 
0.232568 0.224927 0.594 
0.24719 0.216975 0.573 
0.274276 0.220383 0.582 
0.302079 0.223791 0.591 
0.331151 0.227578 0.601 
0.359839 0.230607 0.609 
0.391687 0.235151 0.621 
0.427175 0.24121 0.637 
0.455412 0.242725 0.641 
0.492223 0.248405 0.656 
0.525488 0.251813 0.665 
0.562791 0.256735 0.678 
0.601131 0.261658 0.691 
0.639597 0.266202 0.703 
0.68092 0.271503 0.717 
0.72138 0.276047 0.729 
-0.413413 0.20727 0.544 
-0.396046 0.209556 0.55 
-0.3782 0.211842 0.556 
-0.359875 0.214128 0.562 
-0.339871 0.215652 0.566 
-0.321791 0.2187 0.574 
-0.301511 0.220605 0.579 
-0.279149 0.227844 0.598 
-0.256162 0.228607 0.6 
-0.234177 0.230512 0.605 
-0.212834 0.23356 0.613 
-0.191468 0.23737 0.623 
-0.167968 0.239275 0.628 
-0.144979 0.242704 0.637 
-0.121085 0.245752 0.645 
-0.096997 0.249943 0.656 
-0.0712756 0.251467 0.66 
-0.0457122 0.255658 0.671 
-0.0191868 0.258706 0.679 
0.00801119 0.262897 0.69 
0.0359834 0.266327 0.699 
0.0643991 0.268613 0.705 
0.0938182 0.272423 0.715 
0.124548 0.277376 0.728 
0.152517 0.275471 0.723 
0.179335 0.272423 0.715 
0.196794 0.257944 0.677 
0.210563 0.242704 0.637 
0.224105 0.230512 0.605 
0.238378 0.221367 0.581 
0.25839 0.2187 0.574 
0.286665 0.222891 0.585 
0.313697 0.225558 0.592 
0.345275 0.230893 0.606 
0.374312 0.233941 0.614 
0.407235 0.238894 0.627 
0.440504 0.243466 0.639 
0.472543 0.246895 0.648 
0.506068 0.250705 0.658 
0.5412 0.254896 0.669 
0.578058 0.259468 0.681 
0.616761 0.264422 0.694 
0.655572 0.268994 0.706 
0.699214 0.27509 0.722 
-0.421283 0.207396 0.541 
-0.404148 0.209696 0.547 
-0.385136 0.211229 0.551 
-0.367783 0.213913 0.558 
-0.349871 0.216596 0.565 
-0.330243 0.218513 0.57 
-0.310215 0.22043 0.575 
-0.290789 0.223113 0.582 
-0.270282 0.228864 0.597 
-0.249371 0.231547 0.604 
-0.226783 0.23308 0.608 
-0.205208 0.236147 0.616 
-0.182702 0.238831 0.623 
-0.159638 0.241514 0.63 
-0.13623 0.244581 0.638 
-0.112357 0.248031 0.647 
-0.0877664 0.251482 0.656 
-0.0621766 0.253782 0.662 
-0.0362705 0.257232 0.671 
-0.00963262 0.260299 0.679 
0.0177459 0.264899 0.691 
0.0460157 0.269116 0.702 
0.07453 0.271033 0.707 
0.104024 0.274483 0.716 
0.134791 0.279083 0.728 
0.163365 0.278316 0.726 
0.185422 0.268349 0.7 
0.200835 0.252632 0.659 
0.215735 0.239981 0.626 
0.230311 0.22963 0.599 
0.242734 0.21928 0.572 
0.266931 0.22043 0.575 
0.294896 0.224263 0.585 
0.324203 0.22848 0.596 
0.354386 0.232697 0.607 
0.384199 0.236147 0.616 
0.417384 0.241131 0.629 
0.448089 0.244198 0.637 
0.483148 0.249181 0.65 
0.515327 0.252248 0.658 
0.55226 0.257232 0.671 
0.589366 0.261832 0.683 
0.627429 0.266432 0.695 
0.672105 0.273333 0.713 
0.712321 0.277933 0.725 
-0.412654 0.209436 0.543 
-0.395326 0.21175 0.549 
-0.376839 0.213678 0.554 
-0.358595 0.215993 0.56 
-0.339871 0.218307 0.566 
-0.320109 0.220235 0.571 
-0.299948 0.222164 0.576 
-0.286161 0.230649 0.598 
-0.261443 0.229878 0.596 
-0.240074 0.232192 0.602 
-0.218586 0.234892 0.609 
-0.197178 0.238363 0.618 
-0.174494 0.241063 0.625 
-0.151731 0.244535 0.634 
-0.127452 0.246463 0.639 
-0.103732 0.250706 0.65 
-0.0785358 0.25302 0.656 
-0.053181 0.256877 0.666 
-0.0269088 0.259577 0.673 
-7.86152e-05 0.262663 0.681 
0.0275485 0.267291 0.693 
0.0559731 0.271148 0.703 
0.0849562 0.274234 0.711 
0.114896 0.278091 0.721 
0.143641 0.278091 0.721 
0.172625 0.278476 0.722 
0.192482 0.266134 0.69 
0.208227 0.246463 0.639 
0.222365 0.234506 0.608 
0.236464 0.224864 0.583 
0.253916 0.21985 0.57 
0.282465 0.224478 0.582 
0.309345 0.227178 0.589 
0.339608 0.231806 0.601 
0.369013 0.235278 0.61 
0.400425 0.23952 0.621 
0.434769 0.24492 0.635 
0.465881 0.248006 0.643 
0.49916 0.251863 0.653 
0.534041 0.256106 0.664 
0.569799 0.260348 0.675 
0.60997 0.266134 0.69 
0.649489 0.271148 0.703 
0.690045 0.276162 0.716 
-0.419726 0.209157 0.539 
-0.403409 0.211873 0.546 
-0.384437 0.213426 0.55 
-0.367783 0.21653 0.558 
-0.348633 0.21847 0.563 
-0.328504 0.220022 0.567 
-0.309676 0.222739 0.574 
-0.290789 0.225843 0.582 
-0.273563 0.230888 0.595 
-0.251941 0.232828 0.6 
-0.22916 0.233992 0.603 
-0.207501 0.236708 0.61 
-0.185884 0.240201 0.619 
-0.163289 0.243305 0.627 
-0.140498 0.247186 0.637 
-0.116186 0.249514 0.643 
-0.0916776 0.252618 0.651 
-0.0664303 0.255335 0.658 
-0.0408692 0.259603 0.669 
-0.0143248 0.261931 0.675 
0.0128098 0.266588 0.687 
0.0407256 0.27008 0.696 
0.0692608 0.273185 0.704 
0.0984338 0.276289 0.712 
0.129492 0.28211 0.727 
0.157168 0.279781 0.721 
0.181787 0.273573 0.705 
0.19858 0.258827 0.667 
0.213019 0.244857 0.631 
0.226474 0.232828 0.6 
0.239545 0.222739 0.574 
0.261057 0.221574 0.571 
0.28929 0.225843 0.582 
0.317325 0.229335 0.591 
0.347809 0.233992 0.603 
0.377399 0.237484 0.612 
0.408363 0.241365 0.622 
0.441518 0.246021 0.634 
0.476366 0.251066 0.647 
0.507593 0.253782 0.654 
0.544275 0.258827 0.667 
0.580281 0.263095 0.678 
0.618957 0.26814 0.691 
0.659604 0.273573 0.705 
0.699416 0.278229 0.717 
-0.413165 0.211592 0.542 
-0.396613 0.214325 0.549 
-0.376773 0.215496 0.552 
-0.359265 0.218229 0.559 
-0.339993 0.220181 0.564 
-0.320322 0.222133 0.569 
-0.300253 0.224085 0.574 
-0.287516 0.232283 0.595 
-0.262908 0.231502 0.593 
-0.242091 0.234235 0.6 
-0.221079 0.237358 0.608 
-0.198458 0.23931 0.613 
-0.17629 0.242433 0.621 
-0.153484 0.245556 0.629 
-0.130245 0.24907 0.638 
-0.106288 0.252583 0.647 
-0.0809906 0.254145 0.651 
-0.0557975 0.257658 0.66 
-0.0299314 0.261562 0.67 
-0.00325352 0.264295 0.677 
0.0241929 0.26937 0.69 
0.052451 0.273274 0.7 
0.0810474 0.275616 0.706 
0.110895 0.279911 0.717 
0.140259 0.281472 0.721 
0.169004 0.281472 0.721 
0.189795 0.270151 0.692 
0.203875 0.253364 0.649 
0.218421 0.240872 0.617 
0.233173 0.231112 0.592 
0.245931 0.221352 0.567 
0.271852 0.224085 0.574 
0.299357 0.227598 0.583 
0.328134 0.231502 0.593 
0.359487 0.236577 0.606 
0.389345 0.240091 0.615 
0.421939 0.244776 0.627 
0.452639 0.247899 0.635 
0.48774 0.252974 0.648 
0.520707 0.256487 0.657 
0.556889 0.261172 0.669 
0.594901 0.266247 0.682 
0.632124 0.270541 0.693 
0.675937 0.277178 0.71 
0.711187 0.279911 0.717 
-0.408833 0.213256 0.543 
-0.391463 0.215612 0.549 
-0.372268 0.217183 0.553 
-0.354021 0.21954 0.559 
-0.335296 0.221896 0.565 
-0.315538 0.22386 0.57 
-0.295382 0.225824 0.575 
-0.281935 0.233678 0.595 
-0.257346 0.232893 0.593 
-0.236069 0.235249 0.599 
-0.215376 0.238784 0.608 
-0.193022 0.24114 0.614 
-0.170739 0.244282 0.622 
-0.148053 0.247817 0.631 
-0.12426 0.250566 0.638 
-0.100373 0.254493 0.648 
-0.0748838 0.255672 0.651 
-0.0497565 0.259992 0.662 
-0.0236816 0.263526 0.671 
0.00311093 0.267061 0.68 
0.03071 0.271381 0.691 
0.0590175 0.274916 0.7 
0.0877943 0.277665 0.707 
0.11795 0.282378 0.719 
0.146207 0.281592 0.717 
0.174548 0.281199 0.716 
0.193166 0.267454 0.681 
0.208227 0.250959 0.639 
0.221999 0.238391 0.607 
0.23687 0.229358 0.584 
0.25258 0.222682 0.567 
0.280038 0.226609 0.577 
0.306719 0.229358 0.584 
0.337347 0.234464 0.597 
0.367803 0.238784 0.608 
0.397846 0.242319 0.617 
0.429976 0.246639 0.628 
0.462258 0.250566 0.638 
0.495338 0.254493 0.648 
0.53002 0.258813 0.659 
0.564734 0.262741 0.669 
0.604666 0.268632 0.684 
0.643022 0.273345 0.696 
0.68619 0.279629 0.712 
-0.419904 0.211764 0.536 
-0.404483 0.214925 0.544 
-0.387017 0.217295 0.55 
-0.368409 0.21927 0.555 
-0.348778 0.220851 0.559 
-0.33058 0.223616 0.566 
-0.310191 0.225197 0.57 
-0.290997 0.227962 0.577 
-0.272643 0.234284 0.593 
-0.250261 0.235469 0.596 
-0.22802 0.237049 0.6 
-0.206821 0.24021 0.608 
-0.184983 0.24337 0.616 
-0.162508 0.246531 0.624 
-0.139836 0.250482 0.634 
-0.115283 0.252062 0.638 
-0.0912551 0.256013 0.648 
-0.0661274 0.258779 0.655 
-0.0376185 0.26352 0.667 
-0.0110927 0.2651 0.671 
0.015962 0.270236 0.684 
0.0438005 0.273792 0.693 
0.0724597 0.277743 0.703 
0.101487 0.280508 0.71 
0.131805 0.284854 0.721 
0.159659 0.283274 0.717 
0.184306 0.277347 0.702 
0.199592 0.260754 0.66 
0.215735 0.247321 0.626 
0.229158 0.235469 0.596 
0.241516 0.223616 0.566 
0.26548 0.224802 0.569 
0.294243 0.229543 0.581 
0.321776 0.232703 0.589 
0.352293 0.237444 0.601 
0.381888 0.241 0.61 
0.412866 0.244951 0.62 
0.444642 0.248902 0.63 
0.479452 0.254038 0.643 
0.510586 0.256803 0.65 
0.548881 0.262729 0.665 
0.586642 0.267866 0.678 
0.623628 0.272211 0.689 
0.665272 0.278138 0.704 
0.703188 0.282088 0.714 
-0.410374 0.214611 0.54 
-0.394606 0.21779 0.548 
-0.374799 0.218982 0.551 
-0.357314 0.221764 0.558 
-0.337469 0.223354 0.562 
-0.317867 0.225341 0.567 
-0.297865 0.227328 0.572 
-0.279597 0.235674 0.593 
-0.255092 0.234879 0.591 
-0.234272 0.237661 0.598 
-0.213598 0.241238 0.607 
-0.190958 0.243225 0.612 
-0.168736 0.246405 0.62 
-0.146109 0.249982 0.629 
-0.119584 0.253161 0.637 
-0.0955184 0.256738 0.646 
-0.0701957 0.258328 0.65 
-0.0435465 0.263097 0.662 
-0.0173613 0.266276 0.67 
0.00950376 0.270648 0.681 
0.0371382 0.274225 0.69 
0.065584 0.278199 0.7 
0.0942929 0.280584 0.706 
0.124694 0.28575 0.719 
0.152506 0.28416 0.715 
0.178986 0.280981 0.707 
0.196331 0.266276 0.67 
0.211391 0.252366 0.635 
0.22366 0.238456 0.6 
0.239283 0.225341 0.567 
0.261888 0.225341 0.567 
0.290012 0.229713 0.578 
0.316847 0.232495 0.585 
0.348892 0.238456 0.6 
0.378405 0.242033 0.609 
0.408636 0.24561 0.618 
0.440285 0.249584 0.628 
0.473473 0.253956 0.639 
0.505976 0.257533 0.648 
0.544121 0.263494 0.663 
0.579159 0.267468 0.673 
0.617695 0.272635 0.686 
0.659149 0.278596 0.701 
0.695918 0.282173 0.71 
-0.414876 0.214278 0.536 
-0.39938 0.217476 0.544 
-0.380469 0.219075 0.548 
-0.362548 0.221474 0.554 
-0.343534 0.223473 0.559 
-0.32527 0.226271 0.566 
-0.30431 0.22747 0.569 
-0.288843 0.236665 0.592 
-0.262962 0.235866 0.59 
-0.240074 0.237864 0.595 
-0.219625 0.241462 0.604 
-0.19684 0.243062 0.608 
-0.175439 0.247059 0.618 
-0.152508 0.249858 0.625 
-0.129836 0.254255 0.636 
-0.105138 0.255854 0.64 
-0.080493 0.258653 0.647 
-0.0555439 0.26265 0.657 
-0.0297974 0.266648 0.667 
-0.0032439 0.269846 0.675 
0.0239825 0.273444 0.684 
0.0520015 0.277442 0.694 
0.080703 0.28104 0.703 
0.112263 0.285837 0.715 
0.140965 0.286237 0.716 
0.169748 0.286637 0.717 
0.191367 0.274244 0.686 
0.205644 0.257853 0.645 
0.218804 0.243861 0.61 
0.235551 0.236265 0.591 
0.253462 0.226271 0.566 
0.279929 0.229469 0.574 
0.307033 0.232667 0.582 
0.33591 0.236665 0.592 
0.368014 0.242262 0.606 
0.39541 0.244261 0.611 
0.4287 0.249458 0.624 
0.461574 0.253855 0.635 
0.493791 0.257453 0.644 
0.529145 0.262251 0.656 
0.565456 0.267048 0.668 
0.603611 0.272245 0.681 
0.641876 0.277042 0.693 
0.681097 0.281839 0.705 
-0.42163 0.215133 0.535 
-0.404042 0.217143 0.54 
-0.387472 0.219958 0.547 
-0.368338 0.221567 0.551 
-0.350771 0.224382 0.558 
-0.33088 0.22599 0.562 
-0.311218 0.228001 0.567 
-0.292176 0.230815 0.574 
-0.275882 0.237651 0.591 
-0.25232 0.237651 0.591 
-0.23108 0.240064 0.597 
-0.209709 0.242879 0.604 
-0.187473 0.245292 0.61 
-0.165561 0.248911 0.619 
-0.142931 0.25253 0.628 
-0.119584 0.256149 0.637 
-0.0947791 0.257757 0.641 
-0.0699797 0.260572 0.648 
-0.0448265 0.264593 0.658 
-0.018876 0.268614 0.668 
0.0079067 0.273842 0.681 
0.0353141 0.275853 0.686 
0.063577 0.279874 0.696 
0.0958127 0.283493 0.705 
0.126029 0.288318 0.717 
0.153752 0.28671 0.713 
0.180133 0.283493 0.705 
0.197985 0.267408 0.665 
0.212681 0.253334 0.63 
0.225719 0.240466 0.598 
0.237875 0.229207 0.57 
0.258771 0.227598 0.566 
0.285313 0.230815 0.574 
0.312493 0.234032 0.582 
0.343194 0.23926 0.595 
0.374932 0.244487 0.608 
0.402455 0.246498 0.613 
0.43525 0.251323 0.625 
0.467531 0.255345 0.635 
0.500608 0.259366 0.645 
0.536931 0.264593 0.658 
0.572579 0.269017 0.669 
0.609999 0.273842 0.681 
0.649312 0.279069 0.694 
0.687711 0.283493 0.705 
-0.416611 0.216387 0.535 
-0.400454 0.219219 0.542 
-0.380942 0.220432 0.545 
-0.363169 0.222859 0.551 
-0.345536 0.22569 0.558 
-0.326187 0.227712 0.563 
-0.305899 0.22933 0.567 
-0.290289 0.234993 0.581 
-0.271264 0.238633 0.59 
-0.248162 0.239037 0.591 
-0.22764 0.242273 0.599 
-0.20546 0.244295 0.604 
-0.183181 0.246722 0.61 
-0.161206 0.250362 0.619 
-0.138292 0.253598 0.627 
-0.114921 0.257238 0.636 
-0.0904101 0.259665 0.642 
-0.0655216 0.262496 0.649 
-0.0403193 0.266945 0.66 
-0.0141763 0.270181 0.668 
0.0126979 0.275439 0.681 
0.0402575 0.27827 0.688 
0.0719443 0.282315 0.698 
0.100773 0.285146 0.705 
0.130891 0.289595 0.716 
0.158991 0.288786 0.714 
0.184043 0.283528 0.701 
0.198987 0.266136 0.658 
0.214609 0.253598 0.627 
0.228004 0.239846 0.593 
0.241556 0.227712 0.563 
0.265408 0.228926 0.566 
0.292552 0.232566 0.575 
0.320414 0.236206 0.584 
0.351937 0.241869 0.598 
0.382062 0.245913 0.608 
0.412316 0.249553 0.617 
0.443995 0.253598 0.627 
0.475724 0.257238 0.636 
0.508959 0.261283 0.646 
0.54713 0.26735 0.661 
0.583026 0.271799 0.672 
0.619799 0.276248 0.683 
0.658397 0.281101 0.695 
0.695977 0.285146 0.705 
-0.408591 0.218049 0.536 
-0.393001 0.221303 0.544 
-0.373361 0.222524 0.547 
-0.355409 0.224965 0.553 
-0.336376 0.226999 0.558 
-0.318071 0.229846 0.565 
-0.296591 0.23066 0.567 
-0.283717 0.240017 0.59 
-0.25799 0.237983 0.585 
-0.237475 0.24083 0.592 
-0.217124 0.244491 0.601 
-0.192562 0.247339 0.608 
-0.170537 0.250594 0.616 
-0.147874 0.253848 0.624 
-0.124968 0.257916 0.634 
-0.10032 0.259543 0.638 
-0.0758236 0.262798 0.646 
-0.0507665 0.266459 0.655 
-0.0249918 0.27012 0.664 
0.00151399 0.276222 0.679 
0.0286685 0.277036 0.681 
0.0617668 0.282325 0.694 
0.0904661 0.285579 0.702 
0.120647 0.290868 0.715 
0.147692 0.28802 0.708 
0.175919 0.28802 0.708 
0.19463 0.274595 0.675 
0.209069 0.259137 0.637 
0.220846 0.244085 0.6 
0.237832 0.237169 0.583 
0.253439 0.229033 0.563 
0.278825 0.231474 0.569 
0.306278 0.235135 0.578 
0.336159 0.240017 0.59 
0.365778 0.244085 0.6 
0.395544 0.247746 0.609 
0.427406 0.252221 0.62 
0.459417 0.256289 0.63 
0.491456 0.25995 0.639 
0.52583 0.264425 0.65 
0.563628 0.27012 0.664 
0.602542 0.275816 0.678 
0.640715 0.280697 0.69 
0.679845 0.285579 0.702 
-0.416304 0.218079 0.533 
-0.39876 0.220124 0.538 
-0.381519 0.222579 0.544 
-0.3638 0.225034 0.55 
-0.346223 0.227898 0.557 
-0.325762 0.229126 0.56 
-0.306687 0.231581 0.566 
-0.290146 0.23649 0.578 
-0.270799 0.239764 0.586 
-0.248281 0.240582 0.588 
-0.22828 0.244264 0.597 
-0.205849 0.245901 0.601 
-0.184309 0.249174 0.609 
-0.160945 0.252856 0.618 
-0.138072 0.25613 0.626 
-0.114379 0.258994 0.633 
-0.0899877 0.261449 0.639 
-0.0654207 0.265131 0.648 
-0.0401972 0.269223 0.658 
-0.0141551 0.272905 0.667 
0.0126792 0.278224 0.68 
0.0400235 0.279861 0.684 
0.068277 0.283952 0.694 
0.0971895 0.287634 0.703 
0.127354 0.292544 0.715 
0.154116 0.289271 0.707 
0.181271 0.287634 0.703 
0.196794 0.27045 0.661 
0.212344 0.257357 0.629 
0.22421 0.243037 0.594 
0.238373 0.232399 0.568 
0.25918 0.230762 0.564 
0.284662 0.233217 0.57 
0.313318 0.237718 0.581 
0.342273 0.241809 0.591 
0.372644 0.24631 0.602 
0.401257 0.249174 0.609 
0.433921 0.254084 0.621 
0.465327 0.257766 0.63 
0.499007 0.262267 0.641 
0.534382 0.267177 0.653 
0.570715 0.272087 0.665 
0.6098 0.277815 0.679 
0.647188 0.282316 0.69 
0.687408 0.287634 0.703 
-0.413027 0.218917 0.532 
-0.396237 0.221386 0.538 
-0.378271 0.223443 0.543 
-0.36122 0.226324 0.55 
-0.343611 0.229204 0.557 
-0.323136 0.230439 0.56 
-0.304032 0.232908 0.566 
-0.288429 0.238669 0.58 
-0.265766 0.240315 0.584 
-0.244144 0.241961 0.588 
-0.223799 0.246899 0.6 
-0.200211 0.24731 0.601 
-0.178597 0.250602 0.609 
-0.156598 0.254306 0.618 
-0.133667 0.257598 0.626 
-0.109926 0.260478 0.633 
-0.082753 0.26377 0.641 
-0.0579116 0.267062 0.649 
-0.0325309 0.271177 0.659 
-0.00636241 0.275704 0.67 
0.0206224 0.279407 0.679 
0.0484654 0.283934 0.69 
0.0766349 0.286403 0.696 
0.105733 0.290106 0.705 
0.135548 0.29381 0.714 
0.162865 0.291752 0.709 
0.187358 0.285991 0.695 
0.202353 0.267062 0.649 
0.216623 0.253483 0.616 
0.232385 0.242784 0.59 
0.242895 0.230439 0.56 
0.268063 0.232908 0.566 
0.294222 0.235788 0.573 
0.3226 0.239903 0.583 
0.351182 0.243607 0.592 
0.381748 0.248133 0.603 
0.411845 0.251837 0.612 
0.444798 0.256775 0.624 
0.476449 0.260478 0.633 
0.509611 0.264593 0.643 
0.547733 0.270766 0.658 
0.583561 0.275292 0.669 
0.621179 0.28023 0.681 
0.658801 0.284757 0.692 
0.696308 0.288872 0.702 
-0.406304 0.220578 0.533 
-0.391556 0.224303 0.542 
-0.371313 0.225131 0.544 
-0.354124 0.228028 0.551 
-0.335773 0.230511 0.557 
-0.315819 0.232166 0.561 
-0.296068 0.234235 0.566 
-0.281718 0.241271 0.583 
-0.258031 0.240857 0.582 
-0.237653 0.243754 0.589 
-0.21817 0.248306 0.6 
-0.195221 0.249547 0.603 
-0.172884 0.252031 0.609 
-0.151044 0.256169 0.619 
-0.127795 0.259066 0.626 
-0.101019 0.261963 0.633 
-0.0712787 0.267343 0.646 
-0.0460878 0.270653 0.654 
-0.0202284 0.27355 0.661 
0.00627257 0.280172 0.677 
0.0334106 0.281413 0.68 
0.0616778 0.286793 0.693 
0.0899506 0.288863 0.698 
0.119297 0.292587 0.707 
0.147066 0.291759 0.705 
0.175173 0.291759 0.705 
0.194053 0.278517 0.673 
0.209902 0.26279 0.635 
0.222169 0.246651 0.596 
0.238503 0.239201 0.578 
0.253854 0.232166 0.561 
0.278682 0.234235 0.566 
0.306569 0.238374 0.576 
0.336399 0.24334 0.588 
0.364125 0.246237 0.595 
0.394365 0.250375 0.605 
0.426785 0.255341 0.617 
0.4587 0.25948 0.627 
0.491411 0.263618 0.637 
0.524109 0.267343 0.646 
0.560929 0.272723 0.659 
0.599677 0.278517 0.673 
0.637679 0.283483 0.685 
0.677608 0.288863 0.698 
-0.414742 0.220996 0.531 
-0.397278 0.223077 0.536 
-0.380116 0.225574 0.542 
-0.361815 0.227655 0.547 
-0.344359 0.230568 0.554 
-0.324599 0.232233 0.558 
-0.305062 0.234314 0.563 
-0.28864 0.239308 0.575 
-0.268951 0.242222 0.582 
-0.24617 0.242638 0.583 
-0.226368 0.246384 0.592 
-0.205506 0.249713 0.6 
-0.183401 0.25221 0.606 
-0.161606 0.255956 0.615 
-0.138425 0.258453 0.621 
-0.110882 0.262199 0.63 
-0.0826239 0.266361 0.64 
-0.0578223 0.26969 0.648 
-0.0324815 0.273852 0.658 
-0.00635291 0.27843 0.669 
0.0205617 0.28176 0.677 
0.0483249 0.286338 0.688 
0.0763046 0.288419 0.693 
0.105433 0.29258 0.703 
0.134979 0.29591 0.711 
0.161947 0.293413 0.705 
0.187358 0.289251 0.695 
0.201141 0.270522 0.65 
0.215877 0.257204 0.618 
0.23061 0.245135 0.589 
0.241582 0.233066 0.56 
0.265793 0.23473 0.564 
0.290834 0.236811 0.569 
0.320131 0.241805 0.581 
0.348021 0.245135 0.589 
0.378442 0.249713 0.6 
0.407727 0.253043 0.608 
0.440492 0.258037 0.62 
0.471964 0.261783 0.629 
0.504943 0.265944 0.639 
0.542039 0.271771 0.653 
0.578512 0.276765 0.665 
0.617762 0.282592 0.679 
0.654329 0.286754 0.689 
0.692683 0.291332 0.7 
-0.403534 0.222241 0.531 
-0.388125 0.22559 0.539 
-0.369357 0.227264 0.543 
-0.350247 0.230612 0.551 
-0.330663 0.232286 0.555 
-0.311316 0.234379 0.56 
-0.292602 0.237309 0.567 
-0.276664 0.243168 0.581 
-0.252628 0.242331 0.579 
-0.233112 0.246098 0.588 
-0.202354 0.250702 0.599 
-0.180559 0.253631 0.606 
-0.158464 0.25698 0.614 
-0.135512 0.259909 0.621 
-0.112003 0.262839 0.628 
-0.0882121 0.266606 0.637 
-0.0638024 0.270791 0.647 
-0.0385365 0.274558 0.656 
-0.0125531 0.278325 0.665 
0.014127 0.281673 0.673 
0.0430421 0.285021 0.681 
0.071429 0.290044 0.693 
0.100201 0.293392 0.701 
0.129062 0.295485 0.706 
0.156764 0.294648 0.704 
0.184043 0.293392 0.701 
0.198382 0.274558 0.656 
0.21324 0.260746 0.623 
0.226851 0.246935 0.59 
0.240235 0.235634 0.563 
0.262681 0.235634 0.563 
0.287152 0.237309 0.567 
0.316313 0.242331 0.579 
0.3435 0.245261 0.586 
0.372497 0.249028 0.595 
0.402878 0.253213 0.605 
0.436173 0.258654 0.618 
0.467522 0.262421 0.627 
0.50116 0.267024 0.638 
0.53485 0.27121 0.648 
0.571067 0.276232 0.66 
0.610052 0.282092 0.674 
0.646372 0.286277 0.684 
0.686445 0.291718 0.697 
-0.401044 0.223487 0.531 
-0.385597 0.226854 0.539 
-0.36681 0.228537 0.543 
-0.348955 0.231904 0.551 
-0.329361 0.233588 0.555 
-0.309449 0.235271 0.559 
-0.291273 0.238638 0.567 
-0.274353 0.243689 0.579 
-0.250836 0.243268 0.578 
-0.231733 0.247477 0.588 
-0.197064 0.252527 0.6 
-0.174026 0.255894 0.608 
-0.15151 0.25884 0.615 
-0.128024 0.260945 0.62 
-0.104806 0.264733 0.629 
-0.0812498 0.269783 0.641 
-0.0563026 0.272729 0.648 
-0.0308914 0.276517 0.657 
-0.00478399 0.281568 0.669 
0.0220512 0.283672 0.674 
0.0497932 0.288723 0.686 
0.0778174 0.291248 0.692 
0.106929 0.295457 0.702 
0.135877 0.297561 0.707 
0.163136 0.295878 0.703 
0.188172 0.291248 0.692 
0.202041 0.272729 0.648 
0.215568 0.257999 0.613 
0.230219 0.247477 0.588 
0.241582 0.235692 0.56 
0.26485 0.236534 0.562 
0.289812 0.238638 0.567 
0.319029 0.243689 0.579 
0.345658 0.246214 0.585 
0.375288 0.250423 0.595 
0.405045 0.254211 0.604 
0.439072 0.260103 0.618 
0.470463 0.263891 0.627 
0.503362 0.2681 0.637 
0.537889 0.272729 0.648 
0.574163 0.27778 0.66 
0.612303 0.283251 0.673 
0.649581 0.287881 0.684 
0.688725 0.292932 0.696 
-0.396304 0.225578 0.533 
-0.378573 0.227694 0.538 
-0.360443 0.229811 0.543 
-0.34441 0.23362 0.552 
-0.324155 0.234889 0.555 
-0.304205 0.236582 0.559 
-0.28898 0.242507 0.573 
-0.267993 0.2442 0.577 
-0.245839 0.245047 0.579 
-0.226602 0.249279 0.589 
-0.204136 0.252241 0.596 
-0.181888 0.254358 0.601 
-0.15769 0.25859 0.611 
-0.134858 0.261552 0.618 
-0.111825 0.265361 0.627 
-0.0880737 0.26917 0.636 
-0.0636052 0.272979 0.645 
-0.0383016 0.275942 0.652 
-0.0124965 0.280174 0.662 
0.014085 0.283983 0.671 
0.0413233 0.287369 0.679 
0.0696023 0.292448 0.691 
0.0981352 0.29541 0.698 
0.127046 0.29795 0.704 
0.154893 0.297526 0.703 
0.182399 0.29668 0.701 
0.199923 0.275519 0.651 
0.214081 0.261129 0.617 
0.227848 0.249279 0.589 
0.240235 0.238275 0.563 
0.260815 0.236582 0.559 
0.286646 0.239545 0.566 
0.314674 0.243777 0.576 
0.341742 0.24674 0.583 
0.369993 0.250125 0.591 
0.400214 0.254358 0.601 
0.434761 0.260706 0.616 
0.466776 0.264938 0.626 
0.499589 0.26917 0.636 
0.531548 0.272556 0.644 
0.569337 0.278481 0.658 
0.605526 0.283137 0.669 
0.643537 0.288216 0.681 
0.682506 0.293294 0.693 
-0.398553 0.225977 0.531 
-0.381647 0.228531 0.537 
-0.363592 0.230658 0.542 
-0.347032 0.234063 0.55 
-0.326878 0.23534 0.553 
-0.307587 0.237468 0.558 
-0.289943 0.241298 0.567 
-0.27111 0.244702 0.575 
-0.248617 0.245128 0.576 
-0.229179 0.248958 0.585 
-0.20832 0.251937 0.592 
-0.186902 0.254916 0.599 
-0.165743 0.259172 0.609 
-0.143089 0.262151 0.616 
-0.119877 0.26513 0.623 
-0.0958024 0.267257 0.628 
-0.0725683 0.274067 0.644 
-0.0471846 0.275769 0.648 
-0.0216467 0.279599 0.657 
0.00462953 0.284706 0.669 
0.0315351 0.286834 0.674 
0.0597059 0.293217 0.689 
0.087681 0.294919 0.693 
0.116474 0.297898 0.7 
0.145001 0.299175 0.703 
0.173028 0.299175 0.703 
0.1929 0.284706 0.669 
0.208084 0.269811 0.634 
0.22011 0.25449 0.598 
