# .PCD v.7 - Point Cloud Data file format
VERSION .7
FIELDS x y z
SIZE 4 4 4
TYPE F F F
COUNT 1 1 1
WIDTH 1777
HEIGHT 1
VIEWPOINT 0 0 0 1 0 0 0
POINTS 1777
DATA ascii
0.857686 -0.1486 1.335 
0.918416 -0.149825 1.346 
0.988688 -0.152385 1.369 
1.04632 -0.15283 1.373 
1.10587 -0.153498 1.379 
1.16 -0.153387 1.378 
1.22023 -0.154055 1.384 
1.27541 -0.154055 1.384 
1.33443 -0.1545 1.388 
-0.563778 -0.0739879 0.679 
-0.554888 -0.0764941 0.702 
-0.53966 -0.0783465 0.719 
-0.534448 -0.0819424 0.752 
-0.519897 -0.0844486 0.775 
-0.511083 -0.0882624 0.81 
-0.498887 -0.0919673 0.844 
-0.486737 -0.096217 0.883 
-0.473011 -0.100794 0.925 
-0.458293 -0.105915 0.972 
-0.441123 -0.111363 1.022 
-0.418399 -0.116376 1.068 
-0.398693 -0.123458 1.133 
-0.375676 -0.131195 1.204 
-0.342916 -0.137297 1.26 
-0.29547 -0.138605 1.272 
-0.177247 -0.114305 1.049 
-0.143946 -0.121497 1.115 
-0.107792 -0.131631 1.208 
-0.0616063 -0.13599 1.248 
0.0741935 -0.0958901 0.88 
0.103659 -0.0860831 0.79 
0.128314 -0.0795452 0.73 
0.149439 -0.0755134 0.693 
0.170128 -0.07061 0.648 
0.452113 -0.144925 1.33 
0.507036 -0.14547 1.335 
0.563198 -0.146232 1.342 
0.621296 -0.147322 1.352 
0.675197 -0.147322 1.352 
0.731256 -0.147758 1.356 
0.787633 -0.148194 1.36 
0.823902 -0.145034 1.331 
0.876967 -0.145034 1.331 
0.945403 -0.147431 1.353 
1.0119 -0.149283 1.37 
1.07119 -0.149937 1.376 
1.13014 -0.150482 1.381 
1.1852 -0.150482 1.381 
1.24385 -0.150918 1.385 
1.30188 -0.151245 1.388 
1.35819 -0.151354 1.389 
-0.555856 -0.0726088 0.681 
-0.547339 -0.0751677 0.705 
-0.539803 -0.0788994 0.74 
-0.524093 -0.0810318 0.76 
-0.515884 -0.0846569 0.794 
-0.501915 -0.0877489 0.823 
-0.491333 -0.0919071 0.862 
-0.474991 -0.0955322 0.896 
-0.465253 -0.101183 0.949 
-0.449037 -0.106301 0.997 
-0.42571 -0.110566 1.037 
-0.406606 -0.116963 1.097 
-0.385695 -0.12432 1.166 
-0.361319 -0.132423 1.242 
-0.319334 -0.135622 1.272 
-0.264399 -0.133489 1.252 
-0.159669 -0.113338 1.063 
-0.127882 -0.123574 1.159 
-0.0868198 -0.131357 1.232 
-0.0372129 -0.129651 1.216 
0.0860208 -0.0910542 0.854 
0.113032 -0.082951 0.778 
0.134606 -0.0775133 0.727 
0.1572 -0.0707962 0.664 
0.226268 -0.0810318 0.76 
0.478859 -0.142339 1.335 
0.533677 -0.142765 1.339 
0.591006 -0.143725 1.348 
0.647139 -0.144258 1.353 
0.701081 -0.144258 1.353 
0.758928 -0.145004 1.36 
0.804778 -0.143512 1.346 
0.848236 -0.141806 1.33 
0.904648 -0.142339 1.335 
0.982267 -0.145964 1.369 
1.04139 -0.146604 1.375 
1.10179 -0.14735 1.382 
1.15605 -0.147243 1.381 
1.21725 -0.14799 1.388 
1.27258 -0.14799 1.388 
1.33175 -0.148416 1.392 
-0.565293 -0.0705946 0.677 
-0.549434 -0.0720545 0.691 
-0.540767 -0.0746614 0.716 
-0.531268 -0.0782067 0.75 
-0.516742 -0.0806051 0.773 
-0.507926 -0.0842547 0.808 
-0.495731 -0.0878001 0.842 
-0.482471 -0.0916583 0.879 
-0.470841 -0.096455 0.925 
-0.454606 -0.101043 0.969 
-0.43615 -0.105944 1.016 
-0.415115 -0.111158 1.066 
-0.393938 -0.117519 1.127 
-0.369136 -0.124297 1.192 
-0.338612 -0.130866 1.255 
-0.291107 -0.132013 1.266 
-0.173361 -0.106987 1.026 
-0.142914 -0.115433 1.107 
-0.106989 -0.125026 1.199 
-0.0608165 -0.128468 1.232 
0.0720477 -0.0916583 0.879 
0.115781 -0.0805008 0.772 
0.137799 -0.0747656 0.717 
0.162253 -0.068092 0.653 
0.239457 -0.0800837 0.768 
0.502275 -0.139625 1.339 
0.558563 -0.140355 1.346 
0.616774 -0.141398 1.356 
0.670835 -0.141398 1.356 
0.727034 -0.141815 1.36 
0.782978 -0.142128 1.363 
0.815202 -0.138374 1.327 
0.868107 -0.138374 1.327 
0.931422 -0.139938 1.342 
1.00694 -0.143066 1.372 
1.06628 -0.143692 1.378 
1.1261 -0.144317 1.384 
1.18128 -0.144317 1.384 
1.24093 -0.144839 1.389 
1.2991 -0.145152 1.392 
1.35654 -0.14536 1.394 
-0.554998 -0.0691089 0.678 
-0.546656 -0.0715552 0.702 
-0.535662 -0.0738996 0.725 
-0.527028 -0.0768556 0.754 
-0.515423 -0.0797096 0.782 
-0.503443 -0.0828695 0.813 
-0.491888 -0.086539 0.849 
-0.477462 -0.0902085 0.885 
-0.465662 -0.0949992 0.932 
-0.449194 -0.0995861 0.977 
-0.429139 -0.104173 1.022 
-0.410056 -0.109983 1.079 
-0.387448 -0.116099 1.139 
-0.362759 -0.123132 1.208 
-0.327881 -0.12833 1.259 
-0.276805 -0.127923 1.255 
-0.16306 -0.105702 1.037 
-0.132985 -0.115487 1.133 
-0.0936274 -0.123132 1.208 
-0.0450529 -0.122011 1.197 
0.0820153 -0.0870486 0.854 
0.113675 -0.0784865 0.77 
0.140254 -0.0717591 0.704 
0.158383 -0.0668664 0.656 
0.237274 -0.0775691 0.761 
0.5034 -0.136791 1.342 
0.560223 -0.137606 1.35 
0.617229 -0.13832 1.357 
0.671329 -0.13832 1.357 
0.728103 -0.138829 1.362 
0.782978 -0.138931 1.363 
0.813974 -0.135058 1.325 
0.866799 -0.135058 1.325 
0.927258 -0.136179 1.336 
1.00768 -0.139951 1.373 
1.06861 -0.140766 1.381 
1.12936 -0.141479 1.388 
1.1847 -0.141479 1.388 
1.24361 -0.141887 1.392 
1.30097 -0.142091 1.394 
1.35946 -0.142397 1.397 
-0.553408 -0.0675188 0.678 
-0.543457 -0.0697097 0.7 
-0.534699 -0.0722989 0.726 
-0.52526 -0.0750873 0.754 
-0.514246 -0.0779753 0.783 
-0.501536 -0.0809628 0.813 
-0.489897 -0.0845479 0.849 
-0.474312 -0.0879338 0.883 
-0.463476 -0.0928135 0.932 
-0.446903 -0.0972948 0.977 
-0.426325 -0.101677 1.021 
-0.407903 -0.107552 1.08 
-0.385115 -0.113527 1.14 
-0.359926 -0.120299 1.208 
-0.324154 -0.125079 1.256 
-0.272989 -0.124581 1.251 
-0.160163 -0.102971 1.034 
-0.129983 -0.112531 1.13 
-0.0907193 -0.120199 1.207 
-0.0413987 -0.116814 1.173 
0.0917236 -0.0795686 0.799 
0.117546 -0.0756848 0.76 
0.14352 -0.0685147 0.688 
0.166058 -0.0641329 0.644 
0.469818 -0.133046 1.336 
0.528563 -0.13444 1.35 
0.583679 -0.134739 1.353 
0.640919 -0.135436 1.36 
0.69514 -0.135436 1.36 
0.750462 -0.135635 1.362 
0.797672 -0.13444 1.35 
0.835094 -0.131851 1.324 
0.88855 -0.131951 1.325 
0.96411 -0.135137 1.357 
1.03397 -0.137229 1.378 
1.09444 -0.137926 1.385 
1.15297 -0.138324 1.389 
1.20835 -0.138324 1.389 
1.26828 -0.138822 1.394 
1.3286 -0.13932 1.399 
1.3824 -0.139121 1.397 
-0.544675 -0.066415 0.683 
-0.5379 -0.0690405 0.71 
-0.532562 -0.0721522 0.742 
-0.515859 -0.0739997 0.761 
-0.507212 -0.0773059 0.795 
-0.493461 -0.0802231 0.825 
-0.482342 -0.0840155 0.864 
-0.467077 -0.0876133 0.901 
-0.455083 -0.0924753 0.951 
-0.436469 -0.0967539 0.995 
-0.415943 -0.101421 1.043 
-0.396973 -0.107548 1.106 
-0.371704 -0.113285 1.165 
-0.346197 -0.120578 1.24 
-0.302026 -0.122717 1.262 
-0.176179 -0.0973374 1.001 
-0.145665 -0.104047 1.07 
-0.112248 -0.113382 1.166 
-0.0681871 -0.117563 1.209 
-0.0151512 -0.103852 1.068 
0.0621621 -0.0860575 0.885 
0.103642 -0.0754583 0.776 
0.129392 -0.0697212 0.717 
0.150744 -0.0644702 0.663 
0.17279 -0.0612613 0.63 
0.484517 -0.130496 1.342 
0.542029 -0.131469 1.352 
0.598134 -0.131955 1.357 
0.654638 -0.132441 1.362 
0.709459 -0.132538 1.363 
0.76492 -0.132733 1.365 
0.798931 -0.129427 1.331 
0.847514 -0.128746 1.324 
0.900979 -0.128843 1.325 
0.985478 -0.133122 1.369 
1.04993 -0.134386 1.382 
1.11063 -0.135067 1.389 
1.16852 -0.135358 1.392 
1.22578 -0.135553 1.394 
1.28411 -0.135844 1.397 
1.34268 -0.136136 1.4 
-0.554814 -0.0637694 0.672 
-0.542952 -0.0655724 0.691 
-0.53405 -0.0679448 0.716 
-0.525979 -0.0706967 0.745 
-0.512931 -0.0730691 0.77 
-0.502274 -0.0761058 0.802 
-0.489065 -0.0791424 0.834 
-0.47549 -0.0825586 0.87 
-0.463605 -0.0868289 0.915 
-0.448132 -0.0910992 0.96 
-0.427791 -0.0950847 1.002 
-0.41068 -0.100684 1.061 
-0.386782 -0.105713 1.114 
-0.361424 -0.111596 1.176 
-0.332727 -0.118049 1.244 
-0.284724 -0.118714 1.251 
-0.166085 -0.0959388 1.011 
-0.13598 -0.10372 1.093 
-0.099421 -0.111596 1.176 
-0.0524469 -0.111407 1.174 
-0.000119366 -0.0981214 1.034 
0.0672295 -0.0825586 0.87 
0.104918 -0.0732589 0.772 
0.12771 -0.0680397 0.717 
0.150062 -0.0626307 0.66 
0.171041 -0.0596889 0.629 
0.466685 -0.12678 1.336 
0.526565 -0.128393 1.353 
0.582222 -0.128772 1.357 
0.639137 -0.129342 1.363 
0.693476 -0.129342 1.363 
0.748914 -0.129532 1.365 
0.793329 -0.127918 1.348 
0.831361 -0.125546 1.323 
0.882101 -0.125261 1.32 
0.950306 -0.127349 1.342 
1.03148 -0.13086 1.379 
1.09355 -0.131714 1.388 
1.15386 -0.132284 1.394 
1.2077 -0.132094 1.392 
1.26955 -0.132758 1.399 
1.32911 -0.133138 1.403 
1.38208 -0.132853 1.4 
-0.54308 -0.0630264 0.681 
-0.53487 -0.0653401 0.706 
-0.529691 -0.0683017 0.738 
-0.513826 -0.0701527 0.758 
-0.504022 -0.0731143 0.79 
-0.489872 -0.0757983 0.819 
-0.478434 -0.0793152 0.857 
-0.463448 -0.0827395 0.894 
-0.452211 -0.0874595 0.945 
-0.432521 -0.0912541 0.986 
-0.413151 -0.0958816 1.036 
-0.395896 -0.102082 1.103 
-0.368513 -0.106895 1.155 
-0.342846 -0.113651 1.228 
-0.30035 -0.11615 1.255 
-0.162904 -0.0931051 1.006 
-0.133416 -0.101157 1.093 
-0.0964986 -0.108653 1.174 
-0.0488895 -0.106895 1.155 
0.00469385 -0.0949561 1.026 
0.0598151 -0.0815364 0.881 
0.0923088 -0.0729292 0.788 
0.118242 -0.0686719 0.742 
0.138277 -0.0634891 0.686 
0.15621 -0.0598797 0.647 
0.175253 -0.0576585 0.623 
0.481729 -0.124294 1.343 
0.540453 -0.125497 1.356 
0.597144 -0.126053 1.362 
0.652879 -0.12633 1.365 
0.707817 -0.126423 1.366 
0.762277 -0.126423 1.366 
0.79581 -0.123184 1.331 
0.843772 -0.122443 1.323 
0.891773 -0.121796 1.316 
0.977245 -0.126053 1.362 
1.04821 -0.128089 1.384 
1.11136 -0.129014 1.394 
1.16944 -0.129292 1.397 
1.22514 -0.129292 1.397 
1.28634 -0.129847 1.403 
1.34418 -0.130032 1.405 
-0.553906 -0.0603469 0.669 
-0.539765 -0.062151 0.689 
-0.531628 -0.0644963 0.715 
-0.523528 -0.0671122 0.744 
-0.509798 -0.0692771 0.768 
-0.499769 -0.0722539 0.801 
-0.486525 -0.0751404 0.833 
-0.472906 -0.0783878 0.869 
-0.460955 -0.082447 0.914 
-0.445417 -0.0865062 0.959 
-0.424592 -0.0902046 1 
-0.4105 -0.0962483 1.067 
-0.38348 -0.100308 1.112 
-0.358361 -0.10599 1.175 
-0.327953 -0.111583 1.237 
-0.280664 -0.112395 1.246 
-0.158657 -0.0910164 1.009 
-0.129346 -0.0994055 1.102 
-0.0910697 -0.10599 1.175 
-0.0426817 -0.102292 1.134 
0.00707924 -0.0922793 1.023 
0.0649644 -0.0782074 0.867 
0.0988151 -0.0704498 0.781 
0.125853 -0.0645865 0.716 
0.144479 -0.0604371 0.67 
0.161992 -0.0571897 0.634 
0.235715 -0.0681947 0.756 
0.503981 -0.121957 1.352 
0.559946 -0.122408 1.357 
0.616761 -0.122949 1.363 
0.673071 -0.12331 1.367 
0.72757 -0.12331 1.367 
0.781498 -0.123219 1.366 
0.809642 -0.119341 1.323 
0.857825 -0.118709 1.316 
0.912366 -0.11898 1.319 
1.00665 -0.124122 1.376 
1.07077 -0.125204 1.388 
1.13584 -0.126286 1.4 
1.1891 -0.126016 1.397 
1.25014 -0.126557 1.403 
1.31073 -0.127008 1.408 
1.36395 -0.126737 1.405 
-0.54612 -0.0589537 0.671 
-0.535544 -0.0609744 0.694 
-0.526171 -0.0631709 0.719 
-0.51688 -0.065631 0.747 
-0.504053 -0.0679153 0.773 
-0.492213 -0.070639 0.804 
-0.480191 -0.0737141 0.839 
-0.465378 -0.0767891 0.874 
-0.458119 -0.0817093 0.93 
-0.440057 -0.0853994 0.972 
-0.418233 -0.0890016 1.013 
-0.40433 -0.0952396 1.084 
-0.376104 -0.0991933 1.129 
-0.351035 -0.105168 1.197 
-0.315222 -0.109297 1.244 
-0.189726 -0.0866294 0.986 
-0.154687 -0.0890895 1.014 
-0.124741 -0.0972604 1.107 
-0.0855585 -0.103235 1.175 
-0.0367039 -0.0978754 1.114 
0.00705848 -0.0896166 1.02 
0.0698347 -0.0748562 0.852 
0.0985621 -0.0684425 0.779 
0.125502 -0.0627316 0.714 
0.146079 -0.0582508 0.663 
0.163145 -0.0550879 0.627 
0.237488 -0.0664217 0.756 
0.504354 -0.118874 1.353 
0.561183 -0.119489 1.36 
0.617666 -0.119928 1.365 
0.674055 -0.12028 1.369 
0.728635 -0.12028 1.369 
0.781498 -0.120016 1.366 
0.809642 -0.116238 1.323 
0.858476 -0.115711 1.317 
0.907524 -0.115272 1.312 
1.00665 -0.120895 1.376 
1.07154 -0.122037 1.389 
1.13827 -0.123267 1.403 
1.1891 -0.12274 1.397 
1.25014 -0.123267 1.403 
1.31166 -0.123794 1.409 
1.36687 -0.123706 1.408 
-0.545306 -0.0572946 0.67 
-0.534772 -0.0592614 0.693 
-0.525439 -0.0613992 0.718 
-0.516188 -0.0637936 0.746 
-0.502748 -0.0659315 0.771 
-0.490989 -0.0685824 0.802 
-0.479619 -0.071661 0.838 
-0.464313 -0.0745684 0.872 
-0.456642 -0.0792717 0.927 
-0.438246 -0.0827778 0.968 
-0.416582 -0.0862839 1.009 
-0.40433 -0.0926975 1.084 
-0.374105 -0.0960325 1.123 
-0.349568 -0.101933 1.192 
-0.314209 -0.106038 1.24 
-0.189148 -0.0840605 0.983 
-0.153467 -0.0860273 1.006 
-0.124065 -0.0941512 1.101 
-0.0853401 -0.100223 1.172 
-0.036638 -0.0950919 1.112 
0.00701696 -0.0867115 1.014 
0.0576179 -0.075167 0.879 
0.0870951 -0.0676418 0.791 
0.112482 -0.0641357 0.75 
0.131372 -0.0591759 0.692 
0.150231 -0.0559263 0.654 
0.168593 -0.0530188 0.62 
0.244903 -0.0647343 0.757 
0.51221 -0.116043 1.357 
0.568397 -0.11647 1.362 
0.624526 -0.116812 1.366 
0.680974 -0.117155 1.37 
0.735593 -0.117155 1.37 
0.785597 -0.11647 1.362 
0.814614 -0.112964 1.321 
0.863997 -0.112537 1.316 
0.916463 -0.112537 1.316 
1.01458 -0.117839 1.378 
1.08193 -0.119207 1.394 
1.14893 -0.120404 1.408 
1.19737 -0.119634 1.399 
1.25852 -0.120148 1.405 
1.32014 -0.120661 1.411 
1.37347 -0.120404 1.408 
-0.54063 -0.0558896 0.672 
-0.532191 -0.0578857 0.696 
-0.524011 -0.0601312 0.723 
-0.512309 -0.0622105 0.748 
-0.497969 -0.0642065 0.772 
-0.487162 -0.0669511 0.805 
-0.477115 -0.0701947 0.844 
-0.46028 -0.0728561 0.876 
-0.451091 -0.0772641 0.929 
-0.433219 -0.0808403 0.972 
-0.413135 -0.0846661 1.018 
-0.398899 -0.0906543 1.09 
-0.369465 -0.0942306 1.133 
-0.343185 -0.0997197 1.199 
-0.305485 -0.10313 1.24 
-0.178829 -0.0812562 0.977 
-0.14675 -0.0852483 1.025 
-0.115183 -0.0927335 1.115 
-0.0744094 -0.0975573 1.173 
-0.0256882 -0.0906543 1.09 
0.0209911 -0.0831691 1 
0.0608978 -0.0721076 0.867 
0.0920745 -0.0653709 0.786 
0.117127 -0.0611293 0.735 
0.135672 -0.0566381 0.681 
0.154761 -0.0533114 0.641 
0.177618 -0.0512322 0.616 
0.256311 -0.0627095 0.754 
0.536456 -0.113276 1.362 
0.592491 -0.113609 1.366 
0.648371 -0.113858 1.369 
0.704491 -0.114108 1.372 
0.758083 -0.113942 1.37 
0.789567 -0.110698 1.331 
0.835034 -0.1097 1.319 
0.872142 -0.107787 1.296 
0.952323 -0.111114 1.336 
1.04548 -0.115522 1.389 
1.10878 -0.116354 1.399 
1.17205 -0.117102 1.408 
1.22382 -0.116686 1.403 
1.28523 -0.117185 1.409 
1.34426 -0.117435 1.412 
1.39758 -0.117185 1.409 
-0.5383 -0.0548794 0.679 
-0.5293 -0.0568192 0.703 
-0.520525 -0.0590015 0.73 
-0.507578 -0.0609412 0.754 
-0.49525 -0.0632043 0.782 
-0.48425 -0.0659523 0.816 
-0.4722 -0.0689428 0.853 
-0.455659 -0.0716908 0.887 
-0.442093 -0.0754087 0.933 
-0.423991 -0.078965 0.977 
-0.407504 -0.0835719 1.034 
-0.387889 -0.0885022 1.095 
-0.359952 -0.0925434 1.145 
-0.331322 -0.0975545 1.207 
-0.29071 -0.100141 1.239 
-0.166516 -0.0785609 0.972 
-0.138017 -0.0848651 1.05 
-0.104215 -0.0919776 1.138 
-0.0596724 -0.0932708 1.154 
-0.0124215 -0.0847843 1.049 
0.0403541 -0.0733881 0.908 
0.0709053 -0.0679729 0.841 
0.101035 -0.0622344 0.77 
0.122153 -0.0577083 0.714 
0.143652 -0.053263 0.659 
0.161583 -0.0501917 0.621 
0.234252 -0.0611837 0.757 
0.495932 -0.109597 1.356 
0.552832 -0.110163 1.363 
0.608954 -0.110486 1.367 
0.664909 -0.110729 1.37 
0.720579 -0.11089 1.372 
0.773582 -0.110648 1.369 
0.798519 -0.106688 1.32 
0.857593 -0.107496 1.33 
0.885969 -0.104586 1.294 
0.989725 -0.110405 1.366 
1.06788 -0.112911 1.397 
1.13242 -0.1138 1.408 
1.18603 -0.113558 1.405 
1.24469 -0.1138 1.408 
1.30452 -0.114123 1.412 
1.36082 -0.114123 1.412 
-0.546454 -0.051796 0.66 
-0.535903 -0.0533655 0.68 
-0.527499 -0.0553275 0.705 
-0.517809 -0.057368 0.731 
-0.505378 -0.0593299 0.756 
-0.493468 -0.0616058 0.785 
-0.4816 -0.0641956 0.818 
-0.468748 -0.0670208 0.854 
-0.452008 -0.0696891 0.888 
-0.439124 -0.0734561 0.936 
-0.420696 -0.0769092 0.98 
-0.407716 -0.0821672 1.047 
-0.382054 -0.0857773 1.093 
-0.357678 -0.090643 1.155 
-0.325931 -0.0948023 1.208 
-0.284439 -0.0970782 1.237 
-0.161291 -0.0759674 0.968 
-0.133346 -0.0825596 1.052 
-0.0989641 -0.0893873 1.139 
-0.0536015 -0.0894658 1.14 
-0.00489229 -0.0798914 1.018 
0.0422964 -0.0709448 0.904 
0.0742269 -0.0654513 0.834 
0.103287 -0.0596438 0.76 
0.129663 -0.053601 0.683 
0.150955 -0.0505403 0.644 
0.170166 -0.047872 0.61 
0.255218 -0.0593299 0.756 
0.53685 -0.106967 1.363 
0.593792 -0.107437 1.369 
0.648845 -0.107516 1.37 
0.706031 -0.107908 1.375 
0.75919 -0.107673 1.372 
0.788973 -0.104377 1.33 
0.827437 -0.102572 1.307 
0.8799 -0.101551 1.294 
0.968921 -0.105632 1.346 
1.05905 -0.109399 1.394 
1.12342 -0.110263 1.405 
1.18195 -0.110498 1.408 
1.23897 -0.110577 1.409 
1.29974 -0.110969 1.414 
1.35611 -0.110969 1.414 
-0.546342 -0.0500959 0.658 
-0.536708 -0.0516947 0.679 
-0.5269 -0.0534458 0.702 
-0.518102 -0.0555014 0.729 
-0.505138 -0.0573286 0.753 
-0.493416 -0.0595365 0.782 
-0.481154 -0.0619727 0.814 
-0.469097 -0.0647897 0.851 
-0.451533 -0.0672259 0.883 
-0.438962 -0.0708804 0.931 
-0.420836 -0.0742302 0.975 
-0.40312 -0.0783414 1.029 
-0.381802 -0.0826049 1.085 
-0.356955 -0.0870968 1.144 
-0.327675 -0.0916648 1.204 
-0.282229 -0.0925023 1.215 
-0.160458 -0.0733166 0.963 
-0.132966 -0.0798641 1.049 
-0.0986165 -0.0864116 1.135 
-0.0535075 -0.08664 1.138 
-0.00246553 -0.0762858 1.002 
0.0382247 -0.0691293 0.908 
0.0686872 -0.0637999 0.838 
0.111956 -0.0559582 0.735 
0.134277 -0.051314 0.674 
0.153583 -0.0479641 0.63 
0.173599 -0.0462131 0.607 
0.264082 -0.057557 0.756 
0.550442 -0.103922 1.365 
0.606634 -0.104227 1.369 
0.662662 -0.104455 1.372 
0.71893 -0.104684 1.375 
0.770934 -0.104303 1.37 
0.793013 -0.100192 1.316 
0.852547 -0.101029 1.327 
0.896026 -0.0982884 1.291 
1.00768 -0.104531 1.373 
1.08331 -0.106587 1.4 
1.14563 -0.107196 1.408 
1.20262 -0.107272 1.409 
1.26058 -0.107424 1.411 
1.32057 -0.107729 1.415 
1.37601 -0.107653 1.414 
-0.5419 -0.0488479 0.662 
-0.531861 -0.0503975 0.683 
-0.523102 -0.0522422 0.708 
-0.513049 -0.0541607 0.734 
-0.499604 -0.0559316 0.758 
-0.488581 -0.058219 0.789 
-0.476824 -0.0607279 0.823 
-0.461816 -0.0631629 0.856 
-0.444177 -0.0655979 0.889 
-0.435401 -0.0698776 0.947 
-0.414023 -0.0727554 0.986 
-0.399216 -0.0779943 1.057 
-0.371264 -0.0810935 1.099 
-0.3492 -0.08648 1.172 
-0.311508 -0.0890626 1.207 
-0.183612 -0.0712796 0.966 
-0.148554 -0.0729767 0.989 
-0.119055 -0.0796177 1.079 
-0.0806888 -0.0844877 1.145 
-0.0336323 -0.0810935 1.099 
0.0136346 -0.0720913 0.977 
0.0538602 -0.0653027 0.885 
0.0896572 -0.0576287 0.781 
0.120141 -0.0525373 0.712 
0.141244 -0.0483314 0.655 
0.159611 -0.045675 0.619 
0.243375 -0.0567433 0.769 
0.501688 -0.100574 1.363 
0.55766 -0.100869 1.367 
0.613503 -0.10109 1.37 
0.670561 -0.101459 1.375 
0.725379 -0.101459 1.375 
0.776793 -0.101016 1.369 
0.791291 -0.0961463 1.303 
0.87495 -0.0997619 1.352 
0.888592 -0.0951132 1.289 
0.985923 -0.0997619 1.352 
1.07597 -0.10323 1.399 
1.13903 -0.103894 1.408 
1.19771 -0.104115 1.411 
1.25485 -0.104189 1.412 
1.31579 -0.104558 1.417 
1.37228 -0.104558 1.417 
-0.541712 -0.0470096 0.658 
-0.530303 -0.0486528 0.681 
-0.521624 -0.0504389 0.706 
-0.511651 -0.0522964 0.732 
-0.499604 -0.054154 0.758 
-0.487343 -0.0562258 0.787 
-0.475086 -0.0585834 0.82 
-0.460737 -0.0610125 0.854 
-0.443678 -0.0634416 0.888 
-0.433103 -0.0672995 0.942 
-0.411503 -0.0700144 0.98 
-0.398655 -0.0749439 1.049 
-0.37044 -0.0778017 1.089 
-0.350147 -0.0833028 1.166 
-0.313036 -0.0858748 1.202 
-0.176856 -0.0681568 0.954 
-0.145225 -0.0713003 0.998 
-0.114417 -0.077373 1.083 
-0.0752526 -0.0817311 1.144 
-0.0280631 -0.077373 1.083 
0.0179747 -0.0688713 0.964 
0.0534951 -0.0627986 0.879 
0.0939336 -0.0550827 0.771 
0.12181 -0.0495102 0.693 
0.140598 -0.046581 0.652 
0.15816 -0.0442234 0.619 
0.17693 -0.0427945 0.599 
0.264781 -0.054154 0.758 
0.555265 -0.0978058 1.369 
0.611181 -0.0980201 1.372 
0.667821 -0.0983059 1.376 
0.722679 -0.0983059 1.376 
0.773582 -0.0978058 1.369 
0.785816 -0.0928047 1.299 
0.870489 -0.0964484 1.35 
0.890077 -0.0928762 1.3 
0.953498 -0.0940193 1.316 
1.06788 -0.0998062 1.397 
1.13242 -0.100592 1.408 
1.19193 -0.100878 1.412 
1.25 -0.101021 1.414 
1.30914 -0.101235 1.417 
1.36563 -0.101235 1.417 
-0.54397 -0.0453974 0.657 
-0.529525 -0.0469867 0.68 
-0.520147 -0.048645 0.704 
-0.510253 -0.0504416 0.73 
-0.499604 -0.0523763 0.758 
-0.486723 -0.0543111 0.786 
-0.474506 -0.0565913 0.819 
-0.459658 -0.0588715 0.852 
-0.442678 -0.0612209 0.886 
-0.431263 -0.064814 0.938 
-0.410244 -0.0675088 0.977 
-0.394855 -0.0717929 1.039 
-0.36942 -0.0750405 1.086 
-0.347744 -0.0800155 1.158 
-0.311734 -0.0827104 1.197 
-0.173704 -0.065574 0.949 
-0.142885 -0.0689599 0.998 
-0.111877 -0.0748332 1.083 
-0.0724429 -0.07891 1.142 
-0.0253347 -0.0742804 1.075 
0.0218894 -0.064814 0.938 
0.064293 -0.0574896 0.832 
0.092245 -0.0533437 0.772 
0.118637 -0.0492669 0.713 
0.135925 -0.0455356 0.659 
0.153338 -0.0430481 0.623 
0.172377 -0.0409751 0.593 
0.26548 -0.0525145 0.76 
0.545634 -0.0945952 1.369 
0.601528 -0.0948025 1.372 
0.65814 -0.0950789 1.376 
0.714035 -0.0952171 1.378 
0.764509 -0.0946643 1.37 
0.784449 -0.0906566 1.312 
0.836756 -0.0906566 1.312 
0.902615 -0.0920386 1.332 
0.898319 -0.0865108 1.252 
1.05427 -0.0961845 1.392 
1.12252 -0.0972901 1.408 
1.182 -0.0975664 1.412 
1.24268 -0.0979119 1.417 
1.29917 -0.0979119 1.417 
1.35662 -0.097981 1.418 
-0.547758 -0.0437899 0.656 
-0.531941 -0.0446577 0.669 
-0.519268 -0.0463265 0.694 
-0.511434 -0.0481956 0.722 
-0.502704 -0.0501982 0.752 
-0.489068 -0.0519337 0.778 
-0.473358 -0.0536693 0.804 
-0.46326 -0.0563394 0.844 
-0.444882 -0.058342 0.874 
-0.433494 -0.0616797 0.924 
-0.414686 -0.0644833 0.966 
-0.393308 -0.0674204 1.01 
-0.375412 -0.0716926 1.074 
-0.351485 -0.0757645 1.135 
-0.318916 -0.0789019 1.182 
-0.185678 -0.0628812 0.942 
-0.151424 -0.064283 0.963 
-0.123243 -0.0700905 1.05 
-0.0867294 -0.0746965 1.119 
-0.0411009 -0.0728941 1.092 
0.0111228 -0.0639493 0.958 
0.0656868 -0.0550711 0.825 
0.0961581 -0.0507322 0.76 
0.118138 -0.0473945 0.71 
0.137053 -0.0438566 0.657 
0.154053 -0.0413868 0.62 
0.171795 -0.039451 0.591 
0.261915 -0.0507322 0.76 
0.542423 -0.0913847 1.369 
0.598747 -0.0916517 1.373 
0.654913 -0.091852 1.376 
0.712351 -0.0921857 1.381 
0.76074 -0.0913847 1.369 
0.781968 -0.0876465 1.313 
0.826054 -0.0867788 1.3 
0.919751 -0.0909174 1.362 
0.884656 -0.0825733 1.237 
1.04874 -0.0927198 1.389 
1.11683 -0.0937878 1.405 
1.18036 -0.0943886 1.414 
1.23936 -0.0945888 1.417 
1.29585 -0.0945888 1.417 
1.3552 -0.0947891 1.42 
1.41182 -0.0947891 1.42 
-0.532713 -0.0430243 0.668 
-0.520265 -0.0445057 0.691 
-0.511255 -0.0461803 0.717 
-0.500846 -0.0479193 0.744 
-0.488917 -0.0497227 0.772 
-0.474755 -0.0515262 0.8 
-0.46279 -0.0538448 0.836 
-0.446926 -0.0560347 0.87 
-0.43309 -0.0588686 0.914 
-0.414878 -0.0615738 0.956 
-0.39371 -0.0643433 0.999 
-0.375136 -0.0682078 1.059 
-0.350207 -0.0717502 1.114 
-0.322264 -0.0756146 1.174 
-0.275928 -0.0757435 1.176 
-0.159168 -0.0606721 0.942 
-0.131424 -0.065567 1.018 
-0.0982444 -0.0709129 1.101 
-0.0549422 -0.0716858 1.113 
-0.00966706 -0.065567 1.018 
0.0356182 -0.0577093 0.896 
0.0751405 -0.051655 0.802 
0.104203 -0.0469532 0.729 
0.124238 -0.0432176 0.671 
0.143563 -0.0410921 0.638 
0.162883 -0.0385802 0.599 
0.182087 -0.0376141 0.584 
0.515984 -0.0880453 1.367 
0.57257 -0.0883674 1.372 
0.628641 -0.0885606 1.375 
0.68843 -0.0892047 1.385 
0.738277 -0.0885606 1.375 
0.773155 -0.0859843 1.335 
0.795428 -0.0827639 1.285 
0.923729 -0.0899776 1.397 
0.858957 -0.0781265 1.213 
1.04247 -0.0892047 1.385 
1.11354 -0.0904928 1.405 
1.17788 -0.0911369 1.415 
1.23691 -0.0913301 1.418 
1.29344 -0.0913301 1.418 
1.35378 -0.0915878 1.422 
1.40849 -0.0914589 1.42 
-0.53188 -0.0412716 0.665 
-0.519047 -0.0423887 0.683 
-0.511259 -0.0440644 0.71 
-0.501319 -0.0457401 0.737 
-0.492427 -0.0477261 0.769 
-0.47558 -0.0491535 0.792 
-0.466429 -0.051636 0.832 
-0.449923 -0.053622 0.864 
-0.436635 -0.0563528 0.908 
-0.419839 -0.0590835 0.952 
-0.396727 -0.0613798 0.989 
-0.378974 -0.0651036 1.049 
-0.35483 -0.068517 1.104 
-0.32799 -0.0723029 1.165 
-0.284443 -0.0730476 1.177 
-0.161849 -0.0578423 0.932 
-0.133924 -0.0621246 1.001 
-0.101812 -0.0672758 1.084 
-0.0603788 -0.0693239 1.117 
-0.0145979 -0.0638624 1.029 
0.0296089 -0.0561666 0.905 
0.0650499 -0.0507051 0.817 
0.0925935 -0.0471675 0.76 
0.118622 -0.04363 0.703 
0.138215 -0.0402165 0.648 
0.155949 -0.0382305 0.616 
0.174167 -0.0363066 0.585 
0.281947 -0.0475399 0.766 
0.573822 -0.085336 1.375 
0.629098 -0.085398 1.376 
0.689921 -0.0861428 1.388 
0.738814 -0.085398 1.376 
0.771754 -0.0830397 1.338 
0.793648 -0.0798745 1.287 
0.918489 -0.0868255 1.399 
0.857539 -0.0749095 1.207 
1.05221 -0.0859566 1.385 
1.12342 -0.0871979 1.405 
1.18951 -0.0879426 1.417 
1.24688 -0.0880047 1.418 
1.30525 -0.0881288 1.42 
1.36474 -0.088315 1.423 
-0.540529 -0.038876 0.651 
-0.527234 -0.0399509 0.669 
-0.516276 -0.041205 0.69 
-0.507184 -0.0427576 0.716 
-0.498025 -0.0444894 0.745 
-0.486553 -0.0462212 0.774 
-0.471003 -0.0477739 0.8 
-0.45832 -0.049864 0.835 
-0.443354 -0.0520138 0.871 
-0.429272 -0.0546414 0.915 
-0.410394 -0.0570898 0.956 
-0.388635 -0.0595979 0.998 
-0.36947 -0.0631213 1.057 
-0.344672 -0.0664654 1.113 
-0.315678 -0.0698693 1.17 
-0.266503 -0.0692124 1.159 
-0.157478 -0.0556566 0.932 
-0.129487 -0.0598965 1.003 
-0.0969059 -0.0648531 1.086 
-0.0545966 -0.0660474 1.106 
-0.00726537 -0.0606728 1.016 
0.0334795 -0.053447 0.895 
0.069758 -0.0480725 0.805 
0.105041 -0.0431757 0.723 
0.132028 -0.0391149 0.655 
0.149691 -0.0370248 0.62 
0.167593 -0.0349944 0.586 
0.268274 -0.0458629 0.768 
0.543612 -0.0819322 1.372 
0.600927 -0.0822905 1.378 
0.658721 -0.0826488 1.384 
0.714414 -0.0827086 1.385 
0.758517 -0.0815142 1.365 
0.778395 -0.0780506 1.307 
0.8502 -0.0799018 1.338 
0.931231 -0.0823502 1.379 
0.871539 -0.0716011 1.199 
1.07029 -0.0823502 1.379 
1.15383 -0.0844404 1.414 
1.21534 -0.0847987 1.42 
1.27195 -0.0847987 1.42 
1.33137 -0.0849778 1.423 
1.39005 -0.0850972 1.425 
-0.536989 -0.0376362 0.656 
-0.522516 -0.0384967 0.671 
-0.512758 -0.0398163 0.694 
-0.503962 -0.0413654 0.721 
-0.497627 -0.043316 0.755 
-0.483008 -0.0447503 0.78 
-0.466395 -0.0461846 0.805 
-0.452645 -0.0481353 0.839 
-0.439181 -0.0504302 0.879 
-0.426666 -0.0532414 0.928 
-0.404785 -0.0553068 0.964 
-0.381933 -0.0576591 1.005 
-0.363977 -0.0613882 1.07 
-0.338435 -0.0646585 1.127 
-0.304703 -0.0671255 1.17 
-0.179378 -0.0528398 0.921 
-0.14645 -0.0550773 0.96 
-0.117191 -0.0596671 1.04 
-0.0805342 -0.0634536 1.106 
-0.0350565 -0.061044 1.064 
0.0150293 -0.0528972 0.922 
0.0575263 -0.0469878 0.819 
0.0905722 -0.0434881 0.758 
0.113838 -0.04039 0.704 
0.137362 -0.0369477 0.644 
0.159004 -0.0341365 0.595 
0.178426 -0.0333332 0.581 
0.277641 -0.0441192 0.769 
0.558105 -0.0789441 1.376 
0.614299 -0.0791163 1.379 
0.674131 -0.07969 1.389 
0.726881 -0.0794031 1.384 
0.764541 -0.0776246 1.353 
0.778556 -0.073838 1.287 
0.901502 -0.0796326 1.388 
0.833597 -0.0682155 1.189 
0.871368 -0.0674697 1.176 
1.12182 -0.0804932 1.403 
1.19203 -0.0814685 1.42 
1.25128 -0.0816406 1.423 
1.30801 -0.0816406 1.423 
1.36762 -0.0818127 1.426 
-0.540391 -0.0357125 0.649 
-0.52487 -0.036648 0.666 
-0.514031 -0.0378036 0.687 
-0.505767 -0.0392893 0.714 
-0.496019 -0.04083 0.742 
-0.484667 -0.0424258 0.771 
-0.469237 -0.0438565 0.797 
-0.456673 -0.0457825 0.832 
-0.442336 -0.0478185 0.869 
-0.427396 -0.0501296 0.911 
-0.408676 -0.0523857 0.952 
-0.387856 -0.0548069 0.996 
-0.368072 -0.0579435 1.053 
-0.342814 -0.0609149 1.107 
-0.31217 -0.0636663 1.157 
-0.188835 -0.0509 0.925 
-0.152942 -0.0512302 0.931 
-0.123407 -0.0556323 1.011 
-0.0892654 -0.0597593 1.086 
-0.0456302 -0.0593191 1.078 
0.00647027 -0.0514503 0.935 
0.0538816 -0.0452322 0.822 
0.0829771 -0.0423708 0.77 
0.107233 -0.0393443 0.715 
0.12646 -0.0362078 0.658 
0.144803 -0.0343369 0.624 
0.163192 -0.0321908 0.585 
0.184601 -0.0318606 0.579 
0.290265 -0.0423158 0.769 
0.582803 -0.0759923 1.381 
0.638323 -0.0760473 1.382 
0.698438 -0.0765976 1.392 
0.743102 -0.0754971 1.372 
0.773378 -0.0731859 1.33 
0.823296 -0.0729108 1.325 
0.921696 -0.0764325 1.389 
0.845941 -0.0648769 1.179 
0.888401 -0.0645467 1.173 
1.13001 -0.077313 1.405 
1.20122 -0.0783035 1.423 
1.25795 -0.0783035 1.423 
1.31653 -0.0784135 1.425 
1.3772 -0.0786336 1.429 
-0.538038 -0.0341378 0.648 
-0.523313 -0.0351915 0.668 
-0.512296 -0.0362978 0.689 
-0.503122 -0.0376675 0.715 
-0.493203 -0.0391426 0.743 
-0.481675 -0.0406704 0.772 
-0.466667 -0.0420928 0.799 
-0.453315 -0.043884 0.833 
-0.438765 -0.0458332 0.87 
-0.423123 -0.0479932 0.911 
-0.40506 -0.0502585 0.954 
-0.383954 -0.0525765 0.998 
-0.363478 -0.0555267 1.054 
-0.337621 -0.0583188 1.107 
-0.306213 -0.0608475 1.155 
-0.183299 -0.0484146 0.919 
-0.148895 -0.0491522 0.933 
-0.119722 -0.0537355 1.02 
-0.0841717 -0.0572125 1.086 
-0.0400094 -0.0560008 1.063 
0.00856109 -0.048678 0.924 
0.0706669 -0.0418294 0.794 
0.0949765 -0.0388265 0.737 
0.120549 -0.0351915 0.668 
0.13969 -0.0334003 0.634 
0.156214 -0.0313457 0.595 
0.174189 -0.0303447 0.576 
0.272938 -0.0406177 0.771 
0.563371 -0.0727536 1.381 
0.618877 -0.0728063 1.382 
0.678851 -0.0733331 1.392 
0.730127 -0.0729117 1.384 
0.763742 -0.0709098 1.346 
0.782789 -0.0679069 1.289 
0.898247 -0.0731224 1.388 
0.821026 -0.0619012 1.175 
0.86861 -0.0619539 1.176 
0.974659 -0.0659577 1.252 
1.1704 -0.0747029 1.418 
1.23299 -0.0750716 1.425 
1.2898 -0.0750716 1.425 
1.35228 -0.0753877 1.431 
1.40933 -0.0753877 1.431 
-0.52399 -0.0331719 0.659 
-0.513577 -0.0342289 0.68 
-0.504352 -0.0354874 0.705 
-0.493809 -0.0367961 0.731 
-0.483099 -0.0382559 0.76 
-0.468886 -0.039615 0.787 
-0.455299 -0.0412257 0.819 
-0.441226 -0.0430379 0.855 
-0.428091 -0.0452527 0.899 
-0.411011 -0.0474171 0.942 
-0.388917 -0.0493803 0.981 
-0.369775 -0.0521991 1.037 
-0.343634 -0.0546153 1.085 
-0.315327 -0.0573335 1.139 
-0.192755 -0.0464608 0.923 
-0.155788 -0.0464104 0.922 
-0.126501 -0.050236 0.998 
-0.0934902 -0.0541623 1.076 
-0.0507334 -0.0543133 1.079 
0.00851476 -0.0462594 0.919 
0.0690648 -0.0401183 0.797 
0.0931216 -0.0370478 0.736 
0.120369 -0.0335746 0.667 
0.139029 -0.0317624 0.631 
0.154558 -0.0299 0.594 
0.172538 -0.0289436 0.575 
0.267514 -0.0388096 0.771 
0.54197 -0.0692633 1.376 
0.600732 -0.0697163 1.385 
0.659264 -0.0700687 1.392 
0.715787 -0.0701693 1.394 
0.750889 -0.0683069 1.357 
0.778296 -0.0660417 1.312 
0.888961 -0.070421 1.399 
0.805179 -0.0587932 1.168 
0.856849 -0.0591456 1.175 
0.900617 -0.0589442 1.171 
1.1596 -0.0713271 1.417 
1.22553 -0.0718808 1.428 
1.27977 -0.0717298 1.425 
1.34409 -0.0721325 1.433 
1.4022 -0.0721828 1.434 
-0.522444 -0.0316264 0.659 
-0.511983 -0.0326342 0.68 
-0.502699 -0.033834 0.705 
-0.492094 -0.0350818 0.731 
-0.481317 -0.0364735 0.76 
-0.46704 -0.0377693 0.787 
-0.452825 -0.039257 0.818 
-0.438707 -0.0409847 0.854 
-0.425508 -0.0430964 0.898 
-0.407934 -0.045112 0.94 
-0.38701 -0.0471277 0.982 
-0.368052 -0.0498632 1.039 
-0.340775 -0.0520228 1.084 
-0.312382 -0.0546143 1.138 
-0.194709 -0.0442482 0.922 
-0.157094 -0.0440082 0.917 
-0.128196 -0.0476556 0.993 
-0.0952105 -0.0512069 1.067 
-0.0533132 -0.0518308 1.08 
-0.009819 -0.0496232 1.034 
0.0637759 -0.0384412 0.801 
0.0902786 -0.0355617 0.741 
0.113192 -0.0331141 0.69 
0.133299 -0.0306666 0.639 
0.150326 -0.0290349 0.605 
0.166661 -0.0277391 0.578 
0.189048 -0.0276431 0.576 
0.29102 -0.0370014 0.771 
0.58618 -0.0666602 1.389 
0.642942 -0.0668042 1.392 
0.699441 -0.0669002 1.394 
0.743102 -0.0658443 1.372 
0.771634 -0.0636847 1.327 
0.855717 -0.0658443 1.372 
0.918379 -0.0664202 1.384 
0.840918 -0.056246 1.172 
0.883857 -0.0560061 1.167 
1.13573 -0.067572 1.408 
1.20879 -0.0685319 1.428 
1.26572 -0.0685319 1.428 
1.32543 -0.0686758 1.431 
1.38828 -0.0689638 1.437 
-0.528407 -0.0298071 0.653 
-0.515452 -0.030583 0.67 
-0.505518 -0.0316329 0.693 
-0.49513 -0.0327741 0.718 
-0.484697 -0.0340522 0.746 
-0.473252 -0.0354216 0.776 
-0.457704 -0.036654 0.803 
-0.444244 -0.0382516 0.838 
-0.429955 -0.0400318 0.877 
-0.413907 -0.041949 0.919 
-0.3941 -0.0438205 0.96 
-0.375471 -0.0462397 1.013 
-0.350963 -0.0484308 1.061 
-0.321754 -0.0504848 1.106 
-0.289208 -0.0525846 1.152 
-0.166748 -0.0415838 0.911 
-0.132868 -0.0445508 0.976 
-0.100985 -0.047883 1.049 
-0.0610243 -0.0493893 1.082 
-0.0171433 -0.0473352 1.037 
0.0366671 -0.039758 0.871 
0.0717982 -0.035878 0.786 
0.0968305 -0.0330936 0.725 
0.119161 -0.0305374 0.669 
0.137331 -0.0287572 0.63 
0.153423 -0.0271596 0.595 
0.170892 -0.026201 0.574 
0.271482 -0.035239 0.772 
0.547178 -0.0630376 1.381 
0.605724 -0.0634028 1.389 
0.663481 -0.063631 1.394 
0.720604 -0.0637679 1.397 
0.754072 -0.0619421 1.357 
0.779586 -0.059751 1.309 
0.900533 -0.0644526 1.412 
0.803646 -0.0526759 1.154 
0.862907 -0.0534975 1.172 
0.901094 -0.0529954 1.161 
1.16375 -0.0647265 1.418 
1.23319 -0.0654112 1.433 
1.28672 -0.0652286 1.429 
1.35121 -0.0655938 1.437 
1.4134 -0.065822 1.442 
-0.521604 -0.0284056 0.656 
-0.509801 -0.0292283 0.675 
-0.502921 -0.0304407 0.703 
-0.491782 -0.0315232 0.728 
-0.480557 -0.0327357 0.756 
-0.467694 -0.0339914 0.785 
-0.451408 -0.0351605 0.812 
-0.439161 -0.0368493 0.851 
-0.423329 -0.0384947 0.889 
-0.406648 -0.0403567 0.932 
-0.386538 -0.0422186 0.975 
-0.366922 -0.0445569 1.029 
-0.341101 -0.0466353 1.077 
-0.30979 -0.048454 1.119 
-0.191502 -0.0397072 0.917 
-0.154606 -0.0396206 0.915 
-0.1196 -0.0432579 0.999 
-0.0856006 -0.0464188 1.072 
-0.0421025 -0.0455961 1.053 
0.0169492 -0.0393608 0.909 
0.0545872 -0.0348141 0.804 
0.0908988 -0.0316964 0.732 
0.112208 -0.029618 0.684 
0.130301 -0.0276694 0.639 
0.147732 -0.0262405 0.606 
0.164733 -0.0249415 0.576 
0.273292 -0.0334285 0.772 
0.554858 -0.0599288 1.384 
0.613561 -0.0602752 1.392 
0.670019 -0.0603618 1.394 
0.727156 -0.0604917 1.397 
0.758195 -0.0585865 1.353 
0.784525 -0.0565946 1.307 
0.907685 -0.061401 1.418 
0.799468 -0.0497097 1.148 
0.862171 -0.0507057 1.171 
0.896438 -0.0500128 1.155 
1.16042 -0.061401 1.418 
1.23068 -0.0620939 1.434 
1.28696 -0.0620506 1.433 
1.34784 -0.0622238 1.437 
1.41197 -0.0625269 1.444 
-0.520682 -0.0266623 0.651 
-0.509927 -0.0274815 0.671 
-0.502618 -0.0285873 0.698 
-0.491115 -0.0295702 0.722 
-0.47962 -0.030676 0.749 
-0.468374 -0.0319457 0.78 
-0.451292 -0.0329696 0.805 
-0.440028 -0.0346078 0.845 
-0.424613 -0.0361641 0.883 
-0.408373 -0.0379252 0.926 
-0.388303 -0.0396454 0.968 
-0.369942 -0.0419389 1.024 
-0.34326 -0.043741 1.068 
-0.311942 -0.0453792 1.108 
-0.188113 -0.0373109 0.911 
-0.152293 -0.0374338 0.914 
-0.12536 -0.0405055 0.989 
-0.0914918 -0.0431267 1.053 
-0.049793 -0.0433724 1.059 
0.0105771 -0.0373109 0.911 
0.0510058 -0.0330515 0.807 
0.0842272 -0.030676 0.749 
0.109637 -0.0281777 0.688 
0.129004 -0.0262118 0.64 
0.146311 -0.0248193 0.606 
0.166854 -0.0235087 0.574 
0.277272 -0.031659 0.773 
0.566635 -0.0568879 1.389 
0.625594 -0.0572155 1.397 
0.681289 -0.0572155 1.397 
0.732765 -0.0568879 1.389 
0.763742 -0.0551268 1.346 
0.794935 -0.0536114 1.309 
0.92478 -0.0585261 1.429 
0.804852 -0.0470175 1.148 
0.86544 -0.0478366 1.168 
0.896389 -0.0470175 1.148 
1.17617 -0.0583623 1.425 
1.2451 -0.0589357 1.439 
1.29794 -0.0587309 1.434 
1.35984 -0.0589357 1.439 
1.42509 -0.0592633 1.447 
-0.51848 -0.0252515 0.654 
-0.506712 -0.0259851 0.673 
-0.501273 -0.0271434 0.703 
-0.490075 -0.0281087 0.728 
-0.477517 -0.0291126 0.754 
-0.46526 -0.0302709 0.784 
-0.447843 -0.0312362 0.809 
-0.436652 -0.0328192 0.85 
-0.42077 -0.0342864 0.888 
-0.403594 -0.0359081 0.93 
-0.383858 -0.0376069 0.974 
-0.363801 -0.0396533 1.027 
-0.337003 -0.0413908 1.072 
-0.305245 -0.0429352 1.112 
-0.180307 -0.0349042 0.904 
-0.146022 -0.0353289 0.915 
-0.117139 -0.0385336 0.998 
-0.082389 -0.0410433 1.063 
-0.0365636 -0.0400008 1.036 
0.0168 -0.0347883 0.901 
0.0598691 -0.03085 0.799 
0.0930434 -0.027877 0.722 
0.113897 -0.0260623 0.675 
0.132047 -0.0244406 0.633 
0.150126 -0.0228962 0.593 
0.169955 -0.0216993 0.562 
0.277631 -0.0298848 0.774 
0.567859 -0.0537463 1.392 
0.626937 -0.0540551 1.4 
0.681289 -0.0539393 1.397 
0.734347 -0.0537463 1.392 
0.767147 -0.0522018 1.352 
0.799793 -0.0508504 1.317 
0.941771 -0.0559857 1.45 
0.819884 -0.0445569 1.154 
0.863641 -0.0444411 1.151 
0.917431 -0.0448272 1.161 
1.20042 -0.0553679 1.434 
1.26636 -0.055754 1.444 
1.31751 -0.0554837 1.437 
1.3815 -0.055754 1.444 
-0.531232 -0.0231375 0.638 
-0.517688 -0.0236815 0.653 
-0.505206 -0.0243342 0.671 
-0.50056 -0.0254585 0.702 
-0.488729 -0.0263289 0.726 
-0.476251 -0.0272718 0.752 
-0.464667 -0.028396 0.783 
-0.446182 -0.0292301 0.806 
-0.436138 -0.0307895 0.849 
-0.419349 -0.0320951 0.885 
-0.40316 -0.0336908 0.929 
-0.383069 -0.0352502 0.972 
-0.363092 -0.0371723 1.025 
-0.335117 -0.0386592 1.066 
-0.304421 -0.0402186 1.109 
-0.17373 -0.032349 0.892 
-0.141731 -0.0331831 0.915 
-0.114799 -0.0361931 0.998 
-0.0795203 -0.0383691 1.058 
-0.0363165 -0.0373173 1.029 
0.0105423 -0.0329292 0.908 
0.056262 -0.0290488 0.801 
0.0835524 -0.0269454 0.743 
0.105254 -0.0250596 0.691 
0.124538 -0.0235001 0.648 
0.145104 -0.0217957 0.601 
0.164819 -0.0205626 0.567 
0.18478 -0.0202725 0.559 
0.301347 -0.0282509 0.779 
0.607238 -0.0507719 1.4 
0.662579 -0.0507356 1.399 
0.721436 -0.0509532 1.405 
0.758083 -0.0496839 1.37 
0.787194 -0.0481245 1.327 
0.897709 -0.0514247 1.418 
0.797269 -0.0413791 1.141 
0.858269 -0.0421407 1.162 
0.886691 -0.0413066 1.139 
1.17366 -0.0517148 1.426 
1.24863 -0.0524764 1.447 
1.3018 -0.0522951 1.442 
1.35929 -0.0522951 1.442 
1.42759 -0.052694 1.453 
-0.519614 -0.0218448 0.644 
-0.51158 -0.022625 0.667 
-0.501712 -0.0234051 0.69 
-0.491384 -0.0242531 0.715 
-0.479063 -0.0251011 0.74 
-0.467787 -0.0261188 0.77 
-0.45355 -0.0271025 0.799 
-0.440168 -0.0282897 0.834 
-0.424483 -0.0295108 0.87 
-0.405927 -0.0307319 0.906 
-0.389399 -0.0323601 0.954 
-0.370149 -0.0340901 1.005 
-0.344862 -0.0356165 1.05 
-0.312234 -0.036702 1.082 
-0.280289 -0.0382284 1.127 
-0.145065 -0.0308337 0.909 
-0.118043 -0.0334456 0.986 
-0.0838439 -0.0356165 1.05 
-0.0412229 -0.034972 1.031 
0.00630419 -0.0309016 0.911 
0.0427785 -0.0281879 0.831 
0.0832151 -0.0251011 0.74 
0.105101 -0.0234051 0.69 
0.12528 -0.0218448 0.644 
0.144862 -0.0203523 0.6 
0.160907 -0.0194025 0.572 
0.178572 -0.0188598 0.556 
0.30212 -0.0264919 0.781 
0.608539 -0.0475904 1.403 
0.663053 -0.0474887 1.4 
0.723489 -0.0477939 1.409 
0.76085 -0.0466406 1.375 
0.789567 -0.0451481 1.331 
0.898975 -0.0481671 1.42 
0.799945 -0.0387033 1.141 
0.855067 -0.0391442 1.154 
0.8878 -0.0385676 1.137 
1.17948 -0.0484724 1.429 
1.25375 -0.0491508 1.449 
1.30699 -0.0489812 1.444 
1.36456 -0.0489812 1.444 
1.43592 -0.049456 1.458 
-0.518104 -0.0203345 0.644 
-0.510016 -0.0210607 0.667 
-0.500094 -0.021787 0.69 
-0.489708 -0.0225763 0.715 
-0.477328 -0.0233657 0.74 
-0.465981 -0.024313 0.77 
-0.451111 -0.0251971 0.798 
-0.438212 -0.0263338 0.834 
-0.421957 -0.0274389 0.869 
-0.404694 -0.0286704 0.908 
-0.387162 -0.0301228 0.954 
-0.367792 -0.0317332 1.005 
-0.342073 -0.0331225 1.049 
-0.309697 -0.0341645 1.082 
-0.171977 -0.027881 0.883 
-0.139127 -0.0287967 0.912 
-0.11167 -0.0312911 0.991 
-0.0765294 -0.0331856 1.051 
-0.0336068 -0.0322068 1.02 
0.0206526 -0.0279441 0.885 
0.0594195 -0.0250392 0.793 
0.0946936 -0.0223869 0.709 
0.11724 -0.0210607 0.667 
0.133481 -0.0195451 0.619 
0.149472 -0.0184716 0.585 
0.166129 -0.017619 0.558 
0.279446 -0.0244393 0.774 
0.580557 -0.0441738 1.399 
0.640426 -0.044458 1.408 
0.695076 -0.0443633 1.405 
0.740399 -0.0437318 1.385 
0.782978 -0.0430371 1.363 
0.828103 -0.0425635 1.348 
0.966235 -0.0466367 1.477 
0.844817 -0.0368168 1.166 
0.867606 -0.035838 1.135 
0.936985 -0.0367852 1.165 
1.22911 -0.0455947 1.444 
1.29202 -0.0457842 1.45 
1.34425 -0.0455947 1.444 
1.41735 -0.0460999 1.46 
-0.52293 -0.0186196 0.637 
-0.513936 -0.0192334 0.658 
-0.501044 -0.0197596 0.676 
-0.493029 -0.0205488 0.703 
-0.4822 -0.0213088 0.729 
-0.469919 -0.022098 0.756 
-0.456649 -0.0229456 0.785 
-0.440524 -0.0237641 0.813 
-0.428693 -0.0249625 0.854 
-0.409895 -0.0259271 0.887 
-0.393956 -0.0272717 0.933 
-0.373966 -0.0285871 0.978 
-0.351758 -0.0300193 1.027 
-0.320196 -0.0309255 1.058 
-0.290892 -0.0323578 1.107 
-0.164451 -0.0256056 0.876 
-0.135441 -0.0267748 0.916 
-0.107237 -0.0290255 0.993 
-0.0715317 -0.0306916 1.05 
-0.0285401 -0.0295224 1.01 
0.0205126 -0.0256933 0.879 
0.0506898 -0.0234426 0.802 
0.078644 -0.0223026 0.763 
0.106768 -0.0198765 0.68 
0.129531 -0.0183565 0.628 
0.146847 -0.017275 0.591 
0.162336 -0.0164566 0.563 
0.181805 -0.0160766 0.55 
0.580972 -0.0409222 1.4 
0.640426 -0.041156 1.408 
0.69656 -0.041156 1.408 
0.742002 -0.0405714 1.388 
0.786424 -0.040016 1.369 
0.845568 -0.0399284 1.366 
0.798543 -0.0332931 1.139 
0.849139 -0.0334977 1.146 
0.879992 -0.0329424 1.127 
1.19282 -0.0420037 1.437 
1.26577 -0.0425298 1.455 
1.3165 -0.042296 1.447 
1.37988 -0.0424714 1.453 
1.44771 -0.0427637 1.463 
-0.515309 -0.0174752 0.65 
-0.503701 -0.017986 0.669 
-0.494855 -0.0186582 0.694 
-0.484016 -0.0193303 0.719 
-0.471817 -0.0200293 0.745 
-0.459919 -0.0208358 0.775 
-0.443414 -0.0215349 0.801 
-0.434597 -0.0227447 0.846 
-0.413189 -0.0234437 0.872 
-0.397953 -0.0246535 0.917 
-0.379523 -0.0258902 0.963 
-0.359196 -0.0272613 1.014 
-0.329773 -0.0282023 1.049 
-0.298382 -0.0292239 1.087 
-0.17193 -0.0231748 0.862 
-0.14299 -0.0240889 0.896 
-0.116128 -0.0260784 0.97 
-0.082167 -0.0276646 1.029 
-0.040863 -0.0274764 1.022 
0.0185351 -0.0237394 0.883 
0.0559108 -0.0214004 0.796 
0.0955409 -0.0189001 0.703 
0.116361 -0.0177978 0.662 
0.139665 -0.0163461 0.608 
0.154739 -0.015432 0.574 
0.170196 -0.0147867 0.55 
0.300673 -0.021024 0.782 
0.604104 -0.037854 1.408 
0.658831 -0.0377734 1.405 
0.718407 -0.0379616 1.412 
0.759338 -0.0372088 1.384 
0.800391 -0.0365635 1.36 
0.877862 -0.0375583 1.397 
0.821721 -0.0308908 1.149 
0.856959 -0.0305144 1.135 
0.905389 -0.030622 1.139 
1.21726 -0.0387681 1.442 
1.28889 -0.0391983 1.458 
1.33871 -0.0389563 1.449 
1.409 -0.0393058 1.462 
-0.523441 -0.0155582 0.634 
-0.509307 -0.0161963 0.66 
-0.49763 -0.0166871 0.68 
-0.487819 -0.0173005 0.705 
-0.476013 -0.017914 0.73 
-0.464664 -0.0186257 0.759 
-0.45043 -0.0193128 0.787 
-0.43556 -0.0200735 0.818 
-0.421174 -0.0209815 0.855 
-0.403386 -0.0218649 0.891 
-0.390158 -0.0231901 0.945 
-0.366284 -0.0240981 0.982 
-0.343457 -0.0253005 1.031 
-0.311151 -0.0260367 1.061 
-0.271584 -0.0267974 1.092 
-0.149199 -0.0216686 0.883 
-0.121612 -0.0231165 0.942 
-0.0902135 -0.0248097 1.011 
-0.0506969 -0.0252024 1.027 
0.0104262 -0.0220367 0.898 
0.0488089 -0.0196809 0.802 
0.0898319 -0.0174232 0.71 
0.110651 -0.016319 0.665 
0.140394 -0.0148466 0.605 
0.155269 -0.0140122 0.571 
0.170239 -0.0133987 0.546 
0.301058 -0.0192147 0.783 
0.600802 -0.034552 1.408 
0.656936 -0.034552 1.408 
0.716109 -0.0346993 1.414 
0.758278 -0.0340612 1.388 
0.801305 -0.0335459 1.367 
0.936248 -0.0360244 1.468 
0.838389 -0.0281226 1.146 
0.865563 -0.0275336 1.122 
1.18773 -0.0353127 1.439 
1.25894 -0.0357054 1.455 
1.31514 -0.0356563 1.453 
1.37779 -0.035779 1.458 
1.44478 -0.0359999 1.467 
-0.511781 -0.0141602 0.638 
-0.502948 -0.014826 0.668 
-0.492716 -0.0153365 0.691 
-0.48267 -0.0159135 0.717 
-0.470551 -0.0164906 0.743 
-0.458139 -0.0171342 0.772 
-0.442861 -0.0177557 0.8 
-0.432029 -0.0186657 0.841 
-0.412241 -0.0193093 0.87 
-0.395349 -0.0202193 0.911 
-0.37834 -0.0213068 0.96 
-0.355653 -0.0222834 1.004 
-0.326629 -0.0230602 1.039 
-0.295912 -0.0239258 1.078 
-0.165745 -0.0188876 0.851 
-0.138478 -0.019842 0.894 
-0.111233 -0.0214622 0.967 
-0.0771151 -0.0227717 1.026 
-0.0352577 -0.0221724 0.999 
0.0184512 -0.0195091 0.879 
0.0522429 -0.0176891 0.797 
0.0922436 -0.0156028 0.703 
0.117201 -0.0146041 0.658 
0.146102 -0.0130504 0.588 
0.160606 -0.0123624 0.557 
0.177233 -0.0119851 0.54 
0.309191 -0.0174228 0.785 
0.61401 -0.03125 1.408 
0.67062 -0.0312722 1.409 
0.729373 -0.0313832 1.414 
0.777411 -0.0310503 1.399 
0.815319 -0.0303844 1.369 
0.826194 -0.0253906 1.144 
0.8603 -0.0249024 1.122 
0.902612 -0.0248358 1.119 
1.25553 -0.0322932 1.455 
1.31625 -0.0323597 1.458 
1.37626 -0.0324041 1.46 
1.44233 -0.0325817 1.468 
-0.510684 -0.0128624 0.648 
-0.500563 -0.0132793 0.669 
-0.490183 -0.0137358 0.692 
-0.479307 -0.014232 0.717 
-0.467694 -0.014768 0.744 
-0.455107 -0.0153436 0.773 
-0.439109 -0.0158796 0.8 
-0.429611 -0.0167529 0.844 
-0.40863 -0.0172889 0.871 
-0.391934 -0.0181225 0.913 
-0.373837 -0.0190555 0.96 
-0.352342 -0.0200082 1.008 
-0.321136 -0.0205839 1.037 
-0.289506 -0.0212984 1.073 
-0.162133 -0.0169316 0.853 
-0.134735 -0.0178049 0.897 
-0.107249 -0.0192937 0.972 
-0.0722324 -0.0203457 1.025 
-0.0277771 -0.019512 0.983 
0.0242991 -0.0172095 0.867 
0.0570517 -0.0156017 0.786 
0.0956688 -0.0137358 0.692 
0.124914 -0.0124456 0.627 
0.154181 -0.0112546 0.567 
0.170577 -0.0107782 0.543 
0.293713 -0.0155421 0.783 
0.590896 -0.027948 1.408 
0.64703 -0.027948 1.408 
0.70666 -0.028087 1.415 
0.75067 -0.0276304 1.392 
0.800374 -0.0274319 1.382 
0.852598 -0.0271342 1.367 
0.844075 -0.0224696 1.132 
0.875066 -0.0221123 1.114 
1.21556 -0.0286626 1.444 
1.289 -0.0290199 1.462 
1.3436 -0.0289405 1.458 
1.41134 -0.029139 1.468 
-0.518661 -0.0110277 0.63 
-0.507764 -0.0115178 0.658 
-0.494703 -0.0118329 0.676 
-0.485743 -0.012288 0.702 
-0.473405 -0.0127081 0.726 
-0.462827 -0.0132332 0.756 
-0.448713 -0.0137233 0.784 
-0.43343 -0.0142485 0.814 
-0.419204 -0.0148961 0.851 
-0.401122 -0.0155088 0.886 
-0.384791 -0.016314 0.932 
-0.3633 -0.0170492 0.974 
-0.341458 -0.0179419 1.025 
-0.308218 -0.018397 1.051 
-0.174691 -0.0148086 0.846 
-0.145295 -0.0152637 0.872 
-0.118009 -0.0162965 0.931 
-0.0868868 -0.0175043 1 
-0.0474891 -0.0176793 1.01 
-0.00652882 -0.0159814 0.913 
0.027973 -0.0149661 0.855 
0.0681748 -0.0134083 0.766 
0.101833 -0.0118854 0.679 
0.123443 -0.0109752 0.627 
0.150438 -0.0100299 0.573 
0.164512 -0.00952232 0.544 
0.182777 -0.00934728 0.534 
0.309191 -0.0137409 0.785 
0.61512 -0.0245585 1.403 
0.675359 -0.024716 1.412 
0.732689 -0.024751 1.414 
0.786272 -0.0246635 1.409 
0.820921 -0.0240334 1.373 
0.819192 -0.0199199 1.138 
0.852406 -0.0196398 1.122 
0.883545 -0.0193422 1.105 
1.22572 -0.0252762 1.444 
1.30018 -0.0256087 1.463 
1.35757 -0.0255912 1.462 
1.42361 -0.0257313 1.47 
-0.512751 -0.00955023 0.63 
-0.507759 -0.00994437 0.656 
-0.493352 -0.0101869 0.672 
-0.484612 -0.010581 0.698 
-0.47249 -0.0109449 0.722 
-0.462142 -0.0113996 0.752 
-0.448827 -0.0118393 0.781 
-0.43213 -0.0122485 0.808 
-0.419715 -0.0128549 0.848 
-0.400014 -0.0133248 0.879 
-0.385316 -0.0140676 0.928 
-0.363332 -0.014674 0.968 
-0.342185 -0.0154623 1.02 
-0.309501 -0.0158716 1.047 
-0.183706 -0.0129004 0.851 
-0.146833 -0.0131733 0.869 
-0.11903 -0.0139767 0.922 
-0.0886966 -0.0150681 0.994 
-0.0498083 -0.0152955 1.009 
-0.00651452 -0.0138099 0.911 
0.0279076 -0.0129307 0.853 
0.0694232 -0.0115209 0.76 
0.102512 -0.0102021 0.673 
0.126427 -0.00939864 0.62 
0.151522 -0.00859521 0.567 
0.166449 -0.00821623 0.542 
0.184935 -0.0080798 0.533 
0.315748 -0.0118696 0.783 
0.623209 -0.0212076 1.399 
0.686749 -0.0214501 1.415 
0.739486 -0.021344 1.408 
0.796185 -0.0213592 1.409 
0.826952 -0.0207225 1.367 
0.973002 -0.0216169 1.426 
0.841881 -0.0170085 1.122 
0.870809 -0.0167053 1.102 
0.889025 -0.0161899 1.068 
1.28214 -0.0221626 1.462 
1.34043 -0.0221626 1.462 
1.40637 -0.0222839 1.47 
-0.51996 -0.00804714 0.628 
-0.506744 -0.00823935 0.643 
-0.498318 -0.00853407 0.666 
-0.488058 -0.00882879 0.689 
-0.475296 -0.0091107 0.711 
-0.46518 -0.0094823 0.74 
-0.45334 -0.00986672 0.77 
-0.435815 -0.0101743 0.794 
-0.42503 -0.0106996 0.835 
-0.405345 -0.0110712 0.864 
-0.389788 -0.011635 0.908 
-0.370722 -0.0121989 0.952 
-0.349197 -0.0128011 0.999 
-0.318039 -0.0131599 1.027 
-0.283571 -0.0134674 1.051 
-0.163213 -0.0107381 0.838 
-0.136774 -0.0113147 0.883 
-0.109162 -0.0121604 0.949 
-0.0755368 -0.012878 1.005 
-0.0343754 -0.0124808 0.974 
0.00623499 -0.0115453 0.901 
0.0498049 -0.0100974 0.788 
0.0902083 -0.00896975 0.7 
0.110354 -0.00838031 0.654 
0.133606 -0.00768835 0.6 
0.15566 -0.00715017 0.558 
0.171506 -0.00684264 0.534 
0.299604 -0.0100461 0.784 
0.596227 -0.0180036 1.405 
0.655491 -0.0180933 1.412 
0.713297 -0.0181317 1.415 
0.76155 -0.0179395 1.4 
0.808608 -0.0177473 1.385 
0.805197 -0.0165428 1.291 
0.986482 -0.0183367 1.431 
0.838129 -0.0143132 1.117 
0.861326 -0.0139672 1.09 
0.884861 -0.0136596 1.066 
1.28302 -0.0187468 1.463 
1.34318 -0.0187724 1.465 
1.40828 -0.0188621 1.472 
-0.51472 -0.00656391 0.627 
-0.504606 -0.00678375 0.648 
-0.494287 -0.00700359 0.669 
-0.484391 -0.00725484 0.693 
-0.471263 -0.00748516 0.715 
-0.460096 -0.00777828 0.743 
