# .PCD v.7 - Point Cloud Data file format
VERSION .7
FIELDS x y z
SIZE 4 4 4
TYPE F F F
COUNT 1 1 1
WIDTH 1846
HEIGHT 1
VIEWPOINT 0 0 0 1 0 0 0
POINTS 1846
DATA ascii
1.12114 -0.718189 1.37 
1.19464 -0.729722 1.392 
1.27079 -0.741779 1.415 
1.34034 -0.749118 1.429 
1.40708 -0.754361 1.439 
-0.739354 -0.451948 0.866 
-0.708898 -0.454558 0.871 
-0.68114 -0.459255 0.88 
-0.651195 -0.462908 0.887 
-0.619303 -0.465517 0.892 
-0.591594 -0.47178 0.904 
-0.558626 -0.474389 0.909 
-0.528708 -0.48013 0.92 
-0.496843 -0.484827 0.929 
-0.46426 -0.489524 0.938 
-0.431415 -0.494743 0.948 
-0.396111 -0.497874 0.954 
-0.363707 -0.505702 0.969 
-0.326753 -0.508312 0.974 
-0.288513 -0.509355 0.976 
0.502126 -0.631475 1.21 
0.556734 -0.638782 1.224 
0.612458 -0.646088 1.238 
0.667161 -0.651307 1.248 
0.728405 -0.661744 1.268 
0.790015 -0.671138 1.286 
0.852406 -0.68001 1.303 
0.916847 -0.689404 1.321 
0.976852 -0.694623 1.331 
1.05003 -0.708192 1.357 
1.11471 -0.714976 1.37 
1.1847 -0.72437 1.388 
1.26415 -0.738461 1.415 
1.33363 -0.745767 1.429 
1.40034 -0.750986 1.439 
-0.743416 -0.449918 0.866 
-0.712165 -0.451996 0.87 
-0.686046 -0.457711 0.881 
-0.654616 -0.460308 0.886 
-0.624186 -0.463945 0.893 
-0.595175 -0.46914 0.903 
-0.56289 -0.472258 0.909 
-0.533023 -0.477972 0.92 
-0.5012 -0.482648 0.929 
-0.46866 -0.487324 0.938 
-0.435861 -0.492519 0.948 
-0.400586 -0.495637 0.954 
-0.368252 -0.50343 0.969 
-0.331321 -0.506027 0.974 
-0.293391 -0.507586 0.977 
0.49037 -0.628118 1.209 
0.543916 -0.634353 1.221 
0.599874 -0.642146 1.236 
0.653878 -0.646821 1.245 
0.715945 -0.658251 1.267 
0.776137 -0.666564 1.283 
0.837604 -0.674876 1.299 
0.903086 -0.685267 1.319 
0.963642 -0.690982 1.33 
1.03425 -0.702931 1.353 
1.10106 -0.711244 1.369 
1.16661 -0.717998 1.382 
1.24823 -0.733584 1.412 
1.31653 -0.740338 1.425 
1.38973 -0.74917 1.442 
-0.748341 -0.448404 0.867 
-0.716246 -0.449955 0.87 
-0.690178 -0.455644 0.881 
-0.658772 -0.45823 0.886 
-0.628375 -0.461851 0.893 
-0.598083 -0.465988 0.901 
-0.567153 -0.470126 0.909 
-0.536754 -0.475298 0.919 
-0.505557 -0.48047 0.929 
-0.47205 -0.48409 0.936 
-0.440308 -0.490296 0.948 
-0.40506 -0.493399 0.954 
-0.372797 -0.501157 0.969 
-0.335889 -0.503743 0.974 
-0.298583 -0.506329 0.979 
0.499701 -0.626317 1.211 
0.554316 -0.633558 1.225 
0.610047 -0.640799 1.239 
0.664234 -0.645453 1.248 
0.727147 -0.657349 1.271 
0.787611 -0.665624 1.287 
0.851958 -0.675967 1.307 
0.915825 -0.68476 1.324 
0.975925 -0.689932 1.334 
1.05071 -0.704413 1.362 
1.11312 -0.709585 1.372 
1.18229 -0.718377 1.389 
1.26262 -0.732858 1.417 
1.33214 -0.740099 1.431 
1.39987 -0.745788 1.442 
-0.741062 -0.446885 0.868 
-0.709712 -0.448945 0.872 
-0.683462 -0.454608 0.883 
-0.651929 -0.457182 0.888 
-0.622081 -0.461301 0.896 
-0.593558 -0.466964 0.907 
-0.558626 -0.467994 0.909 
-0.531007 -0.475717 0.924 
-0.497378 -0.478806 0.93 
-0.466735 -0.485499 0.943 
-0.432325 -0.489103 0.95 
-0.396942 -0.492192 0.956 
-0.364458 -0.499914 0.971 
-0.327424 -0.502489 0.976 
-0.289695 -0.504548 0.98 
0.519301 -0.626566 1.217 
0.574819 -0.634289 1.232 
0.629507 -0.639952 1.243 
0.687804 -0.64819 1.259 
0.749135 -0.657972 1.278 
0.810103 -0.666209 1.294 
0.873678 -0.675476 1.312 
0.936572 -0.683199 1.327 
1.00141 -0.691437 1.343 
1.07537 -0.704823 1.369 
1.13573 -0.708427 1.376 
1.21568 -0.723357 1.405 
1.28708 -0.732109 1.422 
1.36267 -0.742406 1.442 
1.42706 -0.74601 1.449 
-0.728487 -0.445875 0.87 
-0.699385 -0.449462 0.877 
-0.671239 -0.454075 0.886 
-0.639505 -0.456637 0.891 
-0.610083 -0.46125 0.9 
-0.579944 -0.465862 0.909 
-0.547293 -0.468937 0.915 
-0.518071 -0.4756 0.928 
-0.483147 -0.47765 0.932 
-0.453168 -0.485337 0.947 
-0.418045 -0.488412 0.953 
-0.385236 -0.495075 0.966 
-0.349595 -0.499175 0.974 
-0.312678 -0.50225 0.98 
0.485501 -0.620637 1.211 
0.539511 -0.6273 1.224 
0.595038 -0.634475 1.238 
0.6496 -0.6396 1.248 
0.712244 -0.651387 1.271 
0.771319 -0.658562 1.285 
0.834712 -0.6683 1.304 
0.89826 -0.677012 1.321 
0.958843 -0.68265 1.332 
1.03018 -0.69495 1.356 
1.09704 -0.70315 1.372 
1.16181 -0.7093 1.384 
1.24424 -0.725187 1.415 
1.31261 -0.73185 1.428 
1.38968 -0.742612 1.449 
-0.750068 -0.443324 0.869 
-0.717069 -0.444345 0.871 
-0.691745 -0.450466 0.883 
-0.660259 -0.453017 0.888 
-0.629782 -0.456588 0.895 
-0.601402 -0.4622 0.906 
-0.567153 -0.463731 0.909 
-0.53909 -0.470873 0.923 
-0.506102 -0.474444 0.93 
-0.473059 -0.478525 0.938 
-0.440772 -0.484137 0.949 
-0.405485 -0.487198 0.955 
-0.373567 -0.49536 0.971 
-0.336924 -0.498421 0.977 
-0.300718 -0.503012 0.986 
0.501764 -0.620348 1.216 
0.556578 -0.62749 1.23 
0.612017 -0.634122 1.243 
0.666363 -0.638714 1.252 
0.730008 -0.650957 1.276 
0.790059 -0.65861 1.291 
0.855217 -0.669323 1.312 
0.9179 -0.676975 1.327 
0.98251 -0.685138 1.343 
1.0538 -0.696871 1.366 
1.11556 -0.701463 1.375 
1.1891 -0.712686 1.397 
1.26529 -0.724419 1.42 
1.33494 -0.731562 1.434 
1.40667 -0.739214 1.449 
-0.740729 -0.441794 0.87 
-0.70929 -0.443825 0.874 
-0.682934 -0.449411 0.885 
-0.650578 -0.451443 0.889 
-0.622747 -0.457028 0.9 
-0.592735 -0.461599 0.909 
-0.557719 -0.462614 0.911 
-0.529984 -0.470231 0.926 
-0.496262 -0.473278 0.932 
-0.465508 -0.47988 0.945 
-0.431002 -0.483434 0.952 
-0.396764 -0.488005 0.961 
-0.362927 -0.494099 0.973 
-0.325801 -0.496638 0.978 
-0.289156 -0.5007 0.986 
0.534206 -0.622066 1.225 
0.590184 -0.629684 1.24 
0.644262 -0.634254 1.249 
0.706282 -0.645426 1.271 
0.765888 -0.653043 1.286 
0.830502 -0.663707 1.307 
0.892064 -0.670816 1.321 
0.954026 -0.677418 1.334 
1.02458 -0.689097 1.357 
1.09139 -0.697222 1.373 
1.15615 -0.703316 1.385 
1.23936 -0.719566 1.417 
1.30682 -0.72566 1.429 
1.38384 -0.736324 1.45 
1.45457 -0.742925 1.463 
-0.721154 -0.440259 0.871 
-0.695886 -0.446325 0.883 
-0.664424 -0.448852 0.888 
-0.634688 -0.452896 0.896 
-0.605651 -0.457951 0.906 
-0.571417 -0.459467 0.909 
-0.544008 -0.467049 0.924 
-0.510464 -0.470082 0.93 
-0.478477 -0.475136 0.94 
-0.446162 -0.480696 0.951 
-0.410823 -0.483729 0.957 
-0.378121 -0.490806 0.971 
-0.341507 -0.493839 0.977 
-0.306272 -0.499904 0.989 
0.509971 -0.617677 1.222 
0.565091 -0.624754 1.236 
0.618841 -0.629303 1.245 
0.676531 -0.636885 1.26 
0.738877 -0.6475 1.281 
0.799198 -0.655082 1.296 
0.863997 -0.665191 1.316 
0.926213 -0.672267 1.33 
0.995435 -0.683388 1.352 
1.06253 -0.691981 1.369 
1.1269 -0.698046 1.381 
1.2025 -0.710177 1.405 
1.27464 -0.719276 1.423 
1.35102 -0.72989 1.444 
1.42224 -0.736967 1.458 
-0.736649 -0.437714 0.87 
-0.706805 -0.440732 0.876 
-0.67955 -0.445763 0.886 
-0.647863 -0.448279 0.891 
-0.6199 -0.453813 0.902 
-0.588471 -0.457335 0.909 
-0.555269 -0.459851 0.914 
-0.526776 -0.466894 0.928 
-0.492946 -0.469913 0.934 
-0.46254 -0.476957 0.948 
-0.427433 -0.479976 0.954 
-0.394297 -0.486013 0.966 
-0.358731 -0.490038 0.974 
-0.322528 -0.494063 0.982 
0.487104 -0.61129 1.215 
0.542156 -0.618836 1.23 
0.597442 -0.625377 1.243 
0.652723 -0.630911 1.254 
0.715606 -0.642483 1.277 
0.774321 -0.649024 1.29 
0.839833 -0.660092 1.312 
0.902339 -0.667639 1.327 
0.966042 -0.675186 1.342 
1.03702 -0.686757 1.365 
1.10023 -0.692292 1.376 
1.1702 -0.701348 1.394 
1.24864 -0.714429 1.42 
1.31812 -0.721473 1.434 
1.39831 -0.733548 1.458 
-0.751794 -0.436174 0.871 
-0.717892 -0.436675 0.872 
-0.693312 -0.443185 0.885 
-0.661003 -0.445188 0.889 
-0.632597 -0.450196 0.899 
-0.60273 -0.454703 0.908 
-0.567153 -0.455203 0.909 
-0.541427 -0.464217 0.927 
-0.50719 -0.466721 0.932 
-0.476589 -0.473231 0.945 
-0.442165 -0.476737 0.952 
-0.408457 -0.481744 0.962 
-0.374721 -0.487754 0.974 
-0.337959 -0.490758 0.98 
-0.302853 -0.497268 0.993 
0.519842 -0.613448 1.225 
0.575643 -0.62096 1.24 
0.629617 -0.625467 1.249 
0.691379 -0.636484 1.271 
0.750225 -0.643494 1.285 
0.813305 -0.653009 1.304 
0.87591 -0.661022 1.32 
0.939087 -0.668533 1.335 
1.00866 -0.67955 1.357 
1.0753 -0.687563 1.373 
1.13991 -0.693572 1.385 
1.22015 -0.708094 1.414 
1.29007 -0.715606 1.429 
1.36683 -0.726122 1.45 
1.44233 -0.735136 1.468 
-0.731367 -0.434131 0.871 
-0.703841 -0.438617 0.88 
-0.674837 -0.442605 0.888 
-0.643754 -0.445595 0.894 
-0.615595 -0.451078 0.905 
-0.582076 -0.453072 0.909 
-0.553042 -0.459053 0.921 
-0.521369 -0.463539 0.93 
-0.488458 -0.467526 0.938 
-0.456832 -0.473507 0.95 
-0.422485 -0.477495 0.958 
-0.389507 -0.483974 0.971 
-0.352963 -0.486965 0.977 
-0.317869 -0.492946 0.989 
0.4981 -0.608581 1.221 
0.553496 -0.616058 1.236 
0.607162 -0.620544 1.245 
0.667876 -0.631011 1.266 
0.72686 -0.638487 1.281 
0.788862 -0.647459 1.299 
0.852299 -0.656431 1.317 
0.914424 -0.663409 1.331 
0.982753 -0.673876 1.352 
1.04969 -0.682349 1.369 
1.11475 -0.688828 1.382 
1.18763 -0.699295 1.403 
1.26306 -0.710261 1.425 
1.33747 -0.719731 1.444 
1.41533 -0.730198 1.465 
-0.748567 -0.432585 0.872 
-0.715439 -0.433577 0.874 
-0.689161 -0.439034 0.885 
-0.658311 -0.44201 0.891 
-0.629778 -0.446971 0.901 
-0.59913 -0.45094 0.909 
-0.564128 -0.451932 0.911 
-0.538237 -0.460862 0.929 
-0.503898 -0.463342 0.934 
-0.473156 -0.469791 0.947 
-0.43862 -0.473264 0.954 
-0.405625 -0.479217 0.966 
-0.370152 -0.483185 0.974 
-0.334383 -0.48765 0.983 
-0.298796 -0.493603 0.995 
0.527304 -0.609687 1.229 
0.582866 -0.616632 1.243 
0.638019 -0.622089 1.254 
0.701181 -0.633995 1.278 
0.758606 -0.639452 1.289 
0.824449 -0.650862 1.312 
0.884774 -0.656815 1.324 
0.950306 -0.665744 1.342 
1.01877 -0.675666 1.362 
1.0841 -0.682611 1.376 
1.15386 -0.69154 1.394 
1.23025 -0.703446 1.418 
1.30403 -0.712872 1.437 
1.38121 -0.72329 1.458 
1.45415 -0.730731 1.473 
-0.730999 -0.431034 0.873 
-0.701777 -0.43449 0.88 
-0.672754 -0.43844 0.888 
-0.643093 -0.44239 0.896 
-0.614828 -0.447821 0.907 
-0.58122 -0.449796 0.911 
-0.553274 -0.456708 0.925 
-0.520304 -0.460164 0.932 
-0.487295 -0.464114 0.94 
-0.455083 -0.469545 0.951 
-0.421993 -0.474976 0.962 
-0.387628 -0.479914 0.972 
-0.35103 -0.482876 0.978 
-0.316506 -0.489788 0.992 
0.498508 -0.603348 1.222 
0.554392 -0.611248 1.238 
0.608625 -0.616185 1.248 
0.668931 -0.62606 1.268 
0.727428 -0.632973 1.282 
0.791291 -0.643341 1.303 
0.854241 -0.651735 1.32 
0.916485 -0.658647 1.334 
0.98566 -0.669509 1.356 
1.05046 -0.676422 1.37 
1.11717 -0.683828 1.385 
1.19271 -0.695677 1.409 
1.26572 -0.705058 1.428 
1.3421 -0.715427 1.449 
1.42016 -0.725795 1.47 
-0.748567 -0.428495 0.872 
-0.717077 -0.43046 0.876 
-0.689161 -0.434883 0.885 
-0.658311 -0.437831 0.891 
-0.629778 -0.442745 0.901 
-0.59913 -0.446676 0.909 
-0.565986 -0.449133 0.914 
-0.538237 -0.456504 0.929 
-0.504977 -0.459944 0.936 
-0.473656 -0.465841 0.948 
-0.43862 -0.468789 0.954 
-0.406464 -0.475669 0.968 
-0.370532 -0.479108 0.975 
-0.335403 -0.484514 0.986 
-0.299096 -0.489428 0.996 
0.524848 -0.604414 1.23 
0.580418 -0.611293 1.244 
0.636091 -0.61719 1.256 
0.699823 -0.629475 1.281 
0.756169 -0.633897 1.29 
0.821998 -0.645199 1.313 
0.882335 -0.651096 1.325 
0.947864 -0.659941 1.343 
1.01632 -0.669769 1.363 
1.08244 -0.67714 1.378 
1.15306 -0.686476 1.397 
1.22866 -0.697778 1.42 
1.30518 -0.708589 1.442 
1.38157 -0.718417 1.462 
1.45463 -0.725788 1.477 
-0.733886 -0.427428 0.874 
-0.704641 -0.430851 0.881 
-0.674837 -0.434275 0.888 
-0.645915 -0.438676 0.897 
-0.617636 -0.444056 0.908 
-0.583357 -0.445523 0.911 
-0.556044 -0.452858 0.926 
-0.52249 -0.455793 0.932 
-0.490541 -0.460683 0.942 
-0.457794 -0.465574 0.952 
-0.42425 -0.470464 0.962 
-0.389908 -0.475355 0.972 
-0.354046 -0.479267 0.98 
-0.319154 -0.485625 0.993 
0.496859 -0.599084 1.225 
0.551934 -0.605931 1.239 
0.606184 -0.610821 1.249 
0.667533 -0.62158 1.271 
0.724986 -0.627449 1.283 
0.78884 -0.637719 1.304 
0.85179 -0.646032 1.321 
0.914041 -0.652879 1.335 
0.98248 -0.663149 1.356 
1.04877 -0.670974 1.372 
1.11634 -0.678799 1.388 
1.19109 -0.690047 1.411 
1.26502 -0.699828 1.431 
1.33963 -0.70912 1.45 
1.41864 -0.719879 1.472 
-0.757298 -0.425865 0.875 
-0.722414 -0.425865 0.875 
-0.695387 -0.430732 0.885 
-0.664579 -0.433652 0.891 
-0.636117 -0.438519 0.901 
-0.605525 -0.442413 0.909 
-0.572417 -0.444846 0.914 
-0.544773 -0.452147 0.929 
-0.511562 -0.455554 0.936 
-0.480326 -0.461394 0.948 
-0.445332 -0.464314 0.954 
-0.412848 -0.470642 0.967 
-0.377392 -0.474535 0.975 
-0.34234 -0.479889 0.986 
-0.306411 -0.485243 0.997 
0.51331 -0.598644 1.23 
0.568291 -0.604972 1.243 
0.623812 -0.610812 1.255 
0.687269 -0.62298 1.28 
0.743491 -0.62736 1.289 
0.809064 -0.638554 1.312 
0.869906 -0.644881 1.325 
0.93457 -0.653155 1.342 
1.00353 -0.663376 1.363 
1.06796 -0.669703 1.376 
1.13996 -0.679924 1.397 
1.21277 -0.689658 1.417 
1.29166 -0.701825 1.442 
1.36786 -0.711559 1.462 
1.44078 -0.71886 1.477 
-0.746185 -0.423329 0.874 
-0.716223 -0.426235 0.88 
-0.686558 -0.429625 0.887 
-0.656334 -0.433016 0.894 
-0.628329 -0.438344 0.905 
-0.596175 -0.44125 0.911 
-0.566001 -0.446093 0.921 
-0.534455 -0.450453 0.93 
-0.502726 -0.455296 0.94 
-0.470199 -0.46014 0.95 
-0.43551 -0.46353 0.957 
-0.402755 -0.469827 0.97 
-0.36671 -0.473217 0.977 
-0.331785 -0.47903 0.989 
-0.295016 -0.483389 0.998 
0.523237 -0.597213 1.233 
0.577965 -0.603025 1.245 
0.63617 -0.611259 1.262 
0.697362 -0.620947 1.282 
0.754311 -0.62579 1.292 
0.821413 -0.637899 1.317 
0.881219 -0.643227 1.328 
0.949639 -0.653883 1.35 
1.0161 -0.662117 1.367 
1.08234 -0.669382 1.382 
1.15473 -0.679554 1.403 
1.22705 -0.688757 1.422 
1.30632 -0.700866 1.447 
1.38097 -0.709584 1.465 
1.45608 -0.717818 1.482 
-0.741729 -0.422243 0.876 
-0.711646 -0.425135 0.882 
-0.681084 -0.428027 0.888 
-0.651498 -0.431883 0.896 
-0.624024 -0.437667 0.908 
-0.591061 -0.440077 0.913 
-0.562559 -0.446344 0.926 
-0.529047 -0.449236 0.932 
-0.497168 -0.454056 0.942 
-0.464491 -0.458876 0.952 
-0.430122 -0.462732 0.96 
-0.396746 -0.468516 0.972 
-0.36131 -0.472854 0.981 
-0.325812 -0.478156 0.992 
0.482495 -0.590465 1.225 
0.536972 -0.596731 1.238 
0.591064 -0.601552 1.248 
0.651089 -0.611192 1.268 
0.711049 -0.619386 1.285 
0.772957 -0.628062 1.303 
0.8363 -0.636738 1.321 
0.897714 -0.643005 1.334 
0.96658 -0.653609 1.356 
1.03118 -0.660357 1.37 
1.10006 -0.669033 1.388 
1.17455 -0.68012 1.411 
1.2465 -0.688796 1.429 
1.32263 -0.698918 1.45 
1.39948 -0.708558 1.47 
1.47296 -0.715788 1.485 
-0.734349 -0.420668 0.877 
-0.704169 -0.423546 0.883 
-0.674269 -0.426904 0.89 
-0.646682 -0.43218 0.901 
-0.616184 -0.436018 0.909 
-0.58441 -0.439375 0.916 
-0.555069 -0.445131 0.928 
-0.521421 -0.448009 0.934 
-0.490923 -0.454245 0.947 
-0.456518 -0.457603 0.954 
-0.422871 -0.462399 0.964 
-0.388426 -0.467196 0.974 
-0.353902 -0.472952 0.986 
-0.317464 -0.477269 0.995 
0.496003 -0.589991 1.23 
0.550801 -0.596226 1.243 
0.604704 -0.600543 1.252 
0.666644 -0.611576 1.275 
0.724228 -0.617332 1.287 
0.788193 -0.627405 1.308 
0.850619 -0.63508 1.324 
0.913639 -0.642275 1.339 
0.984355 -0.653787 1.363 
1.04784 -0.659543 1.375 
1.1203 -0.670095 1.397 
1.19283 -0.679689 1.417 
1.26872 -0.690241 1.439 
1.3436 -0.699355 1.458 
1.41807 -0.707509 1.475 
-0.761086 -0.418612 0.877 
-0.727778 -0.419566 0.879 
-0.698251 -0.422907 0.886 
-0.666669 -0.425294 0.891 
-0.641063 -0.431977 0.905 
-0.608994 -0.434841 0.911 
-0.578332 -0.439136 0.92 
-0.547541 -0.44391 0.93 
-0.514855 -0.447728 0.938 
-0.483058 -0.452979 0.949 
-0.448507 -0.45632 0.956 
-0.415116 -0.461571 0.967 
-0.380457 -0.466344 0.977 
-0.3464 -0.473026 0.991 
-0.309059 -0.476368 0.998 
0.508779 -0.588538 1.233 
0.563366 -0.594266 1.245 
0.620387 -0.601426 1.26 
0.681265 -0.610972 1.28 
0.73859 -0.616223 1.291 
0.805358 -0.628156 1.316 
0.864995 -0.633406 1.327 
0.931042 -0.642476 1.346 
1.00007 -0.652499 1.367 
1.06537 -0.659182 1.381 
1.13827 -0.669683 1.403 
1.20868 -0.677797 1.42 
1.28935 -0.690685 1.447 
1.36379 -0.699277 1.465 
1.43968 -0.707869 1.483 
-0.750803 -0.416555 0.877 
-0.719103 -0.418455 0.881 
-0.689414 -0.42178 0.888 
-0.658431 -0.424629 0.894 
-0.632541 -0.431279 0.908 
-0.600282 -0.434129 0.914 
-0.571245 -0.439829 0.926 
-0.53779 -0.442679 0.932 
-0.506005 -0.447428 0.942 
-0.473422 -0.452178 0.952 
-0.43867 -0.455503 0.959 
-0.405865 -0.461678 0.972 
-0.370134 -0.465477 0.98 
-0.335793 -0.472127 0.994 
-0.297654 -0.474502 0.999 
0.525359 -0.588022 1.238 
0.579822 -0.593246 1.249 
0.640707 -0.603696 1.271 
0.698994 -0.610345 1.285 
0.758982 -0.61747 1.3 
0.823908 -0.627445 1.321 
0.8852 -0.633619 1.334 
0.953859 -0.644069 1.356 
1.01981 -0.651668 1.372 
1.08704 -0.659268 1.388 
1.16131 -0.670192 1.411 
1.23051 -0.677317 1.426 
1.30902 -0.688717 1.45 
1.38569 -0.698216 1.47 
1.46591 -0.708666 1.492 
-0.742208 -0.415443 0.879 
-0.711991 -0.418279 0.885 
-0.681296 -0.421115 0.891 
-0.651572 -0.424896 0.899 
-0.622579 -0.429622 0.909 
-0.5915 -0.433403 0.917 
-0.562203 -0.439075 0.929 
-0.528557 -0.441911 0.935 
-0.497586 -0.447582 0.947 
-0.462744 -0.450418 0.953 
-0.429653 -0.455617 0.964 
-0.395279 -0.460343 0.974 
-0.361571 -0.46696 0.988 
-0.325116 -0.471214 0.997 
0.491031 -0.582282 1.232 
0.544971 -0.587481 1.243 
0.600266 -0.593153 1.255 
0.6617 -0.603551 1.277 
0.719308 -0.609222 1.289 
0.784449 -0.620093 1.312 
0.845047 -0.626237 1.325 
0.91007 -0.634745 1.343 
0.979397 -0.645142 1.365 
1.04215 -0.650341 1.376 
1.11534 -0.661212 1.399 
1.18619 -0.669719 1.417 
1.2646 -0.681535 1.442 
1.34043 -0.690988 1.462 
1.41307 -0.698077 1.477 
-0.764883 -0.413382 0.879 
-0.729839 -0.413382 0.879 
-0.701909 -0.417615 0.888 
-0.670259 -0.419966 0.893 
-0.643897 -0.42608 0.906 
-0.611801 -0.428901 0.912 
-0.582382 -0.434075 0.923 
-0.549722 -0.437367 0.93 
-0.518157 -0.442069 0.94 
-0.486306 -0.447243 0.951 
-0.451221 -0.450064 0.957 
-0.417815 -0.455237 0.968 
-0.382749 -0.45947 0.977 
-0.34978 -0.467465 0.994 
-0.312023 -0.470287 1 
0.504219 -0.581274 1.236 
0.557974 -0.585977 1.246 
0.61594 -0.593972 1.263 
0.675789 -0.602437 1.281 
0.734804 -0.609021 1.295 
0.799793 -0.619367 1.317 
0.859418 -0.624541 1.328 
0.927477 -0.634887 1.35 
0.99511 -0.643822 1.369 
1.05966 -0.649936 1.382 
1.13331 -0.660753 1.405 
1.20371 -0.668748 1.422 
1.28256 -0.680505 1.447 
1.3597 -0.690381 1.468 
1.43465 -0.698376 1.485 
-0.754576 -0.411321 0.879 
-0.722807 -0.413192 0.883 
-0.692275 -0.416 0.889 
-0.661266 -0.418808 0.895 
-0.634671 -0.424891 0.908 
-0.603085 -0.428166 0.915 
-0.574655 -0.43425 0.928 
-0.541134 -0.437057 0.934 
-0.509832 -0.442205 0.945 
-0.475655 -0.44548 0.952 
-0.442298 -0.45016 0.962 
-0.408144 -0.454839 0.972 
-0.373193 -0.459519 0.982 
-0.338805 -0.46607 0.996 
-0.300898 -0.468877 1.002 
0.513745 -0.579311 1.238 
0.568105 -0.584459 1.249 
0.629279 -0.595222 1.272 
0.685871 -0.600369 1.283 
0.746787 -0.608324 1.3 
0.810902 -0.617683 1.32 
0.870724 -0.62283 1.331 
0.939057 -0.633125 1.353 
1.00694 -0.642016 1.372 
1.07402 -0.649503 1.388 
1.14807 -0.660265 1.411 
1.21713 -0.667285 1.426 
1.29542 -0.678515 1.45 
1.3719 -0.687874 1.47 
1.45483 -0.699573 1.495 
-0.744269 -0.409259 0.879 
-0.71568 -0.412984 0.887 
-0.684152 -0.415312 0.892 
-0.654407 -0.419037 0.9 
-0.625398 -0.423693 0.91 
-0.594945 -0.427883 0.919 
-0.564989 -0.433005 0.93 
-0.532453 -0.436729 0.938 
-0.500335 -0.441385 0.948 
-0.465467 -0.444179 0.954 
-0.433258 -0.450232 0.967 
-0.397563 -0.453491 0.974 
-0.364256 -0.460475 0.989 
-0.327783 -0.464665 0.998 
-0.289437 -0.466993 1.003 
0.529969 -0.578271 1.242 
0.58555 -0.584323 1.255 
0.647233 -0.595032 1.278 
0.704193 -0.600154 1.289 
0.767306 -0.609466 1.309 
0.82951 -0.616915 1.325 
0.894322 -0.625296 1.343 
0.961274 -0.634142 1.362 
1.02601 -0.64066 1.376 
1.09737 -0.650438 1.397 
1.16957 -0.65975 1.417 
1.24337 -0.669062 1.437 
1.31967 -0.678839 1.458 
1.39386 -0.686754 1.475 
1.48122 -0.700257 1.504 
-0.737698 -0.408124 0.881 
-0.708954 -0.41183 0.889 
-0.678057 -0.41461 0.895 
-0.648835 -0.418779 0.904 
-0.618895 -0.422948 0.913 
-0.588876 -0.427581 0.923 
-0.556863 -0.431287 0.931 
-0.52477 -0.435456 0.94 
-0.492997 -0.440552 0.951 
-0.457954 -0.443331 0.957 
-0.425503 -0.449354 0.97 
-0.389622 -0.452596 0.977 
-0.356773 -0.460472 0.994 
-0.319697 -0.464178 1.002 
0.48103 -0.572578 1.236 
0.53331 -0.575821 1.243 
0.588962 -0.581843 1.256 
0.651247 -0.592961 1.28 
0.707216 -0.597131 1.289 
0.772142 -0.607785 1.312 
0.832618 -0.613808 1.325 
0.899476 -0.623536 1.346 
0.965176 -0.631411 1.363 
1.03074 -0.63836 1.378 
1.10301 -0.648552 1.4 
1.17372 -0.65689 1.418 
1.25108 -0.668008 1.442 
1.32672 -0.677273 1.462 
1.39732 -0.683295 1.475 
1.4887 -0.698583 1.508 
-0.736467 -0.406519 0.882 
-0.70687 -0.409745 0.889 
-0.677469 -0.413433 0.897 
-0.648146 -0.417581 0.906 
-0.618105 -0.421729 0.915 
-0.588618 -0.426799 0.926 
-0.555275 -0.429564 0.932 
-0.524234 -0.434634 0.943 
-0.491283 -0.438782 0.952 
-0.456662 -0.442009 0.959 
-0.424101 -0.448001 0.972 
-0.387728 -0.450766 0.978 
-0.354799 -0.458601 0.995 
-0.317347 -0.461828 1.002 
0.48103 -0.56968 1.236 
0.53374 -0.573367 1.244 
0.590369 -0.580281 1.259 
0.651756 -0.59042 1.281 
0.708313 -0.59503 1.291 
0.77273 -0.605169 1.313 
0.833874 -0.611622 1.327 
0.900813 -0.621301 1.348 
0.966593 -0.629137 1.365 
1.03298 -0.636511 1.381 
1.10537 -0.646651 1.403 
1.17372 -0.653565 1.418 
1.25108 -0.664626 1.442 
1.32672 -0.673844 1.462 
1.39732 -0.679836 1.475 
1.4887 -0.695046 1.508 
-0.737302 -0.404909 0.883 
-0.70687 -0.407661 0.889 
-0.678224 -0.411788 0.898 
-0.648146 -0.415456 0.906 
-0.618105 -0.419583 0.915 
-0.588618 -0.424627 0.926 
-0.555275 -0.427379 0.932 
-0.524234 -0.432423 0.943 
-0.491283 -0.43655 0.952 
-0.457138 -0.440218 0.96 
-0.424101 -0.445721 0.972 
-0.388124 -0.448931 0.979 
-0.354799 -0.456268 0.995 
-0.317664 -0.459936 1.003 
0.478519 -0.56724 1.237 
0.530822 -0.57045 1.244 
0.587883 -0.577787 1.26 
0.648752 -0.587416 1.281 
0.705832 -0.592461 1.292 
0.769651 -0.60209 1.313 
0.830762 -0.60851 1.327 
0.898983 -0.619057 1.35 
0.963392 -0.625935 1.365 
1.02974 -0.633272 1.381 
1.10208 -0.643361 1.403 
1.17205 -0.651156 1.42 
1.24769 -0.661245 1.442 
1.32329 -0.670416 1.462 
1.39575 -0.677294 1.477 
1.48516 -0.69151 1.508 
-0.739373 -0.402838 0.883 
-0.709752 -0.406032 0.89 
-0.68033 -0.409682 0.898 
-0.649553 -0.412875 0.905 
-0.620251 -0.417437 0.915 
-0.59079 -0.422456 0.926 
-0.557461 -0.425193 0.932 
-0.526445 -0.430211 0.943 
-0.493515 -0.434317 0.952 
-0.459868 -0.438423 0.961 
-0.42638 -0.443442 0.972 
-0.390021 -0.446179 0.978 
-0.357132 -0.453935 0.995 
-0.320016 -0.457584 1.003 
0.484712 -0.564795 1.238 
0.53752 -0.568445 1.246 
0.595207 -0.5762 1.263 
0.655271 -0.584868 1.282 
0.713545 -0.590799 1.295 
0.778173 -0.600836 1.317 
0.838879 -0.606767 1.33 
0.907327 -0.61726 1.353 
0.971215 -0.623647 1.367 
1.03922 -0.631859 1.385 
1.11261 -0.642352 1.408 
1.1812 -0.649195 1.423 
1.25881 -0.660144 1.447 
1.33287 -0.668356 1.465 
1.40363 -0.674287 1.478 
1.49323 -0.688429 1.509 
-0.737729 -0.402129 0.886 
-0.70637 -0.404399 0.891 
-0.678377 -0.408937 0.901 
-0.646021 -0.411207 0.906 
-0.618652 -0.417107 0.919 
-0.587713 -0.421192 0.928 
-0.554277 -0.423915 0.934 
-0.524237 -0.429815 0.947 
-0.490078 -0.432992 0.954 
-0.456782 -0.437531 0.964 
-0.422255 -0.441616 0.973 
-0.386222 -0.444793 0.98 
-0.35282 -0.452055 0.996 
-0.31594 -0.45614 1.005 
0.485104 -0.562345 1.239 
0.538382 -0.56643 1.248 
0.59662 -0.5746 1.266 
0.655783 -0.582316 1.283 
0.714096 -0.588216 1.296 
0.779355 -0.598655 1.319 
0.838879 -0.603648 1.33 
0.907327 -0.614087 1.353 
0.972636 -0.621349 1.369 
1.04147 -0.629972 1.388 
1.11498 -0.640411 1.411 
1.1812 -0.645858 1.423 
1.26055 -0.657658 1.449 
1.33469 -0.665828 1.467 
1.40553 -0.671728 1.48 
1.49718 -0.686706 1.513 
-0.741885 -0.400051 0.886 
-0.710549 -0.402309 0.891 
-0.681088 -0.405921 0.899 
-0.650271 -0.409082 0.906 
-0.622285 -0.4145 0.918 
-0.592066 -0.419015 0.928 
-0.557461 -0.420822 0.932 
-0.528678 -0.427594 0.947 
-0.494034 -0.430304 0.953 
-0.461303 -0.43527 0.964 
-0.427257 -0.439786 0.974 
-0.390819 -0.442495 0.98 
-0.357132 -0.449268 0.995 
-0.320654 -0.453783 1.005 
0.476387 -0.55944 1.239 
0.529602 -0.563504 1.248 
0.586321 -0.570276 1.263 
0.646252 -0.578855 1.282 
0.704434 -0.584725 1.295 
0.768907 -0.594659 1.317 
0.829521 -0.600529 1.33 
0.897808 -0.610914 1.353 
0.961597 -0.617235 1.367 
1.02948 -0.625363 1.385 
1.10349 -0.636199 1.409 
1.17119 -0.64252 1.423 
1.24863 -0.653357 1.447 
1.32257 -0.661484 1.465 
1.39323 -0.667354 1.478 
1.48654 -0.683158 1.513 
-0.749349 -0.397524 0.885 
-0.718101 -0.39977 0.89 
-0.688754 -0.403364 0.898 
-0.658042 -0.406508 0.905 
-0.626773 -0.409652 0.912 
-0.600771 -0.416839 0.928 
-0.566204 -0.418636 0.932 
-0.536426 -0.424475 0.945 
-0.502446 -0.427619 0.952 
-0.469371 -0.432111 0.962 
-0.435946 -0.437052 0.973 
-0.399196 -0.439298 0.978 
-0.366098 -0.446485 0.994 
-0.329096 -0.450078 1.002 
-0.292323 -0.455019 1.013 
0.51373 -0.559229 1.245 
0.571059 -0.566865 1.262 
0.630727 -0.5754 1.281 
0.687652 -0.580341 1.292 
0.750604 -0.589324 1.312 
0.81209 -0.596062 1.327 
0.87738 -0.604596 1.346 
0.944185 -0.613131 1.365 
1.01031 -0.620318 1.381 
1.08388 -0.631098 1.405 
1.15207 -0.637836 1.42 
1.2274 -0.647718 1.442 
1.30271 -0.656701 1.462 
1.37497 -0.663439 1.477 
1.46492 -0.677813 1.509 
-0.75801 -0.394555 0.883 
-0.727718 -0.397236 0.889 
-0.697726 -0.400364 0.896 
-0.667177 -0.403492 0.903 
-0.63537 -0.406173 0.909 
-0.610335 -0.413769 0.926 
-0.575894 -0.415556 0.93 
-0.545769 -0.420918 0.942 
-0.51199 -0.424046 0.949 
-0.479652 -0.428962 0.96 
-0.446896 -0.434324 0.972 
-0.410244 -0.436558 0.977 
-0.375853 -0.44192 0.989 
-0.340165 -0.446835 1 
-0.304201 -0.452644 1.013 
0.495415 -0.555416 1.243 
0.55067 -0.561225 1.256 
0.610789 -0.570608 1.277 
0.666882 -0.575077 1.287 
0.727678 -0.582673 1.304 
0.791624 -0.591609 1.324 
0.852063 -0.596971 1.336 
0.922945 -0.608589 1.362 
0.986572 -0.614398 1.375 
1.05957 -0.625122 1.399 
1.13049 -0.633612 1.418 
1.19958 -0.640314 1.433 
1.27864 -0.651485 1.458 
1.3496 -0.657741 1.472 
1.43603 -0.670699 1.501 
-0.770104 -0.393373 0.885 
-0.737312 -0.394707 0.888 
-0.706652 -0.397374 0.894 
-0.677015 -0.40093 0.902 
-0.645318 -0.403597 0.908 
-0.619851 -0.410709 0.924 
-0.586799 -0.413375 0.93 
-0.553268 -0.416042 0.936 
-0.522567 -0.421376 0.948 
-0.489374 -0.425377 0.957 
-0.456879 -0.430711 0.969 
-0.420836 -0.433377 0.975 
-0.387058 -0.439156 0.988 
-0.351187 -0.443601 0.998 
-0.315456 -0.449379 1.011 
0.477924 -0.552501 1.243 
0.530875 -0.556057 1.251 
0.588178 -0.563169 1.267 
0.646756 -0.57028 1.283 
0.707154 -0.577837 1.3 
0.770659 -0.586726 1.32 
0.830145 -0.591616 1.331 
0.900462 -0.603173 1.357 
0.963708 -0.608951 1.37 
1.03617 -0.619619 1.394 
1.10741 -0.628508 1.414 
1.17612 -0.635176 1.429 
1.25381 -0.645844 1.453 
1.32708 -0.6534 1.47 
1.40171 -0.660956 1.487 
1.48949 -0.673846 1.516 
-0.749807 -0.392624 0.888 
-0.716818 -0.393951 0.891 
-0.688942 -0.398372 0.901 
-0.656645 -0.400583 0.906 
-0.626689 -0.404562 0.915 
-0.59924 -0.410752 0.929 
-0.564018 -0.412079 0.932 
-0.535341 -0.418711 0.947 
-0.501264 -0.421806 0.954 
-0.470028 -0.427996 0.968 
-0.43411 -0.430649 0.974 
-0.399337 -0.43507 0.984 
-0.364864 -0.440818 0.997 
-0.327725 -0.444355 1.005 
-0.290806 -0.449219 1.016 
0.512042 -0.551796 1.248 
0.568549 -0.558429 1.263 
0.628213 -0.566829 1.282 
0.686212 -0.572577 1.295 
0.748097 -0.580536 1.313 
0.810807 -0.588052 1.33 
0.87812 -0.597779 1.352 
0.943741 -0.605296 1.369 
1.00999 -0.61237 1.385 
1.08366 -0.622982 1.409 
1.15278 -0.630056 1.425 
1.22827 -0.639783 1.447 
1.30195 -0.647742 1.465 
1.37429 -0.654374 1.48 
1.46719 -0.669849 1.515 
-0.760585 -0.389662 0.886 
-0.727718 -0.390982 0.889 
-0.700841 -0.395819 0.9 
-0.667916 -0.397579 0.904 
-0.63537 -0.399778 0.909 
-0.611653 -0.408134 0.928 
-0.577132 -0.409893 0.932 
-0.546349 -0.414731 0.943 
-0.513069 -0.418249 0.951 
-0.48165 -0.423967 0.964 
-0.447355 -0.427925 0.973 
-0.411503 -0.431003 0.98 
-0.378133 -0.4376 0.995 
-0.340506 -0.440239 1.001 
-0.305102 -0.446836 1.016 
0.493292 -0.54755 1.245 
0.550341 -0.555027 1.262 
0.60827 -0.562064 1.278 
0.665411 -0.567341 1.29 
0.727399 -0.575697 1.309 
0.789115 -0.582734 1.325 
0.850836 -0.588891 1.339 
0.921776 -0.600326 1.365 
0.985493 -0.606044 1.378 
1.05931 -0.617039 1.403 
1.12875 -0.624515 1.42 
1.20373 -0.634191 1.442 
1.27871 -0.642987 1.462 
1.34889 -0.648704 1.475 
1.43919 -0.663217 1.508 
1.51522 -0.670254 1.524 
-0.740227 -0.388897 0.889 
-0.709541 -0.391522 0.895 
-0.680636 -0.395459 0.904 
-0.647447 -0.397208 0.908 
-0.622018 -0.404208 0.924 
-0.58898 -0.406832 0.93 
-0.55665 -0.410332 0.938 
-0.525344 -0.415144 0.949 
-0.492646 -0.419519 0.959 
-0.460573 -0.425205 0.972 
-0.423991 -0.427393 0.977 
-0.391346 -0.434392 0.993 
-0.353882 -0.437017 0.999 
-0.318455 -0.443141 1.013 
0.0405794 -3.88022 8.87 
0.512862 -0.546818 1.25 
0.57035 -0.554254 1.267 
0.628703 -0.561254 1.283 
0.686742 -0.566941 1.296 
0.751515 -0.577002 1.319 
0.811417 -0.582252 1.331 
0.880718 -0.593188 1.356 
0.94443 -0.599312 1.37 
1.0129 -0.607624 1.389 
1.08597 -0.617685 1.412 
1.15521 -0.624685 1.428 
1.23336 -0.635621 1.453 
1.30462 -0.642183 1.468 
1.37707 -0.648745 1.483 
1.47009 -0.664056 1.518 
-0.761444 -0.385942 0.887 
-0.729355 -0.387682 0.891 
-0.70162 -0.392033 0.901 
-0.668654 -0.393774 0.905 
-0.636768 -0.396384 0.911 
-0.611653 -0.403781 0.928 
-0.577752 -0.405957 0.933 
-0.547507 -0.411178 0.945 
-0.513609 -0.414224 0.952 
-0.482649 -0.420315 0.966 
-0.447815 -0.423796 0.974 
-0.412343 -0.427277 0.982 
-0.379273 -0.434239 0.998 
-0.340846 -0.435979 1.002 
-0.306003 -0.443376 1.019 
0.145582 -3.88596 8.931 
0.523743 -0.546062 1.255 
0.579721 -0.551718 1.268 
0.638723 -0.559115 1.285 
0.699618 -0.566947 1.303 
0.763102 -0.575649 1.323 
0.823247 -0.580871 1.335 
0.894198 -0.592619 1.362 
0.956158 -0.597405 1.373 
1.02857 -0.607847 1.397 
1.09979 -0.616549 1.417 
1.17015 -0.623946 1.434 
1.24786 -0.634389 1.458 
1.31853 -0.640481 1.472 
1.39593 -0.649183 1.492 
1.48663 -0.663106 1.524 
-0.76022 -0.384294 0.888 
-0.727266 -0.385593 0.891 
-0.701836 -0.391219 0.904 
-0.667269 -0.392084 0.906 
-0.634631 -0.394248 0.911 
-0.610133 -0.402038 0.929 
-0.576797 -0.404634 0.935 
-0.546445 -0.409827 0.947 
-0.511376 -0.411991 0.952 
-0.481379 -0.418915 0.968 
-0.445531 -0.421512 0.974 
-0.410875 -0.42584 0.984 
-0.376933 -0.431898 0.998 
-0.338834 -0.434062 1.003 
-0.303911 -0.441419 1.02 
0.473993 -0.540089 1.248 
0.528365 -0.54485 1.259 
0.584533 -0.550476 1.272 
0.642736 -0.556967 1.287 
0.704831 -0.565622 1.307 
0.766784 -0.572979 1.324 
0.828235 -0.579038 1.338 
0.898051 -0.589857 1.363 
0.960776 -0.59505 1.375 
1.03406 -0.605869 1.4 
1.10389 -0.613659 1.418 
1.17761 -0.622747 1.439 
1.253 -0.631835 1.46 
1.32468 -0.638327 1.475 
1.40787 -0.649579 1.501 
1.4902 -0.659532 1.524 
-0.753972 -0.382212 0.888 
-0.722615 -0.384364 0.893 
-0.697015 -0.389959 0.906 
-0.662353 -0.39082 0.908 
-0.63098 -0.393833 0.915 
-0.604247 -0.400289 0.93 
-0.572049 -0.403733 0.938 
-0.540923 -0.408467 0.949 
-0.506269 -0.41105 0.955 
-0.476039 -0.417937 0.971 
-0.438678 -0.419228 0.974 
-0.406005 -0.425684 0.989 
-0.370282 -0.429988 0.999 
-0.333431 -0.433862 1.008 
-0.297026 -0.439457 1.021 
0.471444 -0.537593 1.249 
0.525412 -0.541897 1.259 
0.58155 -0.547493 1.272 
0.639718 -0.553949 1.287 
0.700155 -0.561266 1.304 
0.763679 -0.569874 1.324 
0.825714 -0.576331 1.339 
0.896167 -0.587521 1.365 
0.957551 -0.591826 1.375 
1.03078 -0.602586 1.4 
1.10056 -0.610334 1.418 
1.17423 -0.619372 1.439 
1.24957 -0.628411 1.46 
1.32122 -0.634868 1.475 
1.40061 -0.644337 1.497 
1.4876 -0.656389 1.525 
-0.756906 -0.380557 0.889 
-0.72471 -0.38227 0.893 
-0.699139 -0.387835 0.906 
-0.664483 -0.388691 0.908 
-0.633126 -0.391687 0.915 
-0.606428 -0.398108 0.93 
-0.575473 -0.402389 0.94 
-0.543148 -0.406242 0.949 
-0.508508 -0.40881 0.955 
-0.477824 -0.415231 0.97 
-0.440963 -0.416944 0.974 
-0.408324 -0.423365 0.989 
-0.372625 -0.427645 0.999 
-0.335795 -0.431498 1.008 
-0.299714 -0.437491 1.022 
0.170051 -3.90403 9.12 
0.51197 -0.537232 1.255 
0.56917 -0.544081 1.271 
0.627157 -0.550503 1.286 
0.685813 -0.556496 1.3 
0.750692 -0.566341 1.323 
0.812546 -0.572762 1.338 
0.881421 -0.583036 1.362 
0.944652 -0.588601 1.375 
1.01546 -0.598019 1.397 
1.08649 -0.60658 1.417 
1.15912 -0.615142 1.437 
1.23418 -0.624131 1.458 
1.30472 -0.630124 1.472 
1.3773 -0.636545 1.487 
1.4733 -0.652812 1.525 
-0.766467 -0.378047 0.888 
-0.733534 -0.379324 0.891 
-0.708196 -0.384858 0.904 
-0.674386 -0.386136 0.907 
-0.641041 -0.387839 0.911 
-0.616669 -0.395502 0.929 
-0.584 -0.398482 0.936 
-0.553108 -0.403165 0.947 
-0.518618 -0.405719 0.953 
-0.48718 -0.411254 0.966 
-0.452384 -0.414659 0.974 
-0.417798 -0.418917 0.984 
-0.383954 -0.424877 0.998 
-0.34658 -0.427857 1.005 
-0.311088 -0.434243 1.02 
0.0631111 -3.88264 9.12 
0.49313 -0.533012 1.252 
0.551285 -0.541101 1.271 
0.607641 -0.546209 1.283 
0.665466 -0.551744 1.296 
0.728756 -0.560684 1.317 
0.789567 -0.566644 1.331 
0.855926 -0.575585 1.352 
0.92194 -0.583248 1.37 
0.990103 -0.591337 1.389 
1.06279 -0.601128 1.412 
1.13177 -0.60794 1.428 
1.20951 -0.618583 1.453 
1.28052 -0.624969 1.468 
1.35455 -0.632207 1.485 
1.44898 -0.647959 1.522 
1.51859 -0.65179 1.531 
-0.746072 -0.377234 0.891 
-0.716929 -0.380621 0.899 
-0.687906 -0.384432 0.908 
-0.652424 -0.384855 0.909 
-0.627708 -0.392053 0.926 
-0.594618 -0.394593 0.932 
-0.565237 -0.400097 0.945 
-0.53147 -0.403061 0.952 
-0.499736 -0.408141 0.964 
-0.466089 -0.412375 0.974 
-0.429889 -0.414916 0.98 
-0.3972 -0.42169 0.996 
-0.359645 -0.42423 1.002 
-0.324802 -0.431004 1.018 
-0.286171 -0.433968 1.025 
0.46889 -0.529229 1.25 
0.523705 -0.53431 1.262 
0.580386 -0.540237 1.276 
0.637689 -0.545741 1.289 
0.699236 -0.553785 1.308 
0.761149 -0.560983 1.325 
0.826874 -0.569874 1.346 
0.894274 -0.578765 1.367 
0.957102 -0.583845 1.379 
1.03116 -0.594853 1.405 
1.09878 -0.601204 1.42 
1.17492 -0.611365 1.444 
1.24871 -0.61941 1.463 
1.32044 -0.62576 1.478 
1.40363 -0.636768 1.504 
1.48986 -0.6482 1.531 
-0.759845 -0.374724 0.89 
-0.723254 -0.378513 0.899 
-0.694295 -0.382303 0.908 
-0.658819 -0.382724 0.909 
-0.632853 -0.389039 0.924 
-0.601175 -0.392407 0.932 
-0.571886 -0.397881 0.945 
-0.538167 -0.400828 0.952 
-0.505468 -0.405039 0.962 
-0.472456 -0.40967 0.973 
-0.435447 -0.411354 0.977 
-0.403801 -0.418933 0.995 
-0.366694 -0.42188 1.002 
-0.331312 -0.427775 1.016 
-0.293382 -0.431564 1.025 
0.217424 -3.92281 9.317 
0.503542 -0.528824 1.256 
0.562431 -0.537244 1.276 
0.61859 -0.541876 1.287 
0.678228 -0.548613 1.303 
0.741384 -0.557033 1.323 
0.803733 -0.56377 1.339 
0.872479 -0.573875 1.363 
0.934979 -0.578927 1.375 
1.00779 -0.589453 1.4 
1.07652 -0.596611 1.417 
1.14901 -0.605032 1.437 
1.22561 -0.614716 1.46 
1.29437 -0.619768 1.472 
1.37419 -0.629452 1.495 
1.46448 -0.642925 1.527 
-0.7715 -0.372218 0.889 
-0.735181 -0.373893 0.893 
-0.709763 -0.379336 0.906 
-0.67513 -0.380173 0.908 
-0.642448 -0.382267 0.913 
-0.617333 -0.389384 0.93 
-0.586495 -0.393571 0.94 
-0.554276 -0.39734 0.949 
-0.520251 -0.40027 0.956 
-0.488189 -0.405295 0.968 
-0.452384 -0.407807 0.974 
-0.419496 -0.413669 0.988 
-0.383954 -0.417855 0.998 
-0.347959 -0.422461 1.009 
-0.312003 -0.428323 1.023 
0.0204779 -3.84527 9.184 
0.476272 -0.525041 1.254 
0.531722 -0.530484 1.267 
0.588669 -0.536346 1.281 
0.646731 -0.542207 1.295 
0.708067 -0.549744 1.313 
0.770259 -0.556861 1.33 
0.835663 -0.565235 1.35 
0.902663 -0.573609 1.37 
0.969859 -0.581146 1.388 
1.04218 -0.590776 1.411 
1.10934 -0.596637 1.425 
1.18661 -0.607105 1.45 
1.25986 -0.614641 1.468 
1.33366 -0.621759 1.485 
1.42381 -0.635576 1.518 
1.49998 -0.642275 1.534 
-0.75443 -0.370966 0.891 
-0.726976 -0.375129 0.901 
-0.696424 -0.378044 0.908 
-0.661678 -0.378876 0.91 
-0.636394 -0.385538 0.926 
-0.603361 -0.388036 0.932 
-0.575317 -0.394281 0.947 
-0.5404 -0.396363 0.952 
-0.508779 -0.401359 0.964 
-0.474738 -0.405106 0.973 
-0.438186 -0.407188 0.978 
-0.406135 -0.414266 0.995 
-0.369044 -0.41718 1.002 
-0.333695 -0.423009 1.016 
-0.295786 -0.426756 1.025 
0.172475 -3.85122 9.25 
0.505145 -0.524598 1.26 
0.562872 -0.531676 1.277 
0.620032 -0.537089 1.29 
0.68031 -0.544166 1.307 
0.741944 -0.551244 1.324 
0.806134 -0.559155 1.343 
0.874399 -0.568731 1.366 
0.937019 -0.573727 1.378 
1.00995 -0.584136 1.403 
1.07728 -0.590381 1.418 
1.15301 -0.600373 1.442 
1.22812 -0.609117 1.463 
1.297 -0.614113 1.475 
1.38246 -0.626187 1.504 
1.46832 -0.637428 1.531 
-0.771146 -0.368876 0.891 
-0.738101 -0.370118 0.894 
-0.711888 -0.375086 0.906 
-0.678005 -0.376328 0.909 
-0.646001 -0.378812 0.915 
-0.62018 -0.385436 0.931 
-0.5887 -0.389162 0.94 
-0.557088 -0.393302 0.95 
-0.523586 -0.396614 0.958 
-0.490966 -0.401168 0.969 
-0.455135 -0.403652 0.975 
-0.42224 -0.409448 0.989 
-0.386295 -0.413174 0.998 
-0.350673 -0.418142 1.01 
-0.314402 -0.423525 1.023 
-0.276559 -0.428079 1.034 
0.464509 -0.519159 1.254 
0.519427 -0.524127 1.266 
0.576202 -0.529923 1.28 
0.634583 -0.536133 1.295 
0.69575 -0.543585 1.313 
0.757783 -0.550623 1.33 
0.823 -0.558903 1.35 
0.889811 -0.567183 1.37 
0.954771 -0.573393 1.385 
1.02895 -0.584158 1.411 
1.09443 -0.589126 1.423 
1.173 -0.600304 1.45 
1.24609 -0.607756 1.468 
1.31706 -0.613552 1.482 
1.40957 -0.628456 1.518 
1.48752 -0.635908 1.536 
-0.761552 -0.367198 0.892 
-0.732501 -0.370492 0.9 
-0.702812 -0.373785 0.908 
-0.668815 -0.37502 0.911 
-0.641521 -0.380371 0.924 
-0.609918 -0.383665 0.932 
-0.581979 -0.389839 0.947 
-0.547098 -0.391898 0.952 
-0.515561 -0.396838 0.964 
-0.481088 -0.400131 0.972 
-0.445067 -0.402601 0.978 
-0.413135 -0.409599 0.995 
-0.375718 -0.412069 1.001 
-0.340843 -0.418244 1.016 
-0.302997 -0.421949 1.025 
0.0417231 -3.75431 9.12 
0.481124 -0.518277 1.259 
0.53807 -0.524863 1.275 
0.59352 -0.52898 1.285 
0.653782 -0.53639 1.303 
0.715479 -0.543799 1.321 
0.776867 -0.549974 1.336 
0.843179 -0.558619 1.357 
0.907859 -0.565206 1.373 
0.980826 -0.575909 1.399 
1.04994 -0.583318 1.417 
1.11736 -0.589082 1.431 
1.19821 -0.60102 1.46 
1.26503 -0.605136 1.47 
1.34614 -0.615428 1.495 
1.43396 -0.627777 1.525 
1.51338 -0.635599 1.544 
-0.754873 -0.365925 0.894 
-0.727277 -0.370018 0.904 
-0.695059 -0.372065 0.909 
-0.661718 -0.373702 0.913 
-0.636277 -0.380251 0.929 
-0.602465 -0.382298 0.934 
-0.574306 -0.388437 0.949 
-0.539298 -0.390484 0.954 
-0.508095 -0.395805 0.967 
-0.472941 -0.39867 0.974 
-0.438121 -0.402354 0.983 
-0.405019 -0.408494 0.998 
-0.367792 -0.411359 1.005 
-0.332616 -0.417498 1.02 
-0.294241 -0.420773 1.028 
0.0844991 -3.73293 9.12 
0.484076 -0.515324 1.259 
0.541484 -0.522282 1.276 
0.597462 -0.526785 1.287 
0.658854 -0.534971 1.307 
0.720209 -0.541929 1.324 
0.781752 -0.548069 1.339 
0.84948 -0.557483 1.362 
0.912406 -0.562804 1.375 
0.986921 -0.574265 1.403 
1.05401 -0.580405 1.418 
1.12307 -0.586954 1.434 
1.20328 -0.598414 1.462 
1.2702 -0.602508 1.472 
1.35507 -0.614377 1.501 
1.43942 -0.62502 1.527 
1.52191 -0.634025 1.549 
-0.755718 -0.364235 0.895 
-0.728081 -0.368305 0.905 
-0.695059 -0.369933 0.909 
-0.662443 -0.371968 0.914 
-0.636962 -0.378479 0.93 
-0.60311 -0.380514 0.935 
-0.574306 -0.386212 0.949 
-0.539298 -0.388247 0.954 
-0.50862 -0.393944 0.968 
-0.473427 -0.396793 0.975 
-0.439458 -0.401269 0.986 
-0.405019 -0.406153 0.998 
-0.367792 -0.409002 1.005 
-0.332942 -0.415513 1.021 
-0.294527 -0.418769 1.029 
0.020052 -3.65985 8.993 
0.472266 -0.512371 1.259 
0.527855 -0.517662 1.272 
0.58357 -0.522139 1.283 
0.645109 -0.530685 1.304 
0.707254 -0.538417 1.323 
0.766893 -0.543301 1.335 
0.833632 -0.552254 1.357 
0.8982 -0.558766 1.373 
0.969595 -0.568533 1.397 
1.03997 -0.576672 1.417 
1.1073 -0.58237 1.431 
1.18794 -0.594172 1.46 
1.25639 -0.599055 1.472 
1.33295 -0.607195 1.492 
1.42323 -0.620625 1.525 
1.50251 -0.628357 1.544 
-0.765356 -0.361732 0.894 
-0.737061 -0.365373 0.903 
-0.705718 -0.367801 0.909 
-0.672424 -0.36942 0.913 
-0.645777 -0.375084 0.927 
-0.613417 -0.377917 0.934 
-0.584817 -0.383581 0.948 
-0.54933 -0.3852 0.952 
-0.518896 -0.390865 0.966 
-0.484362 -0.394102 0.974 
-0.448733 -0.396934 0.981 
-0.415886 -0.403003 0.996 
-0.378444 -0.405431 1.002 
-0.344239 -0.41231 1.019 
-0.305997 -0.415547 1.027 
-0.0842307 -3.589 8.87 
0.449805 -0.507396 1.254 
0.504582 -0.512251 1.266 
0.561631 -0.518321 1.281 
0.621311 -0.525604 1.299 
0.682427 -0.532887 1.317 
0.742187 -0.538147 1.33 
0.808963 -0.547453 1.353 
0.873747 -0.554332 1.37 
0.940563 -0.561615 1.388 
1.01312 -0.571326 1.412 
1.07926 -0.576586 1.425 
1.156 -0.586702 1.45 
1.22888 -0.593985 1.468 
1.29968 -0.59965 1.482 
1.39544 -0.615834 1.522 
1.4676 -0.62069 1.534 
-0.77916 -0.359233 0.893 
-0.747721 -0.361244 0.898 
-0.719848 -0.365267 0.908 
-0.685906 -0.366474 0.911 
-0.656717 -0.370497 0.921 
-0.627404 -0.374922 0.932 
-0.59658 -0.378945 0.942 
-0.564959 -0.382967 0.952 
-0.531433 -0.386186 0.96 
-0.498811 -0.390611 0.971 
-0.462942 -0.393024 0.977 
-0.430501 -0.399058 0.992 
-0.394104 -0.402277 1 
-0.358842 -0.407506 1.013 
-0.322228 -0.412334 1.025 
-0.285206 -0.417965 1.039 
0.123786 -3.56819 8.87 
0.48227 -0.507673 1.262 
0.539336 -0.51411 1.278 
0.595368 -0.518535 1.289 
0.658298 -0.527787 1.312 
0.718729 -0.533821 1.327 
0.782682 -0.541464 1.346 
0.848771 -0.54951 1.366 
0.911165 -0.554337 1.378 
0.985033 -0.565199 1.405 
1.05438 -0.57244 1.423 
1.12595 -0.580083 1.442 
1.20232 -0.589335 1.465 
1.27105 -0.594163 1.477 
1.35785 -0.606633 1.508 
1.4396 -0.615885 1.531 
1.5222 -0.624736 1.553 
-0.761614 -0.358739 0.897 
-0.733135 -0.362338 0.906 
-0.700092 -0.363938 0.91 
-0.669648 -0.367137 0.918 
-0.641324 -0.371936 0.93 
-0.608145 -0.374336 0.936 
-0.579367 -0.379935 0.95 
-0.543773 -0.381535 0.954 
-0.51316 -0.387134 0.968 
-0.478 -0.389933 0.975 
-0.444984 -0.395132 0.988 
-0.409699 -0.399132 0.998 
-0.372877 -0.402331 1.006 
-0.338062 -0.40873 1.022 
-0.299935 -0.412329 1.031 
-0.00102396 -3.54739 8.87 
0.452745 -0.501514 1.254 
0.509555 -0.508313 1.271 
0.565076 -0.512712 1.282 
0.62628 -0.521111 1.303 
0.687597 -0.528309 1.321 
0.748108 -0.533908 1.335 
0.814537 -0.542707 1.357 
0.88016 -0.549906 1.375 
0.947898 -0.557504 1.394 
1.02003 -0.566703 1.417 
1.08564 -0.571502 1.429 
1.1634 -0.5819 1.455 
1.23568 -0.588699 1.472 
1.31019 -0.595898 1.49 
1.40177 -0.609895 1.525 
1.47887 -0.616694 1.542 
-0.775839 -0.355442 0.894 
-0.745993 -0.358225 0.901 
-0.716377 -0.361406 0.909 
-0.68313 -0.362996 0.913 
-0.655939 -0.368165 0.926 
-0.624369 -0.371346 0.934 
-0.595305 -0.376514 0.947 
-0.561082 -0.3789 0.953 
-0.528577 -0.382876 0.963 
-0.495274 -0.386851 0.973 
-0.460705 -0.39043 0.982 
-0.427136 -0.395598 0.995 
-0.390193 -0.398382 1.002 
-0.355139 -0.403948 1.016 
-0.318039 -0.408321 1.027 
-0.281142 -0.414285 1.042 
0.142632 -3.47888 8.75 
0.469686 -0.500959 1.26 
0.526935 -0.507718 1.277 
0.582371 -0.511694 1.287 
0.644513 -0.52044 1.309 
0.706281 -0.527597 1.327 
0.768339 -0.533958 1.343 
0.835345 -0.542705 1.365 
0.898239 -0.547874 1.378 
0.97047 -0.557814 1.403 
1.0403 -0.565368 1.422 
1.11011 -0.572127 1.439 
1.18858 -0.582464 1.465 
1.2572 -0.587235 1.477 
1.33836 -0.597175 1.502 
1.42337 -0.607909 1.529 
1.50763 -0.617452 1.553 
-0.767925 -0.354531 0.897 
-0.739509 -0.358088 0.906 
-0.706494 -0.359669 0.91 
-0.676843 -0.363227 0.919 
-0.647171 -0.367179 0.929 
-0.614731 -0.369946 0.936 
-0.586051 -0.375479 0.95 
-0.550484 -0.37706 0.954 
-0.519434 -0.382198 0.967 
-0.48486 -0.38536 0.975 
-0.452392 -0.390893 0.989 
-0.416721 -0.394451 0.998 
-0.379954 -0.397613 1.006 
-0.344914 -0.403541 1.021 
-0.307189 -0.407494 1.031 
-0.260393 -0.413817 1.047 
0.422662 -0.494842 1.252 
0.476729 -0.49919 1.263 
0.533342 -0.505118 1.278 
0.589779 -0.509861 1.29 
0.652641 -0.518952 1.313 
0.714116 -0.525671 1.33 
0.777522 -0.532785 1.348 
0.844214 -0.541085 1.369 
0.907328 -0.546223 1.382 
0.980532 -0.5565 1.408 
1.04771 -0.562428 1.423 
1.12074 -0.570728 1.444 
1.19789 -0.580214 1.468 
1.2684 -0.585747 1.482 
1.35705 -0.59879 1.515 
1.43429 -0.605905 1.533 
1.51687 -0.6146 1.555 
-0.764569 -0.352821 0.898 
-0.736883 -0.35675 0.908 
-0.702998 -0.357928 0.911 
-0.674728 -0.36225 0.922 
-0.643505 -0.365393 0.93 
-0.612949 -0.369322 0.94 
-0.582819 -0.374037 0.952 
-0.546582 -0.375216 0.955 
-0.515963 -0.380716 0.969 
-0.480779 -0.383466 0.976 
-0.449565 -0.390146 0.993 
-0.412453 -0.392503 0.999 
-0.376728 -0.396825 1.01 
-0.340792 -0.401933 1.023 
-0.303233 -0.406254 1.034 
-0.26505 -0.410969 1.046 
0.122111 -3.43784 8.75 
0.467472 -0.495835 1.262 
0.52394 -0.501728 1.277 
0.579353 -0.505657 1.287 
0.641443 -0.514301 1.309 
0.703698 -0.521766 1.328 
0.768038 -0.529624 1.348 
0.832754 -0.536696 1.366 
0.896956 -0.542589 1.381 
0.968558 -0.552019 1.405 
1.0377 -0.559091 1.423 
1.10904 -0.566556 1.442 
1.18676 -0.576378 1.467 
1.25628 -0.581486 1.48 
1.34017 -0.592487 1.508 
1.42164 -0.601524 1.531 
1.50593 -0.610953 1.555 
-0.770887 -0.350715 0.898 
-0.742453 -0.35423 0.907 
-0.709407 -0.355792 0.911 
-0.680476 -0.359697 0.921 
-0.650048 -0.363212 0.93 
-0.618244 -0.366337 0.938 
-0.588898 -0.371414 0.951 
-0.553301 -0.372976 0.955 
-0.521701 -0.377663 0.967 
-0.487646 -0.381178 0.976 
-0.455631 -0.387036 0.991 
-0.419061 -0.38977 0.998 
-0.383454 -0.394066 1.009 
-0.347649 -0.399143 1.022 
-0.310508 -0.40383 1.034 
-0.272409 -0.408516 1.046 
0.0613811 -3.46419 8.87 
0.453468 -0.490532 1.256 
0.51156 -0.498343 1.276 
0.566839 -0.502248 1.286 
0.628683 -0.51084 1.308 
0.689679 -0.51748 1.325 
0.752591 -0.52451 1.343 
0.819339 -0.533102 1.365 
0.882081 -0.538179 1.378 
0.951978 -0.546771 1.4 
1.02219 -0.554582 1.42 
1.09172 -0.561221 1.437 
1.1698 -0.571376 1.463 
1.24072 -0.577234 1.478 
1.31987 -0.586217 1.501 
1.40728 -0.597933 1.531 
1.48558 -0.604963 1.549 
-0.779311 -0.348609 0.898 
-0.747649 -0.35055 0.903 
-0.717165 -0.353267 0.91 
-0.686871 -0.356373 0.918 
-0.657356 -0.360255 0.928 
-0.625706 -0.36336 0.936 
-0.59719 -0.368795 0.95 
-0.56226 -0.370736 0.955 
-0.529675 -0.374618 0.965 
-0.496292 -0.3785 0.975 
-0.462582 -0.382771 0.986 
-0.428423 -0.387429 0.998 
-0.39175 -0.390535 1.006 
-0.356537 -0.39597 1.02 
-0.318969 -0.399852 1.03 
-0.281952 -0.405675 1.045 
-0.0219757 -3.46706 8.931 
0.438391 -0.487198 1.255 
0.495041 -0.493798 1.272 
0.550473 -0.498068 1.283 
0.611001 -0.505832 1.303 
0.672108 -0.51282 1.321 
0.734649 -0.519807 1.339 
0.800391 -0.52796 1.36 
0.864037 -0.533783 1.375 
0.933557 -0.542323 1.397 
1.00342 -0.550087 1.417 
1.07188 -0.556299 1.433 
1.1487 -0.566004 1.458 
1.2209 -0.572603 1.475 
1.29879 -0.581144 1.497 
1.38752 -0.593566 1.529 
1.46268 -0.599389 1.544 
1.54596 -0.60793 1.566 
-0.75994 -0.347274 0.9 
-0.731299 -0.350747 0.909 
-0.699647 -0.353062 0.915 
-0.67114 -0.357307 0.926 
-0.639017 -0.360008 0.933 
-0.609561 -0.364638 0.945 
-0.577332 -0.368111 0.954 
-0.54269 -0.370426 0.96 
-0.511247 -0.375442 0.973 
-0.475369 -0.377757 0.979 
-0.44347 -0.383931 0.995 
-0.406642 -0.386632 1.002 
-0.371818 -0.392034 1.016 
-0.334573 -0.395893 1.026 
-0.298248 -0.402067 1.042 
-0.25843 -0.404768 1.049 
0.417788 -0.484255 1.255 
0.471923 -0.488499 1.266 
0.528585 -0.494287 1.281 
0.585991 -0.499689 1.295 
0.648452 -0.508178 1.317 
0.708942 -0.513966 1.332 
0.77406 -0.522069 1.353 
0.838405 -0.528629 1.37 
0.904757 -0.535574 1.388 
0.976003 -0.544449 1.411 
1.04323 -0.550237 1.426 
1.1186 -0.559498 1.45 
1.19425 -0.567987 1.472 
1.26826 -0.574932 1.49 
1.3544 -0.586508 1.52 
1.42989 -0.592682 1.536 
1.51637 -0.602714 1.562 
-0.773853 -0.34478 0.899 
-0.745401 -0.348232 0.908 
-0.713106 -0.350149 0.913 
-0.683377 -0.353601 0.922 
-0.652229 -0.356669 0.93 
-0.621767 -0.360504 0.94 
-0.59175 -0.365107 0.952 
-0.556704 -0.367024 0.957 
-0.525053 -0.371626 0.969 
-0.490437 -0.374694 0.977 
-0.45888 -0.380831 0.993 
-0.421824 -0.383132 0.999 
-0.387349 -0.388501 1.013 
-0.350388 -0.392336 1.023 
-0.313538 -0.397322 1.036 
-0.275125 -0.40154 1.047 
-0.00103816 -3.44895 8.993 
0.436835 -0.482846 1.259 
0.493218 -0.488982 1.275 
0.548317 -0.492817 1.285 
0.608412 -0.500104 1.304 
0.670529 -0.507774 1.324 
0.731509 -0.513527 1.339 
0.79896 -0.522731 1.363 
0.861439 -0.527717 1.376 
0.930281 -0.535771 1.397 
1.00009 -0.543441 1.417 
1.06926 -0.549961 1.434 
1.14686 -0.559932 1.46 
1.21909 -0.566452 1.477 
1.29874 -0.575656 1.501 
1.38574 -0.587162 1.531 
