# .PCD v.7 - Point Cloud Data file format
VERSION .7
FIELDS x y z
SIZE 4 4 4
TYPE F F F
COUNT 1 1 1
WIDTH 1888
HEIGHT 1
VIEWPOINT 0 0 0 1 0 0 0
POINTS 1888
DATA ascii
-0.472543 0.346614 1.178 
-0.425578 0.346614 1.178 
-0.379578 0.347497 1.181 
-0.332494 0.347497 1.181 
-0.285652 0.347791 1.182 
-0.23873 0.348085 1.183 
-0.19189 0.348674 1.185 
-0.144768 0.348968 1.186 
-0.0976494 0.349557 1.188 
-0.0500323 0.347791 1.182 
-0.00292321 0.349557 1.188 
0.0444773 0.349851 1.189 
0.0916484 0.348968 1.186 
0.139166 0.349557 1.188 
0.186686 0.349851 1.189 
0.233892 0.349557 1.188 
0.281492 0.349851 1.189 
0.328618 0.349557 1.188 
0.376931 0.350439 1.191 
0.423345 0.349557 1.188 
0.471896 0.350439 1.191 
0.518071 0.349557 1.188 
0.557819 0.344849 1.172 
0.563794 0.321604 1.093 
0.554579 0.293651 0.998 
0.551487 0.272466 0.926 
0.550915 0.255106 0.867 
0.546988 0.238334 0.81 
0.54387 0.223034 0.758 
0.543795 0.211264 0.718 
0.542923 0.200377 0.681 
0.541611 0.190373 0.647 
0.541973 0.18184 0.618 
0.54094 0.173601 0.59 
0.539587 0.165951 0.564 
-0.911083 0.320015 1.079 
-0.890592 0.328319 1.107 
-0.895395 0.347301 1.171 
-0.856682 0.350563 1.182 
-0.808874 0.350266 1.181 
-0.759854 0.349377 1.178 
-0.71168 0.348784 1.176 
-0.664795 0.348784 1.176 
-0.615809 0.347597 1.172 
-0.571026 0.348784 1.176 
-0.524587 0.34908 1.177 
-0.478068 0.349377 1.178 
-0.431104 0.349377 1.178 
-0.385117 0.350266 1.181 
-0.33832 0.350563 1.182 
-0.290949 0.350266 1.181 
-0.244691 0.351453 1.185 
-0.197115 0.35086 1.183 
-0.150331 0.351749 1.186 
-0.103222 0.352343 1.188 
-0.0555763 0.350563 1.182 
-0.00849534 0.352343 1.188 
0.0389005 0.352639 1.189 
0.0860857 0.351749 1.186 
0.133706 0.352639 1.189 
0.181109 0.352639 1.189 
0.228512 0.352639 1.189 
0.275915 0.352639 1.189 
0.323046 0.352343 1.188 
0.371345 0.353232 1.191 
0.417773 0.352343 1.188 
0.465136 0.352343 1.188 
0.512499 0.352343 1.188 
0.553735 0.348487 1.175 
0.563779 0.327133 1.103 
0.552102 0.297178 1.002 
0.551871 0.27701 0.934 
0.550002 0.258622 0.872 
0.548554 0.242606 0.818 
0.54387 0.224811 0.758 
0.543795 0.212948 0.718 
0.542923 0.201974 0.681 
0.541611 0.19189 0.647 
0.541973 0.183289 0.618 
0.54094 0.174985 0.59 
0.539587 0.167274 0.564 
-0.911083 0.322545 1.079 
-0.890592 0.330915 1.107 
-0.894631 0.349748 1.17 
-0.856682 0.353335 1.182 
-0.808874 0.353036 1.181 
-0.759854 0.352139 1.178 
-0.71168 0.351541 1.176 
-0.664795 0.351541 1.176 
-0.615809 0.350346 1.172 
-0.571026 0.351541 1.176 
-0.524587 0.35184 1.177 
-0.478068 0.352139 1.178 
-0.431104 0.352139 1.178 
-0.385117 0.353036 1.181 
-0.338033 0.353036 1.181 
-0.290949 0.353036 1.181 
-0.244691 0.354232 1.185 
-0.197115 0.353634 1.183 
-0.150204 0.354232 1.185 
-0.103222 0.355129 1.188 
-0.0555763 0.353335 1.182 
-0.00849534 0.355129 1.188 
0.0389005 0.355428 1.189 
0.0860857 0.354531 1.186 
0.133706 0.355428 1.189 
0.181414 0.356025 1.191 
0.228512 0.355428 1.189 
0.275683 0.355129 1.188 
0.323046 0.355129 1.188 
0.371345 0.356025 1.191 
0.416718 0.354232 1.185 
0.463961 0.354232 1.185 
0.511205 0.354232 1.185 
0.553735 0.351243 1.175 
0.562756 0.329122 1.101 
0.551551 0.299229 1.001 
0.551871 0.2792 0.934 
0.550002 0.260667 0.872 
0.548554 0.244525 0.818 
0.547063 0.230176 0.77 
0.546247 0.217621 0.728 
0.543663 0.205664 0.688 
0.540379 0.194603 0.651 
0.541975 0.186233 0.623 
0.539518 0.177265 0.593 
0.538468 0.169493 0.567 
0.543261 0.164112 0.549 
-0.891574 0.332909 1.105 
-0.895841 0.351889 1.168 
-0.859454 0.356107 1.182 
-0.811643 0.355806 1.181 
-0.763264 0.355203 1.179 
-0.714438 0.354299 1.176 
-0.667553 0.354299 1.176 
-0.619085 0.353396 1.173 
-0.573784 0.354299 1.176 
-0.526899 0.354299 1.176 
-0.480831 0.354902 1.178 
-0.433866 0.354902 1.178 
-0.387887 0.355806 1.181 
-0.340803 0.355806 1.181 
-0.293968 0.356107 1.182 
-0.24747 0.357011 1.185 
-0.200227 0.357011 1.185 
-0.153113 0.357312 1.186 
-0.106008 0.357915 1.188 
-0.0583483 0.356107 1.182 
-0.0112909 0.358216 1.189 
0.0361121 0.358216 1.189 
0.0834448 0.357915 1.188 
0.130918 0.358216 1.189 
0.178621 0.358819 1.191 
0.225724 0.358216 1.189 
0.272438 0.357312 1.186 
0.32026 0.357915 1.188 
0.368552 0.358819 1.191 
0.413939 0.357011 1.185 
0.460014 0.356107 1.182 
0.507567 0.356408 1.183 
0.55098 0.353998 1.175 
0.561192 0.332306 1.103 
0.551398 0.302781 1.005 
0.553211 0.283199 0.94 
0.55047 0.263917 0.876 
0.547972 0.247046 0.82 
0.545966 0.232283 0.771 
0.545288 0.219629 0.729 
0.543625 0.20788 0.69 
0.541336 0.197034 0.654 
0.543117 0.188598 0.626 
0.539942 0.179259 0.595 
0.53998 0.171727 0.57 
0.541974 0.1654 0.549 
-0.891888 0.333679 1.099 
-0.893602 0.351592 1.158 
-0.864998 0.358879 1.182 
-0.817183 0.358575 1.181 
-0.768794 0.357968 1.179 
-0.720566 0.357361 1.177 
-0.673069 0.357057 1.176 
-0.625119 0.35645 1.174 
-0.579299 0.357057 1.176 
-0.532867 0.357361 1.177 
-0.486769 0.357968 1.179 
-0.439391 0.357665 1.178 
-0.39276 0.357968 1.179 
-0.346342 0.358575 1.181 
-0.299258 0.358575 1.181 
-0.253028 0.35979 1.185 
-0.205785 0.35979 1.185 
-0.158675 0.360094 1.186 
-0.111392 0.360094 1.186 
-0.0638923 0.358879 1.182 
-0.0168677 0.361004 1.189 
0.0305866 0.361612 1.191 
0.0778727 0.360701 1.188 
0.125341 0.361004 1.189 
0.173035 0.361612 1.191 
0.220147 0.361004 1.189 
0.266875 0.360094 1.186 
0.314688 0.360701 1.188 
0.362356 0.361004 1.189 
0.40838 0.35979 1.185 
0.452933 0.357665 1.178 
0.50117 0.358575 1.181 
0.545469 0.356754 1.175 
0.558539 0.336411 1.108 
0.553756 0.309085 1.018 
0.555808 0.289046 0.952 
0.550727 0.268097 0.883 
0.549435 0.251398 0.828 
0.547977 0.23652 0.779 
0.545585 0.222857 0.734 
0.542738 0.210409 0.693 
0.54156 0.199782 0.658 
0.543117 0.190066 0.626 
0.539942 0.180654 0.595 
0.53998 0.173064 0.57 
-0.895793 0.331972 1.085 
-0.890253 0.346659 1.133 
-0.877901 0.360121 1.177 
-0.832388 0.360733 1.179 
-0.786717 0.361345 1.181 
-0.736501 0.359815 1.176 
-0.68903 0.359509 1.175 
-0.642732 0.359815 1.176 
-0.59534 0.359509 1.175 
-0.550363 0.360733 1.179 
-0.503358 0.360733 1.179 
-0.455967 0.360427 1.178 
-0.40935 0.360733 1.179 
-0.363268 0.361651 1.182 
-0.315876 0.361345 1.181 
-0.269703 0.362569 1.185 
-0.221896 0.361651 1.182 
-0.175363 0.362875 1.186 
-0.127756 0.361957 1.183 
-0.0807286 0.362569 1.185 
-0.0335699 0.363487 1.188 
0.0138048 0.363793 1.189 
0.0611563 0.363487 1.188 
0.108611 0.363793 1.189 
0.156276 0.364405 1.191 
0.203417 0.363793 1.189 
0.250187 0.362875 1.186 
0.298223 0.363793 1.189 
0.345626 0.363793 1.189 
0.393028 0.363793 1.189 
0.435246 0.359509 1.175 
0.482911 0.360121 1.177 
0.528485 0.359203 1.174 
0.557159 0.347883 1.137 
0.556388 0.321264 1.05 
0.556657 0.298928 0.977 
0.548666 0.275369 0.9 
0.552722 0.260377 0.851 
0.546667 0.242631 0.793 
0.546196 0.229168 0.749 
0.542985 0.216012 0.706 
0.5412 0.204691 0.669 
0.541136 0.193982 0.634 
0.540504 0.185109 0.605 
0.540359 0.177154 0.579 
0.539092 0.168281 0.55 
-0.893357 0.340375 1.104 
-0.893964 0.358257 1.162 
-0.861497 0.364115 1.181 
-0.814413 0.364115 1.181 
-0.766029 0.363498 1.179 
-0.717805 0.362881 1.177 
-0.669741 0.362265 1.175 
-0.621836 0.361648 1.173 
-0.576542 0.362573 1.176 
-0.529657 0.362573 1.176 
-0.484004 0.363498 1.179 
-0.436629 0.36319 1.178 
-0.389995 0.363498 1.179 
-0.343573 0.364115 1.181 
-0.29674 0.364423 1.182 
-0.250461 0.365656 1.186 
-0.202663 0.364731 1.183 
-0.156157 0.366273 1.188 
-0.108794 0.366273 1.188 
-0.0611203 0.364423 1.182 
-0.0140793 0.366581 1.189 
0.0333237 0.366581 1.189 
0.0806587 0.366273 1.188 
0.128345 0.367198 1.191 
0.175828 0.367198 1.191 
0.222748 0.366273 1.188 
0.269656 0.365656 1.186 
0.317474 0.366273 1.188 
0.365759 0.367198 1.191 
0.409078 0.363498 1.179 
0.453761 0.361648 1.173 
0.501379 0.362265 1.175 
0.544958 0.360107 1.168 
0.558099 0.339758 1.102 
0.552319 0.311702 1.011 
0.553938 0.291353 0.945 
0.550294 0.271005 0.879 
0.547381 0.253431 0.822 
0.547686 0.239249 0.776 
0.54507 0.225375 0.731 
0.543578 0.213351 0.692 
0.541453 0.202252 0.656 
0.542514 0.193311 0.627 
0.541262 0.18437 0.598 
0.540534 0.176354 0.572 
0.541671 0.169571 0.55 
-0.894166 0.343275 1.105 
-0.893964 0.360982 1.162 
-0.861497 0.366884 1.181 
-0.814413 0.366884 1.181 
-0.766029 0.366263 1.179 
-0.717805 0.365642 1.177 
-0.669741 0.36502 1.175 
-0.621836 0.364399 1.173 
-0.576542 0.365331 1.176 
-0.529657 0.365331 1.176 
-0.484004 0.366263 1.179 
-0.436629 0.365952 1.178 
-0.390657 0.366884 1.181 
-0.343573 0.366884 1.181 
-0.29674 0.367195 1.182 
-0.250461 0.368438 1.186 
-0.202663 0.367506 1.183 
-0.155894 0.368438 1.186 
-0.108794 0.369059 1.188 
-0.0611203 0.367195 1.182 
-0.0140793 0.36937 1.189 
0.0333237 0.36937 1.189 
0.0807266 0.36937 1.189 
0.128345 0.369991 1.191 
0.175828 0.369991 1.191 
0.222935 0.36937 1.189 
0.269656 0.368438 1.186 
0.317474 0.369059 1.188 
0.365759 0.369991 1.191 
0.408731 0.365952 1.178 
0.452987 0.363778 1.171 
0.500526 0.364399 1.173 
0.540293 0.359739 1.158 
0.556073 0.3411 1.098 
0.551773 0.313762 1.01 
0.552765 0.292948 0.943 
0.550294 0.273066 0.879 
0.548554 0.254116 0.818 
0.547774 0.239516 0.771 
0.544191 0.224604 0.723 
0.544484 0.21342 0.687 
0.540241 0.201616 0.649 
0.541691 0.192917 0.621 
0.539997 0.183908 0.592 
0.539798 0.176142 0.567 
0.545541 0.170861 0.55 
-0.890402 0.347431 1.11 
-0.892649 0.366524 1.171 
-0.851743 0.369028 1.179 
-0.806104 0.369654 1.181 
-0.757092 0.368715 1.178 
-0.708922 0.368089 1.176 
-0.661474 0.367776 1.175 
-0.613583 0.36715 1.173 
-0.568751 0.368402 1.177 
-0.521826 0.368402 1.177 
-0.475709 0.369028 1.179 
-0.428341 0.368715 1.178 
-0.382348 0.369654 1.181 
-0.334696 0.369028 1.179 
-0.288424 0.369967 1.182 
-0.242116 0.371219 1.186 
-0.19434 0.37028 1.183 
-0.147425 0.370906 1.185 
-0.10052 0.372158 1.189 
-0.052849 0.37028 1.183 
-0.00570927 0.371845 1.188 
0.0416889 0.372158 1.189 
0.0890918 0.372158 1.189 
0.136724 0.372784 1.191 
0.184207 0.372784 1.191 
0.231106 0.371845 1.188 
0.278469 0.371845 1.188 
0.326107 0.372158 1.189 
0.374138 0.372784 1.191 
0.415249 0.36715 1.173 
0.460438 0.365898 1.169 
0.50661 0.365585 1.168 
0.542283 0.358386 1.145 
0.555069 0.338354 1.081 
0.552792 0.312688 0.999 
0.551688 0.291091 0.93 
0.551414 0.272624 0.871 
0.547911 0.25134 0.803 
0.547426 0.237255 0.758 
0.542985 0.220979 0.706 
0.541083 0.208146 0.665 
0.540283 0.19813 0.633 
0.541397 0.189679 0.606 
0.539426 0.180914 0.578 
0.537168 0.172776 0.552 
-0.899491 0.347511 1.102 
-0.89127 0.362017 1.148 
-0.867596 0.371478 1.178 
-0.821329 0.371793 1.179 
-0.775638 0.372424 1.181 
-0.726086 0.371162 1.177 
-0.678008 0.370532 1.175 
-0.631163 0.370532 1.175 
-0.585313 0.371162 1.177 
-0.538845 0.371478 1.178 
-0.491881 0.371478 1.178 
-0.444917 0.371478 1.178 
-0.398966 0.372424 1.181 
-0.35218 0.372739 1.182 
-0.305314 0.373054 1.183 
-0.258805 0.374 1.186 
-0.210986 0.373054 1.183 
-0.164099 0.373685 1.185 
-0.116856 0.373685 1.185 
-0.069495 0.373054 1.183 
-0.0224823 0.375577 1.191 
0.0249584 0.374946 1.189 
0.0723005 0.374631 1.188 
0.119764 0.374946 1.189 
0.167449 0.375577 1.191 
0.21457 0.374946 1.189 
0.261312 0.374 1.186 
0.309116 0.374631 1.188 
0.356779 0.374946 1.189 
0.401463 0.372424 1.181 
0.440191 0.365486 1.159 
0.491014 0.368955 1.17 
0.525252 0.36044 1.143 
0.553342 0.349403 1.108 
0.55006 0.321653 1.02 
0.553081 0.301155 0.955 
0.5503 0.280343 0.889 
0.547304 0.258268 0.819 
0.547382 0.243762 0.773 
0.5432 0.225472 0.715 
0.54372 0.214435 0.68 
0.540254 0.201821 0.64 
0.541017 0.192992 0.612 
0.539547 0.184162 0.584 
0.537773 0.175963 0.558 
-0.906617 0.347872 1.095 
-0.894486 0.36058 1.135 
-0.879165 0.373287 1.175 
-0.835153 0.374558 1.179 
-0.789486 0.375193 1.181 
-0.739888 0.373923 1.177 
-0.692374 0.373605 1.176 
-0.644941 0.373287 1.175 
-0.598605 0.373605 1.176 
-0.553128 0.374558 1.179 
-0.505694 0.37424 1.178 
-0.45873 0.37424 1.178 
-0.412115 0.374558 1.179 
-0.36573 0.375193 1.181 
-0.318646 0.375193 1.181 
-0.272482 0.376464 1.185 
-0.224858 0.375829 1.183 
-0.177995 0.376464 1.185 
-0.13053 0.375829 1.183 
-0.0835077 0.376464 1.185 
-0.036356 0.377417 1.188 
0.0110071 0.377417 1.188 
0.0584193 0.377735 1.189 
0.105822 0.377735 1.189 
0.153225 0.377735 1.189 
0.200966 0.37837 1.191 
0.247405 0.376782 1.186 
0.295186 0.377417 1.188 
0.342837 0.377735 1.189 
0.389255 0.376782 1.186 
0.42476 0.366616 1.154 
0.475663 0.370428 1.166 
0.511402 0.362803 1.142 
0.545714 0.355496 1.119 
0.555508 0.334529 1.053 
0.554366 0.310384 0.977 
0.552021 0.288781 0.909 
0.553315 0.271626 0.855 
0.546916 0.250341 0.788 
0.546039 0.236362 0.744 
0.543975 0.223337 0.703 
0.541083 0.211265 0.665 
0.541136 0.201416 0.634 
0.541397 0.192521 0.606 
0.539426 0.183626 0.578 
0.538141 0.175683 0.553 
-0.905481 0.353 1.103 
-0.892749 0.365802 1.143 
-0.871639 0.376363 1.176 
-0.826858 0.377323 1.179 
-0.781177 0.377963 1.181 
-0.731607 0.376683 1.177 
-0.683519 0.376043 1.175 
-0.636674 0.376043 1.175 
-0.591335 0.377003 1.178 
-0.544833 0.377323 1.179 
-0.497406 0.377003 1.178 
-0.450442 0.377003 1.178 
-0.40382 0.377323 1.179 
-0.357724 0.378283 1.182 
-0.310863 0.378603 1.183 
-0.264367 0.379563 1.186 
-0.216352 0.378283 1.182 
-0.169658 0.379243 1.185 
-0.122207 0.378603 1.183 
-0.0750437 0.378603 1.183 
-0.0280214 0.380523 1.189 
0.0193816 0.380523 1.189 
0.0667284 0.380203 1.188 
0.114188 0.380523 1.189 
0.161862 0.381163 1.191 
0.208993 0.380523 1.189 
0.25575 0.379563 1.186 
0.303544 0.380203 1.188 
0.351202 0.380523 1.189 
0.396259 0.378283 1.182 
0.428753 0.365802 1.143 
0.482207 0.371882 1.162 
0.515343 0.362601 1.133 
0.54864 0.35492 1.109 
0.550621 0.329637 1.03 
0.554879 0.307875 0.962 
0.549448 0.285152 0.891 
0.550831 0.268511 0.839 
0.547371 0.251549 0.786 
0.547048 0.237787 0.743 
0.544848 0.224666 0.702 
0.541011 0.212184 0.663 
0.540433 0.200983 0.628 
0.540258 0.192022 0.6 
0.539731 0.183701 0.574 
0.539092 0.17602 0.55 
-0.899192 0.357199 1.108 
-0.895917 0.374285 1.161 
-0.862071 0.379765 1.178 
-0.815799 0.380088 1.179 
-0.768794 0.380088 1.179 
-0.720566 0.379443 1.177 
-0.672496 0.378798 1.175 
-0.625652 0.378798 1.175 
-0.579792 0.379443 1.177 
-0.533773 0.380088 1.179 
-0.486356 0.379765 1.178 
-0.439018 0.379443 1.177 
-0.39276 0.380088 1.179 
-0.346636 0.381055 1.182 
-0.299765 0.381377 1.183 
-0.253669 0.382989 1.188 
-0.205785 0.382022 1.185 
-0.158541 0.382022 1.185 
-0.111298 0.382022 1.185 
-0.0638923 0.381055 1.182 
-0.0168677 0.383312 1.189 
0.0305352 0.383312 1.189 
0.0777416 0.382345 1.186 
0.125341 0.383312 1.189 
0.17318 0.384279 1.192 
0.220147 0.383312 1.189 
0.266875 0.382345 1.186 
0.314688 0.382989 1.188 
0.362966 0.383956 1.191 
0.404934 0.378798 1.175 
0.437553 0.36687 1.138 
0.485893 0.369127 1.145 
0.519472 0.360745 1.119 
0.548961 0.351074 1.089 
0.547949 0.323349 1.003 
0.553938 0.304651 0.945 
0.548416 0.282406 0.876 
0.548047 0.26532 0.823 
0.546275 0.249523 0.774 
0.544324 0.235339 0.73 
0.543578 0.223088 0.692 
0.542278 0.211805 0.657 
0.541105 0.200521 0.622 
0.540428 0.191495 0.594 
0.538468 0.18279 0.567 
0.543261 0.176987 0.549 
-0.892007 0.361096 1.112 
-0.892649 0.380255 1.171 
-0.851743 0.382853 1.179 
-0.806104 0.383502 1.181 
-0.757092 0.382528 1.178 
-0.708922 0.381879 1.176 
-0.661474 0.381554 1.175 
-0.614629 0.381554 1.175 
-0.568751 0.382203 1.177 
-0.52227 0.382528 1.178 
-0.474902 0.382203 1.177 
-0.427977 0.382203 1.177 
-0.381377 0.382528 1.178 
-0.335264 0.383502 1.181 
-0.289156 0.384801 1.185 
-0.242525 0.385775 1.188 
-0.194669 0.384801 1.185 
-0.147425 0.384801 1.185 
-0.100435 0.385775 1.188 
-0.0528043 0.383827 1.182 
-0.00570927 0.385775 1.188 
0.0416538 0.385775 1.188 
0.0890169 0.385775 1.188 
0.136495 0.3861 1.189 
0.184362 0.387074 1.192 
0.231301 0.3861 1.189 
0.278001 0.385126 1.186 
0.325832 0.385775 1.188 
0.37351 0.3861 1.189 
0.411354 0.377332 1.162 
0.445865 0.367591 1.132 
0.491429 0.367915 1.133 
0.525706 0.360447 1.11 
0.553015 0.349731 1.077 
0.552238 0.324077 0.998 
0.552875 0.302645 0.932 
0.550781 0.282512 0.87 
0.550472 0.265626 0.818 
0.547443 0.24939 0.768 
0.543438 0.234453 0.722 
0.543691 0.222763 0.686 
0.540928 0.210423 0.648 
0.540524 0.200681 0.618 
0.54047 0.191913 0.591 
0.539219 0.183471 0.565 
-0.9261 0.361742 1.106 
-0.892373 0.365993 1.119 
-0.887914 0.383328 1.172 
-0.846213 0.385618 1.179 
-0.800565 0.386272 1.181 
-0.751567 0.385291 1.178 
-0.703406 0.384637 1.176 
-0.656521 0.384637 1.176 
-0.609637 0.384637 1.176 
-0.563709 0.385291 1.178 
-0.516745 0.385291 1.178 
-0.469381 0.384964 1.177 
-0.422457 0.384964 1.177 
-0.37617 0.385618 1.179 
-0.329724 0.386272 1.181 
-0.283598 0.38758 1.185 
-0.236953 0.388561 1.188 
-0.189111 0.38758 1.185 
-0.141867 0.38758 1.185 
-0.0947036 0.387907 1.186 
-0.0473003 0.386926 1.183 
-0.000136913 0.387907 1.186 
0.047226 0.388561 1.188 
0.094589 0.388561 1.188 
0.142072 0.388888 1.189 
0.189953 0.38987 1.192 
0.236878 0.388888 1.189 
0.283563 0.387907 1.186 
0.331405 0.388561 1.188 
0.379086 0.388888 1.189 
0.411424 0.375151 1.147 
0.446391 0.36632 1.12 
0.488413 0.364358 1.114 
0.528999 0.361742 1.106 
0.555994 0.350948 1.073 
0.552034 0.320858 0.981 
0.553181 0.300252 0.918 
0.55059 0.280301 0.857 
0.549109 0.262312 0.802 
0.547754 0.247266 0.756 
0.54387 0.230586 0.705 
0.542769 0.218811 0.669 
0.54199 0.207691 0.635 
0.542291 0.198533 0.607 
0.539426 0.189048 0.578 
0.538141 0.180871 0.553 
-0.902604 0.365324 1.109 
-0.89864 0.382453 1.161 
-0.8641 0.387724 1.177 
-0.819952 0.389042 1.181 
-0.771559 0.388383 1.179 
-0.723326 0.387724 1.177 
-0.675827 0.387394 1.176 
-0.628407 0.387065 1.175 
-0.583047 0.388053 1.178 
-0.537448 0.389042 1.181 
-0.488703 0.387724 1.177 
-0.441779 0.387724 1.177 
-0.395525 0.388383 1.179 
-0.349112 0.389042 1.181 
-0.302539 0.3897 1.183 
-0.256023 0.390689 1.186 
-0.208564 0.390359 1.185 
-0.16132 0.390359 1.185 
-0.114077 0.390359 1.185 
-0.0666079 0.389042 1.181 
-0.0196561 0.391677 1.189 
0.0277235 0.391347 1.188 
0.0749602 0.390689 1.186 
0.122553 0.391677 1.189 
0.170242 0.392336 1.191 
0.217724 0.392336 1.191 
0.264094 0.390689 1.186 
0.311902 0.391347 1.188 
0.360172 0.392336 1.191 
0.402521 0.387394 1.176 
0.423802 0.365324 1.109 
0.469703 0.366641 1.113 
0.509919 0.363676 1.104 
0.542393 0.3561 1.081 
0.549752 0.330076 1.002 
0.553211 0.309652 0.94 
0.549213 0.28791 0.874 
0.549224 0.269793 0.819 
0.547063 0.253651 0.77 
0.545497 0.239486 0.727 
0.542915 0.224992 0.683 
0.540928 0.213462 0.648 
0.540524 0.20358 0.618 
0.54047 0.194685 0.591 
0.539219 0.186121 0.565 
-0.929449 0.368256 1.11 
-0.893171 0.371574 1.12 
-0.887914 0.388825 1.172 
-0.846213 0.391148 1.179 
-0.800565 0.391811 1.181 
-0.752205 0.391148 1.179 
-0.703406 0.390152 1.176 
-0.656521 0.390152 1.176 
-0.609118 0.389821 1.175 
-0.563709 0.390816 1.178 
-0.516745 0.390816 1.178 
-0.469381 0.390484 1.177 
-0.422457 0.390484 1.177 
-0.375851 0.390816 1.178 
-0.329724 0.391811 1.181 
-0.283598 0.393138 1.185 
-0.236953 0.394134 1.188 
-0.189111 0.393138 1.185 
-0.141867 0.393138 1.185 
-0.0947036 0.39347 1.186 
-0.0473003 0.392475 1.183 
-0.000136913 0.39347 1.186 
0.047226 0.394134 1.188 
0.0944298 0.39347 1.186 
0.141952 0.394134 1.188 
0.189953 0.395461 1.192 
0.236878 0.394465 1.189 
0.284041 0.394134 1.188 
0.331405 0.394134 1.188 
0.379086 0.394465 1.189 
0.409631 0.378872 1.142 
0.440014 0.366266 1.104 
0.481398 0.364275 1.098 
0.520868 0.361289 1.089 
0.552885 0.35399 1.067 
0.551897 0.328113 0.989 
0.554854 0.307875 0.928 
0.5505 0.285316 0.86 
0.552147 0.269391 0.812 
0.545648 0.251476 0.758 
0.543754 0.234556 0.707 
0.542009 0.222281 0.67 
0.541558 0.211664 0.638 
0.541221 0.202043 0.609 
0.540429 0.193086 0.582 
0.538786 0.184128 0.555 
-0.907806 0.370525 1.109 
-0.898634 0.38556 1.154 
-0.868881 0.39291 1.176 
-0.82619 0.394915 1.182 
-0.778408 0.394581 1.181 
-0.729466 0.393579 1.178 
-0.681343 0.39291 1.176 
-0.634458 0.39291 1.176 
-0.588573 0.393579 1.178 
-0.542987 0.394581 1.181 
-0.494224 0.393244 1.177 
-0.447679 0.393579 1.178 
-0.400715 0.393579 1.178 
-0.354651 0.394581 1.181 
-0.308088 0.395249 1.183 
-0.261586 0.396251 1.186 
-0.214122 0.395917 1.185 
-0.166879 0.395917 1.185 
-0.119433 0.395249 1.183 
-0.0721472 0.394581 1.181 
-0.0252329 0.397254 1.189 
0.0221514 0.39692 1.188 
0.0693974 0.396251 1.186 
0.116878 0.39692 1.188 
0.164655 0.397922 1.191 
0.212138 0.397922 1.191 
0.258967 0.39692 1.188 
0.305814 0.396251 1.186 
0.354586 0.397922 1.191 
0.39768 0.393579 1.178 
0.415958 0.368186 1.102 
0.456136 0.365179 1.093 
0.496055 0.362507 1.085 
0.535335 0.359834 1.077 
0.55948 0.34814 1.042 
0.554302 0.321077 0.961 
0.550065 0.298024 0.892 
0.549518 0.279648 0.837 
0.547371 0.262608 0.786 
0.547048 0.248242 0.743 
0.543521 0.231871 0.694 
0.54156 0.219843 0.658 
0.541043 0.209485 0.627 
0.540763 0.20013 0.599 
0.541077 0.191778 0.574 
0.544251 0.183759 0.55 
-0.896416 0.373799 1.111 
-0.896607 0.393313 1.169 
-0.857273 0.396678 1.179 
-0.812331 0.397687 1.182 
-0.763264 0.396678 1.179 
-0.715045 0.396005 1.177 
-0.667553 0.395668 1.176 
-0.619613 0.394995 1.174 
-0.574759 0.396341 1.178 
-0.528243 0.396678 1.179 
-0.480422 0.396005 1.177 
-0.433498 0.396005 1.177 
-0.386573 0.396005 1.177 
-0.340803 0.397351 1.181 
-0.294714 0.398696 1.185 
-0.248306 0.400042 1.189 
-0.200396 0.399033 1.186 
-0.152983 0.398696 1.185 
-0.105829 0.399033 1.186 
-0.0583483 0.397687 1.182 
-0.0112814 0.399706 1.188 
0.0360817 0.399706 1.188 
0.0833043 0.399033 1.186 
0.130588 0.399033 1.186 
0.178621 0.400715 1.191 
0.226104 0.400715 1.191 
0.272897 0.399706 1.188 
0.319721 0.399033 1.186 
0.368552 0.400715 1.191 
0.408 0.392977 1.168 
0.421485 0.364378 1.083 
0.463804 0.363705 1.081 
0.505026 0.362359 1.077 
0.539823 0.356976 1.061 
0.551398 0.338135 1.005 
0.554388 0.316938 0.942 
0.55047 0.294732 0.876 
0.551313 0.277573 0.825 
0.546353 0.258732 0.769 
0.546247 0.244937 0.728 
0.544453 0.231816 0.689 
0.542039 0.219704 0.653 
0.539365 0.208601 0.62 
0.538608 0.19918 0.592 
0.539418 0.191105 0.568 
0.546831 0.185049 0.55 
-0.893611 0.377421 1.114 
-0.893411 0.397071 1.172 
-0.853188 0.40012 1.181 
-0.806787 0.400459 1.182 
-0.757735 0.399443 1.179 
-0.709525 0.398765 1.177 
-0.6626 0.398765 1.177 
-0.613583 0.39741 1.173 
-0.569234 0.399104 1.178 
-0.522713 0.399443 1.179 
-0.475305 0.399104 1.178 
-0.428341 0.399104 1.178 
-0.381377 0.399104 1.178 
-0.334696 0.399443 1.179 
-0.289156 0.401475 1.185 
-0.242729 0.40283 1.189 
-0.194833 0.401814 1.186 
-0.147425 0.401475 1.185 
-0.100435 0.402492 1.188 
-0.052849 0.400798 1.183 
-0.00570927 0.402492 1.188 
0.0416538 0.402492 1.188 
0.0888671 0.401814 1.186 
0.13638 0.402492 1.188 
0.184207 0.403508 1.191 
0.23169 0.403508 1.191 
0.278001 0.401814 1.186 
0.325832 0.402492 1.188 
0.374138 0.403508 1.191 
0.40569 0.388262 1.146 
0.424596 0.365224 1.078 
0.466706 0.364546 1.076 
0.505815 0.361836 1.068 
0.542232 0.35777 1.056 
0.552238 0.33812 0.998 
0.552875 0.315759 0.932 
0.551414 0.295093 0.871 
0.552491 0.278153 0.821 
0.544238 0.257825 0.761 
0.545887 0.244951 0.723 
0.542915 0.231399 0.683 
0.540928 0.219541 0.648 
0.539649 0.209038 0.617 
0.539064 0.19718 0.582 
0.539081 0.189049 0.558 
-0.926741 0.379692 1.113 
-0.900602 0.387538 1.136 
-0.883923 0.400502 1.174 
-0.842822 0.403231 1.182 
-0.795699 0.403231 1.182 
-0.747941 0.40289 1.181 
-0.699077 0.401866 1.178 
-0.651559 0.401525 1.177 
-0.603607 0.400843 1.175 
-0.558658 0.402207 1.179 
-0.511219 0.401866 1.178 
-0.464255 0.401866 1.178 
-0.417645 0.402207 1.179 
-0.370326 0.401866 1.178 
-0.323636 0.402207 1.179 
-0.27804 0.404254 1.185 
-0.231381 0.405278 1.188 
-0.183553 0.404254 1.185 
-0.136309 0.404254 1.185 
-0.0891409 0.404595 1.186 
-0.0418575 0.404595 1.186 
0.00542584 0.404595 1.186 
0.0527092 0.404595 1.186 
0.0999926 0.404595 1.186 
0.147524 0.405278 1.188 
0.19538 0.406301 1.191 
0.242454 0.405619 1.189 
0.289126 0.404595 1.186 
0.336977 0.405278 1.188 
0.384663 0.405619 1.189 
0.404812 0.380033 1.114 
0.432288 0.365705 1.072 
0.472368 0.363658 1.066 
0.511003 0.360929 1.058 
0.550047 0.358882 1.052 
0.550346 0.333638 0.978 
0.551373 0.312146 0.915 
0.549947 0.292018 0.856 
0.552687 0.276326 0.81 
0.545981 0.257904 0.756 
0.545639 0.244258 0.716 
0.544513 0.231636 0.679 
0.541278 0.219355 0.643 
0.539582 0.208779 0.612 
0.539589 0.194793 0.571 
0.542656 0.18797 0.551 
-0.898212 0.381272 1.11 
-0.899349 0.401538 1.169 
-0.859309 0.404629 1.178 
-0.815792 0.406346 1.183 
-0.767329 0.405659 1.181 
-0.718415 0.404629 1.178 
-0.670881 0.404285 1.177 
-0.621836 0.402912 1.173 
-0.578012 0.404972 1.179 
-0.531008 0.404972 1.179 
-0.483593 0.404629 1.178 
-0.436629 0.404629 1.178 
-0.389995 0.404972 1.179 
-0.343573 0.405659 1.181 
-0.296991 0.406346 1.183 
-0.251094 0.408407 1.189 
-0.203006 0.407033 1.185 
-0.155762 0.407033 1.185 
-0.108519 0.407033 1.185 
-0.061172 0.406346 1.183 
-0.0140793 0.408407 1.189 
0.0332956 0.408064 1.188 
0.0805229 0.407377 1.186 
0.127806 0.407377 1.186 
0.175533 0.408407 1.189 
0.222935 0.408407 1.189 
0.270338 0.408407 1.189 
0.317474 0.408064 1.188 
0.365759 0.409094 1.191 
0.406302 0.402225 1.171 
0.416238 0.369593 1.076 
0.451882 0.363754 1.059 
0.491302 0.361693 1.053 
0.531764 0.360662 1.05 
0.553958 0.348297 1.014 
0.553938 0.324596 0.945 
0.551546 0.302613 0.881 
0.552708 0.285095 0.83 
0.544863 0.265173 0.772 
0.546561 0.251777 0.733 
0.544363 0.238037 0.693 
0.542278 0.225672 0.657 
0.541648 0.215024 0.626 
0.538572 0.199223 0.58 
0.539421 0.191323 0.557 
-0.909443 0.384221 1.111 
-0.902528 0.400821 1.159 
-0.868881 0.4067 1.176 
-0.828287 0.409812 1.185 
-0.779067 0.408775 1.182 
-0.730085 0.407737 1.179 
-0.681922 0.407046 1.177 
-0.633918 0.406354 1.175 
-0.588573 0.407392 1.178 
-0.542987 0.408429 1.181 
-0.494224 0.407046 1.177 
-0.447679 0.407392 1.178 
-0.401055 0.407737 1.179 
-0.354651 0.408429 1.181 
-0.307828 0.408775 1.182 
-0.261366 0.409812 1.185 
-0.214122 0.409812 1.185 
-0.166879 0.409812 1.185 
-0.119736 0.410158 1.186 
-0.0723915 0.409812 1.185 
-0.0252329 0.411196 1.189 
0.0221514 0.41085 1.188 
0.0693974 0.410158 1.186 
0.116878 0.41085 1.188 
0.164379 0.411196 1.189 
0.211782 0.411196 1.189 
0.259185 0.411196 1.189 
0.30633 0.41085 1.188 
0.354586 0.411887 1.191 
0.398693 0.408429 1.181 
0.411326 0.374537 1.083 
0.441913 0.364162 1.053 
0.482056 0.362779 1.049 
0.522379 0.361742 1.046 
0.553295 0.354825 1.026 
0.552502 0.329925 0.954 
0.5503 0.307446 0.889 
0.550163 0.288771 0.835 
0.547118 0.270787 0.783 
0.547313 0.256262 0.741 
0.544937 0.242083 0.7 
0.541748 0.228942 0.662 
0.540677 0.217875 0.63 
0.537953 0.207154 0.599 
0.538385 0.198508 0.574 
0.539757 0.1909 0.552 
-0.89983 0.387174 1.112 
-0.900118 0.407369 1.17 
-0.859309 0.410154 1.178 
-0.815792 0.411895 1.183 
-0.767329 0.411199 1.181 
-0.719025 0.410502 1.179 
-0.670881 0.409806 1.177 
-0.622366 0.408761 1.174 
-0.578012 0.410502 1.179 
-0.531008 0.410502 1.179 
-0.483593 0.410154 1.178 
-0.436999 0.410502 1.179 
-0.389995 0.410502 1.179 
-0.343573 0.411199 1.181 
-0.296991 0.411895 1.183 
-0.250461 0.41294 1.186 
-0.203177 0.41294 1.186 
-0.155762 0.412591 1.185 
-0.108611 0.41294 1.186 
-0.0612754 0.412591 1.185 
-0.0140793 0.413984 1.189 
0.0333237 0.413984 1.189 
0.0806587 0.413636 1.188 
0.128022 0.413636 1.188 
0.175533 0.413984 1.189 
0.222935 0.413984 1.189 
0.270338 0.413984 1.189 
0.317741 0.413984 1.189 
0.365759 0.414681 1.191 
0.404914 0.406324 1.167 
0.415412 0.369417 1.061 
0.452535 0.365239 1.049 
0.490115 0.362106 1.04 
0.531066 0.361757 1.039 
0.549898 0.347482 0.998 
0.552462 0.325547 0.935 
0.551263 0.304308 0.874 
0.553248 0.287247 0.825 
0.546353 0.267749 0.769 
0.546998 0.253822 0.729 
0.545243 0.240243 0.69 
0.541209 0.227012 0.652 
0.539365 0.215871 0.62 
0.537699 0.205773 0.591 
0.537518 0.197069 0.566 
0.542272 0.190802 0.548 
-0.897158 0.394339 1.125 
-0.889429 0.411515 1.174 
-0.847649 0.413968 1.181 
-0.801243 0.414319 1.182 
-0.754119 0.414319 1.182 
-0.704602 0.412917 1.178 
-0.65708 0.412566 1.177 
-0.6086 0.411515 1.174 
-0.564188 0.413267 1.179 
-0.517183 0.413267 1.179 
-0.470179 0.413267 1.179 
-0.423175 0.413267 1.179 
-0.37617 0.413267 1.179 
-0.328887 0.412917 1.178 
-0.283119 0.414669 1.183 
-0.236953 0.416422 1.188 
-0.189111 0.41537 1.185 
-0.141867 0.41537 1.185 
-0.0947036 0.415721 1.186 
-0.0474203 0.415721 1.186 
-0.000136913 0.415721 1.186 
0.047226 0.416422 1.188 
0.094589 0.416422 1.188 
0.141952 0.416422 1.188 
0.189315 0.416422 1.188 
0.236878 0.416773 1.189 
0.284041 0.416422 1.188 
0.331405 0.416422 1.188 
0.379724 0.417474 1.191 
0.400756 0.389081 1.11 
0.420554 0.367699 1.049 
0.460612 0.366297 1.045 
0.495064 0.361039 1.03 
0.535608 0.360689 1.029 
0.547492 0.342462 0.977 
0.553429 0.323183 0.922 
0.552421 0.302502 0.863 
0.554187 0.285677 0.815 
0.545648 0.265697 0.758 
0.544719 0.251325 0.717 
0.54372 0.238356 0.68 
0.541449 0.226088 0.645 
0.539026 0.214871 0.613 
0.536808 0.204706 0.584 
0.537074 0.196293 0.56 
-0.9163 0.392743 1.113 
-0.903684 0.408269 1.157 
-0.87238 0.415327 1.177 
-0.829664 0.417444 1.183 
-0.7825 0.417444 1.183 
-0.73285 0.416032 1.179 
-0.684682 0.415327 1.177 
-0.637216 0.414974 1.176 
-0.591335 0.415679 1.178 
-0.545757 0.416738 1.181 
-0.497406 0.415679 1.178 
-0.450824 0.416032 1.179 
-0.40382 0.416032 1.179 
-0.357421 0.416738 1.181 
-0.310337 0.416738 1.181 
-0.264145 0.41815 1.185 
-0.216901 0.41815 1.185 
-0.169658 0.41815 1.185 
-0.122414 0.41815 1.185 
-0.0751706 0.41815 1.185 
-0.0280214 0.419561 1.189 
0.0193653 0.419208 1.188 
0.0667284 0.419208 1.188 
0.114188 0.419561 1.189 
0.161591 0.419561 1.189 
0.208993 0.419561 1.189 
0.256396 0.419561 1.189 
0.303799 0.419561 1.189 
0.351202 0.419561 1.189 
0.396594 0.417444 1.183 
0.408409 0.381804 1.082 
0.429845 0.363455 1.03 
0.475024 0.366631 1.039 
0.509985 0.362043 1.026 
0.54552 0.358515 1.016 
0.550264 0.336637 0.954 
0.550682 0.315112 0.893 
0.550174 0.295704 0.838 
0.546675 0.277002 0.785 
0.547313 0.261476 0.741 
0.54338 0.246302 0.698 
0.541748 0.233599 0.662 
0.539819 0.221954 0.629 
0.537953 0.211368 0.599 
0.538385 0.202547 0.574 
0.53878 0.194431 0.551 
-0.899796 0.399616 1.125 
-0.892183 0.417021 1.174 
-0.850418 0.419508 1.181 
-0.804015 0.419863 1.182 
-0.756891 0.419863 1.182 
-0.707365 0.418442 1.178 
-0.65984 0.418087 1.177 
-0.611874 0.417376 1.175 
-0.567914 0.419508 1.181 
-0.521271 0.419863 1.182 
-0.472944 0.418797 1.179 
-0.42594 0.418797 1.179 
-0.378935 0.418797 1.179 
-0.33165 0.418442 1.178 
-0.285893 0.420218 1.183 
-0.239335 0.421284 1.186 
-0.19189 0.420929 1.185 
-0.144646 0.420929 1.185 
-0.097485 0.421284 1.186 
-0.0502017 0.421284 1.186 
-0.00291829 0.421284 1.186 
0.0444773 0.422349 1.189 
0.091803 0.421994 1.188 
0.139166 0.421994 1.188 
0.186529 0.421994 1.188 
0.234089 0.422349 1.189 
0.281255 0.421994 1.188 
0.328618 0.421994 1.188 
0.376931 0.42306 1.191 
0.39887 0.394998 1.112 
0.414506 0.369423 1.04 
0.451585 0.36587 1.03 
0.489301 0.363384 1.023 
0.530085 0.363384 1.023 
0.544643 0.346689 0.976 
0.554854 0.329639 0.928 
0.553586 0.308326 0.868 
0.553631 0.29021 0.817 
0.545981 0.268542 0.756 
0.544877 0.253978 0.715 
0.543711 0.240835 0.678 
0.54212 0.228758 0.644 
0.537818 0.216681 0.61 
0.537256 0.20709 0.583 
0.536464 0.198209 0.558 
-0.90287 0.400109 1.119 
-0.899675 0.419417 1.173 
-0.857273 0.421562 1.179 
-0.812331 0.422635 1.182 
-0.765207 0.422635 1.182 
-0.715653 0.421205 1.178 
-0.668121 0.420847 1.177 
-0.620141 0.420132 1.175 
-0.576223 0.422277 1.181 
-0.529587 0.422635 1.182 
-0.481239 0.421562 1.179 
-0.434234 0.421562 1.179 
-0.38723 0.421562 1.179 
-0.340226 0.421562 1.179 
-0.294216 0.422992 1.183 
-0.247053 0.422992 1.183 
-0.200227 0.423708 1.185 
-0.152725 0.422992 1.183 
-0.10574 0.423708 1.185 
-0.0585458 0.424065 1.186 
-0.0112814 0.42478 1.188 
0.0361121 0.425138 1.189 
0.0834448 0.42478 1.188 
0.130918 0.425138 1.189 
0.178171 0.42478 1.188 
0.225724 0.425138 1.189 
0.273127 0.425138 1.189 
0.32026 0.42478 1.188 
0.368552 0.425853 1.191 
0.40311 0.412623 1.154 
0.410199 0.376867 1.054 
0.438919 0.365783 1.023 
0.479235 0.365425 1.022 
0.516927 0.36328 1.016 
0.54262 0.353626 0.989 
0.550857 0.334675 0.936 
0.552355 0.314294 0.879 
0.551313 0.294986 0.825 
0.546353 0.274963 0.769 
0.546247 0.260303 0.728 
0.545243 0.246716 0.69 
0.542448 0.231698 0.648 
0.540219 0.220256 0.616 
0.538189 0.209887 0.587 
0.53576 0.200233 0.56 
-0.91877 0.401653 1.116 
-0.906797 0.420368 1.168 
-0.868333 0.424327 1.179 
-0.823418 0.425407 1.182 
-0.776951 0.425767 1.183 
-0.726703 0.423967 1.178 
-0.679162 0.423607 1.177 
-0.6317 0.423247 1.176 
-0.586307 0.424327 1.179 
-0.541133 0.425767 1.183 
-0.491463 0.423607 1.177 
-0.44605 0.425047 1.181 
-0.39829 0.424327 1.179 
-0.351882 0.425047 1.181 
-0.305056 0.425407 1.182 
-0.257932 0.425407 1.182 
-0.211521 0.426847 1.186 
-0.163823 0.425767 1.183 
-0.116856 0.426487 1.185 
-0.0696125 0.426487 1.185 
-0.0224445 0.427926 1.189 
0.0249584 0.427926 1.189 
0.0723614 0.427926 1.189 
0.119966 0.428646 1.191 
0.167167 0.427926 1.189 
0.21457 0.427926 1.189 
0.261973 0.427926 1.189 
0.309376 0.427926 1.189 
0.356779 0.427926 1.189 
0.400783 0.424327 1.179 
0.408716 0.382578 1.063 
0.43115 0.365663 1.016 
0.473049 0.366742 1.019 
0.508129 0.362784 1.008 
0.540701 0.357745 0.994 
0.548802 0.33831 0.94 
0.552599 0.318875 0.886 
0.551425 0.29908 0.831 
0.545163 0.278926 0.775 
0.544099 0.26345 0.732 
0.543521 0.249774 0.694 
0.54156 0.236817 0.658 
0.541043 0.22566 0.627 
0.538054 0.214503 0.596 
0.535422 0.204426 0.568 
0.539399 0.197587 0.549 
-0.900791 0.414051 1.143 
-0.880661 0.426368 1.177 
-0.83657 0.427817 1.181 
-0.790823 0.428541 1.183 
-0.741145 0.427092 1.179 
-0.692963 0.426368 1.177 
-0.64549 0.426005 1.176 
-0.599114 0.426368 1.177 
-0.554066 0.427817 1.181 
-0.506123 0.427092 1.179 
-0.459119 0.427092 1.179 
-0.412814 0.427817 1.181 
-0.36573 0.427817 1.181 
-0.318106 0.427092 1.179 
-0.272022 0.428541 1.183 
-0.225428 0.429628 1.186 
-0.177995 0.429266 1.185 
-0.130751 0.429266 1.185 
-0.0833667 0.428541 1.183 
-0.0362948 0.429628 1.186 
0.0110071 0.430352 1.188 
0.0584193 0.430715 1.189 
0.106 0.431439 1.191 
0.153225 0.430715 1.189 
0.20046 0.430352 1.188 
0.248031 0.430715 1.189 
0.295434 0.430715 1.189 
0.341972 0.429628 1.186 
0.39024 0.430715 1.189 
0.402278 0.393403 1.086 
0.415623 0.366959 1.013 
0.458711 0.369132 1.019 
0.491006 0.362974 1.002 
0.528834 0.361525 0.998 
0.543552 0.345586 0.954 
0.552934 0.32856 0.907 
0.552073 0.307912 0.85 
0.548045 0.287988 0.795 
0.544008 0.270238 0.746 
0.542216 0.255386 0.705 
0.5412 0.242345 0.669 
0.540709 0.230753 0.637 
0.539444 0.219885 0.607 
0.538572 0.210105 0.58 
0.537485 0.201048 0.555 
-0.906995 0.41345 1.134 
-0.892943 0.428399 1.175 
-0.850418 0.430586 1.181 
-0.804695 0.431315 1.183 
-0.75497 0.429857 1.179 
-0.707365 0.429492 1.178 
-0.6604 0.429492 1.178 
-0.612395 0.428763 1.176 
-0.567914 0.430586 1.181 
-0.521712 0.431315 1.183 
-0.472543 0.429492 1.178 
-0.426662 0.430586 1.181 
-0.379578 0.430586 1.181 
-0.331931 0.429857 1.179 
-0.285652 0.430951 1.182 
-0.23873 0.431315 1.183 
-0.192052 0.432409 1.186 
-0.144646 0.432045 1.185 
-0.0974028 0.432045 1.185 
-0.0501593 0.432045 1.185 
-0.00291829 0.432409 1.186 
0.0444773 0.433503 1.189 
0.091803 0.433138 1.188 
0.139283 0.433503 1.189 
0.186529 0.433138 1.188 
0.234089 0.433503 1.189 
0.281255 0.433138 1.188 
0.327789 0.432045 1.185 
0.376931 0.434232 1.191 
0.399946 0.406523 1.115 
0.409724 0.374803 1.028 
0.441939 0.367511 1.008 
0.477821 0.36423 0.999 
0.516613 0.363501 0.997 
0.542411 0.354386 0.972 
0.553659 0.337615 0.926 
0.553586 0.316468 0.868 
0.550243 0.296051 0.812 
0.547458 0.278186 0.763 
0.544553 0.262144 0.719 
0.54372 0.248654 0.682 
0.542448 0.236257 0.648 
0.541096 0.224955 0.617 
0.539106 0.214382 0.588 
0.534804 0.203808 0.559 
-0.914354 0.409872 1.117 
-0.904085 0.426017 1.161 
-0.871098 0.432622 1.179 
-0.82619 0.433723 1.182 
-0.779726 0.43409 1.183 
-0.730085 0.432622 1.179 
-0.681922 0.431888 1.177 
-0.634458 0.431521 1.176 
-0.590071 0.433356 1.181 
-0.543907 0.43409 1.183 
-0.494644 0.432255 1.178 
-0.448819 0.433356 1.181 
-0.401055 0.432622 1.179 
-0.354651 0.433356 1.181 
-0.307567 0.433356 1.181 
-0.260704 0.433723 1.182 
-0.214122 0.434824 1.185 
-0.166879 0.434824 1.185 
-0.119635 0.434824 1.185 
-0.0722083 0.433723 1.182 
-0.0252117 0.435925 1.188 
0.02217 0.436291 1.189 
0.069573 0.436291 1.189 
0.117173 0.437025 1.191 
0.164379 0.436291 1.189 
0.211782 0.436291 1.189 
0.259185 0.436291 1.189 
0.30633 0.435925 1.188 
0.353693 0.435925 1.188 
0.400043 0.434824 1.185 
0.40411 0.390424 1.064 
0.420929 0.368041 1.003 
0.458619 0.366206 0.998 
0.496909 0.365105 0.995 
0.52741 0.358867 0.978 
0.547289 0.346758 0.945 
0.551538 0.326943 0.891 
0.549504 0.306028 0.834 
0.547118 0.287314 0.783 
0.545097 0.270802 0.738 
0.54338 0.256124 0.698 
0.541748 0.242914 0.662 
0.540677 0.231172 0.63 
0.538851 0.220164 0.6 
0.538385 0.210623 0.574 
0.53878 0.202184 0.551 
-0.907525 0.420246 1.138 
-0.890945 0.434279 1.176 
-0.847649 0.436126 1.181 
-0.80192 0.436864 1.183 
-0.753481 0.436126 1.181 
-0.704602 0.435018 1.178 
-0.657638 0.435018 1.178 
-0.609637 0.434279 1.176 
-0.565145 0.436126 1.181 
-0.518499 0.436495 1.182 
-0.46978 0.435018 1.178 
-0.423893 0.436126 1.181 
-0.376809 0.436126 1.181 
-0.328887 0.435018 1.178 
-0.28288 0.436495 1.182 
-0.235955 0.436864 1.183 
-0.18927 0.437972 1.186 
-0.141987 0.437972 1.186 
-0.0946238 0.437603 1.185 
-0.0473803 0.437603 1.185 
-0.000136913 0.437972 1.186 
0.0472657 0.43908 1.189 
0.0944298 0.437972 1.186 
0.142072 0.43908 1.189 
0.189475 0.43908 1.189 
0.236878 0.43908 1.189 
0.284041 0.438711 1.188 
0.330568 0.437603 1.185 
0.379724 0.439818 1.191 
0.401573 0.405475 1.098 
0.410872 0.374086 1.013 
0.441458 0.365961 0.991 
0.481453 0.366331 0.992 
0.513649 0.361161 0.978 
0.540208 0.353036 0.956 
0.552309 0.337157 0.913 
0.55131 0.315739 0.855 
0.548425 0.295797 0.801 
0.547754 0.279179 0.756 
0.542732 0.262192 0.71 
0.542084 0.248898 0.674 
0.541942 0.237081 0.642 
0.540133 0.225633 0.611 
0.538623 0.215293 0.583 
0.536809 0.205692 0.557 
-0.913999 0.417341 1.123 
-0.903634 0.435179 1.171 
-0.864267 0.438895 1.181 
-0.818567 0.439638 1.183 
-0.770751 0.439267 1.182 
-0.72179 0.438152 1.179 
-0.674213 0.43778 1.178 
-0.626184 0.437037 1.176 
-0.581762 0.438895 1.181 
-0.535584 0.439638 1.183 
-0.486356 0.43778 1.178 
-0.440883 0.439267 1.182 
-0.393426 0.438895 1.181 
-0.346636 0.439267 1.182 
-0.299258 0.438895 1.181 
-0.251747 0.438152 1.179 
-0.205785 0.440382 1.185 
-0.158541 0.440382 1.185 
-0.111298 0.440382 1.185 
-0.0638923 0.439267 1.182 
-0.0168252 0.440753 1.186 
0.0305352 0.441868 1.189 
0.0777416 0.440753 1.186 
0.125552 0.442612 1.191 
0.172744 0.441868 1.189 
0.220517 0.442612 1.191 
0.267325 0.441497 1.188 
0.314158 0.440753 1.186 
0.362356 0.441868 1.189 
0.406313 0.438152 1.179 
0.406798 0.386124 1.039 
0.426802 0.365684 0.984 
0.466032 0.365684 0.984 
0.501667 0.363083 0.977 
0.533978 0.358623 0.965 
0.551688 0.345616 0.93 
0.551414 0.32369 0.871 
0.549799 0.303622 0.817 
0.548156 0.285784 0.769 
0.545696 0.269432 0.725 
0.544484 0.25531 0.687 
0.541906 0.241931 0.651 
0.541691 0.230782 0.621 
0.539084 0.219633 0.591 
0.536942 0.209599 0.564 
0.544842 0.203653 0.548 
-0.90097 0.432689 1.157 
-0.872576 0.441665 1.181 
-0.82619 0.442039 1.182 
-0.779067 0.442039 1.182 
-0.730085 0.440917 1.179 
-0.682501 0.440543 1.178 
-0.634458 0.439795 1.176 
-0.590071 0.441665 1.181 
-0.542987 0.441665 1.181 
-0.494644 0.440543 1.178 
-0.449199 0.442039 1.182 
-0.401055 0.440917 1.179 
-0.354651 0.441665 1.181 
-0.307567 0.441665 1.181 
-0.260042 0.440917 1.179 
-0.213761 0.442413 1.183 
-0.166879 0.443161 1.185 
-0.119635 0.443161 1.185 
-0.0722083 0.442039 1.182 
-0.0251693 0.443535 1.186 
0.02217 0.444657 1.189 
0.0695145 0.444283 1.188 
0.117173 0.445405 1.191 
0.164379 0.444657 1.189 
0.212138 0.445405 1.191 
0.258967 0.444283 1.188 
0.30633 0.444283 1.188 
0.353693 0.444283 1.188 
0.400043 0.443161 1.185 
0.400312 0.39417 1.054 
0.421171 0.373227 0.998 
0.451722 0.365748 0.978 
0.490713 0.365748 0.978 
0.521579 0.360138 0.963 
0.546598 0.351537 0.94 
0.551142 0.331716 0.887 
0.550138 0.311147 0.832 
0.547552 0.292075 0.781 
0.544605 0.274872 0.735 
0.543455 0.260287 0.696 
0.540838 0.24645 0.659 
0.541294 0.23523 0.629 
0.540258 0.224385 0.6 
0.537699 0.212792 0.569 
0.541974 0.205312 0.549 
-0.900791 0.430134 1.143 
-0.883654 0.444435 1.181 
-0.83657 0.444435 1.181 
-0.790155 0.444811 1.182 
-0.742402 0.444435 1.181 
-0.692963 0.442929 1.177 
-0.646587 0.443306 1.178 
-0.599114 0.442929 1.177 
-0.554066 0.444435 1.181 
-0.506982 0.444435 1.181 
-0.459898 0.444435 1.181 
-0.412814 0.444435 1.181 
-0.36573 0.444435 1.181 
-0.318106 0.443682 1.179 
-0.271792 0.444811 1.182 
-0.224668 0.444811 1.182 
-0.178145 0.446316 1.186 
-0.130862 0.446316 1.186 
-0.0833667 0.445187 1.183 
-0.0362948 0.446316 1.186 
0.0110164 0.447445 1.189 
0.0583702 0.447069 1.188 
0.105733 0.447069 1.188 
0.153225 0.447445 1.189 
0.200628 0.447445 1.189 
0.247823 0.447069 1.188 
0.295186 0.447069 1.188 
0.342549 0.447069 1.188 
0.39024 0.447445 1.189 
0.400426 0.406802 1.081 
0.41111 0.377073 1.002 
0.444392 0.365784 0.972 
0.48364 0.36616 0.973 
0.514378 0.360515 0.958 
0.545073 0.355623 0.945 
0.549448 0.335302 0.891 
0.549518 0.31498 0.837 
0.547371 0.295788 0.786 
0.545575 0.278854 0.741 
0.542675 0.261543 0.695 
0.54156 0.247619 0.658 
0.541906 0.236329 0.628 
0.540763 0.225416 0.599 
0.53825 0.214879 0.571 
0.540381 0.206976 0.55 
-0.908037 0.432436 1.142 
-0.889697 0.446068 1.178 
-0.844879 0.447204 1.181 
-0.799146 0.447962 1.183 
-0.751347 0.447583 1.182 
-0.70184 0.446068 1.178 
-0.655431 0.446447 1.179 
-0.606879 0.445311 1.176 
-0.561423 0.446447 1.179 
-0.515291 0.447204 1.181 
-0.468207 0.447204 1.181 
-0.421123 0.447204 1.181 
-0.374039 0.447204 1.181 
-0.326401 0.446447 1.179 
-0.280108 0.447583 1.182 
-0.232984 0.447583 1.182 
-0.186332 0.448719 1.185 
-0.13944 0.449855 1.188 
-0.0918448 0.448719 1.185 
-0.044526 0.447962 1.183 
0.00264446 0.449098 1.186 
0.050012 0.449855 1.188 
0.0972112 0.449098 1.186 
0.14486 0.450233 1.189 
0.192263 0.450233 1.189 
0.239464 0.449855 1.188 
0.286828 0.449855 1.188 
0.333347 0.448719 1.185 
0.382517 0.450991 1.191 
0.403359 0.420319 1.11 
0.4089 0.383967 1.014 
0.430351 0.362004 0.956 
0.469934 0.36314 0.959 
0.505518 0.361247 0.954 
0.540134 0.358975 0.948 
0.551715 0.342692 0.905 
0.552073 0.321866 0.85 
0.548735 0.301418 0.796 
0.546196 0.283621 0.749 
0.542985 0.267338 0.706 
0.5412 0.253327 0.669 
0.541558 0.241589 0.638 
0.541221 0.230607 0.609 
0.540429 0.220383 0.582 
0.537485 0.210159 0.555 
-0.914467 0.434352 1.14 
-0.895698 0.447688 1.175 
-0.85391 0.450355 1.182 
-0.807469 0.450736 1.183 
-0.759663 0.450355 1.182 
-0.710127 0.448831 1.178 
-0.664852 0.449974 1.181 
-0.614629 0.447688 1.175 
-0.570684 0.449974 1.181 
-0.5236 0.449974 1.181 
-0.476516 0.449974 1.181 
-0.429432 0.449974 1.181 
-0.382348 0.449974 1.181 
-0.335264 0.449974 1.181 
-0.28818 0.449974 1.181 
-0.241096 0.449974 1.181 
-0.194669 0.451498 1.185 
-0.14755 0.451879 1.186 
-0.100266 0.451879 1.186 
-0.052849 0.450736 1.183 
-0.00569966 0.451879 1.186 
0.0416538 0.452641 1.188 
0.0888671 0.451879 1.186 
0.136724 0.453784 1.191 
0.183898 0.453022 1.189 
0.231301 0.453022 1.189 
0.278469 0.452641 1.188 
0.32501 0.451498 1.185 
0.37351 0.453022 1.189 
0.407837 0.433209 1.137 
0.408496 0.385964 1.013 
0.42855 0.362722 0.952 
0.468737 0.362722 0.952 
0.506159 0.362341 0.951 
0.539496 0.359293 0.943 
0.548941 0.341767 0.897 
0.551459 0.322335 0.846 
0.548526 0.302142 0.793 
0.545757 0.284234 0.746 
0.543098 0.268232 0.704 
0.541147 0.254134 0.667 
0.542203 0.242704 0.637 
0.541758 0.231655 0.608 
0.539001 0.220605 0.579 
0.536845 0.210699 0.553 
-0.910715 0.437793 1.142 
-0.891702 0.45121 1.177 
-0.848366 0.453127 1.182 
-0.80192 0.45351 1.183 
-0.754119 0.453127 1.182 
-0.704602 0.451593 1.178 
-0.658196 0.451977 1.179 
-0.609637 0.450827 1.176 
-0.565145 0.452743 1.181 
-0.518061 0.452743 1.181 
-0.471375 0.453127 1.182 
-0.423893 0.452743 1.181 
-0.376809 0.452743 1.181 
-0.329724 0.452743 1.181 
-0.28264 0.452743 1.181 
-0.235556 0.452743 1.181 
-0.189111 0.454277 1.185 
-0.141987 0.45466 1.186 
-0.0946238 0.454277 1.185 
-0.0473003 0.45351 1.183 
-0.000136913 0.45466 1.186 
0.047226 0.455427 1.188 
0.0944298 0.45466 1.186 
0.142311 0.456577 1.191 
0.189315 0.455427 1.188 
0.236678 0.455427 1.188 
0.284041 0.455427 1.188 
0.330568 0.454277 1.185 
0.379086 0.45581 1.189 
0.407615 0.432809 1.129 
0.40925 0.386806 1.009 
0.424499 0.361505 0.943 
0.462094 0.361505 0.943 
0.500749 0.362271 0.945 
0.535576 0.360355 0.94 
0.549276 0.345404 0.901 
0.552073 0.325853 0.85 
0.548735 0.305151 0.796 
0.546196 0.287134 0.749 
0.542985 0.270649 0.706 
0.540391 0.256082 0.668 
0.541558 0.244581 0.638 
0.541221 0.233464 0.609 
0.540429 0.223113 0.582 
0.537485 0.212763 0.555 
-0.921679 0.439314 1.139 
-0.901657 0.452042 1.172 
-0.862956 0.456285 1.183 
-0.815792 0.456285 1.183 
-0.767329 0.455513 1.181 
-0.720245 0.455513 1.181 
-0.673161 0.455513 1.181 
-0.623426 0.453585 1.176 
-0.578993 0.455513 1.181 
-0.531909 0.455513 1.181 
-0.484004 0.454742 1.179 
-0.438482 0.456285 1.183 
-0.389995 0.454742 1.179 
-0.343864 0.455899 1.182 
-0.295987 0.454742 1.179 
-0.248982 0.454742 1.179 
-0.203006 0.457056 1.185 
-0.155762 0.457056 1.185 
-0.108519 0.457056 1.185 
-0.061172 0.456285 1.183 
-0.0140438 0.457442 1.186 
0.0332956 0.458213 1.188 
0.0805229 0.457442 1.186 
0.128345 0.45937 1.191 
0.175385 0.458213 1.188 
0.222935 0.458599 1.189 
0.269656 0.457442 1.186 
0.31694 0.457442 1.186 
0.365144 0.458599 1.189 
0.40769 0.453199 1.175 
0.404143 0.393415 1.02 
0.416066 0.360245 0.934 
0.452332 0.359474 0.932 
0.491065 0.360631 0.935 
0.527776 0.360245 0.934 
0.54989 0.350602 0.909 
0.55131 0.329775 0.855 
0.548425 0.308947 0.801 
0.547754 0.29159 0.756 
0.54426 0.274619 0.712 
0.540475 0.259191 0.672 
0.541098 0.247234 0.641 
0.541901 0.236435 0.613 
0.538623 0.224864 0.583 
0.537773 0.215221 0.558 
-0.921679 0.441985 1.139 
-0.901657 0.45479 1.172 
-0.862956 0.459059 1.183 
-0.817171 0.459835 1.185 
-0.767329 0.458283 1.181 
-0.720245 0.458283 1.181 
-0.673161 0.458283 1.181 
-0.623426 0.456343 1.176 
-0.578993 0.458283 1.181 
-0.531909 0.458283 1.181 
-0.484004 0.457507 1.179 
-0.438482 0.459059 1.183 
-0.389995 0.457507 1.179 
-0.343864 0.458671 1.182 
-0.295987 0.457507 1.179 
-0.249616 0.458671 1.182 
-0.203006 0.459835 1.185 
-0.1555 0.459059 1.183 
-0.108336 0.459059 1.183 
-0.061172 0.459059 1.183 
-0.0140438 0.460223 1.186 
0.0332956 0.460999 1.188 
0.0805229 0.460223 1.186 
0.128345 0.462163 1.191 
0.175385 0.460999 1.188 
0.222935 0.461387 1.189 
0.270111 0.460999 1.188 
0.31694 0.460223 1.186 
0.365144 0.461387 1.189 
0.407343 0.455566 1.174 
0.400533 0.396971 1.023 
0.409921 0.364764 0.94 
0.441686 0.360107 0.928 
0.479715 0.360883 0.93 
0.516236 0.360495 0.929 
0.550296 0.358555 0.924 
0.55231 0.336048 0.866 
0.546855 0.313153 0.807 
0.545305 0.294915 0.76 
0.543038 0.278229 0.717 
0.542125 0.263872 0.68 
0.541611 0.251066 0.647 
0.541973 0.239813 0.618 
0.540023 0.228559 0.589 
0.540544 0.219246 0.565 
-0.927003 0.439581 1.126 
-0.90483 0.450902 1.155 
-0.879602 0.461833 1.183 
-0.832438 0.461833 1.183 
-0.784611 0.461443 1.182 
-0.736863 0.461052 1.181 
-0.688611 0.460272 1.179 
-0.640518 0.459491 1.177 
-0.594602 0.460272 1.179 
-0.547598 0.460272 1.179 
-0.500169 0.459881 1.178 
-0.455898 0.462614 1.185 
-0.407275 0.461052 1.181 
-0.359581 0.460272 1.179 
-0.312576 0.460272 1.179 
-0.266473 0.461833 1.183 
-0.219309 0.461833 1.183 
-0.172146 0.461833 1.183 
-0.124982 0.461833 1.183 
-0.0780154 0.463004 1.186 
-0.030732 0.463004 1.186 
0.0165792 0.463785 1.188 
0.0638347 0.463004 1.186 
0.111399 0.464176 1.189 
0.158669 0.463785 1.188 
0.206032 0.463785 1.188 
0.253395 0.463785 1.188 
0.300758 0.463785 1.188 
0.348121 0.463785 1.188 
0.394485 0.462614 1.185 
0.399119 0.415377 1.064 
0.41415 0.389611 0.998 
