# .PCD v.7 - Point Cloud Data file format
VERSION .7
FIELDS x y z
SIZE 4 4 4
TYPE F F F
COUNT 1 1 1
WIDTH 1922
HEIGHT 1
VIEWPOINT 0 0 0 1 0 0 0
POINTS 1922
DATA ascii
0.29654 0.222767 0.611 
0.303109 0.206725 0.567 
0.309163 0.195423 0.536 
0.326832 0.193235 0.53 
0.349275 0.193964 0.532 
0.371182 0.194329 0.533 
0.393167 0.194694 0.534 
0.415233 0.195058 0.535 
0.438194 0.195787 0.537 
0.460459 0.196152 0.538 
0.484596 0.197246 0.541 
0.508035 0.197975 0.543 
0.529684 0.197975 0.543 
-2.07033 0.854603 2.329 
-1.99191 0.860841 2.346 
-1.87492 0.8502 2.317 
-1.79485 0.856071 2.333 
-1.72081 0.865611 2.359 
-1.62055 0.862309 2.35 
-1.53531 0.867079 2.363 
-1.44659 0.870381 2.372 
-1.35202 0.870381 2.372 
-1.24367 0.860841 2.346 
-1.19132 0.891664 2.43 
-1.1003 0.896434 2.443 
-0.986481 0.881756 2.403 
-0.175796 0.245483 0.669 
-0.150685 0.248051 0.676 
-0.123368 0.247317 0.674 
-0.0970699 0.248785 0.678 
-0.0698328 0.248051 0.676 
-0.0431993 0.249886 0.681 
-0.0160964 0.25062 0.683 
0.0111497 0.250987 0.684 
0.0385879 0.252088 0.687 
0.0659772 0.252088 0.687 
0.09391 0.253555 0.691 
0.122338 0.25539 0.696 
0.14987 0.255023 0.695 
0.178089 0.255757 0.697 
0.207059 0.257225 0.701 
0.235677 0.257959 0.703 
0.264079 0.258326 0.704 
0.286751 0.253555 0.691 
0.294287 0.23741 0.647 
0.297819 0.220898 0.602 
0.304932 0.206587 0.563 
0.30877 0.194845 0.531 
0.32994 0.194845 0.531 
0.351771 0.195212 0.532 
0.373682 0.195579 0.533 
0.395672 0.195946 0.534 
0.417742 0.196313 0.535 
0.440713 0.197047 0.537 
0.462983 0.197414 0.538 
0.487133 0.198514 0.541 
0.510582 0.199248 0.543 
0.53223 0.199248 0.543 
-2.05941 0.860065 2.329 
-1.97753 0.864865 2.342 
-1.86405 0.855633 2.317 
-1.78773 0.863388 2.338 
-1.70974 0.871143 2.359 
-1.60953 0.86782 2.35 
-1.52164 0.871143 2.359 
-1.43546 0.875944 2.372 
-1.34825 0.880745 2.385 
-1.2395 0.871143 2.359 
-1.1775 0.895516 2.425 
-1.08884 0.902163 2.443 
-0.967905 0.880745 2.385 
-0.174227 0.247052 0.669 
-0.1491 0.249637 0.676 
-0.121788 0.248898 0.674 
-0.0956207 0.250744 0.679 
-0.0682475 0.249637 0.676 
-0.0416022 0.251483 0.681 
-0.0144734 0.251852 0.682 
0.0127538 0.252591 0.684 
0.0402575 0.254068 0.688 
0.0675883 0.253699 0.687 
0.0955306 0.255176 0.691 
0.124148 0.257392 0.697 
0.1515 0.256653 0.695 
0.179724 0.257392 0.697 
0.208703 0.258869 0.701 
0.237325 0.259607 0.703 
0.265352 0.259607 0.703 
0.287537 0.254437 0.689 
0.29489 0.238189 0.645 
0.298542 0.219725 0.595 
0.306149 0.206061 0.558 
0.311329 0.195352 0.529 
0.333675 0.19609 0.531 
0.356182 0.196829 0.533 
0.377431 0.196829 0.533 
0.400177 0.197567 0.535 
0.422294 0.197937 0.536 
0.444491 0.198306 0.537 
0.466768 0.198675 0.538 
0.491847 0.200152 0.542 
0.514402 0.200522 0.543 
0.536051 0.200522 0.543 
-2.04543 0.868871 2.338 
-1.95222 0.868871 2.338 
-1.84549 0.862554 2.321 
-1.7658 0.868871 2.338 
-1.67831 0.871844 2.346 
-1.58748 0.873331 2.35 
-1.49379 0.873331 2.35 
-1.41321 0.881507 2.372 
-1.33088 0.889683 2.394 
-1.23079 0.886338 2.385 
-1.15284 0.899717 2.421 
-1.06418 0.906406 2.439 
-0.940378 0.881507 2.372 
-0.169521 0.248621 0.669 
-0.14413 0.25085 0.675 
-0.117219 0.25085 0.675 
-0.0907098 0.251965 0.678 
-0.0634915 0.251222 0.676 
-0.0368651 0.253452 0.682 
-0.00968936 0.253823 0.683 
0.0175661 0.254195 0.684 
0.045098 0.255682 0.688 
0.0724217 0.25531 0.687 
0.100537 0.257168 0.692 
0.129607 0.260141 0.7 
0.15639 0.258283 0.695 
0.184363 0.258655 0.696 
0.21333 0.260141 0.7 
0.242271 0.261256 0.703 
0.26876 0.259769 0.699 
0.28888 0.251594 0.677 
0.295808 0.235614 0.634 
0.296082 0.213316 0.574 
0.306741 0.20514 0.552 
0.316291 0.196592 0.529 
0.338019 0.196964 0.53 
0.361182 0.198079 0.533 
0.382431 0.198079 0.533 
0.405196 0.198822 0.535 
0.427322 0.199194 0.536 
0.449529 0.199565 0.537 
0.471815 0.199937 0.538 
0.496931 0.201424 0.542 
0.519496 0.201795 0.543 
-2.12033 0.87585 2.342 
-2.03043 0.877346 2.346 
-1.92616 0.872484 2.333 
-1.83001 0.870988 2.329 
-1.74685 0.87585 2.342 
-1.65348 0.87585 2.342 
-1.56544 0.878842 2.35 
-1.46924 0.877346 2.346 
-1.39331 0.888565 2.376 
-1.3035 0.891931 2.385 
-1.21956 0.900159 2.407 
-1.13013 0.905394 2.421 
-1.03916 0.910256 2.434 
-0.189917 0.250189 0.669 
-0.163245 0.250189 0.669 
-0.137594 0.252059 0.674 
-0.111052 0.252807 0.676 
-0.0843497 0.253555 0.678 
-0.0573192 0.253555 0.678 
-0.0304675 0.255051 0.682 
-0.00327755 0.255051 0.682 
0.0239825 0.255799 0.684 
0.051477 0.256921 0.687 
0.0790958 0.257669 0.689 
0.107183 0.259165 0.693 
0.135785 0.261035 0.698 
0.163144 0.260287 0.696 
0.191166 0.260661 0.697 
0.22021 0.262157 0.701 
0.249574 0.263653 0.705 
0.273348 0.259539 0.694 
0.290173 0.250189 0.669 
0.296479 0.234109 0.626 
0.299366 0.213166 0.57 
0.310224 0.205312 0.549 
0.321253 0.197833 0.529 
0.342991 0.198207 0.53 
0.365495 0.198955 0.532 
0.387431 0.199329 0.533 
0.410214 0.200077 0.535 
0.43235 0.200451 0.536 
0.454566 0.200825 0.537 
0.477748 0.201573 0.539 
0.502015 0.202695 0.542 
0.52459 0.203069 0.543 
-2.08125 0.87645 2.329 
-2.00292 0.882848 2.346 
-1.89555 0.87645 2.329 
-1.81586 0.882848 2.346 
-1.71939 0.881343 2.342 
-1.62602 0.881343 2.342 
-1.53788 0.884353 2.35 
-1.44174 0.882848 2.346 
-1.38096 0.904298 2.403 
-1.26377 0.889245 2.363 
-1.19134 0.905803 2.407 
-1.10994 0.917846 2.439 
-0.997752 0.904298 2.403 
-0.182072 0.251758 0.669 
-0.155633 0.252135 0.67 
-0.129498 0.253264 0.673 
-0.10343 0.255145 0.678 
-0.0761742 0.254393 0.676 
-0.0495147 0.255898 0.68 
-0.0224375 0.256274 0.681 
0.00472641 0.257027 0.683 
0.0320966 0.258156 0.686 
0.0595326 0.258532 0.687 
0.087428 0.260037 0.691 
0.115642 0.261543 0.695 
0.14335 0.261543 0.695 
0.171305 0.261919 0.696 
0.199339 0.262295 0.697 
0.228756 0.264177 0.702 
0.257841 0.265306 0.705 
0.28108 0.26079 0.693 
0.292422 0.245737 0.653 
0.298948 0.230684 0.613 
0.30469 0.212621 0.565 
0.310088 0.199074 0.529 
0.331178 0.199074 0.529 
0.354266 0.200202 0.532 
0.376181 0.200579 0.533 
0.398922 0.201331 0.535 
0.420252 0.201331 0.535 
0.443232 0.202084 0.537 
0.464641 0.202084 0.537 
0.490576 0.203966 0.542 
0.512184 0.203966 0.542 
0.534777 0.204342 0.543 
-2.03447 0.88532 2.338 
-1.94126 0.88532 2.338 
-1.84409 0.883427 2.333 
-1.75784 0.886835 2.342 
-1.66447 0.886835 2.342 
-1.57378 0.88835 2.346 
-1.48025 0.88835 2.346 
-1.40209 0.898195 2.372 
-1.33177 0.914856 2.416 
-1.2242 0.906526 2.394 
-1.12876 0.906526 2.394 
-1.05274 0.923566 2.439 
-0.193054 0.253327 0.669 
-0.166383 0.253327 0.669 
-0.140546 0.254842 0.673 
-0.114222 0.255978 0.676 
-0.0875297 0.256735 0.678 
-0.0604101 0.256357 0.677 
-0.0336169 0.257871 0.681 
-0.00647636 0.25825 0.682 
0.0207743 0.259007 0.684 
0.0482547 0.260143 0.687 
0.075644 0.260143 0.687 
0.103933 0.262415 0.693 
0.13289 0.265066 0.7 
0.159649 0.263173 0.695 
0.187627 0.263551 0.696 
0.216304 0.264687 0.699 
0.245918 0.266581 0.704 
0.270482 0.263173 0.695 
0.288604 0.253327 0.669 
0.295483 0.237423 0.627 
0.298552 0.216218 0.571 
0.310062 0.208645 0.551 
0.322494 0.200314 0.529 
0.344234 0.200693 0.53 
0.366742 0.20145 0.532 
0.388681 0.201829 0.533 
0.411469 0.202586 0.535 
0.433607 0.202965 0.536 
0.456674 0.203722 0.538 
0.479012 0.204101 0.539 
0.502358 0.204858 0.541 
0.525863 0.205615 0.543 
-2.06132 0.88585 2.325 
-1.97964 0.890803 2.338 
-1.87916 0.887374 2.329 
-1.80932 0.898805 2.359 
-1.7 0.890803 2.338 
-1.61229 0.893851 2.346 
-1.51876 0.893851 2.346 
-1.4228 0.892327 2.342 
-1.37654 0.923951 2.425 
-1.25189 0.903758 2.372 
-1.16806 0.91214 2.394 
-1.08875 0.925856 2.43 
-0.964518 0.900329 2.363 
-0.177365 0.254896 0.669 
-0.151144 0.255658 0.671 
-0.124763 0.25642 0.673 
-0.0988054 0.258706 0.679 
-0.0713125 0.257182 0.675 
-0.0447306 0.259087 0.68 
-0.0176463 0.259468 0.681 
0.00954562 0.260611 0.684 
0.0370306 0.262135 0.688 
0.0644597 0.262135 0.688 
0.0922895 0.263279 0.691 
0.121052 0.265946 0.698 
0.148027 0.264422 0.694 
0.176202 0.265184 0.696 
0.204536 0.265946 0.698 
0.234028 0.267851 0.703 
0.262055 0.267851 0.703 
0.285131 0.263279 0.691 
0.293832 0.246133 0.646 
0.297417 0.224796 0.59 
0.305933 0.213366 0.56 
0.312569 0.201555 0.529 
0.333659 0.201555 0.529 
0.356761 0.202698 0.532 
0.379392 0.20346 0.534 
0.401432 0.203841 0.535 
0.423551 0.204222 0.536 
0.445751 0.204603 0.537 
0.46803 0.204984 0.538 
0.493118 0.206508 0.542 
0.514726 0.206508 0.542 
0.536335 0.206508 0.542 
-2.01917 0.89437 2.333 
-1.93359 0.89782 2.342 
-1.83708 0.896286 2.338 
-1.74685 0.89782 2.342 
-1.65348 0.89782 2.342 
-1.56011 0.89782 2.342 
-1.46674 0.89782 2.342 
-1.39858 0.914304 2.385 
-1.31552 0.922738 2.407 
-1.21297 0.917754 2.394 
-1.11333 0.914304 2.385 
-1.03746 0.931555 2.43 
-0.189917 0.256465 0.669 
-0.163245 0.256465 0.669 
-0.137186 0.257615 0.672 
-0.111216 0.259532 0.677 
-0.0843497 0.259915 0.678 
-0.0573192 0.259915 0.678 
-0.0304228 0.261065 0.681 
-0.00327755 0.261449 0.682 
0.0240526 0.262982 0.686 
0.051477 0.263366 0.687 
0.078981 0.263749 0.688 
0.107183 0.265666 0.693 
0.13559 0.267199 0.697 
0.162909 0.266432 0.695 
0.190892 0.266816 0.696 
0.219896 0.268349 0.7 
0.249574 0.270266 0.705 
0.273348 0.266049 0.694 
0.289998 0.254932 0.665 
0.295092 0.237681 0.62 
0.297428 0.220046 0.574 
0.308036 0.211613 0.552 
0.318772 0.202795 0.529 
0.339862 0.202795 0.529 
0.362999 0.203945 0.532 
0.384931 0.204329 0.533 
0.408467 0.205479 0.536 
0.429836 0.205479 0.536 
0.452047 0.205862 0.537 
0.47522 0.206629 0.539 
0.498552 0.207396 0.541 
0.521082 0.207779 0.542 
-2.0893 0.901769 2.338 
-1.99182 0.899841 2.333 
-1.90613 0.903312 2.342 
-1.82592 0.909869 2.359 
-1.71645 0.901769 2.338 
-1.62602 0.903312 2.342 
-1.53003 0.901769 2.338 
-1.43682 0.901769 2.338 
-1.38843 0.931854 2.416 
-1.27553 0.919897 2.385 
-1.18243 0.92144 2.389 
-1.09537 0.928383 2.407 
-0.990278 0.919897 2.385 
-0.182072 0.258034 0.669 
-0.155633 0.25842 0.67 
-0.129498 0.259577 0.673 
-0.10343 0.261505 0.678 
-0.0761742 0.260734 0.676 
-0.0494419 0.261891 0.679 
-0.0224375 0.262663 0.681 
0.00472641 0.263434 0.683 
0.0320966 0.264591 0.686 
0.0597926 0.266134 0.69 
0.087428 0.26652 0.691 
0.115642 0.268062 0.695 
0.142938 0.267291 0.693 
0.171059 0.268062 0.695 
0.199625 0.269219 0.698 
0.229082 0.271148 0.703 
0.257475 0.271534 0.704 
0.28108 0.267291 0.693 
0.291781 0.252634 0.655 
0.29654 0.235663 0.611 
0.299891 0.220235 0.571 
0.310789 0.212136 0.55 
0.324975 0.204036 0.529 
0.346719 0.204422 0.53 
0.369932 0.205579 0.533 
0.391915 0.205964 0.534 
0.413978 0.20635 0.535 
0.436121 0.206736 0.536 
0.459198 0.207507 0.538 
0.482433 0.208279 0.54 
0.504895 0.208664 0.541 
0.527437 0.20905 0.542 
-2.06737 0.907252 2.338 
-1.96993 0.905312 2.333 
-1.87692 0.905312 2.333 
-1.81679 0.921998 2.376 
-1.69452 0.907252 2.338 
-1.60405 0.908805 2.342 
-1.51068 0.908805 2.342 
-1.41731 0.908805 2.342 
-1.3686 0.93946 2.421 
-1.24843 0.921998 2.376 
-1.16002 0.927043 2.389 
-1.07904 0.93946 2.421 
-0.953701 0.911909 2.35 
-0.175796 0.259603 0.669 
-0.149348 0.259991 0.67 
-0.123185 0.261155 0.673 
-0.0970699 0.263095 0.678 
-0.0699361 0.262707 0.677 
-0.0431359 0.263872 0.68 
-0.0160257 0.263872 0.68 
0.0111497 0.265424 0.684 
0.0386441 0.266976 0.688 
0.0662653 0.267752 0.69 
0.09391 0.26814 0.691 
0.122338 0.27008 0.696 
0.149439 0.268916 0.693 
0.177578 0.269692 0.695 
0.206763 0.271632 0.7 
0.235677 0.272797 0.703 
0.263704 0.272797 0.703 
0.285091 0.266588 0.687 
0.293832 0.250678 0.646 
0.29774 0.23244 0.599 
0.303902 0.219634 0.566 
0.310514 0.207217 0.534 
0.328697 0.205277 0.529 
0.350448 0.205665 0.53 
0.373682 0.206829 0.533 
0.396413 0.207605 0.535 
0.417742 0.207605 0.535 
0.439892 0.207993 0.536 
0.462122 0.208381 0.537 
0.487133 0.209933 0.541 
0.508702 0.209933 0.541 
0.53027 0.209933 0.541 
-2.052 0.910784 2.333 
-1.96319 0.912735 2.338 
-1.86278 0.909222 2.329 
-1.80564 0.92757 2.376 
-1.67995 0.910784 2.333 
-1.59306 0.914297 2.342 
-1.49969 0.914297 2.342 
-1.40873 0.915859 2.346 
-1.35444 0.943186 2.416 
-1.24197 0.931084 2.385 
-1.14689 0.931084 2.385 
-1.06768 0.945138 2.421 
-0.93947 0.914297 2.342 
-0.172658 0.261172 0.669 
-0.146205 0.261562 0.67 
-0.120207 0.263124 0.674 
-0.0938898 0.264685 0.678 
-0.0668594 0.264685 0.678 
-0.0399464 0.265466 0.68 
-0.0128362 0.265466 0.68 
0.0143789 0.267418 0.685 
0.041871 0.268589 0.688 
0.0695016 0.26937 0.69 
0.0971511 0.269761 0.691 
0.125602 0.271713 0.696 
0.152689 0.270541 0.693 
0.181098 0.271713 0.696 
0.210047 0.273274 0.7 
0.239314 0.274836 0.704 
0.266242 0.273664 0.701 
0.286215 0.266247 0.682 
0.293185 0.24907 0.638 
0.297037 0.231112 0.592 
0.30439 0.2194 0.562 
0.311917 0.206908 0.53 
0.332419 0.206517 0.529 
0.354177 0.206908 0.53 
0.37814 0.208469 0.534 
0.400177 0.208859 0.535 
0.421506 0.208859 0.535 
0.444491 0.20964 0.537 
0.466768 0.210031 0.538 
0.490939 0.211202 0.541 
0.513455 0.211592 0.542 
0.534076 0.211202 0.541 
-2.02861 0.913113 2.325 
-1.9534 0.92136 2.346 
-1.84639 0.914684 2.329 
-1.77914 0.928037 2.363 
-1.66354 0.916255 2.333 
-1.57389 0.918218 2.338 
-1.48575 0.92136 2.346 
-1.39993 0.926466 2.359 
-1.33024 0.943746 2.403 
-1.22725 0.938248 2.389 
-1.13011 0.936677 2.385 
-1.05238 0.952386 2.425 
-0.194914 0.263134 0.67 
-0.167952 0.262741 0.669 
-0.141702 0.263526 0.671 
-0.115465 0.264705 0.674 
-0.0889883 0.265883 0.677 
-0.0620893 0.266275 0.678 
-0.0351623 0.267061 0.68 
-0.00805208 0.267061 0.68 
0.0191982 0.269025 0.685 
0.0467115 0.270203 0.688 
0.0743561 0.270988 0.69 
0.10216 0.271774 0.692 
0.130499 0.273345 0.696 
0.157792 0.272559 0.694 
0.186262 0.273737 0.697 
0.215279 0.275308 0.701 
0.244267 0.276487 0.704 
0.269239 0.273345 0.696 
0.288453 0.26549 0.676 
0.294012 0.246246 0.627 
0.29764 0.229751 0.585 
0.306149 0.219147 0.558 
0.311917 0.20815 0.53 
0.332419 0.207758 0.529 
0.354177 0.20815 0.53 
0.377431 0.209329 0.533 
0.400177 0.210114 0.535 
0.421506 0.210114 0.535 
0.444491 0.2109 0.537 
0.466768 0.211292 0.538 
0.490939 0.212471 0.541 
0.513455 0.212863 0.542 
0.535064 0.212863 0.542 
-2.03406 0.918565 2.325 
-1.95556 0.925282 2.342 
-1.84867 0.918565 2.325 
-1.79148 0.937134 2.372 
-1.66901 0.921726 2.333 
-1.58208 0.925282 2.342 
-1.49125 0.926862 2.346 
-1.40547 0.931998 2.359 
-1.33588 0.949382 2.403 
-1.23285 0.943851 2.389 
-1.13761 0.943851 2.389 
-1.05807 0.958074 2.425 
-0.196486 0.264705 0.67 
-0.169521 0.26431 0.669 
-0.143062 0.264705 0.67 
-0.116872 0.26589 0.673 
-0.090576 0.26747 0.677 
-0.0636793 0.267866 0.678 
-0.036757 0.268656 0.68 
-0.0096468 0.268656 0.68 
0.0175661 0.270236 0.684 
0.0450324 0.271421 0.687 
0.0728434 0.273002 0.691 
0.100537 0.273397 0.692 
0.128867 0.274977 0.696 
0.156165 0.274187 0.694 
0.184628 0.275372 0.697 
0.21333 0.276557 0.7 
0.242616 0.278138 0.704 
0.267991 0.275372 0.697 
0.288141 0.268261 0.679 
0.293857 0.250087 0.633 
0.297921 0.233493 0.591 
0.30462 0.221246 0.56 
0.310599 0.210184 0.532 
0.329937 0.208998 0.529 
0.351691 0.209393 0.53 
0.374228 0.210184 0.532 
0.397668 0.211369 0.535 
0.418997 0.211369 0.535 
0.441149 0.211764 0.536 
0.464244 0.212554 0.538 
0.488402 0.213739 0.541 
0.510913 0.214134 0.542 
0.532521 0.214134 0.542 
-2.04302 0.925608 2.329 
-1.9644 0.932364 2.346 
-1.85413 0.924018 2.325 
-1.79704 0.942697 2.372 
-1.67807 0.929184 2.338 
-1.58486 0.929184 2.338 
-1.49675 0.932364 2.346 
-1.40562 0.933954 2.35 
-1.33649 0.95144 2.394 
-1.23845 0.949453 2.389 
-1.1456 0.95144 2.394 
-1.05981 0.960184 2.416 
-0.932382 0.929184 2.338 
-0.17109 0.265879 0.669 
-0.144634 0.266276 0.67 
-0.11845 0.267468 0.673 
-0.0920275 0.268661 0.676 
-0.0652694 0.269456 0.678 
-0.0383517 0.27025 0.68 
-0.0112415 0.27025 0.68 
0.015962 0.27184 0.684 
0.0434213 0.273032 0.687 
0.0712228 0.274622 0.691 
0.0987716 0.274622 0.691 
0.127052 0.276212 0.695 
0.154537 0.275814 0.694 
0.182993 0.277007 0.697 
0.211688 0.278199 0.7 
0.240623 0.279391 0.703 
0.266739 0.277404 0.698 
0.287393 0.270648 0.681 
0.29422 0.253161 0.637 
0.297037 0.235277 0.592 
0.30439 0.223354 0.562 
0.311096 0.212623 0.535 
0.328697 0.210239 0.529 
0.351109 0.211034 0.531 
0.37298 0.211431 0.532 
0.396413 0.212623 0.535 
0.417742 0.212623 0.535 
0.439892 0.213021 0.536 
0.462122 0.213418 0.537 
0.487133 0.215008 0.541 
0.508702 0.215008 0.541 
0.53125 0.215405 0.542 
-2.052 0.932669 2.333 
-1.96991 0.937866 2.346 
-1.85958 0.92947 2.325 
-1.8026 0.94826 2.372 
-1.68643 0.936266 2.342 
-1.59306 0.936266 2.342 
-1.50226 0.937866 2.346 
-1.40873 0.937866 2.346 
-1.3421 0.957055 2.394 
-1.24666 0.957055 2.394 
-1.15122 0.957055 2.394 
-1.06547 0.96585 2.416 
-0.937865 0.934667 2.338 
-0.173967 0.267048 0.668 
-0.147776 0.267847 0.67 
-0.121426 0.268647 0.672 
-0.0951982 0.270246 0.676 
-0.0684494 0.271046 0.678 
-0.0415411 0.271845 0.68 
-0.014431 0.271845 0.68 
0.0127352 0.273044 0.683 
0.040199 0.274644 0.687 
0.0679818 0.276243 0.691 
0.0955306 0.276243 0.691 
0.123792 0.277842 0.695 
0.151064 0.277042 0.693 
0.179724 0.278641 0.697 
0.208703 0.28024 0.701 
0.237325 0.28104 0.703 
0.264975 0.28064 0.702 
0.28545 0.273444 0.684 
0.293061 0.256254 0.641 
0.296647 0.237465 0.594 
0.304151 0.225472 0.564 
0.311096 0.213878 0.535 
0.328697 0.21148 0.529 
0.351109 0.212279 0.531 
0.372279 0.212279 0.531 
0.396413 0.213878 0.535 
0.417742 0.213878 0.535 
0.439892 0.214278 0.536 
0.462983 0.215077 0.538 
0.486233 0.215877 0.54 
0.509642 0.216677 0.542 
0.53223 0.217076 0.543 
-2.052 0.93814 2.333 
-1.96991 0.943367 2.346 
-1.85958 0.934923 2.325 
-1.79576 0.950203 2.363 
-1.68643 0.941759 2.342 
-1.59306 0.941759 2.342 
-1.50226 0.943367 2.346 
-1.41113 0.944976 2.35 
-1.3393 0.960658 2.389 
-1.24666 0.962669 2.394 
-1.15122 0.962669 2.394 
-1.06547 0.971516 2.416 
-0.93947 0.941759 2.342 
-0.170834 0.268614 0.668 
-0.144418 0.269017 0.669 
-0.11845 0.270625 0.673 
-0.0918914 0.271429 0.675 
-0.0652694 0.272636 0.678 
-0.0383517 0.27344 0.68 
-0.0112415 0.27344 0.68 
0.0159387 0.274646 0.683 
0.0433581 0.275853 0.686 
0.0712228 0.277863 0.691 
0.0987716 0.277863 0.691 
0.127234 0.279874 0.696 
0.154537 0.279069 0.694 
0.183256 0.280678 0.698 
0.211688 0.281482 0.7 
0.240623 0.282689 0.703 
0.266739 0.280678 0.698 
0.286971 0.27344 0.68 
0.293758 0.255747 0.636 
0.296535 0.237651 0.591 
0.30439 0.22599 0.562 
0.311183 0.214329 0.533 
0.329937 0.21272 0.529 
0.352355 0.213524 0.531 
0.373525 0.213524 0.531 
0.397668 0.215133 0.535 
0.418997 0.215133 0.535 
0.441149 0.215535 0.536 
0.463381 0.215937 0.537 
0.487499 0.217143 0.54 
0.510913 0.217948 0.542 
0.533504 0.21835 0.543 
-2.04302 0.941993 2.329 
-1.97529 0.954127 2.359 
-1.85413 0.940375 2.325 
-1.79022 0.955745 2.363 
-1.68381 0.948869 2.346 
-1.58486 0.945633 2.338 
-1.49931 0.950487 2.35 
-1.411 0.954127 2.359 
-1.3337 0.966261 2.389 
-1.24571 0.971924 2.403 
-1.14321 0.966261 2.389 
-1.05981 0.977182 2.416 
-0.194914 0.27099 0.67 
-0.167701 0.270181 0.668 
-0.14128 0.270585 0.669 
-0.115294 0.272203 0.673 
-0.0887254 0.273012 0.675 
-0.0620893 0.274226 0.678 
-0.0351623 0.275035 0.68 
-0.00806393 0.275439 0.681 
0.0191422 0.276248 0.683 
0.0465757 0.277461 0.686 
0.0744639 0.279484 0.691 
0.102013 0.279484 0.691 
0.130874 0.282315 0.698 
0.157792 0.280697 0.694 
0.186529 0.282315 0.698 
0.214971 0.283124 0.7 
0.24392 0.284337 0.703 
0.268852 0.281101 0.695 
0.288453 0.273417 0.676 
0.293941 0.254811 0.63 
0.297788 0.237824 0.588 
0.305387 0.226095 0.559 
0.311917 0.214365 0.53 
0.333047 0.214365 0.53 
0.354845 0.21477 0.531 
0.376723 0.215174 0.532 
0.400177 0.216387 0.535 
0.421506 0.216387 0.535 
0.443663 0.216792 0.536 
0.466768 0.217601 0.538 
0.490032 0.21841 0.54 
0.513455 0.219219 0.542 
0.536051 0.219623 0.543 
-2.0321 0.947455 2.329 
-1.96756 0.961287 2.363 
-1.84322 0.945828 2.325 
-1.77613 0.95966 2.359 
-1.67281 0.954371 2.346 
-1.57389 0.951117 2.338 
-1.49398 0.95966 2.359 
-1.40765 0.964948 2.372 
-1.32249 0.971864 2.389 
-1.23444 0.977559 2.403 
-1.13011 0.970236 2.385 
-1.04848 0.982848 2.416 
-0.193054 0.272154 0.669 
-0.166134 0.271748 0.668 
-0.139711 0.272154 0.669 
-0.113884 0.274188 0.674 
-0.0871424 0.274595 0.675 
-0.0604993 0.275816 0.678 
-0.0336169 0.277036 0.681 
-0.00646686 0.277036 0.681 
0.0207439 0.27785 0.683 
0.0481142 0.278663 0.685 
0.0760844 0.281104 0.691 
0.103633 0.281104 0.691 
0.132701 0.284359 0.699 
0.159649 0.282731 0.695 
0.188706 0.284765 0.7 
0.216304 0.284359 0.699 
0.245569 0.285986 0.703 
0.270093 0.282325 0.694 
0.288751 0.273782 0.673 
0.294481 0.255475 0.628 
0.29799 0.237169 0.583 
0.306356 0.226185 0.556 
0.31316 0.215608 0.53 
0.33429 0.215608 0.53 
0.356091 0.216015 0.531 
0.377971 0.216422 0.532 
0.400681 0.217235 0.534 
0.422761 0.217642 0.535 
0.44492 0.218049 0.536 
0.46803 0.218863 0.538 
0.491298 0.219676 0.54 
0.515676 0.220897 0.543 
0.537324 0.220897 0.543 
-2.03447 0.956599 2.338 
-1.96201 0.966828 2.363 
-1.83777 0.95128 2.325 
-1.76384 0.961509 2.35 
-1.66731 0.959873 2.346 
-1.56841 0.956599 2.338 
-1.48845 0.965192 2.359 
-1.40445 0.972147 2.376 
-1.31469 0.97583 2.385 
-1.22881 0.983194 2.403 
-1.12452 0.97583 2.385 
-1.0372 0.983194 2.403 
-0.193054 0.273723 0.669 
-0.166134 0.273314 0.668 
-0.139711 0.273723 0.669 
-0.113884 0.275769 0.674 
-0.0870133 0.275769 0.674 
-0.0604993 0.277406 0.678 
-0.0335676 0.278224 0.68 
-0.00646686 0.278633 0.681 
0.0207743 0.279861 0.684 
0.048044 0.279861 0.684 
0.0760844 0.282725 0.691 
0.103633 0.282725 0.691 
0.132511 0.285589 0.698 
0.15942 0.283952 0.694 
0.188706 0.286407 0.7 
0.216304 0.285998 0.699 
0.245569 0.287634 0.703 
0.269704 0.283543 0.693 
0.288751 0.27536 0.673 
0.294481 0.256948 0.628 
0.298844 0.238127 0.582 
0.306 0.226262 0.553 
0.316291 0.216442 0.529 
0.338019 0.216851 0.53 
0.359149 0.216851 0.53 
0.382431 0.218079 0.533 
0.404438 0.218488 0.534 
0.426525 0.218897 0.535 
0.448691 0.219306 0.536 
0.471815 0.220124 0.538 
0.495097 0.220943 0.54 
0.519496 0.22217 0.543 
-2.14193 0.976074 2.372 
-2.02492 0.965375 2.346 
-1.9421 0.970724 2.359 
-1.82768 0.960025 2.333 
-1.754 0.970724 2.359 
-1.6508 0.965375 2.346 
-1.54864 0.960025 2.333 
-1.47185 0.970724 2.359 
-1.39299 0.981423 2.385 
-1.30008 0.983069 2.389 
-1.2119 0.98883 2.403 
-1.10356 0.977719 2.376 
-1.00883 0.977719 2.376 
-0.188066 0.274881 0.668 
-0.161434 0.274881 0.668 
-0.135004 0.275292 0.669 
-0.109142 0.27735 0.674 
-0.0823935 0.277761 0.675 
-0.0557292 0.278996 0.678 
-0.0288257 0.28023 0.681 
-0.00167322 0.279819 0.68 
0.0255866 0.281465 0.684 
0.052779 0.281053 0.683 
0.0809459 0.284345 0.691 
0.108495 0.284345 0.691 
0.137422 0.287226 0.698 
0.164776 0.286403 0.696 
0.193907 0.28846 0.701 
0.221538 0.288049 0.7 
0.250515 0.289283 0.703 
0.274183 0.284757 0.692 
0.291306 0.274881 0.668 
0.294616 0.254717 0.619 
0.299501 0.237846 0.578 
0.307478 0.226735 0.551 
0.320013 0.217682 0.529 
0.341748 0.218094 0.53 
0.362878 0.218094 0.53 
0.386181 0.219328 0.533 
0.408195 0.21974 0.534 
0.431093 0.220563 0.536 
0.452463 0.220563 0.536 
0.4756 0.221386 0.538 
0.498896 0.222209 0.54 
0.523316 0.223443 0.543 
-2.10553 0.972532 2.35 
-2.01955 0.976256 2.359 
-1.91489 0.970876 2.346 
-1.82446 0.972532 2.35 
-1.7374 0.976256 2.359 
-1.6343 0.970876 2.346 
-1.53551 0.967566 2.338 
-1.45772 0.977912 2.363 
-1.37621 0.987016 2.385 
-1.28596 0.990741 2.394 
-1.19499 0.994465 2.403 
-1.08684 0.983292 2.376 
-0.985015 0.976256 2.359 
-0.184933 0.276447 0.668 
-0.158301 0.276447 0.668 
-0.131867 0.276861 0.669 
-0.105981 0.27893 0.674 
-0.0793449 0.279758 0.676 
-0.0525491 0.280586 0.678 
-0.0256316 0.281827 0.681 
0.00151622 0.281413 0.68 
0.0287948 0.283069 0.684 
0.0559005 0.282241 0.682 
0.0840651 0.285552 0.69 
0.111736 0.285966 0.691 
0.140494 0.288449 0.697 
0.16804 0.288035 0.696 
0.197195 0.290104 0.701 
0.225142 0.290104 0.701 
0.253812 0.290932 0.703 
0.277429 0.28638 0.692 
0.290913 0.273137 0.66 
0.294635 0.253686 0.613 
0.300416 0.236718 0.572 
0.309659 0.226786 0.548 
0.323734 0.218923 0.529 
0.345476 0.219337 0.53 
0.366606 0.219337 0.53 
0.389931 0.220578 0.533 
0.411952 0.220992 0.534 
0.434864 0.22182 0.536 
0.457085 0.222234 0.537 
0.480276 0.223062 0.539 
0.502696 0.223475 0.54 
0.527137 0.224717 0.543 
-2.07833 0.973049 2.338 
-2.00295 0.981789 2.359 
-1.88786 0.970968 2.333 
-1.81793 0.983453 2.363 
-1.72081 0.981789 2.359 
-1.61779 0.976378 2.346 
-1.52166 0.974713 2.342 
-1.44659 0.987199 2.372 
-1.3543 0.988864 2.376 
-1.26912 0.996355 2.394 
-1.17367 0.996355 2.394 
-1.07598 0.994274 2.389 
-0.209033 0.280927 0.675 
-0.180233 0.278014 0.668 
-0.153601 0.278014 0.668 
-0.12754 0.279262 0.671 
-0.100939 0.279679 0.672 
-0.0748095 0.282176 0.678 
-0.0478495 0.282592 0.679 
-0.0208098 0.283008 0.68 
0.00630037 0.283008 0.68 
0.0336071 0.284673 0.684 
0.0606988 0.283841 0.682 
0.0889196 0.28717 0.69 
0.116766 0.288002 0.692 
0.14498 0.289251 0.695 
0.172937 0.289667 0.696 
0.20155 0.290916 0.699 
0.230074 0.291748 0.701 
0.258758 0.29258 0.703 
0.28189 0.287586 0.691 
0.291526 0.270939 0.651 
0.295534 0.25221 0.606 
0.301247 0.235563 0.566 
0.310082 0.225574 0.542 
0.324975 0.220164 0.529 
0.346719 0.22058 0.53 
0.367849 0.22058 0.53 
0.391181 0.221828 0.533 
0.413978 0.222661 0.535 
0.436121 0.223077 0.536 
0.457491 0.223077 0.536 
0.48154 0.224326 0.539 
0.503962 0.224742 0.54 
0.52841 0.22599 0.543 
-2.07639 0.980206 2.342 
-1.99742 0.987321 2.359 
-1.88239 0.976439 2.333 
-1.81929 0.992762 2.372 
-1.71527 0.987321 2.359 
-1.61229 0.98188 2.346 
-1.52135 0.983554 2.35 
-1.44103 0.992762 2.372 
-1.34873 0.994436 2.376 
-1.2635 1.00197 2.394 
-1.16806 1.00197 2.394 
-1.07038 0.999877 2.389 
-0.204647 0.280836 0.671 
-0.176835 0.279162 0.667 
-0.150468 0.27958 0.668 
-0.124578 0.281255 0.672 
-0.0976413 0.280836 0.671 
-0.0716295 0.283766 0.678 
-0.0446648 0.284184 0.679 
-0.0176463 0.285021 0.681 
0.00950376 0.285021 0.681 
0.0368153 0.286277 0.684 
0.0638976 0.28544 0.682 
0.0922895 0.289207 0.691 
0.120012 0.289625 0.692 
0.148027 0.290462 0.694 
0.176202 0.291299 0.696 
0.204536 0.292136 0.698 
0.233362 0.293392 0.701 
0.261682 0.293811 0.702 
0.283893 0.287951 0.688 
0.292317 0.270373 0.646 
0.294757 0.24819 0.593 
0.302291 0.235634 0.563 
0.309163 0.224334 0.536 
0.326216 0.221404 0.529 
0.347962 0.221823 0.53 
0.369092 0.221823 0.53 
0.392431 0.223078 0.533 
0.415233 0.223915 0.535 
0.437378 0.224334 0.536 
0.458748 0.224334 0.536 
0.481908 0.225171 0.538 
0.505228 0.226008 0.54 
0.529684 0.227264 0.543 
-2.0709 0.985698 2.342 
-1.98429 0.989065 2.35 
-1.87692 0.98191 2.333 
-1.81679 1.00001 2.376 
-1.70974 0.992853 2.359 
-1.60405 0.985698 2.342 
-1.52164 0.992853 2.359 
-1.43788 1.00001 2.376 
-1.3409 0.998324 2.372 
-1.25526 1.00548 2.389 
-1.16682 1.01137 2.403 
-1.06477 1.00548 2.389 
-0.202771 0.281989 0.67 
-0.175271 0.280726 0.667 
-0.148902 0.281147 0.668 
-0.123185 0.283251 0.673 
-0.0962109 0.282831 0.672 
-0.0699361 0.284935 0.677 
-0.0430724 0.285777 0.679 
-0.0160492 0.286618 0.681 
0.0111008 0.286618 0.681 
0.0384194 0.287881 0.684 
0.065593 0.28746 0.683 
0.09391 0.290827 0.691 
0.121635 0.291248 0.692 
0.149654 0.29209 0.694 
0.177578 0.292511 0.695 
0.205877 0.293352 0.697 
0.235006 0.295036 0.701 
0.262954 0.295036 0.701 
0.284676 0.288723 0.686 
0.292726 0.2681 0.637 
0.295532 0.247898 0.589 
0.302765 0.235271 0.559 
0.30877 0.223487 0.531 
0.328697 0.222645 0.529 
0.350448 0.223066 0.53 
0.371578 0.223066 0.53 
0.394931 0.224328 0.533 
0.417742 0.22517 0.535 
0.439892 0.225591 0.536 
0.461262 0.225591 0.536 
0.484432 0.226433 0.538 
0.508702 0.227695 0.541 
0.53223 0.228537 0.543 
-2.06695 0.994576 2.35 
-1.97326 0.994576 2.35 
-1.86278 0.985689 2.329 
-1.80564 1.00558 2.376 
-1.69868 0.998385 2.359 
-1.59034 0.989498 2.338 
-1.51314 1.00008 2.363 
-1.42674 1.00558 2.376 
-1.32977 1.00389 2.372 
-1.24197 1.00939 2.385 
-1.15554 1.01701 2.403 
-1.0518 1.00939 2.385 
-0.199628 0.28356 0.67 
-0.172142 0.28229 0.667 
-0.145987 0.283137 0.669 
-0.120207 0.285253 0.674 
-0.0933359 0.285253 0.674 
-0.0666622 0.286099 0.676 
-0.0398877 0.287369 0.679 
-0.0128551 0.288216 0.681 
0.0143369 0.289062 0.683 
0.0416276 0.289485 0.684 
0.0688972 0.289485 0.684 
0.0971511 0.292448 0.691 
0.12488 0.292871 0.692 
0.15291 0.293717 0.694 
0.180838 0.294141 0.695 
0.209146 0.294987 0.697 
0.238294 0.29668 0.701 
0.264722 0.294987 0.697 
0.285796 0.288216 0.681 
0.292726 0.269594 0.637 
0.295149 0.250125 0.591 
0.303532 0.236159 0.558 
0.310088 0.223885 0.529 
0.331178 0.223885 0.529 
0.352934 0.224309 0.53 
0.37477 0.224732 0.531 
0.397431 0.225578 0.533 
0.420252 0.226425 0.535 
0.442406 0.226848 0.536 
0.463776 0.226848 0.536 
0.486955 0.227694 0.538 
0.511239 0.228964 0.541 
0.534777 0.229811 0.543 
-2.06934 1.00392 2.359 
-1.9644 0.998385 2.346 
-1.85732 0.99115 2.329 
-1.79704 1.00945 2.372 
-1.69314 1.00392 2.359 
-1.58147 0.992853 2.333 
-1.51334 1.00945 2.372 
-1.42117 1.01115 2.376 
-1.32421 1.00945 2.372 
-1.23638 1.01498 2.385 
-1.15182 1.02434 2.407 
-1.04226 1.01115 2.376 
-0.197761 0.284706 0.669 
-0.170578 0.283855 0.667 
-0.144418 0.284706 0.669 
-0.118626 0.286834 0.674 
-0.0918914 0.287259 0.675 
-0.0649806 0.287259 0.675 
-0.0382953 0.288961 0.679 
-0.0112581 0.289813 0.681 
0.0159387 0.290664 0.683 
0.0431685 0.290664 0.683 
0.0707075 0.29194 0.686 
0.0987716 0.294068 0.691 
0.126503 0.294494 0.692 
0.154537 0.295345 0.694 
0.182468 0.295771 0.695 
0.210781 0.296622 0.697 
0.239938 0.298324 0.701 
0.265593 0.295771 0.695 
0.286971 0.289387 0.68 
0.293857 0.269385 0.633 
0.295905 0.249809 0.587 
0.303748 0.236616 0.556 
0.310088 0.225126 0.529 
0.331178 0.225126 0.529 
0.352268 0.225126 0.529 
0.37477 0.225977 0.531 
0.397431 0.226828 0.533 
0.420252 0.227679 0.535 
0.442406 0.228105 0.536 
0.463776 0.228105 0.536 
0.486955 0.228956 0.538 
0.511239 0.230233 0.541 
0.533792 0.230658 0.542 
-2.0804 1.00945 2.359 
-1.97878 1.0056 2.35 
-1.87145 0.998324 2.333 
-1.81122 1.01672 2.376 
-1.70421 1.00945 2.359 
-1.59583 1.00046 2.338 
-1.51868 1.01116 2.363 
-1.4299 1.01501 2.372 
-1.33533 1.01501 2.372 
-1.24757 1.02058 2.385 
-1.16311 1.02999 2.407 
-1.0574 1.02058 2.385 
-0.19933 0.286275 0.669 
-0.172142 0.285419 0.667 
-0.145987 0.286275 0.669 
-0.120029 0.287986 0.673 
-0.0934744 0.288842 0.675 
-0.0665636 0.288842 0.675 
-0.0398877 0.290554 0.679 
-0.0128551 0.29141 0.681 
0.0143579 0.292693 0.684 
0.0416276 0.292693 0.684 
0.068998 0.293121 0.685 
0.0971511 0.295689 0.691 
0.12488 0.296117 0.692 
0.15291 0.296973 0.694 
0.180838 0.2974 0.695 
0.209446 0.298684 0.698 
0.238294 0.299968 0.701 
0.264343 0.297828 0.696 
0.285796 0.29141 0.681 
0.293296 0.271726 0.635 
0.296033 0.252469 0.59 
0.303532 0.238776 0.558 
0.310088 0.226367 0.529 
0.330552 0.225939 0.528 
0.352268 0.226367 0.529 
0.37477 0.227222 0.531 
0.396685 0.22765 0.532 
0.420252 0.228934 0.535 
0.442406 0.229362 0.536 
0.463776 0.229362 0.536 
0.486955 0.230218 0.538 
0.511239 0.231502 0.541 
0.533792 0.23193 0.542 
-2.08593 1.01498 2.359 
-1.99189 1.01498 2.359 
-1.87692 1.0038 2.333 
-1.81373 1.02058 2.372 
-1.70974 1.01498 2.359 
-1.60131 1.00595 2.338 
-1.52164 1.01498 2.359 
-1.43002 1.0167 2.363 
-1.3409 1.02058 2.372 
-1.24843 1.0223 2.376 
-1.16876 1.03563 2.407 
-1.06477 1.02789 2.389 
-0.200899 0.287844 0.669 
-0.173707 0.286983 0.667 
-0.147556 0.287844 0.669 
-0.121426 0.289134 0.672 
-0.0950574 0.290425 0.675 
-0.0680456 0.289995 0.674 
-0.04148 0.292146 0.679 
-0.014431 0.292576 0.68 
0.0127538 0.294297 0.684 
0.0400235 0.294297 0.684 
0.0672931 0.294297 0.684 
0.0955306 0.297309 0.691 
0.123257 0.29774 0.692 
0.151282 0.2986 0.694 
0.17895 0.2986 0.694 
0.20781 0.300321 0.698 
0.23665 0.301612 0.701 
0.263088 0.299891 0.697 
0.284616 0.293437 0.682 
0.292726 0.274075 0.637 
0.295648 0.254714 0.592 
0.301993 0.240945 0.56 
0.308188 0.228038 0.53 
0.328075 0.227177 0.528 
0.349787 0.227607 0.529 
0.372279 0.228468 0.531 
0.393449 0.228468 0.531 
0.417742 0.230189 0.535 
0.439892 0.230619 0.536 
0.461262 0.230619 0.536 
0.484432 0.23148 0.538 
0.507761 0.23234 0.54 
0.53125 0.233201 0.542 
-2.10253 1.02051 2.359 
-2.01189 1.02224 2.363 
-1.89739 1.01143 2.338 
-1.82039 1.02051 2.359 
-1.72634 1.02051 2.359 
-1.62053 1.01316 2.342 
-1.52976 1.01489 2.346 
-1.44664 1.02224 2.363 
-1.35758 1.02614 2.372 
-1.26515 1.02787 2.376 
-1.17929 1.03566 2.394 
-1.08384 1.03566 2.394 
-0.975602 1.02224 2.363 
-0.180233 0.28898 0.668 
-0.153372 0.288547 0.667 
-0.12754 0.290278 0.671 
-0.101089 0.291143 0.673 
-0.0744785 0.292008 0.675 
-0.0477791 0.293306 0.678 
-0.0208098 0.294171 0.68 
0.00632816 0.295469 0.683 
0.0336071 0.295902 0.684 
0.0607878 0.295469 0.683 
0.0889196 0.298497 0.69 
0.116766 0.299362 0.692 
0.144563 0.299795 0.693 
0.172689 0.30066 0.695 
0.200973 0.301525 0.697 
0.230402 0.303688 0.702 
0.25839 0.303688 0.702 
0.281482 0.298497 0.69 
0.290182 0.280328 0.648 
0.293584 0.260428 0.602 
0.29992 0.244854 0.566 
0.307221 0.232309 0.537 
0.323734 0.228848 0.529 
0.344825 0.228848 0.529 
0.367298 0.229713 0.531 
0.388468 0.229713 0.531 
0.411952 0.231011 0.534 
0.434053 0.231443 0.535 
0.456234 0.231876 0.536 
0.479385 0.232741 0.538 
0.501765 0.233174 0.539 
0.526166 0.234472 0.542 
-2.15618 1.04127 2.394 
-2.03406 1.02779 2.363 
-1.92261 1.01865 2.342 
-1.82924 1.01865 2.342 
-1.7418 1.02213 2.35 
-1.64811 1.02213 2.35 
-1.54053 1.013 2.329 
-1.46881 1.02779 2.363 
-1.3746 1.02779 2.363 
-1.28744 1.03344 2.376 
-1.19271 1.03344 2.376 
-1.11046 1.04518 2.403 
-1.00706 1.03736 2.385 
-0.186779 0.290981 0.669 
-0.159628 0.290112 0.667 
-0.133635 0.291416 0.67 
-0.107083 0.291851 0.671 
-0.0810499 0.294461 0.677 
-0.0540593 0.294461 0.677 
-0.0271487 0.295331 0.679 
-7.86152e-05 0.296201 0.681 
0.0272305 0.297941 0.685 
0.0543011 0.296636 0.682 
0.082447 0.300115 0.69 
0.110115 0.30055 0.691 
0.138062 0.30142 0.693 
0.166408 0.302725 0.696 
0.194156 0.302725 0.696 
0.223817 0.305335 0.702 
0.251805 0.305335 0.702 
0.275408 0.30055 0.691 
0.288927 0.286632 0.659 
0.295111 0.268364 0.617 
0.297265 0.246182 0.566 
0.307399 0.236613 0.544 
0.319408 0.229653 0.528 
0.341103 0.230088 0.529 
0.362878 0.230523 0.53 
0.384732 0.230958 0.531 
0.407431 0.231828 0.533 
0.430289 0.232698 0.535 
0.451618 0.232698 0.535 
0.474716 0.233568 0.537 
0.497973 0.234438 0.539 
0.521389 0.235308 0.541 
-2.2057 1.06263 2.43 
-2.05849 1.03726 2.372 
-1.9424 1.02589 2.346 
-1.83862 1.02021 2.333 
-1.75833 1.02764 2.35 
-1.66464 1.02764 2.35 
-1.55691 1.01846 2.329 
-1.48543 1.03333 2.363 
-1.38357 1.02764 2.35 
-1.30196 1.03726 2.372 
-1.20281 1.03333 2.363 
-1.12924 1.05257 2.407 
-1.03156 1.05082 2.403 
-0.191485 0.29255 0.669 
-0.164321 0.291676 0.667 
-0.138349 0.292988 0.67 
-0.11197 0.293862 0.672 
-0.085813 0.296049 0.677 
-0.0585617 0.294737 0.674 
-0.0319258 0.296923 0.679 
-0.0048698 0.297798 0.681 
0.0224111 0.299547 0.685 
0.0495755 0.298672 0.683 
0.0775924 0.301734 0.69 
0.105254 0.302171 0.691 
0.132995 0.302608 0.692 
0.161279 0.30392 0.695 
0.188716 0.303483 0.694 
0.218567 0.306544 0.701 
0.246866 0.306981 0.702 
0.270938 0.302608 0.692 
0.288173 0.292113 0.668 
0.295483 0.274184 0.627 
0.295356 0.249258 0.57 
0.30692 0.240512 0.55 
0.315693 0.230892 0.528 
0.337381 0.231329 0.529 
0.359149 0.231766 0.53 
0.380996 0.232204 0.531 
0.403681 0.233078 0.533 
0.426525 0.233953 0.535 
0.447854 0.233953 0.535 
0.470938 0.234827 0.537 
0.49418 0.235702 0.539 
0.517583 0.236577 0.541 
-2.2228 1.06833 2.43 
-2.07868 1.04458 2.376 
-1.96976 1.03711 2.359 
-1.85504 1.02568 2.333 
-1.77184 1.0314 2.346 
-1.68117 1.03315 2.35 
-1.576 1.02568 2.333 
-1.49379 1.03315 2.35 
-1.4001 1.03315 2.35 
-1.31865 1.04283 2.372 
-1.21943 1.03887 2.363 
-1.14618 1.05821 2.407 
-1.05022 1.05821 2.407 
-0.196192 0.294119 0.669 
-0.169014 0.29324 0.667 
-0.143062 0.294559 0.67 
-0.116525 0.294999 0.671 
-0.0907098 0.298076 0.678 
-0.0632097 0.295878 0.673 
-0.0366489 0.298076 0.678 
-0.0096468 0.298955 0.68 
0.0175918 0.301154 0.685 
0.0447702 0.300274 0.683 
0.0726325 0.302912 0.689 
0.100247 0.303352 0.69 
0.128126 0.304231 0.692 
0.15639 0.30555 0.695 
0.183833 0.30511 0.694 
0.213025 0.307308 0.699 
0.241927 0.308627 0.702 
0.266453 0.304671 0.693 
0.286868 0.297197 0.676 
0.293857 0.278292 0.633 
0.296114 0.255871 0.582 
0.305601 0.24488 0.557 
0.311978 0.23213 0.528 
0.333659 0.23257 0.529 
0.354749 0.23257 0.529 
0.37726 0.233449 0.531 
0.399181 0.233889 0.532 
0.422761 0.235207 0.535 
0.44409 0.235207 0.535 
0.46629 0.235647 0.536 
0.490388 0.236966 0.539 
0.512827 0.237406 0.54 
0.536335 0.238285 0.542 
-2.0863 1.04839 2.372 
-1.98418 1.04441 2.363 
-1.86598 1.03115 2.333 
-1.77981 1.03513 2.342 
-1.6922 1.03867 2.35 
-1.59034 1.03336 2.338 
-1.50482 1.03867 2.35 
-1.41113 1.03867 2.35 
-1.32473 1.04441 2.363 
-1.23052 1.04441 2.363 
-1.15747 1.06386 2.407 
-1.06768 1.07005 2.421 
-0.199032 0.295246 0.668 
-0.1724 0.295246 0.668 
-0.145987 0.295688 0.669 
-0.119672 0.296572 0.671 
-0.0937514 0.299224 0.677 
-0.0662677 0.297014 0.672 
-0.0398289 0.299666 0.678 
-0.0128362 0.30055 0.68 
0.0143579 0.302318 0.684 
0.0415667 0.301876 0.683 
0.0694009 0.304528 0.689 
0.0970105 0.30497 0.69 
0.12488 0.305854 0.692 
0.15291 0.306738 0.694 
0.180578 0.306738 0.694 
0.209446 0.308506 0.698 
0.238634 0.310274 0.702 
0.263963 0.30718 0.695 
0.285376 0.30055 0.68 
0.292834 0.280219 0.634 
0.296535 0.261213 0.591 
0.304841 0.246628 0.558 
0.31074 0.233368 0.528 
0.332419 0.23381 0.529 
0.353509 0.23381 0.529 
0.376015 0.234694 0.531 
0.397933 0.235136 0.532 
0.421506 0.236462 0.535 
0.442836 0.236462 0.535 
0.465033 0.236904 0.536 
0.488217 0.237788 0.538 
0.512508 0.239114 0.541 
0.535064 0.239556 0.542 
-2.08393 1.04995 2.363 
-1.9973 1.05395 2.372 
-1.87546 1.03884 2.338 
-1.78225 1.03884 2.338 
-1.69482 1.0424 2.346 
-1.59856 1.04062 2.342 
-1.50776 1.0424 2.346 
-1.41664 1.04418 2.35 
-1.33027 1.04995 2.363 
-1.23606 1.04995 2.363 
-1.16311 1.0695 2.407 
-1.07336 1.07572 2.421 
-0.196192 0.297257 0.669 
-0.169014 0.296368 0.667 
-0.143062 0.297701 0.67 
-0.116525 0.298146 0.671 
-0.0904422 0.300367 0.676 
-0.0632097 0.299034 0.673 
-0.0365948 0.300812 0.677 
-0.0096468 0.302145 0.68 
0.0175661 0.303922 0.684 
0.0448358 0.303922 0.684 
0.0726325 0.306144 0.689 
0.100247 0.306588 0.69 
0.128126 0.307477 0.692 
0.15639 0.30881 0.695 
0.183833 0.308365 0.694 
0.21272 0.310143 0.698 
0.241927 0.31192 0.702 
0.266453 0.307921 0.693 
0.286868 0.300367 0.676 
0.293475 0.279484 0.629 
0.297281 0.260822 0.587 
0.305601 0.247492 0.557 
0.31074 0.234606 0.528 
0.332419 0.235051 0.529 
0.353509 0.235051 0.529 
0.376015 0.235939 0.531 
0.397933 0.236384 0.532 
0.421506 0.237717 0.535 
0.442836 0.237717 0.535 
0.465033 0.238161 0.536 
0.489124 0.239494 0.539 
0.512508 0.240383 0.541 
0.535064 0.240827 0.542 
-2.0804 1.05371 2.359 
-1.9973 1.05951 2.372 
-1.87546 1.04433 2.338 
-1.78225 1.04433 2.338 
-1.69771 1.04969 2.35 
-1.60129 1.0479 2.346 
-1.50776 1.0479 2.346 
-1.42206 1.05371 2.359 
-1.33027 1.05549 2.363 
-1.23606 1.05549 2.363 
-1.16118 1.07336 2.403 
-1.07513 1.08319 2.425 
-0.197466 0.298379 0.668 
-0.170834 0.298379 0.668 
-0.144634 0.299273 0.67 
-0.117922 0.299273 0.67 
-0.0918914 0.301506 0.675 
-0.0646918 0.300166 0.672 
-0.0381825 0.302399 0.677 
-0.0112415 0.303739 0.68 
0.0159387 0.305079 0.683 
0.0432317 0.305526 0.684 
0.0710167 0.30776 0.689 
0.0987716 0.308653 0.691 
0.126503 0.3091 0.692 
0.154537 0.309993 0.694 
0.182205 0.309993 0.694 
0.211083 0.31178 0.698 
0.24028 0.313566 0.702 
0.26521 0.309993 0.694 
0.286549 0.303293 0.679 
0.292464 0.281406 0.63 
0.297417 0.263539 0.59 
0.305805 0.247905 0.555 
0.314455 0.235845 0.528 
0.33614 0.236291 0.529 
0.357231 0.236291 0.529 
0.379751 0.237185 0.531 
0.401676 0.237631 0.532 
0.42527 0.238971 0.535 
0.4466 0.238971 0.535 
0.469678 0.239865 0.537 
0.492916 0.240758 0.539 
0.516314 0.241652 0.541 
0.538877 0.242098 0.542 
-2.05274 1.05924 2.359 
-1.95122 1.0552 2.35 
-1.85121 1.05161 2.342 
-1.75784 1.05161 2.342 
-1.67655 1.05924 2.359 
-1.57378 1.0534 2.346 
-1.48845 1.05924 2.359 
-1.3944 1.05924 2.359 
-1.30256 1.06104 2.363 
-1.215 1.06687 2.376 
-1.13489 1.08079 2.407 
-1.05058 1.09292 2.434 
-0.189633 0.299946 0.668 
-0.163001 0.299946 0.668 
-0.136982 0.301293 0.671 
-0.11023 0.301293 0.671 
-0.0836032 0.301742 0.672 
-0.0570656 0.303089 0.675 
-0.0302888 0.304436 0.678 
-0.00326793 0.305334 0.68 
0.0239474 0.306681 0.683 
0.0512522 0.30713 0.684 
0.0790958 0.309375 0.689 
0.106874 0.310273 0.691 
0.134617 0.310722 0.692 
0.162675 0.31162 0.694 
0.190617 0.312069 0.695 
0.219582 0.313866 0.699 
0.248512 0.315213 0.702 
0.272167 0.310273 0.691 
0.287571 0.297701 0.663 
0.29414 0.277495 0.618 
0.295874 0.256391 0.571 
0.307478 0.24741 0.551 
0.319408 0.237083 0.528 
0.341103 0.237532 0.529 
0.362878 0.237981 0.53 
0.384732 0.23843 0.531 
0.407431 0.239328 0.533 
0.430289 0.240226 0.535 
0.451618 0.240226 0.535 
0.474716 0.241124 0.537 
0.497973 0.242022 0.539 
0.522353 0.243369 0.542 
-2.15865 1.08463 2.403 
-2.02851 1.06658 2.363 
-1.91712 1.0571 2.342 
-1.82063 1.05529 2.338 
-1.73628 1.06071 2.35 
-1.6426 1.06071 2.35 
-1.54891 1.06071 2.35 
-1.46079 1.06477 2.359 
-1.36906 1.06658 2.363 
-1.27485 1.06658 2.363 
-1.19613 1.08057 2.394 
-1.1108 1.0905 2.416 
-1.02414 1.10088 2.439 
-0.180233 0.301512 0.668 
-0.153601 0.301512 0.668 
-0.12735 0.302415 0.67 
-0.100939 0.303318 0.672 
-0.0740371 0.302867 0.671 
-0.0475677 0.304672 0.675 
-0.0207792 0.306478 0.679 
0.00630963 0.30738 0.681 
0.033558 0.308283 0.683 
0.0611438 0.310088 0.687 
0.0889196 0.311443 0.69 
0.116766 0.312345 0.692 
0.144355 0.312345 0.692 
0.17244 0.313248 0.694 
0.200685 0.314151 0.696 
0.230402 0.316859 0.702 
0.258022 0.316408 0.701 
0.281074 0.310991 0.689 
0.289735 0.292034 0.647 
0.295047 0.273076 0.605 
0.29992 0.255473 0.566 
0.308938 0.243738 0.54 
0.323746 0.23787 0.527 
0.346065 0.238773 0.529 
0.367849 0.239224 0.53 
0.389713 0.239675 0.531 
0.412431 0.240578 0.533 
0.435308 0.241481 0.535 
0.457491 0.241932 0.536 
0.480647 0.242835 0.538 
0.503029 0.243286 0.539 
0.527437 0.24464 0.542 
-2.10253 1.0703 2.359 
-2.01955 1.0762 2.372 
-1.90064 1.06259 2.342 
-1.80032 1.05851 2.333 
-1.72634 1.0703 2.359 
-1.62329 1.06441 2.346 
-1.53237 1.06622 2.35 
-1.44664 1.07212 2.363 
-1.35243 1.07212 2.363 
-1.25823 1.07212 2.363 
-1.18372 1.09027 2.403 
-1.09607 1.09843 2.421 
-1.0012 1.10025 2.425 
-0.178667 0.303079 0.668 
-0.152035 0.303079 0.668 
-0.125591 0.303533 0.669 
-0.0992149 0.30444 0.671 
-0.0724635 0.30444 0.671 
-0.0459165 0.305801 0.674 
-0.0192151 0.308524 0.68 
0.0079067 0.308977 0.681 
0.0351597 0.309885 0.683 
0.0627549 0.3117 0.687 
0.0905378 0.313061 0.69 
0.118389 0.313968 0.692 
0.145977 0.313968 0.692 
0.174068 0.314876 0.694 
0.202317 0.315783 0.696 
0.231718 0.318052 0.701 
0.259295 0.317598 0.7 
0.281869 0.3117 0.687 
0.290352 0.292644 0.645 
0.294505 0.27268 0.601 
0.29992 0.256801 0.566 
0.30938 0.246365 0.543 
0.322511 0.239106 0.527 
0.344173 0.239559 0.528 
0.366606 0.240467 0.53 
0.388468 0.240921 0.531 
0.411181 0.241828 0.533 
0.434053 0.242735 0.535 
0.456234 0.243189 0.536 
0.478494 0.243643 0.537 
0.501765 0.24455 0.539 
0.526166 0.245911 0.542 
-2.12524 1.08177 2.372 
-2.01955 1.07584 2.359 
-1.91162 1.06808 2.342 
-1.81515 1.06626 2.338 
-1.7374 1.07584 2.359 
-1.63708 1.07173 2.35 
-1.54931 1.07584 2.359 
-1.45772 1.07766 2.363 
-1.36871 1.08177 2.372 
-1.26931 1.07766 2.363 
-1.19499 1.0959 2.403 
-1.10102 1.09773 2.407 
-1.0109 1.10411 2.421 
-0.181528 0.30419 0.667 
-0.155168 0.304646 0.668 
-0.128729 0.305102 0.669 
-0.102362 0.306014 0.671 
-0.0756108 0.306014 0.671 
-0.0490778 0.307382 0.674 
-0.0223716 0.309662 0.679 
0.00471257 0.310574 0.681 
0.0319562 0.311486 0.683 
0.059446 0.312855 0.686 
0.0873015 0.314679 0.69 
0.114977 0.315135 0.691 
0.142732 0.315591 0.692 
0.170813 0.316503 0.694 
0.199053 0.317415 0.696 
0.228104 0.319239 0.7 
0.256743 0.320152 0.702 
0.279458 0.314223 0.689 
0.288663 0.295525 0.648 
0.295084 0.277282 0.608 
0.297265 0.258128 0.566 
0.308529 0.249007 0.546 
0.318803 0.240342 0.527 
0.341103 0.241254 0.529 
0.362193 0.241254 0.529 
0.384008 0.24171 0.53 
0.406666 0.242622 0.532 
0.430289 0.24399 0.535 
0.452463 0.244446 0.536 
0.474716 0.244902 0.537 
0.497973 0.245814 0.539 
0.522353 0.247183 0.542 
-2.17354 1.10337 2.407 
-2.01802 1.07174 2.338 
-1.93139 1.07541 2.346 
-1.83473 1.07358 2.342 
-1.754 1.08137 2.359 
-1.65362 1.07724 2.35 
-1.5659 1.08137 2.359 
-1.47996 1.08733 2.372 
-1.3854 1.08733 2.372 
-1.28376 1.08137 2.359 
-1.21392 1.10337 2.407 
-1.1161 1.10154 2.403 
-1.02581 1.1075 2.416 
-0.185662 0.304837 0.665 
-0.159628 0.305754 0.667 
-0.133635 0.307129 0.67 
-0.107083 0.307587 0.671 
-0.0803316 0.307587 0.671 
-0.0538996 0.309421 0.675 
-0.0270687 0.310338 0.677 
-7.84997e-05 0.311713 0.68 
0.0271112 0.31263 0.682 
0.0546196 0.314463 0.686 
0.082208 0.31538 0.688 
0.110115 0.316755 0.691 
0.137664 0.316755 0.691 
0.16593 0.318131 0.694 
0.194435 0.319506 0.697 
0.222861 0.320423 0.699 
0.251805 0.321798 0.702 
0.275009 0.316297 0.69 
0.288488 0.301628 0.658 
0.294154 0.281917 0.615 
0.296392 0.262206 0.572 
0.30692 0.252121 0.55 
0.316964 0.241119 0.526 
0.33922 0.242036 0.528 
0.360952 0.242494 0.529 
0.382765 0.242953 0.53 
0.405419 0.24387 0.532 
0.429034 0.245245 0.535 
0.451205 0.245703 0.536 
0.473456 0.246162 0.537 
0.495787 0.24662 0.538 
0.521082 0.248454 0.542 
-2.19186 1.11547 2.421 
-2.0235 1.07723 2.338 
-1.9369 1.08091 2.346 
-1.84337 1.08091 2.346 
-1.75282 1.08275 2.35 
-1.65913 1.08275 2.35 
-1.57143 1.0869 2.359 
-1.47989 1.08874 2.363 
-1.39096 1.09289 2.372 
-1.28929 1.0869 2.359 
-1.21956 1.10902 2.407 
-1.11753 1.10303 2.394 
-1.02764 1.10902 2.407 
-0.187221 0.306397 0.665 
-0.161193 0.307318 0.667 
-0.135206 0.3087 0.67 
-0.108495 0.3087 0.67 
-0.0819052 0.309161 0.671 
-0.0554826 0.311004 0.675 
-0.0286141 0.311465 0.676 
-0.00167322 0.313308 0.68 
0.0255118 0.314229 0.682 
0.0530108 0.316072 0.686 
0.0805945 0.316994 0.688 
0.108495 0.318376 0.691 
0.136043 0.318376 0.691 
0.164302 0.319758 0.694 
0.192801 0.32114 0.697 
0.220905 0.321601 0.698 
0.250158 0.323444 0.702 
0.273391 0.317915 0.69 
0.287381 0.303632 0.659 
0.29414 0.284741 0.618 
0.296082 0.264469 0.574 
0.30563 0.253411 0.55 
0.315731 0.242353 0.526 
0.337982 0.243274 0.528 
0.359712 0.243735 0.529 
0.381522 0.244196 0.53 
0.404171 0.245117 0.532 
0.42778 0.246499 0.535 
0.449109 0.246499 0.535 
0.472197 0.247421 0.537 
0.494525 0.247882 0.538 
0.518851 0.249264 0.541 
-2.20117 1.123 2.425 
-2.02465 1.08039 2.333 
-1.94571 1.08827 2.35 
-1.84887 1.08641 2.346 
-1.75833 1.08827 2.35 
-1.67102 1.09243 2.359 
-1.57095 1.08827 2.35 
-1.48543 1.09429 2.363 
-1.39122 1.09429 2.363 
-1.29482 1.09243 2.359 
-1.22521 1.11466 2.407 
-1.1208 1.10633 2.389 
-1.0277 1.10864 2.394 
-0.190054 0.307493 0.664 
-0.164321 0.308882 0.667 
-0.138349 0.310272 0.67 
-0.111637 0.310272 0.67 
-0.0851792 0.311198 0.672 
-0.0586486 0.312587 0.675 
-0.0316437 0.311661 0.673 
-0.0048555 0.314439 0.679 
0.0222803 0.315366 0.681 
0.0497207 0.317218 0.685 
0.0772551 0.318144 0.687 
0.105254 0.319996 0.691 
0.132802 0.319996 0.691 
0.160815 0.320923 0.693 
0.189259 0.322312 0.696 
0.217319 0.322775 0.697 
0.246514 0.324627 0.701 
0.270546 0.319996 0.691 
0.288173 0.309345 0.668 
0.293126 0.288043 0.622 
0.295945 0.26813 0.579 
0.304893 0.255164 0.551 
0.313264 0.243586 0.526 
0.33487 0.244049 0.527 
0.357231 0.244976 0.529 
0.379036 0.245439 0.53 
0.401676 0.246365 0.532 
0.42527 0.247754 0.535 
0.4466 0.247754 0.535 
0.468804 0.248217 0.536 
0.492002 0.249143 0.538 
0.51536 0.25007 0.54 
0.539871 0.251459 0.543 
-2.03756 1.084 2.329 
-1.9589 1.09192 2.346 
-1.86537 1.09192 2.346 
-1.77184 1.09192 2.346 
-1.68117 1.09378 2.35 
-1.58478 1.09192 2.346 
-1.49379 1.09378 2.35 
-1.4001 1.09378 2.35 
-1.31865 1.10402 2.372 
-1.23543 1.11426 2.394 
-1.13999 1.11426 2.394 
-1.04236 1.11193 2.389 
-0.195019 0.309516 0.665 
-0.168507 0.309516 0.665 
-0.142849 0.311377 0.669 
-0.116177 0.311377 0.669 
-0.0899071 0.312774 0.672 
-0.0633976 0.31417 0.675 
-0.0363246 0.312774 0.672 
-0.00963262 0.316032 0.679 
0.0174891 0.316963 0.681 
0.0449669 0.31929 0.686 
