# .PCD v.7 - Point Cloud Data file format
VERSION .7
FIELDS x y z
SIZE 4 4 4
TYPE F F F
COUNT 1 1 1
WIDTH 1842
HEIGHT 1
VIEWPOINT 0 0 0 1 0 0 0
POINTS 1842
DATA ascii
1.19375 -0.571398 1.215 
-0.589407 -0.378097 0.808 
-0.587536 -0.398686 0.852 
-0.584587 -0.422551 0.903 
-0.583822 -0.449692 0.961 
-0.589785 -0.486191 1.039 
-0.578446 -0.512864 1.096 
-0.549876 -0.52737 1.127 
-0.495984 -0.518011 1.107 
-0.462871 -0.530646 1.134 
-0.417292 -0.530178 1.133 
-0.374421 -0.533453 1.14 
0.110646 -0.187177 0.4 
0.278454 -0.303694 0.649 
0.301984 -0.301354 0.644 
0.319009 -0.293399 0.627 
0.322219 -0.269066 0.575 
0.341541 -0.266259 0.569 
0.364226 -0.266259 0.569 
0.386911 -0.266259 0.569 
0.411036 -0.267195 0.571 
0.929593 -0.563869 1.205 
0.977633 -0.563869 1.205 
1.02653 -0.564337 1.206 
1.07817 -0.566209 1.21 
1.13013 -0.568081 1.214 
1.1795 -0.568549 1.215 
-0.59026 -0.374339 0.804 
-0.588755 -0.394826 0.848 
-0.581778 -0.413915 0.889 
-0.585667 -0.443713 0.953 
-0.58905 -0.477236 1.025 
-0.580809 -0.505638 1.086 
-0.55731 -0.524261 1.126 
-0.507413 -0.51914 1.115 
-0.470849 -0.527986 1.134 
-0.425639 -0.527986 1.134 
-0.382106 -0.530314 1.139 
0.106894 -0.186239 0.4 
0.275576 -0.304034 0.653 
0.2993 -0.301706 0.648 
0.316103 -0.293326 0.63 
0.317376 -0.268183 0.576 
0.337386 -0.265855 0.571 
0.358889 -0.264924 0.569 
0.381574 -0.264924 0.569 
0.404969 -0.26539 0.57 
0.919051 -0.561509 1.206 
0.96633 -0.561044 1.205 
1.01437 -0.561044 1.205 
1.06594 -0.562906 1.209 
1.11782 -0.564768 1.213 
1.16715 -0.565234 1.214 
-0.592553 -0.371527 0.802 
-0.58714 -0.389131 0.84 
-0.580016 -0.407661 0.88 
-0.58766 -0.439625 0.949 
-0.588643 -0.470663 1.016 
-0.584284 -0.501701 1.083 
-0.562092 -0.521157 1.125 
-0.51724 -0.521157 1.125 
-0.474488 -0.523474 1.13 
-0.430958 -0.525327 1.134 
-0.387789 -0.528106 1.14 
-0.342639 -0.52857 1.141 
0.278381 -0.303893 0.656 
0.30082 -0.300187 0.648 
0.319093 -0.293238 0.633 
0.321189 -0.267759 0.578 
0.340064 -0.264516 0.571 
0.360922 -0.263127 0.568 
0.384918 -0.264053 0.57 
0.408358 -0.264516 0.571 
0.916223 -0.558681 1.206 
0.962704 -0.557754 1.204 
1.01154 -0.558218 1.205 
1.06222 -0.559607 1.208 
1.11498 -0.561924 1.213 
1.1643 -0.562387 1.214 
-0.596315 -0.369647 0.802 
-0.586858 -0.384396 0.834 
-0.578833 -0.40191 0.872 
-0.585247 -0.43233 0.938 
-0.585231 -0.461828 1.002 
-0.587187 -0.497317 1.079 
-0.564847 -0.516215 1.12 
-0.523446 -0.519441 1.127 
-0.475118 -0.515754 1.119 
-0.436661 -0.523128 1.135 
-0.393136 -0.525433 1.14 
-0.347686 -0.525433 1.14 
0.276563 -0.303737 0.659 
0.299159 -0.30005 0.651 
0.317622 -0.293136 0.636 
0.333811 -0.285301 0.619 
0.336466 -0.26456 0.574 
0.35622 -0.262255 0.569 
0.378905 -0.262255 0.569 
0.402295 -0.262716 0.57 
0.427257 -0.264099 0.573 
0.9522 -0.555392 1.205 
1.00024 -0.555392 1.205 
1.05089 -0.556774 1.208 
1.10178 -0.558157 1.211 
1.15291 -0.55954 1.214 
1.20329 -0.560462 1.216 
-0.588264 -0.378313 0.825 
-0.582974 -0.397114 0.866 
-0.582647 -0.421876 0.92 
-0.586323 -0.453058 0.988 
-0.587344 -0.486533 1.061 
-0.569702 -0.508544 1.109 
-0.534966 -0.517715 1.129 
-0.479973 -0.507168 1.106 
-0.447308 -0.520467 1.135 
-0.403121 -0.521842 1.138 
-0.35838 -0.522759 1.14 
0.272915 -0.306777 0.669 
0.294213 -0.301274 0.657 
0.312115 -0.293479 0.64 
0.330653 -0.286142 0.624 
0.334355 -0.263672 0.575 
0.354794 -0.261838 0.571 
0.375575 -0.260462 0.568 
0.39822 -0.260462 0.568 
0.424569 -0.262755 0.573 
0.942939 -0.552107 1.204 
0.991763 -0.552566 1.205 
1.04153 -0.553483 1.207 
1.09326 -0.555317 1.211 
1.14531 -0.557151 1.215 
1.19375 -0.557151 1.215 
-0.589028 -0.373184 0.818 
-0.584985 -0.392345 0.86 
-0.581436 -0.414244 0.908 
-0.586068 -0.445266 0.976 
-0.589203 -0.479483 1.051 
-0.571256 -0.500468 1.097 
-0.542909 -0.515067 1.129 
-0.488196 -0.505031 1.107 
-0.455294 -0.517805 1.135 
-0.410044 -0.517805 1.135 
-0.366401 -0.520086 1.14 
0.269429 -0.308402 0.676 
0.288927 -0.300646 0.659 
0.30946 -0.295171 0.647 
0.326446 -0.287416 0.63 
0.329101 -0.264605 0.58 
0.348581 -0.261868 0.574 
0.367582 -0.25913 0.568 
0.391601 -0.260043 0.57 
0.41578 -0.260955 0.572 
0.929593 -0.54974 1.205 
0.976822 -0.549284 1.204 
1.02653 -0.550196 1.206 
1.07728 -0.551565 1.209 
1.13107 -0.554302 1.215 
1.1795 -0.554302 1.215 
-0.589526 -0.364458 0.803 
-0.587366 -0.383974 0.846 
-0.581124 -0.403037 0.888 
-0.586281 -0.432992 0.954 
-0.588475 -0.464763 1.024 
-0.581344 -0.493357 1.087 
-0.55731 -0.511058 1.126 
-0.511054 -0.509696 1.123 
-0.470019 -0.513781 1.132 
-0.425264 -0.514235 1.133 
-0.382106 -0.516958 1.139 
0.25986 -0.308632 0.68 
0.283473 -0.303185 0.668 
0.302677 -0.295924 0.652 
0.321109 -0.289115 0.637 
0.33889 -0.282761 0.623 
0.342446 -0.260975 0.575 
0.360922 -0.257798 0.568 
0.384918 -0.258706 0.57 
0.408358 -0.25916 0.571 
0.916223 -0.547368 1.206 
0.961105 -0.545552 1.202 
1.01154 -0.546914 1.205 
1.06222 -0.548275 1.208 
1.11498 -0.550545 1.213 
1.16526 -0.551453 1.215 
-0.623625 -0.353093 0.782 
-0.588545 -0.370251 0.82 
-0.582968 -0.388312 0.86 
-0.58122 -0.41134 0.911 
-0.586172 -0.442495 0.98 
-0.588413 -0.475908 1.054 
-0.570757 -0.497129 1.101 
-0.540261 -0.509772 1.129 
-0.486477 -0.500742 1.109 
-0.452632 -0.512481 1.135 
-0.407741 -0.512933 1.136 
-0.363727 -0.514739 1.14 
0.271023 -0.307037 0.68 
0.29068 -0.299361 0.663 
0.309938 -0.292588 0.648 
0.329036 -0.286719 0.635 
0.34654 -0.280397 0.621 
0.350537 -0.259627 0.575 
0.368914 -0.256466 0.568 
0.392249 -0.256918 0.569 
0.416392 -0.257821 0.571 
0.929593 -0.544088 1.205 
0.976822 -0.543636 1.204 
1.02653 -0.544539 1.206 
1.07639 -0.545443 1.208 
1.13107 -0.548603 1.215 
1.1795 -0.548603 1.215 
-0.618913 -0.351708 0.783 
-0.588768 -0.369675 0.823 
-0.582303 -0.387193 0.862 
-0.582262 -0.411449 0.916 
-0.587448 -0.442892 0.986 
-0.586497 -0.473885 1.055 
-0.567102 -0.498141 1.109 
-0.532318 -0.507124 1.129 
-0.478674 -0.498141 1.109 
-0.444647 -0.509819 1.135 
-0.400452 -0.511167 1.138 
-0.355707 -0.512065 1.14 
0.274213 -0.305442 0.68 
0.292904 -0.296908 0.661 
0.312978 -0.291069 0.648 
0.331492 -0.28478 0.634 
0.34889 -0.278492 0.62 
0.353234 -0.258279 0.575 
0.371579 -0.255134 0.568 
0.393529 -0.254685 0.567 
0.419804 -0.256931 0.572 
0.932419 -0.541262 1.205 
0.979646 -0.540813 1.204 
1.02935 -0.541711 1.206 
1.07922 -0.54261 1.208 
1.13391 -0.545754 1.215 
1.18138 -0.545305 1.214 
-0.623282 -0.347191 0.777 
-0.591815 -0.357915 0.801 
-0.585743 -0.374448 0.838 
-0.581993 -0.394555 0.883 
-0.589517 -0.425387 0.952 
-0.587484 -0.453091 1.014 
-0.581344 -0.48571 1.087 
-0.557805 -0.503583 1.127 
-0.512419 -0.503136 1.126 
-0.467527 -0.503136 1.126 
-0.425264 -0.506264 1.133 
-0.382106 -0.508945 1.139 
-0.337583 -0.510285 1.142 
0.282186 -0.303848 0.68 
0.298835 -0.293571 0.657 
0.319586 -0.288655 0.646 
0.336788 -0.281506 0.63 
0.338219 -0.260952 0.584 
0.355931 -0.25693 0.575 
0.374243 -0.253802 0.568 
0.396189 -0.253355 0.567 
0.887075 -0.536649 1.201 
0.93807 -0.538436 1.205 
0.986111 -0.538436 1.205 
1.03587 -0.53933 1.207 
1.08668 -0.54067 1.21 
1.14055 -0.543351 1.216 
1.18708 -0.542458 1.214 
-0.610271 -0.346258 0.779 
-0.587937 -0.368926 0.83 
-0.580917 -0.386262 0.869 
-0.586504 -0.414709 0.933 
-0.587576 -0.443601 0.998 
-0.587187 -0.479604 1.079 
-0.562829 -0.496051 1.116 
-0.523446 -0.50094 1.127 
-0.472146 -0.494273 1.112 
-0.436661 -0.504496 1.135 
-0.392446 -0.505829 1.138 
-0.347991 -0.507163 1.141 
0.275826 -0.304031 0.684 
0.29379 -0.294697 0.663 
0.314427 -0.289363 0.651 
0.333061 -0.28314 0.637 
0.349453 -0.276028 0.621 
0.355199 -0.256026 0.576 
0.373567 -0.252915 0.569 
0.394859 -0.252026 0.567 
0.887075 -0.533832 1.201 
0.937292 -0.535166 1.204 
0.986111 -0.53561 1.205 
1.03587 -0.536499 1.207 
1.08668 -0.537833 1.21 
1.13961 -0.540055 1.215 
1.18708 -0.539611 1.214 
-0.62489 -0.340451 0.77 
-0.588374 -0.355484 0.804 
-0.587458 -0.375381 0.849 
-0.580997 -0.393951 0.891 
-0.590166 -0.426227 0.964 
-0.588363 -0.454525 1.028 
-0.581989 -0.483264 1.093 
-0.554669 -0.497855 1.126 
-0.510231 -0.498297 1.127 
-0.464887 -0.497855 1.126 
-0.422606 -0.50095 1.133 
-0.379435 -0.503603 1.139 
0.262444 -0.305522 0.691 
0.285796 -0.3011 0.681 
0.301917 -0.290489 0.657 
0.323116 -0.286068 0.647 
0.340821 -0.279435 0.632 
0.341742 -0.25777 0.583 
0.359976 -0.254233 0.575 
0.378905 -0.25158 0.569 
0.40159 -0.25158 0.569 
0.901908 -0.531458 1.202 
0.9522 -0.532784 1.205 
1.00024 -0.532784 1.205 
1.05002 -0.533668 1.207 
1.10178 -0.535437 1.211 
1.15386 -0.537206 1.215 
1.20131 -0.536764 1.214 
-0.611312 -0.342164 0.778 
-0.588966 -0.356238 0.81 
-0.586225 -0.375149 0.853 
-0.583292 -0.396259 0.901 
-0.591112 -0.427925 0.973 
-0.591488 -0.458271 1.042 
-0.580029 -0.48334 1.099 
-0.550852 -0.496534 1.129 
-0.505841 -0.496534 1.129 
-0.462463 -0.498293 1.133 
-0.417292 -0.498293 1.133 
-0.374093 -0.500932 1.139 
0.261578 -0.304781 0.693 
0.28545 -0.300823 0.684 
0.300833 -0.289388 0.658 
0.322096 -0.28499 0.648 
0.34095 -0.279273 0.635 
0.347544 -0.254644 0.579 
0.367427 -0.252445 0.574 
0.387591 -0.250686 0.57 
0.411036 -0.251125 0.571 
0.92035 -0.529518 1.204 
0.968351 -0.529518 1.204 
1.0172 -0.529958 1.205 
1.06789 -0.531278 1.208 
1.12067 -0.533477 1.213 
1.16999 -0.533916 1.214 
-0.625701 -0.337277 0.771 
-0.606538 -0.343839 0.786 
-0.588677 -0.353026 0.807 
-0.586846 -0.372274 0.851 
-0.583456 -0.392834 0.898 
-0.591564 -0.424331 0.97 
-0.591082 -0.45364 1.037 
-0.584197 -0.482075 1.102 
-0.552519 -0.493011 1.127 
-0.508939 -0.494323 1.13 
-0.462657 -0.493011 1.127 
-0.419949 -0.495636 1.133 
-0.376764 -0.49826 1.139 
-0.331936 -0.499135 1.141 
0.286336 -0.301843 0.69 
0.29929 -0.287845 0.658 
0.322555 -0.28522 0.652 
0.34053 -0.278658 0.637 
0.352975 -0.253286 0.579 
0.372811 -0.251099 0.574 
0.392249 -0.248911 0.569 
0.881442 -0.525383 1.201 
0.931645 -0.526695 1.204 
0.979646 -0.526695 1.204 
1.02935 -0.52757 1.206 
1.08011 -0.528882 1.209 
1.13298 -0.531069 1.214 
1.18041 -0.530632 1.213 
-0.620875 -0.336774 0.774 
-0.597751 -0.343301 0.789 
-0.588545 -0.356789 0.82 
-0.584993 -0.37811 0.869 
-0.588347 -0.404216 0.929 
-0.588696 -0.431628 0.992 
-0.588451 -0.462521 1.063 
-0.57073 -0.483406 1.111 
-0.534018 -0.490368 1.127 
-0.484313 -0.485582 1.116 
-0.447703 -0.494284 1.136 
-0.402413 -0.494284 1.136 
-0.35838 -0.496024 1.14 
0.269914 -0.305447 0.702 
0.291536 -0.29892 0.687 
0.30808 -0.285867 0.657 
0.329694 -0.281951 0.648 
0.345653 -0.274119 0.63 
0.359143 -0.251493 0.578 
0.378881 -0.249317 0.573 
0.398921 -0.247577 0.569 
0.892708 -0.522566 1.201 
0.942939 -0.523871 1.204 
0.991763 -0.524306 1.205 
1.04153 -0.525177 1.207 
1.09236 -0.526482 1.21 
1.14437 -0.528222 1.214 
1.19277 -0.528222 1.214 
-0.615752 -0.337123 0.779 
-0.595202 -0.343182 0.793 
-0.588462 -0.358328 0.828 
-0.582923 -0.37737 0.872 
-0.587133 -0.404201 0.934 
-0.585208 -0.43536 1.006 
-0.588727 -0.474309 1.096 
-0.559453 -0.486859 1.125 
-0.516432 -0.48859 1.129 
-0.463905 -0.480801 1.111 
-0.428298 -0.490754 1.134 
-0.384102 -0.492053 1.137 
-0.339964 -0.493784 1.141 
0.278542 -0.304233 0.703 
0.295667 -0.293414 0.678 
0.313178 -0.284759 0.658 
0.334253 -0.280431 0.648 
0.346019 -0.251436 0.581 
0.367276 -0.250138 0.578 
0.386268 -0.247541 0.572 
0.408358 -0.247108 0.571 
0.918289 -0.52148 1.205 
0.96633 -0.52148 1.205 
1.01437 -0.52148 1.205 
1.06506 -0.522779 1.208 
1.11598 -0.524077 1.211 
1.16618 -0.524943 1.213 
-0.625511 -0.332714 0.773 
-0.603302 -0.3396 0.789 
-0.59069 -0.350791 0.815 
-0.584909 -0.367578 0.854 
-0.585694 -0.39082 0.908 
-0.588564 -0.423532 0.984 
-0.590112 -0.458826 1.066 
-0.571243 -0.478626 1.112 
-0.534018 -0.485082 1.127 
-0.485615 -0.481639 1.119 
-0.447308 -0.488525 1.135 
-0.402413 -0.488956 1.136 
-0.35838 -0.490677 1.14 
0.272471 -0.306889 0.713 
0.292457 -0.29828 0.693 
0.305462 -0.283215 0.658 
0.330687 -0.282355 0.656 
0.34636 -0.272885 0.634 
0.363106 -0.249643 0.58 
0.382234 -0.24706 0.574 
0.402295 -0.245339 0.57 
0.912637 -0.518655 1.205 
0.960678 -0.518655 1.205 
1.00872 -0.518655 1.205 
1.05851 -0.519515 1.207 
1.1103 -0.521237 1.211 
1.15858 -0.521237 1.211 
-0.628136 -0.331329 0.774 
-0.603302 -0.33775 0.789 
-0.59069 -0.34888 0.815 
-0.585594 -0.366003 0.855 
-0.585694 -0.388691 0.908 
-0.587869 -0.419084 0.979 
-0.590885 -0.451189 1.054 
-0.578546 -0.47559 1.111 
-0.541947 -0.482439 1.127 
-0.498339 -0.483723 1.13 
-0.454491 -0.485007 1.133 
-0.410044 -0.485863 1.135 
-0.366079 -0.487576 1.139 
-0.320951 -0.488004 1.14 
0.290901 -0.30008 0.701 
0.303295 -0.282529 0.66 
0.329109 -0.2821 0.659 
0.345012 -0.272683 0.637 
0.358282 -0.248711 0.581 
0.379476 -0.247426 0.578 
0.397645 -0.24443 0.571 
0.890633 -0.514544 1.202 
0.940116 -0.515401 1.204 
0.988117 -0.515401 1.204 
1.03784 -0.516257 1.206 
1.08952 -0.517969 1.21 
1.14058 -0.519253 1.213 
1.18992 -0.519681 1.214 
-0.610704 -0.3359 0.789 
-0.589526 -0.34186 0.803 
-0.587366 -0.360166 0.846 
-0.583087 -0.379324 0.891 
-0.58751 -0.406996 0.956 
-0.588475 -0.435946 1.024 
-0.591505 -0.470856 1.106 
-0.55731 -0.47937 1.126 
-0.514239 -0.481073 1.13 
-0.461715 -0.47341 1.112 
-0.426014 -0.483202 1.135 
-0.381771 -0.484479 1.138 
-0.337288 -0.485756 1.141 
0.277363 -0.305247 0.717 
0.297414 -0.296733 0.697 
0.310563 -0.280555 0.659 
0.336325 -0.280129 0.658 
0.38218 -0.290347 0.682 
0.367088 -0.247774 0.582 
0.386268 -0.24522 0.576 
0.85891 -0.5113 1.201 
0.909811 -0.513003 1.205 
0.957852 -0.513003 1.205 
1.00506 -0.512577 1.204 
1.05568 -0.513854 1.207 
1.10746 -0.515557 1.211 
1.15574 -0.515557 1.211 
1.20899 -0.517686 1.216 
-0.596309 -0.335319 0.792 
-0.591117 -0.350985 0.829 
-0.584993 -0.36792 0.869 
-0.58708 -0.392476 0.927 
-0.588696 -0.419996 0.992 
-0.591219 -0.452173 1.068 
-0.571243 -0.470802 1.112 
-0.534018 -0.477153 1.127 
-0.488219 -0.476306 1.125 
-0.447308 -0.48054 1.135 
-0.402413 -0.480963 1.136 
-0.35838 -0.482657 1.14 
0.270408 -0.30907 0.73 
0.289254 -0.298485 0.705 
0.303384 -0.282397 0.667 
0.328986 -0.28155 0.665 
0.375335 -0.292134 0.69 
0.361366 -0.248103 0.586 
0.382102 -0.246409 0.582 
0.398341 -0.242175 0.572 
0.893452 -0.508907 1.202 
0.942939 -0.509753 1.204 
0.99094 -0.509753 1.204 
1.04067 -0.5106 1.206 
1.09236 -0.512294 1.21 
1.14154 -0.512717 1.211 
1.19375 -0.514411 1.215 
-0.601452 -0.332199 0.789 
-0.590946 -0.344409 0.818 
-0.585637 -0.361251 0.858 
-0.584208 -0.382724 0.909 
-0.587754 -0.410512 0.975 
-0.591105 -0.44209 1.05 
-0.581675 -0.468194 1.112 
-0.54604 -0.475773 1.13 
-0.501876 -0.476615 1.132 
-0.454728 -0.47451 1.127 
-0.412705 -0.477878 1.135 
-0.36875 -0.479562 1.139 
-0.320951 -0.479983 1.14 
0.28665 -0.301042 0.715 
0.303255 -0.289674 0.688 
0.319629 -0.27999 0.665 
0.343018 -0.277464 0.659 
0.38641 -0.286727 0.681 
0.375198 -0.245886 0.584 
0.393022 -0.242518 0.576 
0.887814 -0.506088 1.202 
0.93807 -0.507351 1.205 
0.985293 -0.50693 1.204 
1.03501 -0.507772 1.206 
1.08579 -0.509035 1.209 
1.13774 -0.510719 1.213 
1.18708 -0.51114 1.214 
-0.599266 -0.331186 0.791 
-0.589981 -0.344166 0.822 
-0.58568 -0.361751 0.864 
-0.585048 -0.383941 0.917 
-0.58677 -0.410738 0.981 
-0.589529 -0.44214 1.056 
-0.576459 -0.465586 1.112 
-0.540261 -0.472704 1.129 
-0.495689 -0.473123 1.13 
-0.451834 -0.474379 1.133 
-0.407741 -0.475635 1.136 
-0.363727 -0.47731 1.14 
-0.318278 -0.47731 1.14 
0.284377 -0.302296 0.722 
0.303619 -0.293085 0.7 
0.31651 -0.278431 0.665 
0.342506 -0.278012 0.664 
0.384813 -0.28513 0.681 
0.376483 -0.245354 0.586 
0.393704 -0.241586 0.577 
0.887814 -0.503269 1.202 
0.93807 -0.504525 1.205 
0.985293 -0.504106 1.204 
1.03501 -0.504944 1.206 
1.08579 -0.5062 1.209 
1.13774 -0.507874 1.213 
1.18708 -0.508293 1.214 
-0.598922 -0.330164 0.793 
-0.589172 -0.345152 0.829 
-0.583626 -0.362222 0.87 
-0.586799 -0.387203 0.93 
-0.587552 -0.41385 0.994 
-0.591471 -0.446741 1.073 
-0.569658 -0.463811 1.114 
-0.532318 -0.470057 1.129 
-0.486012 -0.468807 1.126 
-0.444647 -0.472555 1.135 
-0.4001 -0.473387 1.137 
-0.355707 -0.474636 1.14 
0.264769 -0.309346 0.743 
0.286466 -0.301019 0.723 
0.306133 -0.292276 0.702 
0.321551 -0.278537 0.669 
0.360857 -0.283533 0.681 
0.387438 -0.283116 0.68 
0.375647 -0.245229 0.589 
0.393708 -0.241898 0.581 
0.873719 -0.50045 1.202 
0.923941 -0.501699 1.205 
0.971175 -0.501283 1.204 
1.01918 -0.501283 1.204 
1.07072 -0.502948 1.208 
1.12351 -0.50503 1.213 
1.16994 -0.504197 1.211 
-0.604067 -0.327062 0.79 
-0.59214 -0.33824 0.817 
-0.585594 -0.353972 0.855 
-0.585049 -0.3755 0.907 
-0.588225 -0.40241 0.972 
-0.591871 -0.433461 1.047 
-0.583232 -0.459543 1.11 
-0.549661 -0.468651 1.132 
-0.50453 -0.468651 1.132 
-0.455747 -0.464925 1.123 
-0.415733 -0.470307 1.136 
-0.371748 -0.471963 1.14 
-0.321233 -0.472377 1.141 
0.281449 -0.30305 0.732 
0.300023 -0.2927 0.707 
0.31289 -0.279038 0.674 
0.337745 -0.277382 0.67 
0.381315 -0.287732 0.695 
0.367363 -0.247574 0.598 
0.385316 -0.243847 0.589 
0.846232 -0.496389 1.199 
0.897762 -0.498459 1.204 
0.945763 -0.498459 1.204 
0.992113 -0.497631 1.202 
1.0435 -0.499287 1.206 
1.0952 -0.500943 1.21 
1.14627 -0.502185 1.213 
1.1966 -0.503013 1.215 
-0.595572 -0.329738 0.801 
-0.585451 -0.342499 0.832 
-0.582152 -0.361023 0.877 
-0.586495 -0.386958 0.94 
-0.584627 -0.413716 1.005 
-0.590617 -0.448706 1.09 
-0.565734 -0.463938 1.127 
-0.521727 -0.464761 1.129 
-0.472916 -0.461056 1.12 
-0.434382 -0.467643 1.136 
-0.39012 -0.468878 1.139 
-0.345618 -0.470113 1.142 
0.26687 -0.306273 0.744 
0.290154 -0.299687 0.728 
0.309094 -0.290218 0.705 
0.323474 -0.277045 0.673 
0.353428 -0.279515 0.679 
0.362099 -0.250288 0.608 
0.376172 -0.243701 0.592 
0.827286 -0.492342 1.196 
0.879357 -0.494812 1.202 
0.929593 -0.496047 1.205 
0.976822 -0.495635 1.204 
1.02567 -0.496047 1.205 
1.07639 -0.497282 1.208 
1.1292 -0.49934 1.213 
1.17756 -0.49934 1.213 
-0.599706 -0.32704 0.799 
-0.584198 -0.336455 0.822 
-0.583626 -0.356102 0.87 
-0.586799 -0.38066 0.93 
-0.588143 -0.407266 0.995 
-0.591471 -0.439192 1.073 
-0.568636 -0.455155 1.112 
-0.532318 -0.462113 1.129 
-0.487307 -0.462113 1.129 
-0.444255 -0.46416 1.134 
-0.400452 -0.465797 1.138 
-0.355707 -0.466616 1.14 
-0.310257 -0.466616 1.14 
0.28566 -0.300435 0.734 
0.305055 -0.291021 0.711 
0.324287 -0.277514 0.678 
0.352354 -0.278332 0.68 
0.369566 -0.259095 0.633 
0.375288 -0.243541 0.595 
0.393644 -0.240266 0.587 
0.864543 -0.491584 1.201 
0.915463 -0.493221 1.205 
0.962704 -0.492812 1.204 
1.00903 -0.491993 1.202 
1.06134 -0.49404 1.207 
1.11314 -0.495677 1.211 
1.16334 -0.496496 1.213 
-0.603054 -0.323946 0.796 
-0.586392 -0.332492 0.817 
-0.580935 -0.348771 0.857 
-0.585048 -0.373189 0.917 
-0.587368 -0.399642 0.982 
-0.590088 -0.430164 1.057 
-0.574386 -0.450919 1.108 
-0.540739 -0.459873 1.13 
-0.495689 -0.459873 1.13 
-0.450638 -0.459873 1.13 
-0.4081 -0.462721 1.137 
-0.363408 -0.463535 1.139 
-0.318836 -0.464756 1.142 
0.280451 -0.302376 0.743 
0.299639 -0.292202 0.718 
0.318664 -0.283656 0.697 
0.336013 -0.27511 0.676 
0.383495 -0.286912 0.705 
0.369633 -0.245808 0.604 
0.387194 -0.241738 0.594 
0.836399 -0.487139 1.197 
0.889291 -0.489988 1.204 
0.93807 -0.490395 1.205 
0.985293 -0.489988 1.204 
1.03501 -0.490802 1.206 
1.08489 -0.491616 1.208 
1.13774 -0.493651 1.213 
1.18708 -0.494058 1.214 
-0.595572 -0.324102 0.801 
-0.577711 -0.332195 0.821 
-0.580824 -0.354044 0.875 
-0.588367 -0.381558 0.943 
-0.585815 -0.405836 1.003 
-0.590452 -0.439015 1.085 
-0.564342 -0.452772 1.119 
-0.524375 -0.456818 1.129 
-0.478515 -0.456009 1.127 
-0.436661 -0.459246 1.135 
-0.392791 -0.460864 1.139 
-0.338175 -0.462887 1.144 
0.271142 -0.303871 0.751 
0.293465 -0.296183 0.732 
0.313833 -0.288091 0.712 
0.329242 -0.277166 0.685 
0.370268 -0.285258 0.705 
0.36364 -0.248033 0.613 
0.377316 -0.241155 0.596 
0.816066 -0.483928 1.196 
0.867359 -0.485951 1.201 
0.918289 -0.487569 1.205 
0.965528 -0.487165 1.204 
1.01353 -0.487165 1.204 
1.06417 -0.488378 1.207 
1.11506 -0.489592 1.21 
1.16618 -0.490806 1.213 
-4.36938 -2.00374 4.981 
-0.585167 -0.325844 0.81 
-0.571303 -0.336706 0.837 
-0.585493 -0.366474 0.911 
-0.58896 -0.393024 0.977 
-0.591667 -0.422793 1.051 
-0.578013 -0.444516 1.105 
-0.54604 -0.454573 1.13 
-0.500989 -0.454573 1.13 
-0.453921 -0.452561 1.125 
-0.413069 -0.456986 1.136 
-0.36875 -0.458193 1.139 
-0.310802 -0.4594 1.142 
0.282715 -0.301305 0.749 
0.303813 -0.292857 0.728 
0.322778 -0.284007 0.706 
0.337007 -0.272744 0.678 
0.385633 -0.286421 0.712 
0.368408 -0.244986 0.609 
0.38366 -0.239355 0.595 
0.829361 -0.48233 1.199 
0.879357 -0.483536 1.202 
0.929593 -0.484743 1.205 
0.976822 -0.484341 1.204 
1.02567 -0.484743 1.205 
1.0755 -0.485548 1.207 
1.12734 -0.487157 1.211 
1.17756 -0.487962 1.213 
-0.602698 -0.319145 0.798 
-0.580899 -0.324744 0.812 
-0.568116 -0.336342 0.841 
-0.587347 -0.369537 0.924 
-0.589235 -0.395532 0.989 
-0.590944 -0.425127 1.063 
-0.571271 -0.442724 1.107 
-0.538089 -0.451923 1.13 
-0.492602 -0.451523 1.129 
-0.447592 -0.451523 1.129 
-0.405433 -0.454722 1.137 
-0.346223 -0.457522 1.144 
0.262656 -0.302748 0.757 
0.289355 -0.299149 0.748 
0.309362 -0.28995 0.725 
0.328468 -0.281552 0.704 
0.342861 -0.270754 0.677 
0.360427 -0.251957 0.63 
0.37512 -0.242358 0.606 
0.394009 -0.239159 0.598 
0.846938 -0.479918 1.2 
0.897762 -0.481517 1.204 
0.947334 -0.482317 1.206 
0.993764 -0.481517 1.204 
1.0435 -0.482317 1.206 
1.09339 -0.483117 1.208 
1.14722 -0.485517 1.214 
1.1966 -0.485917 1.215 
-0.593693 -0.318467 0.801 
-0.571577 -0.324033 0.815 
-0.576788 -0.346695 0.872 
-0.589885 -0.377309 0.949 
-0.587535 -0.401562 1.01 
-0.590075 -0.432972 1.089 
-0.560714 -0.444104 1.117 
-0.521727 -0.448875 1.129 
-0.475872 -0.44808 1.127 
-0.434 -0.45126 1.135 
-0.389777 -0.452453 1.138 
-0.332809 -0.454839 1.144 
0.271174 -0.300575 0.756 
0.296133 -0.295407 0.743 
0.316109 -0.28666 0.721 
0.333853 -0.277515 0.698 
0.375935 -0.285865 0.719 
0.363707 -0.245708 0.618 
0.378582 -0.237757 0.598 
0.813941 -0.475911 1.197 
0.864543 -0.477501 1.201 
0.914703 -0.478694 1.204 
0.962704 -0.478694 1.204 
1.01071 -0.478694 1.204 
1.06134 -0.479887 1.207 
1.11222 -0.481079 1.21 
1.16334 -0.482272 1.213 
-4.51445 -2.02324 5.119 
-0.58576 -0.317379 0.803 
-0.56271 -0.322517 0.816 
-0.587354 -0.357298 0.904 
-0.591564 -0.383384 0.97 
-0.589372 -0.408679 1.034 
-0.585257 -0.436346 1.104 
-0.5535 -0.446227 1.129 
-0.507588 -0.445437 1.127 
-0.462246 -0.445042 1.126 
-0.421061 -0.448994 1.136 
-0.376433 -0.449784 1.138 
-0.332809 -0.452156 1.144 
0.269398 -0.300779 0.761 
0.295799 -0.296826 0.751 
0.315764 -0.287736 0.728 
0.333421 -0.27825 0.704 
0.381823 -0.28734 0.727 
0.364593 -0.247816 0.627 
0.377034 -0.237145 0.6 
0.802713 -0.473104 1.197 
0.853277 -0.474685 1.201 
0.904159 -0.476266 1.205 
0.95299 -0.476661 1.206 
0.999411 -0.47587 1.204 
1.05002 -0.477056 1.207 
1.09905 -0.477451 1.208 
1.15291 -0.479823 1.214 
1.2023 -0.480218 1.215 
-0.583876 -0.315495 0.803 
-0.558048 -0.319032 0.812 
-0.586558 -0.359893 0.916 
-0.58847 -0.385038 0.98 
-0.590324 -0.413719 1.053 
-0.57438 -0.433364 1.103 
-0.542909 -0.44358 1.129 
-0.497016 -0.442794 1.127 
-0.452085 -0.442794 1.127 
-0.410405 -0.44633 1.136 
-0.366079 -0.447508 1.139 
-0.316712 -0.449473 1.144 
0.278634 -0.297422 0.757 
0.303511 -0.292315 0.744 
0.323321 -0.283671 0.722 
0.339913 -0.273848 0.697 
0.388341 -0.281706 0.717 
0.372403 -0.24281 0.618 
0.387644 -0.235345 0.599 
0.830052 -0.471475 1.2 
0.879357 -0.472261 1.202 
0.929593 -0.47344 1.205 
0.976822 -0.473047 1.204 
1.02567 -0.47344 1.205 
1.07639 -0.474618 1.208 
1.12734 -0.475797 1.211 
1.17756 -0.476583 1.213 
-0.60158 -0.31205 0.799 
-0.57543 -0.315174 0.807 
-0.549988 -0.31908 0.817 
-0.589885 -0.370633 0.949 
-0.588643 -0.3968 1.016 
-0.589679 -0.426872 1.093 
-0.558095 -0.436245 1.117 
-0.51816 -0.440151 1.127 
-0.474069 -0.440932 1.129 
-0.431718 -0.443666 1.136 
-0.386768 -0.444056 1.137 
-0.343841 -0.447181 1.145 
0.268463 -0.304239 0.779 
0.291446 -0.296037 0.758 
0.314027 -0.289008 0.74 
0.332388 -0.279634 0.716 
0.383398 -0.285102 0.73 
0.367533 -0.244875 0.627 
0.380636 -0.237455 0.608 
0.804847 -0.467099 1.196 
0.856093 -0.469052 1.201 
0.906233 -0.470223 1.204 
0.955819 -0.471004 1.206 
1.00223 -0.470223 1.204 
1.05285 -0.471395 1.207 
1.1028 -0.472176 1.209 
1.15576 -0.474129 1.214 
1.20416 -0.474129 1.214 
-0.588792 -0.311341 0.802 
-0.560983 -0.31367 0.808 
-0.586778 -0.354432 0.913 
-0.58896 -0.379277 0.977 
-0.590542 -0.407228 1.049 
-0.57749 -0.428579 1.104 
-0.545556 -0.438284 1.129 
-0.499659 -0.437508 1.127 
-0.454324 -0.43712 1.126 
-0.413069 -0.441002 1.136 
-0.36875 -0.442166 1.139 
-0.32476 -0.444107 1.144 
0.276196 -0.298918 0.77 
0.300916 -0.293095 0.755 
0.320932 -0.284167 0.732 
0.339593 -0.275626 0.71 
0.360885 -0.250004 0.644 
0.372154 -0.240687 0.62 
0.384192 -0.232147 0.598 
0.826549 -0.465459 1.199 
0.876538 -0.466623 1.202 
0.927536 -0.468176 1.206 
0.973999 -0.4674 1.204 
1.022 -0.4674 1.204 
1.07356 -0.468952 1.208 
1.1245 -0.470117 1.211 
1.17472 -0.470893 1.213 
-0.605327 -0.308302 0.799 
-0.577779 -0.310618 0.805 
-0.545686 -0.310618 0.805 
-0.590863 -0.36541 0.947 
-0.586984 -0.38779 1.005 
-0.588819 -0.417501 1.082 
-0.561316 -0.429463 1.113 
-0.524375 -0.435636 1.129 
-0.479788 -0.436022 1.13 
-0.436661 -0.437952 1.135 
-0.391756 -0.438337 1.136 
-0.349211 -0.44181 1.145 
-0.303297 -0.441424 1.144 
0.290929 -0.295569 0.766 
0.312654 -0.287466 0.745 
0.333625 -0.280135 0.726 
0.351083 -0.27126 0.703 
0.368334 -0.245407 0.636 
0.382548 -0.238462 0.618 
0.799237 -0.461489 1.196 
0.85046 -0.463418 1.201 
0.900585 -0.464576 1.204 
0.950162 -0.465348 1.206 
0.996587 -0.464576 1.204 
1.04719 -0.465734 1.207 
1.09622 -0.466119 1.208 
1.14912 -0.468049 1.213 
1.19945 -0.46882 1.215 
-0.591815 -0.307196 0.801 
-0.564773 -0.30988 0.808 
-0.529264 -0.307963 0.803 
-0.59172 -0.373544 0.974 
-0.586947 -0.396555 1.034 
-0.584252 -0.424551 1.107 
-0.549876 -0.432222 1.127 
-0.505841 -0.432989 1.129 
-0.460014 -0.432222 1.127 
-0.418766 -0.436057 1.137 
-0.374093 -0.436824 1.139 
-0.330126 -0.438741 1.144 
0.281218 -0.300676 0.784 
0.303087 -0.289938 0.756 
0.325293 -0.283034 0.738 
0.343661 -0.274213 0.715 
0.364084 -0.248134 0.647 
0.375416 -0.23893 0.623 
0.787183 -0.459835 1.199 
0.834984 -0.459835 1.199 
0.884995 -0.460985 1.202 
0.936021 -0.462519 1.206 
0.983285 -0.462136 1.205 
1.03218 -0.462519 1.206 
1.08205 -0.463286 1.208 
1.13302 -0.464437 1.211 
1.18423 -0.465588 1.214 
-0.596336 -0.303793 0.797 
-0.569519 -0.306461 0.804 
-0.537466 -0.306461 0.804 
-0.591128 -0.362493 0.951 
-0.588117 -0.385363 1.011 
-0.588991 -0.414332 1.087 
-0.560714 -0.425767 1.117 
-0.521727 -0.430341 1.129 
-0.477138 -0.430722 1.13 
-0.434382 -0.433009 1.136 
-0.389092 -0.433009 1.136 
-0.346526 -0.43644 1.145 
-0.300877 -0.43644 1.145 
0.297865 -0.293501 0.77 
0.318323 -0.284353 0.746 
0.339666 -0.277492 0.728 
0.363127 -0.246998 0.648 
0.376877 -0.237469 0.623 
0.790654 -0.457404 1.2 
0.837796 -0.457023 1.199 
0.889291 -0.458929 1.204 
0.938849 -0.459691 1.206 
0.986111 -0.45931 1.205 
1.03587 -0.460072 1.207 
1.08489 -0.460453 1.208 
1.13586 -0.461597 1.211 
1.18805 -0.463122 1.215 
-0.592229 -0.300787 0.794 
-0.566222 -0.303818 0.802 
-0.534914 -0.304196 0.803 
-0.590756 -0.361399 0.954 
-0.588643 -0.384886 1.016 
-0.589679 -0.414056 1.093 
-0.560593 -0.425042 1.122 
-0.51816 -0.426936 1.127 
-0.475328 -0.42883 1.132 
-0.432098 -0.430724 1.137 
-0.386428 -0.430345 1.136 
-0.343841 -0.433755 1.145 
-0.298452 -0.434133 1.146 
0.282496 -0.302302 0.798 
0.302495 -0.290938 0.768 
0.323137 -0.282225 0.745 
0.344788 -0.275785 0.728 
0.37167 -0.2451 0.647 
0.385447 -0.234114 0.618 
0.806301 -0.452317 1.194 
0.85891 -0.454969 1.201 
0.909811 -0.456484 1.205 
0.957852 -0.456484 1.205 
1.00589 -0.456484 1.205 
1.05656 -0.457621 1.208 
1.10655 -0.458378 1.21 
1.15765 -0.459515 1.213 
1.20899 -0.460651 1.216 
-0.572629 -0.295537 0.785 
-0.554435 -0.30269 0.804 
-0.521082 -0.301937 0.802 
-0.589563 -0.368197 0.978 
-0.58829 -0.393421 1.045 
-0.580106 -0.417516 1.109 
-0.545556 -0.425046 1.129 
-0.501876 -0.426175 1.132 
-0.455938 -0.425422 1.13 
-0.413433 -0.428057 1.137 
-0.369074 -0.429187 1.14 
-0.324476 -0.430316 1.143 
0.256965 -0.30796 0.818 
0.283558 -0.30156 0.801 
0.303676 -0.290266 0.771 
0.324872 -0.281983 0.749 
0.345735 -0.27483 0.73 
0.370725 -0.243959 0.648 
0.385447 -0.232664 0.618 
0.800701 -0.449517 1.194 
0.853277 -0.452152 1.201 
0.903409 -0.453282 1.204 
0.95299 -0.454035 1.206 
1.00024 -0.453658 1.205 
1.05089 -0.454788 1.208 
1.09996 -0.455164 1.209 
1.15006 -0.455917 1.211 
1.20329 -0.457799 1.216 
-0.557304 -0.296315 0.792 
-0.533031 -0.30043 0.803 
-0.593852 -0.358795 0.959 
-0.589802 -0.380869 1.018 
-0.589679 -0.408929 1.093 
-0.562092 -0.420901 1.125 
-0.51816 -0.42165 1.127 
-0.475748 -0.423894 1.133 
-0.431718 -0.425017 1.136 
-0.386768 -0.425391 1.137 
-0.343841 -0.428384 1.145 
-0.298452 -0.428758 1.146 
0.26786 -0.298934 0.799 
0.296714 -0.29594 0.791 
0.316332 -0.283594 0.758 
0.338323 -0.27686 0.74 
0.361015 -0.246181 0.658 
0.381363 -0.242439 0.648 
0.776582 -0.448961 1.2 
0.820302 -0.446717 1.194 
0.872992 -0.449336 1.201 
0.923174 -0.450458 1.204 
0.971982 -0.450832 1.205 
1.02002 -0.450832 1.205 
1.07072 -0.451955 1.208 
1.12074 -0.452703 1.21 
1.17187 -0.453825 1.213 
-0.568235 -0.287765 0.774 
-0.555429 -0.297431 0.8 
-0.524189 -0.297803 0.801 
-0.594614 -0.362495 0.975 
-0.586522 -0.382571 1.029 
-0.587378 -0.411943 1.108 
-0.5535 -0.41975 1.129 
-0.508939 -0.420122 1.13 
-0.464709 -0.420866 1.132 
-0.421432 -0.422725 1.137 
-0.376764 -0.423468 1.139 
-0.332518 -0.424955 1.143 
-0.288204 -0.426814 1.148 
0.276389 -0.298175 0.802 
0.303749 -0.293714 0.79 
0.322514 -0.28256 0.76 
0.344458 -0.275868 0.742 
0.361657 -0.246125 0.662 
0.381015 -0.241663 0.65 
0.764688 -0.445775 1.199 
0.807746 -0.443173 1.192 
0.861726 -0.446519 1.201 
0.91188 -0.447634 1.204 
0.960678 -0.448006 1.205 
1.00872 -0.448006 1.205 
1.05939 -0.449122 1.208 
1.10847 -0.449493 1.209 
1.15858 -0.450237 1.211 
-0.578378 -0.28558 0.773 
-0.548977 -0.286319 0.775 
-0.536797 -0.296664 0.803 
-0.494725 -0.290753 0.787 
-0.591656 -0.374247 1.013 
-0.589364 -0.400108 1.083 
-0.565855 -0.414516 1.122 
-0.524375 -0.417103 1.129 
-0.481062 -0.41858 1.133 
-0.436661 -0.419319 1.135 
-0.392101 -0.420058 1.137 
-0.348601 -0.422275 1.143 
-0.303562 -0.423014 1.145 
0.271948 -0.295555 0.8 
0.303082 -0.294816 0.798 
0.322307 -0.283733 0.768 
0.341896 -0.274867 0.744 
0.360843 -0.2527 0.684 
0.376446 -0.243094 0.658 
0.746569 -0.442225 1.197 
0.794291 -0.442225 1.197 
0.844123 -0.443333 1.2 
0.894938 -0.444811 1.204 
0.944506 -0.44555 1.206 
0.992586 -0.44555 1.206 
1.04239 -0.446289 1.208 
1.09055 -0.446289 1.208 
1.1406 -0.447028 1.21 
1.19277 -0.448505 1.214 
-0.555901 -0.281565 0.767 
-0.547925 -0.293679 0.8 
-0.51345 -0.292211 0.796 
-0.593274 -0.362694 0.988 
-0.588082 -0.385087 1.049 
-0.577505 -0.407113 1.109 
-0.542909 -0.414455 1.129 
-0.500103 -0.41629 1.134 
-0.454491 -0.415923 1.133 
-0.411127 -0.417759 1.138 
-0.366722 -0.41886 1.141 
-0.321796 -0.419594 1.143 
0.258566 -0.29992 0.817 
0.290185 -0.296983 0.809 
0.316858 -0.291844 0.795 
0.333208 -0.278995 0.76 
0.351218 -0.251096 0.684 
0.37009 -0.244488 0.666 
0.387113 -0.238614 0.65 
0.770954 -0.440519 1.2 
0.813337 -0.437582 1.192 
0.867359 -0.440886 1.201 
0.917527 -0.441987 1.204 
0.96633 -0.442354 1.205 
1.01437 -0.442354 1.205 
1.06506 -0.443456 1.208 
1.11414 -0.443823 1.209 
1.16426 -0.444557 1.211 
-0.571644 -0.278672 0.764 
-0.544727 -0.280496 0.769 
-0.53546 -0.292168 0.801 
-0.494097 -0.286697 0.786 
-0.594032 -0.369496 1.013 
-0.590264 -0.393934 1.08 
-0.567473 -0.408524 1.12 
-0.526089 -0.411078 1.127 
-0.484146 -0.413631 1.134 
-0.439323 -0.413996 1.135 
-0.394767 -0.414725 1.137 
-0.350974 -0.416549 1.142 
-0.306248 -0.417643 1.145 
0.255358 -0.298733 0.819 
0.285197 -0.295815 0.811 
0.313223 -0.291803 0.8 
0.332606 -0.281225 0.771 
0.359575 -0.278307 0.763 
0.368213 -0.245844 0.674 
0.383946 -0.238914 0.655 
0.761876 -0.43734 1.199 
0.804275 -0.434422 1.191 
0.85891 -0.438069 1.201 
0.909056 -0.439164 1.204 
0.957852 -0.439528 1.205 
1.00589 -0.439528 1.205 
1.05656 -0.440623 1.208 
1.10472 -0.440623 1.208 
1.15479 -0.441352 1.21 
1.208 -0.443176 1.215 
-0.544414 -0.275793 0.761 
-0.520263 -0.288115 0.795 
-0.479349 -0.282679 0.78 
-0.588935 -0.372919 1.029 
-0.587846 -0.400099 1.104 
-0.557625 -0.410247 1.132 
-0.512495 -0.410247 1.132 
-0.467777 -0.410609 1.133 
-0.424471 -0.412421 1.138 
-0.379435 -0.412784 1.139 
-0.335198 -0.414233 1.143 
-0.290896 -0.416045 1.148 
0.260482 -0.296088 0.817 
0.293055 -0.296088 0.817 
0.319648 -0.290652 0.802 
0.338957 -0.278692 0.769 
0.380988 -0.284491 0.785 
0.370944 -0.246076 0.679 
0.385837 -0.236653 0.653 
0.773768 -0.43489 1.2 
0.817502 -0.432716 1.194 
0.870176 -0.435253 1.201 
0.92035 -0.43634 1.204 
0.96996 -0.437065 1.206 
1.0172 -0.436702 1.205 
1.06789 -0.43779 1.208 
1.11605 -0.43779 1.208 
1.1671 -0.438877 1.211 
-0.566869 -0.273648 0.76 
-0.537981 -0.274368 0.762 
-0.504594 -0.28373 0.788 
-0.595193 -0.359703 0.999 
-0.587609 -0.380587 1.057 
-0.571787 -0.39895 1.108 
-0.536661 -0.405792 1.127 
-0.494784 -0.408312 1.134 
-0.449574 -0.408312 1.134 
-0.405433 -0.409392 1.137 
-0.361054 -0.410472 1.14 
-0.316435 -0.411553 1.143 
-0.272288 -0.413713 1.149 
0.271548 -0.291651 0.81 
0.305341 -0.293092 0.814 
0.329687 -0.28445 0.79 
0.349296 -0.275089 0.764 
0.358572 -0.249164 0.692 
0.37779 -0.243763 0.677 
0.738148 -0.430996 1.197 
0.78587 -0.430996 1.197 
0.835681 -0.432076 1.2 
0.884995 -0.432796 1.202 
0.935244 -0.433877 1.205 
0.983285 -0.433877 1.205 
1.03218 -0.434237 1.206 
1.08205 -0.434957 1.208 
1.13115 -0.435317 1.209 
1.18325 -0.436757 1.213 
-0.556489 -0.27115 0.758 
-0.532518 -0.27437 0.767 
-0.494097 -0.281167 0.786 
-0.595745 -0.364873 1.02 
-0.589364 -0.387409 1.083 
-0.564342 -0.400287 1.119 
-0.522981 -0.402791 1.126 
-0.481062 -0.405295 1.133 
-0.437046 -0.406368 1.136 
-0.392101 -0.406726 1.137 
-0.347991 -0.408157 1.141 
-0.303562 -0.409588 1.145 
-0.25949 -0.412092 1.152 
0.275135 -0.29154 0.815 
0.310304 -0.290467 0.812 
0.333548 -0.281167 0.786 
0.358384 -0.276159 0.772 
0.364491 -0.248257 0.694 
0.383118 -0.242533 0.678 
0.757798 -0.428189 1.197 
0.802155 -0.4264 1.192 
0.856806 -0.429977 1.202 
0.904727 -0.429977 1.202 
0.955026 -0.431051 1.205 
1.00307 -0.431051 1.205 
1.05285 -0.431766 1.207 
1.10189 -0.432124 1.208 
1.15195 -0.432839 1.21 
1.20317 -0.433912 1.213 
-0.541552 -0.269018 0.757 
-0.508843 -0.279323 0.786 
-0.470217 -0.275059 0.774 
-0.590741 -0.371365 1.045 
-0.579028 -0.391621 1.102 
-0.548204 -0.401216 1.129 
-0.504976 -0.402638 1.133 
-0.4594 -0.402282 1.132 
-0.416465 -0.404415 1.138 
-0.371421 -0.40477 1.139 
-0.327157 -0.406192 1.143 
-0.282573 -0.407613 1.147 
0.255816 -0.296026 0.833 
0.284168 -0.291051 0.819 
0.314112 -0.288563 0.812 
0.336805 -0.278968 0.785 
0.367164 -0.278257 0.783 
0.369336 -0.247695 0.697 
0.387438 -0.241654 0.68 
0.761876 -0.426092 1.199 
0.806301 -0.424316 1.194 
0.859625 -0.427159 1.202 
0.907546 -0.427159 1.202 
0.958647 -0.42858 1.206 
1.00589 -0.428225 1.205 
1.05568 -0.428935 1.207 
1.10472 -0.429291 1.208 
1.15479 -0.430002 1.21 
1.207 -0.431423 1.214 
-0.539064 -0.266889 0.756 
-0.503313 -0.27748 0.786 
-0.594631 -0.353734 1.002 
-0.591471 -0.378799 1.073 
-0.567102 -0.391508 1.109 
-0.530432 -0.397157 1.125 
-0.489034 -0.399981 1.133 
-0.444647 -0.400687 1.135 
-0.4001 -0.401393 1.137 
-0.355395 -0.402099 1.139 
-0.311618 -0.404217 1.145 
-0.266666 -0.405276 1.148 
0.260035 -0.294425 0.834 
0.289768 -0.290895 0.824 
0.318312 -0.287012 0.813 
0.338646 -0.277127 0.785 
0.370414 -0.27748 0.786 
0.371985 -0.247826 0.702 
0.388577 -0.240765 0.682 
0.746569 -0.422575 1.197 
0.794291 -0.422575 1.197 
0.844827 -0.423987 1.201 
0.893452 -0.42434 1.202 
0.944506 -0.425752 1.206 
0.991763 -0.425399 1.205 
1.04153 -0.426105 1.207 
1.09055 -0.426458 1.208 
1.1406 -0.427164 1.21 
1.19179 -0.428223 1.213 
-0.546156 -0.265116 0.756 
-0.510037 -0.275286 0.785 
-0.472032 -0.271429 0.774 
-0.589763 -0.368918 1.052 
-0.575422 -0.387505 1.105 
-0.541947 -0.39522 1.127 
-0.499221 -0.396973 1.132 
-0.45409 -0.396973 1.132 
-0.411127 -0.399077 1.138 
-0.366079 -0.399428 1.139 
-0.322359 -0.401532 1.145 
-0.276952 -0.401883 1.146 
0.0490438 -0.408546 1.165 
0.272085 -0.290716 0.829 
0.306787 -0.288612 0.823 
0.333409 -0.283352 0.808 
0.352952 -0.273533 0.78 
0.363274 -0.250388 0.714 
0.380766 -0.243374 0.694 
0.719698 -0.420469 1.199 
0.7675 -0.420469 1.199 
0.813941 -0.419767 1.197 
0.864543 -0.42117 1.201 
0.914703 -0.422222 1.204 
0.964303 -0.422924 1.206 
1.01238 -0.422924 1.206 
1.06134 -0.423274 1.207 
1.1113 -0.423976 1.209 
1.16142 -0.424677 1.211 
-0.556794 -0.263343 0.756 
-0.528047 -0.26404 0.758 
-0.472032 -0.269613 0.774 
-0.591105 -0.365755 1.05 
-0.57749 -0.384565 1.104 
-0.54459 -0.392577 1.127 
-0.501876 -0.394318 1.132 
-0.456745 -0.394318 1.132 
-0.413796 -0.396408 1.138 
-0.36875 -0.396757 1.139 
-0.32476 -0.398498 1.144 
-0.279639 -0.399195 1.146 
0.038148 -0.406162 1.166 
0.263247 -0.291907 0.838 
0.294533 -0.289817 0.832 
0.323711 -0.284592 0.817 
0.342764 -0.273793 0.786 
0.374576 -0.274142 0.787 
0.373575 -0.245578 0.705 
0.391996 -0.239656 0.688 
0.742193 -0.417657 1.199 
0.789995 -0.417657 1.199 
0.839194 -0.418354 1.201 
0.887075 -0.418354 1.201 
0.938849 -0.420095 1.206 
0.986111 -0.419747 1.205 
1.03587 -0.420444 1.207 
1.08489 -0.420792 1.208 
1.13586 -0.421837 1.211 
1.18414 -0.421837 1.211 
-0.540122 -0.261224 0.755 
-0.50571 -0.271258 0.784 
-0.591656 -0.35049 1.013 
-0.589908 -0.375056 1.084 
-0.561316 -0.38509 1.113 
-0.523446 -0.389934 1.127 
-0.481062 -0.392009 1.133 
-0.437046 -0.393047 1.136 
-0.392446 -0.393739 1.138 
-0.347686 -0.394431 1.14 
-0.303562 -0.396161 1.145 
-0.258364 -0.396853 1.147 
0.0463514 -0.403427 1.166 
0.263776 -0.29271 0.846 
0.292933 -0.288212 0.833 
0.32027 -0.283022 0.818 
0.340803 -0.273334 0.79 
0.370885 -0.272296 0.787 
0.371646 -0.247039 0.714 
0.387783 -0.239427 0.692 
0.724112 -0.414153 1.197 
0.773123 -0.414845 1.199 
0.82161 -0.415191 1.2 
0.870176 -0.415537 1.201 
0.921115 -0.416921 1.205 
0.96996 -0.417267 1.206 
1.01804 -0.417267 1.206 
1.06701 -0.417613 1.207 
1.11882 -0.418997 1.211 
1.1671 -0.418997 1.211 
-0.549702 -0.259797 0.756 
-0.521623 -0.260828 0.759 
-0.468395 -0.267014 0.777 
-0.592022 -0.369077 1.074 
-0.567102 -0.381105 1.109 
-0.531375 -0.387291 1.127 
-0.488602 -0.389009 1.132 
-0.444647 -0.39004 1.135 
-0.4001 -0.390727 1.137 
-0.355707 -0.391758 1.14 
-0.311618 -0.393476 1.145 
-0.266201 -0.39382 1.146 
0.0354135 -0.400693 1.166 
0.253765 -0.297599 0.866 
0.278636 -0.287633 0.837 
0.310142 -0.285915 0.832 
0.337123 -0.28076 0.817 
0.355215 -0.269763 0.785 
0.36547 -0.249144 0.725 
0.382951 -0.241928 0.704 
0.706678 -0.411002 1.196 
0.756252 -0.412033 1.199 
0.804725 -0.412377 1.2 
0.853277 -0.41272 1.201 
0.901908 -0.413064 1.202 
0.95378 -0.414782 1.207 
1.00024 -0.414095 1.205 
1.05002 -0.414782 1.207 
1.10087 -0.415813 1.21 
1.15006 -0.416157 1.211 
1.19834 -0.416157 1.211 
-0.528426 -0.258024 0.756 
-0.49288 -0.268605 0.787 
-0.591298 -0.374067 1.096 
-0.557095 -0.380552 1.115 
-0.519079 -0.38533 1.129 
-0.475748 -0.386695 1.133 
-0.431718 -0.387719 1.136 
-0.387108 -0.388402 1.138 
-0.34294 -0.389767 1.142 
-0.297931 -0.39045 1.144 
-0.253205 -0.391815 1.148 
0.0436543 -0.3983 1.167 
0.255796 -0.295568 0.866 
0.28127 -0.286353 0.839 
0.311718 -0.283622 0.831 
0.339039 -0.278844 0.817 
0.35751 -0.268263 0.786 
0.365974 -0.247785 0.726 
0.384039 -0.240959 0.706 
0.706678 -0.408197 1.196 
0.756252 -0.409221 1.199 
0.804725 -0.409563 1.2 
0.853277 -0.409904 1.201 
0.901908 -0.410245 1.202 
0.95378 -0.411952 1.207 
1.00024 -0.411269 1.205 
1.05002 -0.411952 1.207 
1.10087 -0.412976 1.21 
1.15006 -0.413317 1.211 
1.19834 -0.413317 1.211 
-0.528426 -0.256251 0.756 
-0.497783 -0.26642 0.786 
-0.591903 -0.36709 1.083 
-0.56342 -0.37692 1.112 
-0.527022 -0.382682 1.129 
-0.483719 -0.384038 1.133 
-0.43971 -0.385055 1.136 
-0.395115 -0.385733 1.138 
-0.350667 -0.38675 1.141 
-0.306248 -0.388106 1.145 
-0.260826 -0.388445 1.146 
0.0244756 -0.395224 1.166 
0.0694402 -0.38675 1.141 
0.268274 -0.289469 0.854 
0.295595 -0.283029 0.835 
0.324158 -0.278962 0.823 
0.347997 -0.270488 0.798 
0.368865 -0.262692 0.775 
0.372424 -0.244727 0.722 
0.388983 -0.23727 0.7 
0.72251 -0.406409 1.199 
0.770312 -0.406409 1.199 
0.818796 -0.406748 1.2 
0.867359 -0.407087 1.201 
0.918289 -0.408443 1.205 
0.967934 -0.409121 1.207 
1.01521 -0.408782 1.206 
1.06417 -0.409121 1.207 
1.11598 -0.410477 1.211 
1.16426 -0.410477 1.211 
-0.554393 -0.255825 0.76 
-0.522714 -0.255152 0.758 
-0.498991 -0.26424 0.785 
-0.465907 -0.26323 0.782 
-0.571243 -0.374312 1.112 
-0.534018 -0.379362 1.127 
-0.491257 -0.381045 1.132 
-0.446914 -0.381718 1.134 
-0.402767 -0.382728 1.137 
-0.358694 -0.384074 1.141 
-0.314578 -0.385757 1.146 
-0.268654 -0.385421 1.145 
-0.224369 -0.387777 1.152 
0.0546016 -0.392826 1.167 
0.258124 -0.291842 0.867 
0.285601 -0.284774 0.846 
0.313667 -0.279724 0.831 
0.341789 -0.275685 0.819 
0.360268 -0.26525 0.788 
0.36799 -0.245727 0.73 
0.386215 -0.238994 0.71 
0.712883 -0.402924 1.197 
0.761876 -0.403598 1.199 
0.809678 -0.403598 1.199 
0.85891 -0.404271 1.201 
0.909056 -0.405281 1.204 
0.959442 -0.40629 1.207 
1.00673 -0.405954 1.206 
1.05568 -0.40629 1.207 
1.10746 -0.407637 1.211 
1.15574 -0.407637 1.211 
1.20601 -0.40831 1.213 
-0.5238 -0.25304 0.757 
-0.5013 -0.260728 0.78 
-0.472615 -0.262065 0.784 
-0.574367 -0.372039 1.113 
-0.536661 -0.376719 1.127 
-0.493911 -0.37839 1.132 
-0.449574 -0.379058 1.134 
-0.405433 -0.380061 1.137 
-0.361687 -0.381733 1.142 
-0.317265 -0.38307 1.146 
-0.271103 -0.382401 1.144 
-0.227465 -0.385744 1.154 
0.0436543 -0.390089 1.167 
0.253187 -0.291146 0.871 
0.281632 -0.284795 0.852 
0.309302 -0.279113 0.835 
0.34013 -0.277107 0.829 
0.356975 -0.265073 0.793 
0.365069 -0.249029 0.745 
0.382147 -0.240003 0.718 
0.691496 -0.399114 1.194 
0.742812 -0.40112 1.2 
0.789995 -0.400786 1.199 
0.839194 -0.401454 1.201 
0.887814 -0.401789 1.202 
0.938849 -0.403126 1.206 
0.98693 -0.403126 1.206 
1.03501 -0.403126 1.206 
1.08579 -0.404128 1.209 
1.13586 -0.404797 1.211 
1.18414 -0.404797 1.211 
-0.539064 -0.250933 0.756 
-0.513636 -0.253256 0.763 
-0.492253 -0.26089 0.786 
-0.596693 -0.367105 1.106 
-0.557595 -0.370424 1.116 
-0.519079 -0.374739 1.129 
-0.475748 -0.376067 1.133 
-0.431338 -0.376731 1.135 
-0.387108 -0.377727 1.138 
-0.34294 -0.379054 1.142 
-0.297931 -0.379718 1.144 
-0.252984 -0.380714 1.147 
0.0135377 -0.38702 1.166 
0.0600237 -0.38702 1.166 
0.25872 -0.28844 0.869 
0.287289 -0.282465 0.851 
0.314799 -0.276823 0.834 
0.344293 -0.273835 0.825 
0.360268 -0.261554 0.788 
0.368819 -0.246286 0.742 
0.390108 -0.235 0.708 
0.712883 -0.39731 1.197 
0.762511 -0.398306 1.2 
0.808327 -0.39731 1.197 
0.858194 -0.398306 1.2 
0.909811 -0.399965 1.205 
0.959442 -0.400629 1.207 
1.00673 -0.400297 1.206 
1.05568 -0.400629 1.207 
1.10746 -0.401957 1.211 
1.15574 -0.401957 1.211 
1.207 -0.402953 1.214 
-0.5238 -0.249489 0.757 
-0.500427 -0.254763 0.773 
-0.476899 -0.258717 0.785 
-0.582712 -0.368796 1.119 
-0.541947 -0.371433 1.127 
-0.499221 -0.37308 1.132 
-0.454491 -0.37341 1.133 
-0.410766 -0.374728 1.137 
-0.366722 -0.376047 1.141 
-0.32264 -0.377694 1.146 
-0.276227 -0.376706 1.143 
-0.232877 -0.380331 1.154 
0.0244966 -0.384616 1.167 
0.0707182 -0.382968 1.162 
0.257273 -0.287061 0.871 
0.286299 -0.281458 0.854 
0.313594 -0.275526 0.836 
0.344018 -0.273219 0.829 
0.359785 -0.260695 0.791 
0.368563 -0.245534 0.745 
0.388341 -0.236306 0.717 
0.710076 -0.394503 1.197 
0.759697 -0.395492 1.2 
0.804847 -0.394173 1.196 
0.85538 -0.395492 1.2 
0.906985 -0.397139 1.205 
0.956611 -0.397799 1.207 
1.0039 -0.397469 1.206 
1.05285 -0.397799 1.207 
1.10462 -0.399117 1.211 
1.1529 -0.399117 1.211 
1.20317 -0.399776 1.213 
-0.528426 -0.247387 0.756 
-0.506196 -0.251314 0.768 
-0.484263 -0.256876 0.785 
-0.591089 -0.364863 1.115 
-0.550068 -0.367153 1.122 
-0.508939 -0.369771 1.13 
-0.46512 -0.370753 1.133 
-0.421061 -0.371735 1.136 
-0.376764 -0.372716 1.139 
-0.332809 -0.374352 1.144 
-0.2872 -0.374352 1.144 
-0.243069 -0.376643 1.151 
0.0108033 -0.381551 1.166 
0.0573384 -0.381879 1.167 
0.104042 -0.382533 1.169 
0.272043 -0.283382 0.866 
0.298781 -0.276183 0.844 
0.326915 -0.271602 0.83 
0.353933 -0.267021 0.816 
0.366485 -0.251968 0.77 
0.379129 -0.240515 0.735 
0.681951 -0.39006 1.192 
0.733757 -0.39235 1.199 
0.782211 -0.392677 1.2 
0.830744 -0.393005 1.201 
0.88082 -0.393986 1.204 
0.930364 -0.394641 1.206 
0.978445 -0.394641 1.206 
1.02653 -0.394641 1.206 
1.07728 -0.395622 1.209 
1.1292 -0.396931 1.213 
1.17756 -0.396931 1.213 
-0.570061 -0.254711 0.784 
-0.517381 -0.246264 0.758 
-0.499372 -0.252436 0.777 
-0.473217 -0.255035 0.785 
-0.591113 -0.363872 1.12 
-0.547924 -0.364847 1.123 
-0.507185 -0.367771 1.132 
-0.462463 -0.368096 1.133 
-0.418766 -0.369395 1.137 
-0.374093 -0.370045 1.139 
-0.330415 -0.371994 1.145 
-0.284517 -0.37167 1.144 
-0.240579 -0.374269 1.152 
0.00807573 -0.379142 1.167 
0.0546016 -0.379142 1.167 
0.101214 -0.379467 1.168 
0.261958 -0.283625 0.873 
0.290644 -0.277777 0.855 
0.318274 -0.272254 0.838 
0.346648 -0.268356 0.826 
0.361657 -0.255685 0.787 
0.374055 -0.24334 0.749 
0.662383 -0.387264 1.192 
0.712883 -0.388888 1.197 
0.762511 -0.389863 1.2 
0.807652 -0.388564 1.196 
0.858194 -0.389863 1.2 
0.909811 -0.391488 1.205 
0.958647 -0.391812 1.206 
1.00673 -0.391812 1.206 
1.05568 -0.392137 1.207 
1.10929 -0.394087 1.213 
1.15574 -0.393437 1.211 
1.208 -0.394736 1.215 
-0.532676 -0.244163 0.757 
-0.507143 -0.246421 0.764 
-0.479969 -0.252872 0.784 
-0.595249 -0.358988 1.113 
-0.553845 -0.360923 1.119 
-0.514239 -0.364471 1.13 
-0.470434 -0.365439 1.133 
-0.42639 -0.366406 1.136 
-0.381771 -0.367051 1.138 
-0.337879 -0.368664 1.143 
-0.29231 -0.368664 1.143 
-0.248036 -0.370599 1.149 
-0.00561316 -0.376728 1.168 
0.0463912 -0.376405 1.167 
0.0929966 -0.376728 1.168 
0.253678 -0.286094 0.887 
0.281546 -0.278675 0.864 
0.310506 -0.273837 0.849 
0.335431 -0.266741 0.827 
0.358601 -0.259645 0.805 
0.369825 -0.245776 0.762 
0.387075 -0.237713 0.737 
0.685895 -0.385114 1.194 
0.736569 -0.386726 1.199 
0.785025 -0.387049 1.2 
0.834255 -0.387694 1.202 
0.884378 -0.388662 1.205 
0.933192 -0.388984 1.206 
0.981273 -0.388984 1.206 
1.02935 -0.388984 1.206 
1.08101 -0.390274 1.21 
1.13205 -0.391242 1.213 
1.18041 -0.391242 1.213 
-0.578129 -0.252955 0.79 
-0.520936 -0.242708 0.758 
-0.492211 -0.250713 0.783 
-0.524186 -0.305787 0.955 
-0.560212 -0.357338 1.116 
-0.521727 -0.361501 1.129 
-0.478405 -0.362782 1.133 
-0.434 -0.363422 1.135 
-0.389092 -0.363742 1.136 
-0.345315 -0.365343 1.141 
-0.30114 -0.366944 1.146 
-0.255674 -0.367264 1.147 
-0.210678 -0.368545 1.151 
0.019023 -0.373668 1.167 
0.0655489 -0.373668 1.167 
0.112171 -0.373988 1.168 
0.257548 -0.283693 0.886 
0.285598 -0.276649 0.864 
0.315229 -0.272486 0.851 
0.34013 -0.265442 0.829 
0.360576 -0.256477 0.801 
0.372419 -0.243349 0.76 
0.634428 -0.381673 1.192 
0.681951 -0.381673 1.192 
0.733757 -0.383915 1.199 
0.782863 -0.384555 1.201 
0.831436 -0.384875 1.202 
0.881552 -0.385836 1.205 
0.930364 -0.386156 1.206 
0.978445 -0.386156 1.206 
1.02653 -0.386156 1.206 
1.07817 -0.387437 1.21 
1.1292 -0.388397 1.213 
1.17756 -0.388397 1.213 
-0.570441 -0.248559 0.782 
-0.520249 -0.240613 0.757 
-0.483029 -0.248877 0.783 
-0.595784 -0.354085 1.114 
-0.552856 -0.355039 1.117 
-0.514239 -0.359171 1.13 
-0.470434 -0.360125 1.133 
-0.426014 -0.36076 1.135 
-0.381771 -0.361714 1.138 
-0.337583 -0.362985 1.142 
-0.292566 -0.363621 1.144 
-0.248036 -0.36521 1.149 
-0.20258 -0.365846 1.151 
0.0162862 -0.370931 1.167 
0.062812 -0.370931 1.167 
0.109432 -0.371249 1.168 
0.24602 -0.285112 0.897 
0.273928 -0.277166 0.872 
0.301613 -0.270809 0.852 
0.329278 -0.265723 0.836 
0.355668 -0.260637 0.82 
0.366574 -0.246016 0.774 
0.383054 -0.237116 0.746 
0.667974 -0.378878 1.192 
0.717897 -0.380149 1.196 
