# .PCD v.7 - Point Cloud Data file format
VERSION .7
FIELDS x y z
SIZE 4 4 4
TYPE F F F
COUNT 1 1 1
WIDTH 1822
HEIGHT 1
VIEWPOINT 0 0 0 1 0 0 0
POINTS 1822
DATA ascii
-0.253217 -0.298565 1.173 
-0.206276 -0.29831 1.172 
-0.159959 -0.299074 1.175 
-0.113211 -0.299328 1.176 
-0.0664951 -0.300092 1.179 
-0.0195239 -0.300601 1.181 
0.0274668 -0.299583 1.177 
0.0743281 -0.299328 1.176 
0.121831 -0.300855 1.182 
0.169098 -0.30111 1.183 
0.216262 -0.30111 1.183 
0.26298 -0.300601 1.181 
0.310589 -0.30111 1.183 
0.35866 -0.301874 1.186 
0.404917 -0.30111 1.183 
0.452845 -0.301619 1.185 
0.499244 -0.30111 1.183 
0.545484 -0.300601 1.181 
0.593572 -0.30111 1.183 
0.640736 -0.30111 1.183 
0.687318 -0.300855 1.182 
0.736306 -0.301619 1.185 
0.780905 -0.300601 1.181 
0.830793 -0.301619 1.185 
0.876554 -0.30111 1.183 
0.922937 -0.300855 1.182 
0.970882 -0.30111 1.183 
1.01632 -0.300601 1.181 
1.06071 -0.299837 1.178 
1.08228 -0.292965 1.151 
1.10759 -0.28762 1.13 
-0.807688 -0.260003 1.031 
-0.803761 -0.272613 1.081 
-0.783181 -0.280683 1.113 
-0.764697 -0.290518 1.152 
-0.724384 -0.292787 1.161 
-0.676929 -0.292283 1.159 
-0.632355 -0.29304 1.162 
-0.584516 -0.292283 1.159 
-0.54156 -0.294048 1.166 
-0.494649 -0.293796 1.165 
-0.448972 -0.294301 1.167 
-0.403481 -0.295057 1.17 
-0.356531 -0.294805 1.169 
-0.310455 -0.295309 1.171 
-0.264221 -0.295814 1.173 
-0.21727 -0.295562 1.172 
-0.170981 -0.296318 1.175 
-0.124348 -0.296822 1.177 
-0.0773576 -0.29657 1.176 
-0.0306025 -0.297831 1.181 
0.0164397 -0.297075 1.178 
0.0633503 -0.296822 1.177 
0.11065 -0.297831 1.181 
0.157867 -0.298083 1.182 
0.205511 -0.29884 1.185 
0.251902 -0.297831 1.181 
0.299998 -0.29884 1.185 
0.348121 -0.299597 1.188 
0.39382 -0.298336 1.183 
0.441729 -0.29884 1.185 
0.487734 -0.298083 1.182 
0.534858 -0.298083 1.182 
0.582475 -0.298336 1.183 
0.629638 -0.298336 1.183 
0.67623 -0.298083 1.182 
0.723966 -0.298336 1.183 
0.77113 -0.298336 1.183 
0.818293 -0.298336 1.183 
0.86692 -0.29884 1.185 
0.912621 -0.298336 1.183 
0.958162 -0.297831 1.181 
1.00525 -0.297831 1.181 
1.04966 -0.297075 1.178 
1.07893 -0.292283 1.159 
1.09893 -0.285474 1.132 
-0.79742 -0.249091 0.997 
-0.822267 -0.270327 1.082 
-0.794972 -0.275824 1.104 
-0.774765 -0.284568 1.139 
-0.743443 -0.290065 1.161 
-0.697157 -0.290065 1.161 
-0.649188 -0.289315 1.158 
-0.604583 -0.290065 1.161 
-0.56022 -0.291064 1.165 
-0.514215 -0.291314 1.166 
-0.46813 -0.291564 1.167 
-0.422327 -0.292063 1.169 
-0.375721 -0.292063 1.169 
-0.329679 -0.292563 1.171 
-0.283477 -0.293063 1.173 
-0.23651 -0.292813 1.172 
-0.19027 -0.293563 1.175 
-0.143548 -0.293812 1.176 
-0.096663 -0.293812 1.176 
-0.04999 -0.295062 1.181 
-0.00290598 -0.295062 1.181 
0.0440658 -0.294312 1.178 
0.0910302 -0.294312 1.178 
0.13858 -0.295561 1.183 
0.186058 -0.296061 1.185 
0.232908 -0.295561 1.183 
0.280072 -0.295561 1.183 
0.327789 -0.296061 1.185 
0.376298 -0.29706 1.189 
0.422276 -0.296061 1.185 
0.46833 -0.295311 1.182 
0.51589 -0.295561 1.183 
0.563054 -0.295561 1.183 
0.61125 -0.296061 1.185 
0.657382 -0.295561 1.183 
0.704545 -0.295561 1.183 
0.75298 -0.296061 1.185 
0.798198 -0.295311 1.182 
0.848182 -0.296311 1.186 
0.8932 -0.295561 1.183 
0.939569 -0.295311 1.182 
0.989197 -0.296061 1.185 
1.03294 -0.295062 1.181 
1.07362 -0.293313 1.174 
1.08607 -0.284318 1.138 
1.11653 -0.280571 1.123 
-0.807007 -0.253435 1.024 
-0.806587 -0.2668 1.078 
-0.788402 -0.275462 1.113 
-0.767426 -0.284125 1.148 
-0.730458 -0.28759 1.162 
-0.682365 -0.286847 1.159 
-0.637256 -0.287342 1.161 
-0.589952 -0.286847 1.159 
-0.547029 -0.288579 1.166 
-0.500113 -0.288332 1.165 
-0.454446 -0.288827 1.167 
-0.408619 -0.289322 1.169 
-0.362014 -0.289322 1.169 
-0.316218 -0.290064 1.172 
-0.270182 -0.290807 1.175 
-0.222767 -0.290064 1.172 
-0.176643 -0.291054 1.176 
-0.129868 -0.291302 1.177 
-0.0828734 -0.291054 1.176 
-0.0361418 -0.292292 1.181 
0.0109237 -0.291797 1.179 
0.057928 -0.291797 1.179 
0.10511 -0.292292 1.181 
0.152452 -0.292787 1.183 
0.199953 -0.293282 1.185 
0.246571 -0.292539 1.182 
0.29444 -0.293282 1.185 
0.342549 -0.294024 1.188 
0.388927 -0.293282 1.185 
0.436539 -0.293529 1.186 
0.48219 -0.292539 1.182 
0.529762 -0.292787 1.183 
0.577901 -0.293282 1.185 
0.625145 -0.293282 1.185 
0.670686 -0.292539 1.182 
0.719632 -0.293282 1.185 
0.765581 -0.292787 1.183 
0.814119 -0.293282 1.185 
0.861362 -0.293282 1.185 
0.907072 -0.292787 1.183 
0.953429 -0.292539 1.182 
1.00055 -0.292539 1.182 
1.04413 -0.291549 1.178 
1.06979 -0.285857 1.155 
1.08782 -0.27868 1.126 
-0.796479 -0.238531 0.973 
-0.819984 -0.258143 1.053 
-0.794997 -0.263782 1.076 
-0.780058 -0.273588 1.116 
-0.765225 -0.284619 1.161 
-0.719558 -0.284864 1.162 
-0.670914 -0.283884 1.158 
-0.626905 -0.284864 1.162 
-0.579079 -0.284129 1.159 
-0.536551 -0.28609 1.167 
-0.489185 -0.2856 1.165 
-0.443499 -0.28609 1.167 
-0.397653 -0.28658 1.169 
-0.351348 -0.286826 1.17 
-0.305223 -0.287316 1.172 
-0.258939 -0.287806 1.174 
-0.211954 -0.287561 1.173 
-0.165611 -0.288296 1.176 
-0.118928 -0.288787 1.178 
-0.0719028 -0.288542 1.177 
-0.0250207 -0.289032 1.179 
0.0219649 -0.288787 1.178 
0.0689878 -0.289032 1.179 
0.116386 -0.290013 1.183 
0.163549 -0.290013 1.183 
0.211069 -0.290503 1.185 
0.257659 -0.289767 1.182 
0.305814 -0.290748 1.186 
0.353693 -0.291238 1.188 
0.399368 -0.290013 1.183 
0.447287 -0.290503 1.185 
0.493696 -0.290013 1.183 
0.540402 -0.289767 1.182 
0.588023 -0.290013 1.183 
0.635187 -0.290013 1.183 
0.681774 -0.289767 1.182 
0.731364 -0.290748 1.186 
0.776678 -0.290013 1.183 
0.823842 -0.290013 1.183 
0.872478 -0.290503 1.185 
0.919722 -0.290503 1.185 
0.965333 -0.290013 1.183 
1.01164 -0.289767 1.182 
1.05429 -0.288542 1.177 
1.06659 -0.279471 1.14 
1.08473 -0.272607 1.112 
-0.790445 -0.236492 0.974 
-0.828346 -0.262229 1.08 
-0.797649 -0.266357 1.097 
-0.778655 -0.275098 1.133 
-0.754201 -0.282868 1.165 
-0.705325 -0.281897 1.161 
-0.657903 -0.281411 1.159 
-0.614863 -0.282868 1.165 
-0.566953 -0.282139 1.162 
-0.522418 -0.283111 1.166 
-0.475933 -0.283111 1.166 
-0.430183 -0.283596 1.168 
-0.383946 -0.283839 1.169 
-0.337917 -0.284325 1.171 
-0.291729 -0.28481 1.173 
-0.244964 -0.28481 1.173 
-0.198537 -0.285296 1.175 
-0.151821 -0.285539 1.176 
-0.105026 -0.285781 1.177 
-0.0581509 -0.286024 1.178 
-0.0112149 -0.286753 1.181 
0.0358083 -0.286267 1.179 
0.0829531 -0.286753 1.181 
0.130588 -0.287967 1.186 
0.177721 -0.287724 1.185 
0.224585 -0.287238 1.183 
0.271749 -0.287238 1.183 
0.32026 -0.288452 1.188 
0.367623 -0.288452 1.188 
0.413939 -0.287724 1.185 
0.461182 -0.287724 1.185 
0.507567 -0.287238 1.183 
0.554731 -0.287238 1.183 
0.602912 -0.287724 1.185 
0.649059 -0.287238 1.183 
0.697399 -0.287724 1.185 
0.745271 -0.287967 1.186 
0.789882 -0.286995 1.182 
0.837714 -0.287238 1.183 
0.884877 -0.287238 1.183 
0.933617 -0.287724 1.185 
0.98086 -0.287724 1.185 
1.02463 -0.286753 1.181 
1.06537 -0.285053 1.174 
1.07238 -0.274855 1.132 
1.09579 -0.269513 1.11 
-0.788622 -0.237093 0.986 
-0.817708 -0.258735 1.076 
-0.806493 -0.269315 1.12 
-0.775446 -0.274124 1.14 
-0.744084 -0.279414 1.162 
-0.697157 -0.279174 1.161 
-0.649749 -0.278693 1.159 
-0.605104 -0.279414 1.162 
-0.56022 -0.280136 1.165 
-0.513774 -0.280136 1.165 
-0.46813 -0.280617 1.167 
-0.421966 -0.280857 1.168 
-0.375721 -0.281097 1.169 
-0.32996 -0.281819 1.172 
-0.283718 -0.2823 1.174 
-0.236712 -0.282059 1.173 
-0.190432 -0.282781 1.176 
-0.143548 -0.282781 1.176 
-0.0967452 -0.283021 1.177 
-0.0499053 -0.283502 1.179 
-0.00290598 -0.283983 1.181 
0.044178 -0.283983 1.181 
0.0912621 -0.283983 1.181 
0.138815 -0.284945 1.185 
0.186058 -0.284945 1.185 
0.232908 -0.284464 1.183 
0.280545 -0.284945 1.185 
0.328065 -0.285185 1.186 
0.375032 -0.284945 1.185 
0.422632 -0.285185 1.186 
0.469519 -0.284945 1.185 
0.51589 -0.284464 1.183 
0.564482 -0.285185 1.186 
0.61125 -0.284945 1.185 
0.657382 -0.284464 1.183 
0.705737 -0.284945 1.185 
0.753615 -0.285185 1.186 
0.798873 -0.284464 1.183 
0.847467 -0.284945 1.185 
0.8932 -0.284464 1.183 
0.940364 -0.284464 1.183 
0.987528 -0.284464 1.183 
1.03119 -0.283502 1.179 
1.06631 -0.280376 1.166 
1.06889 -0.269315 1.12 
1.10261 -0.26667 1.109 
-0.791153 -0.236924 0.995 
-0.808129 -0.254783 1.07 
-0.808596 -0.270022 1.134 
-0.771464 -0.272879 1.146 
-0.735275 -0.276451 1.161 
-0.687802 -0.275975 1.159 
-0.641595 -0.275975 1.159 
-0.596415 -0.276451 1.161 
-0.552498 -0.277642 1.166 
-0.504276 -0.276689 1.162 
-0.460314 -0.278118 1.168 
-0.413748 -0.278118 1.168 
-0.367497 -0.278356 1.169 
-0.321715 -0.27907 1.172 
-0.275693 -0.279785 1.175 
-0.228459 -0.279308 1.173 
-0.182159 -0.280023 1.176 
-0.135389 -0.280261 1.177 
-0.0883893 -0.280023 1.176 
-0.0416105 -0.280737 1.179 
0.00539381 -0.280737 1.179 
0.0525314 -0.281451 1.182 
0.0996553 -0.281451 1.182 
0.147152 -0.282166 1.185 
0.194395 -0.282166 1.185 
0.241231 -0.28169 1.183 
0.289126 -0.282404 1.186 
0.33726 -0.283118 1.189 
0.382722 -0.28169 1.183 
0.430613 -0.282166 1.185 
0.477856 -0.282166 1.185 
0.524213 -0.28169 1.183 
0.573792 -0.28288 1.188 
0.619587 -0.282166 1.185 
0.665705 -0.28169 1.183 
0.714074 -0.282166 1.185 
0.761317 -0.282166 1.185 
0.808561 -0.282166 1.185 
0.855804 -0.282166 1.185 
0.903048 -0.282166 1.185 
0.948687 -0.28169 1.183 
0.995009 -0.281451 1.182 
1.03861 -0.280499 1.178 
1.05332 -0.272165 1.143 
1.06908 -0.264783 1.112 
-0.792359 -0.225631 0.957 
-0.789669 -0.236241 1.002 
-0.791121 -0.250859 1.064 
-0.797255 -0.267127 1.133 
-0.768016 -0.272785 1.157 
-0.725008 -0.273964 1.162 
-0.676929 -0.273257 1.159 
-0.631811 -0.273728 1.161 
-0.584516 -0.273257 1.159 
-0.542489 -0.275379 1.168 
-0.493375 -0.273964 1.162 
-0.449357 -0.275379 1.168 
-0.402792 -0.275379 1.168 
-0.356836 -0.27585 1.17 
-0.310986 -0.276558 1.173 
-0.264671 -0.277029 1.175 
-0.217455 -0.276558 1.173 
-0.171272 -0.277501 1.177 
-0.124348 -0.277501 1.177 
-0.0773576 -0.277265 1.176 
-0.0305506 -0.277972 1.179 
0.0164397 -0.277736 1.178 
0.0636194 -0.278679 1.182 
0.111024 -0.279387 1.185 
0.158001 -0.278915 1.183 
0.205511 -0.279387 1.185 
0.252755 -0.279387 1.185 
0.300758 -0.280094 1.188 
0.348414 -0.28033 1.189 
0.394818 -0.279623 1.186 
0.442102 -0.279623 1.186 
0.488972 -0.279387 1.185 
0.534858 -0.278679 1.182 
0.583459 -0.279387 1.185 
0.629638 -0.278915 1.183 
0.676802 -0.278915 1.183 
0.72519 -0.279387 1.185 
0.772433 -0.279387 1.185 
0.818293 -0.278915 1.183 
0.86692 -0.279387 1.185 
0.914164 -0.279387 1.185 
0.959785 -0.278915 1.183 
1.00525 -0.278444 1.181 
1.04787 -0.277265 1.176 
1.0538 -0.266891 1.132 
1.07175 -0.260289 1.104 
-0.781953 -0.22362 0.958 
-0.809337 -0.245562 1.052 
-0.815827 -0.261902 1.122 
-0.782091 -0.265637 1.138 
-0.754201 -0.271939 1.165 
-0.705325 -0.271006 1.161 
-0.659038 -0.271006 1.161 
-0.61539 -0.272173 1.166 
-0.565489 -0.270539 1.159 
-0.522418 -0.272173 1.166 
-0.475933 -0.272173 1.166 
-0.429815 -0.272406 1.167 
-0.383946 -0.272873 1.169 
-0.337917 -0.27334 1.171 
-0.291978 -0.27404 1.174 
-0.244964 -0.273807 1.173 
-0.198537 -0.274273 1.175 
-0.151821 -0.274507 1.176 
-0.105205 -0.275207 1.179 
-0.0582002 -0.275207 1.179 
-0.0111959 -0.275207 1.179 
0.0358691 -0.275674 1.181 
0.0830233 -0.275907 1.182 
0.130478 -0.276608 1.185 
0.177721 -0.276608 1.185 
0.224965 -0.276608 1.185 
0.272438 -0.276841 1.186 
0.32026 -0.277308 1.188 
0.367004 -0.276841 1.186 
0.414288 -0.276841 1.186 
0.461571 -0.276841 1.186 
0.507567 -0.276141 1.183 
0.555669 -0.276608 1.185 
0.602912 -0.276608 1.185 
0.650156 -0.276608 1.185 
0.697988 -0.276841 1.186 
0.745271 -0.276841 1.186 
0.79055 -0.276141 1.183 
0.83913 -0.276608 1.185 
0.886373 -0.276608 1.185 
0.933617 -0.276608 1.185 
0.98086 -0.276608 1.185 
1.02463 -0.275674 1.181 
1.06083 -0.272873 1.169 
1.05533 -0.260035 1.114 
1.08296 -0.256066 1.097 
-0.781423 -0.225764 0.977 
-0.798607 -0.245868 1.064 
-0.806266 -0.263892 1.142 
-0.770729 -0.267358 1.157 
-0.727107 -0.268283 1.161 
-0.679647 -0.267821 1.159 
-0.63508 -0.268514 1.162 
-0.588247 -0.268283 1.161 
-0.544761 -0.269669 1.167 
-0.497381 -0.269207 1.165 
-0.452483 -0.270131 1.169 
-0.405183 -0.269669 1.167 
-0.359272 -0.270131 1.169 
-0.313737 -0.271056 1.173 
-0.267427 -0.271518 1.175 
-0.220206 -0.271056 1.173 
-0.174033 -0.27198 1.177 
-0.127108 -0.27198 1.177 
-0.0801836 -0.27198 1.177 
-0.0333156 -0.272442 1.179 
0.0136887 -0.272442 1.179 
0.0608989 -0.273367 1.183 
0.108063 -0.273367 1.183 
0.155226 -0.273367 1.183 
0.202732 -0.273829 1.185 
0.250187 -0.27406 1.186 
0.297972 -0.274522 1.188 
0.345626 -0.274753 1.189 
0.392037 -0.27406 1.186 
0.43932 -0.27406 1.186 
0.486604 -0.27406 1.186 
0.532086 -0.273135 1.182 
0.58068 -0.273829 1.185 
0.627924 -0.273829 1.185 
0.675167 -0.273829 1.185 
0.722411 -0.273829 1.185 
0.769654 -0.273829 1.185 
0.815519 -0.273367 1.183 
0.864141 -0.273829 1.185 
0.911385 -0.273829 1.185 
0.956201 -0.273135 1.182 
1.00333 -0.273135 1.182 
1.04601 -0.27198 1.177 
1.04836 -0.260888 1.129 
1.06432 -0.253956 1.099 
-0.783754 -0.217755 0.952 
-0.784186 -0.228963 1.001 
-0.799003 -0.246575 1.078 
-0.79416 -0.260757 1.14 
-0.763159 -0.265789 1.162 
-0.716216 -0.26556 1.161 
-0.669929 -0.26556 1.161 
-0.625791 -0.266475 1.165 
-0.577356 -0.26556 1.161 
-0.533814 -0.266932 1.167 
-0.4852 -0.265789 1.162 
-0.44114 -0.267161 1.168 
-0.394574 -0.267161 1.168 
-0.348604 -0.267619 1.17 
-0.302991 -0.268534 1.174 
-0.256186 -0.268534 1.174 
-0.209381 -0.268534 1.174 
-0.162992 -0.26922 1.177 
-0.116264 -0.269677 1.179 
-0.0692013 -0.269449 1.178 
-0.0222558 -0.269677 1.179 
0.0247905 -0.270135 1.181 
0.0719962 -0.270592 1.183 
0.119361 -0.27105 1.185 
0.166324 -0.270592 1.183 
0.213848 -0.27105 1.185 
0.261312 -0.271278 1.186 
0.309376 -0.271965 1.189 
0.356479 -0.271736 1.188 
0.403842 -0.271736 1.188 
0.451205 -0.271736 1.188 
0.497309 -0.27105 1.185 
0.543174 -0.270363 1.182 
0.590798 -0.270592 1.183 
0.63904 -0.27105 1.185 
0.686283 -0.27105 1.185 
0.735384 -0.271736 1.188 
0.78077 -0.27105 1.185 
0.826616 -0.270592 1.183 
0.875257 -0.27105 1.185 
0.920944 -0.270592 1.183 
0.969744 -0.27105 1.185 
1.01441 -0.270363 1.182 
1.05525 -0.268762 1.175 
1.04582 -0.255038 1.115 
1.06778 -0.249777 1.092 
-0.777872 -0.215748 0.953 
-0.807614 -0.243594 1.076 
-0.809796 -0.259668 1.147 
-0.771395 -0.262158 1.158 
-0.727107 -0.262837 1.161 
-0.679647 -0.262385 1.159 
-0.63672 -0.263743 1.165 
-0.590274 -0.263743 1.165 
-0.544761 -0.264196 1.167 
-0.497381 -0.263743 1.165 
-0.452483 -0.264648 1.169 
-0.405183 -0.264196 1.167 
-0.359272 -0.264648 1.169 
-0.313737 -0.265554 1.173 
-0.267427 -0.266007 1.175 
-0.220206 -0.265554 1.173 
-0.174181 -0.266686 1.178 
-0.127108 -0.26646 1.177 
-0.0802518 -0.266686 1.178 
-0.0333156 -0.266912 1.179 
0.0136887 -0.266912 1.179 
0.0610018 -0.268271 1.185 
0.108245 -0.268271 1.185 
0.155226 -0.267818 1.183 
0.202732 -0.268271 1.185 
0.250187 -0.268497 1.186 
0.298223 -0.269176 1.189 
0.345626 -0.269176 1.189 
0.391706 -0.268271 1.185 
0.43932 -0.268497 1.186 
0.487424 -0.26895 1.188 
0.531636 -0.267365 1.181 
0.58068 -0.268271 1.185 
0.627924 -0.268271 1.185 
0.675167 -0.268271 1.185 
0.722411 -0.268271 1.185 
0.770304 -0.268497 1.186 
0.815519 -0.267818 1.183 
0.86487 -0.268497 1.186 
0.911385 -0.268271 1.185 
0.956201 -0.267591 1.182 
1.00417 -0.267818 1.183 
1.04601 -0.26646 1.177 
1.04557 -0.254914 1.126 
1.06141 -0.248122 1.096 
-0.785161 -0.213065 0.951 
-0.818987 -0.249136 1.112 
-0.793569 -0.256082 1.143 
-0.762398 -0.261011 1.165 
-0.713493 -0.260115 1.161 
-0.667207 -0.260115 1.161 
-0.623594 -0.261235 1.166 
-0.574633 -0.260115 1.161 
-0.531077 -0.261459 1.167 
-0.483721 -0.261011 1.165 
-0.438401 -0.261683 1.168 
-0.391835 -0.261683 1.168 
-0.34586 -0.262131 1.17 
-0.300238 -0.263027 1.174 
-0.253649 -0.263251 1.175 
-0.206804 -0.263251 1.175 
-0.160504 -0.264147 1.179 
-0.113692 -0.264595 1.181 
-0.0664387 -0.263923 1.178 
-0.0194908 -0.264147 1.179 
0.0275835 -0.264819 1.182 
0.0747706 -0.265044 1.183 
0.12214 -0.265492 1.185 
0.169098 -0.265044 1.183 
0.216627 -0.265492 1.185 
0.264094 -0.265716 1.186 
0.311902 -0.266164 1.188 
0.359265 -0.266164 1.188 
0.405944 -0.265716 1.186 
0.453991 -0.266164 1.188 
0.499244 -0.265044 1.183 
0.545946 -0.264819 1.182 
0.593572 -0.265044 1.183 
0.641819 -0.265492 1.185 
0.689062 -0.265492 1.185 
0.73817 -0.266164 1.188 
0.783549 -0.265492 1.185 
0.830793 -0.265492 1.185 
0.878777 -0.265716 1.186 
0.923718 -0.265044 1.183 
0.972523 -0.265492 1.185 
1.01805 -0.265044 1.183 
1.0553 -0.262579 1.172 
1.04843 -0.249809 1.115 
1.06838 -0.244207 1.09 
-0.7807 -0.210835 0.951 
-0.832531 -0.251406 1.134 
-0.794958 -0.253845 1.145 
-0.762398 -0.258279 1.165 
-0.713493 -0.257392 1.161 
-0.667207 -0.257392 1.161 
-0.623594 -0.2585 1.166 
-0.575128 -0.257614 1.162 
-0.531532 -0.258944 1.168 
-0.484136 -0.2585 1.166 
-0.438401 -0.258944 1.168 
-0.391835 -0.258944 1.168 
-0.34586 -0.259387 1.17 
-0.299982 -0.260052 1.173 
-0.253649 -0.260496 1.175 
-0.206804 -0.260496 1.175 
-0.160504 -0.261382 1.179 
-0.113499 -0.261382 1.179 
-0.0664387 -0.261161 1.178 
-0.0194908 -0.261382 1.179 
0.0275835 -0.262047 1.182 
0.074897 -0.262713 1.185 
0.12214 -0.262713 1.185 
0.169384 -0.262713 1.185 
0.21681 -0.262934 1.186 
0.263871 -0.262713 1.185 
0.311902 -0.263378 1.188 
0.359265 -0.263378 1.188 
0.405944 -0.262934 1.186 
0.453991 -0.263378 1.188 
0.500088 -0.262713 1.185 
0.545946 -0.262047 1.182 
0.594575 -0.262713 1.185 
0.641819 -0.262713 1.185 
0.689062 -0.262713 1.185 
0.73817 -0.263378 1.188 
0.784211 -0.262934 1.186 
0.830793 -0.262713 1.185 
0.880259 -0.263378 1.188 
0.923718 -0.262269 1.183 
0.972523 -0.262713 1.185 
1.01805 -0.262269 1.183 
1.0544 -0.259609 1.171 
1.05219 -0.24808 1.119 
1.07328 -0.24276 1.095 
-0.782107 -0.208386 0.95 
-0.8255 -0.239753 1.093 
-0.825563 -0.253134 1.154 
-0.780231 -0.253353 1.155 
-0.738634 -0.254888 1.162 
-0.691711 -0.254669 1.161 
-0.647648 -0.255546 1.165 
-0.602234 -0.255985 1.167 
-0.555232 -0.255766 1.166 
-0.509182 -0.255985 1.167 
-0.463053 -0.256205 1.168 
-0.416131 -0.255985 1.167 
-0.370238 -0.256424 1.169 
-0.324463 -0.257082 1.172 
-0.278212 -0.257521 1.174 
-0.231801 -0.257959 1.176 
-0.185388 -0.258617 1.179 
-0.138032 -0.257959 1.176 
-0.0913797 -0.258617 1.179 
-0.0443754 -0.258617 1.179 
0.00262662 -0.258398 1.178 
0.0498857 -0.259934 1.185 
0.0969653 -0.259495 1.183 
0.144129 -0.259495 1.183 
0.191778 -0.260153 1.186 
0.239464 -0.260592 1.188 
0.286828 -0.260592 1.188 
0.334472 -0.260811 1.189 
0.380911 -0.260153 1.186 
0.427834 -0.259934 1.185 
0.476681 -0.260811 1.189 
0.521439 -0.259495 1.183 
0.568603 -0.259495 1.183 
0.616808 -0.259934 1.185 
0.664612 -0.260153 1.186 
0.711895 -0.260153 1.186 
0.760458 -0.260592 1.188 
0.805782 -0.259934 1.185 
0.853745 -0.260153 1.186 
0.901028 -0.260153 1.186 
0.945913 -0.259495 1.183 
0.994756 -0.259934 1.185 
1.03848 -0.259056 1.181 
1.04696 -0.249843 1.139 
1.06935 -0.244579 1.115 
-0.800825 -0.203554 0.938 
-0.888386 -0.241747 1.114 
-0.831851 -0.238275 1.098 
-0.824681 -0.249342 1.149 
-0.78294 -0.250644 1.155 
-0.743273 -0.252814 1.165 
-0.694434 -0.251946 1.161 
-0.650939 -0.253031 1.166 
-0.604971 -0.253248 1.167 
-0.557967 -0.253031 1.166 
-0.512797 -0.253682 1.169 
-0.465792 -0.253465 1.168 
-0.418868 -0.253248 1.167 
-0.373299 -0.253899 1.17 
-0.327212 -0.254333 1.172 
-0.280965 -0.254767 1.174 
-0.234559 -0.255201 1.176 
-0.188153 -0.255852 1.179 
-0.14091 -0.255418 1.177 
-0.0941447 -0.255852 1.179 
-0.0471404 -0.255852 1.179 
-0.000135989 -0.255635 1.178 
0.0471067 -0.257155 1.185 
0.0941909 -0.256721 1.183 
0.141594 -0.257155 1.185 
0.188997 -0.257372 1.186 
0.236678 -0.257806 1.188 
0.284041 -0.257806 1.188 
0.331405 -0.257806 1.188 
0.37813 -0.257372 1.186 
0.425055 -0.257155 1.185 
0.473892 -0.258023 1.189 
0.519542 -0.257155 1.185 
0.565829 -0.256721 1.183 
0.614029 -0.257155 1.185 
0.66183 -0.257372 1.186 
0.709114 -0.257372 1.186 
0.757672 -0.257806 1.188 
0.803003 -0.257155 1.185 
0.850964 -0.257372 1.186 
0.898247 -0.257372 1.186 
0.943139 -0.256721 1.183 
0.991976 -0.257155 1.185 
1.03659 -0.256503 1.182 
1.04521 -0.247389 1.14 
1.07152 -0.243049 1.12 
-0.805225 -0.201354 0.938 
-0.895419 -0.23892 1.113 
-0.846458 -0.237632 1.107 
-0.830591 -0.246004 1.146 
-0.788326 -0.247077 1.151 
-0.751469 -0.250082 1.165 
-0.702602 -0.249224 1.161 
-0.659142 -0.250297 1.166 
-0.613707 -0.250726 1.168 
-0.56617 -0.250297 1.166 
-0.521021 -0.250941 1.169 
-0.47401 -0.250726 1.168 
-0.427444 -0.250726 1.168 
-0.38153 -0.251156 1.17 
-0.335171 -0.25137 1.171 
-0.289225 -0.252014 1.174 
-0.242833 -0.252444 1.176 
-0.196282 -0.252873 1.178 
-0.149444 -0.253087 1.179 
-0.10244 -0.253087 1.179 
-0.0554353 -0.253087 1.179 
-0.00842383 -0.252873 1.178 
0.0387042 -0.253946 1.183 
0.0860131 -0.254375 1.185 
0.133369 -0.25459 1.186 
0.180652 -0.25459 1.186 
0.22832 -0.255019 1.188 
0.275219 -0.25459 1.186 
0.323046 -0.255019 1.188 
0.370409 -0.255019 1.188 
0.416718 -0.254375 1.185 
0.465136 -0.255019 1.188 
0.511205 -0.254375 1.185 
0.557034 -0.253731 1.182 
0.606203 -0.25459 1.186 
0.652935 -0.254375 1.185 
0.700769 -0.25459 1.186 
0.749314 -0.255019 1.188 
0.795336 -0.25459 1.186 
0.842619 -0.25459 1.186 
0.891403 -0.255019 1.188 
0.934816 -0.253946 1.183 
0.983639 -0.254375 1.185 
1.02914 -0.253946 1.183 
1.03991 -0.24536 1.143 
1.06079 -0.239778 1.117 
-0.800825 -0.199154 0.938 
-0.890999 -0.236522 1.114 
-0.842786 -0.23546 1.109 
-0.823055 -0.242679 1.143 
-0.785649 -0.245227 1.155 
-0.746645 -0.247562 1.166 
-0.697157 -0.246501 1.161 
-0.653673 -0.247562 1.166 
-0.608229 -0.247987 1.168 
-0.561182 -0.247775 1.167 
-0.515979 -0.248412 1.17 
-0.468531 -0.247987 1.168 
-0.421966 -0.247987 1.168 
-0.376364 -0.248624 1.171 
-0.32996 -0.248836 1.172 
-0.283718 -0.249261 1.174 
-0.237519 -0.249898 1.177 
-0.190918 -0.250323 1.179 
-0.143792 -0.25011 1.178 
-0.0969096 -0.250323 1.179 
-0.0499053 -0.250323 1.179 
-0.0028986 -0.25011 1.178 
0.0443277 -0.251596 1.185 
0.0915712 -0.251596 1.185 
0.138815 -0.251596 1.185 
0.186215 -0.251809 1.186 
0.233892 -0.252233 1.188 
0.281255 -0.252233 1.188 
0.328618 -0.252233 1.188 
0.375349 -0.251809 1.186 
0.422632 -0.251809 1.186 
0.470708 -0.252233 1.188 
0.517199 -0.251809 1.186 
0.562578 -0.25096 1.182 
0.611765 -0.251809 1.186 
0.659049 -0.251809 1.186 
0.706332 -0.251809 1.186 
0.754886 -0.252233 1.188 
0.800224 -0.251596 1.185 
0.848182 -0.251809 1.186 
0.896976 -0.252233 1.188 
0.941954 -0.251596 1.185 
0.989197 -0.251596 1.185 
1.03382 -0.25096 1.182 
1.04162 -0.24183 1.139 
1.06603 -0.237159 1.117 
-0.807424 -0.196954 0.938 
-0.904061 -0.233909 1.114 
-0.857333 -0.233279 1.111 
-0.835726 -0.239789 1.142 
-0.792965 -0.240629 1.146 
-0.760317 -0.244828 1.166 
-0.71077 -0.243778 1.161 
-0.666773 -0.244618 1.165 
-0.621924 -0.245248 1.168 
-0.574866 -0.245038 1.167 
-0.529246 -0.245458 1.169 
-0.482227 -0.245248 1.168 
-0.435661 -0.245248 1.168 
-0.389762 -0.245668 1.17 
-0.343703 -0.246088 1.172 
-0.297485 -0.246508 1.174 
-0.25132 -0.247138 1.177 
-0.204222 -0.246928 1.176 
-0.158006 -0.247978 1.181 
-0.110734 -0.247558 1.179 
-0.0636761 -0.247348 1.178 
-0.0167259 -0.247558 1.179 
0.0303555 -0.248188 1.182 
0.077676 -0.248817 1.185 
0.12492 -0.248817 1.185 
0.172308 -0.249027 1.186 
0.219592 -0.249027 1.186 
0.26665 -0.248817 1.185 
0.314953 -0.249657 1.189 
0.362356 -0.249657 1.189 
0.409414 -0.249447 1.188 
0.456777 -0.249447 1.188 
0.503292 -0.249027 1.186 
0.548254 -0.247978 1.181 
0.597858 -0.249027 1.186 
0.645142 -0.249027 1.186 
0.692425 -0.249027 1.186 
0.740956 -0.249447 1.188 
0.788319 -0.249447 1.188 
0.833572 -0.248817 1.185 
0.881559 -0.249027 1.186 
0.928059 -0.248817 1.185 
0.975302 -0.248817 1.185 
1.02082 -0.248397 1.183 
1.03548 -0.240838 1.147 
1.05765 -0.235589 1.122 
1.13357 -0.241678 1.151 
-0.79151 -0.19517 0.94 
-0.882368 -0.231089 1.113 
-0.852301 -0.235034 1.132 
-0.811448 -0.23628 1.138 
-0.779542 -0.240432 1.158 
-0.737808 -0.241886 1.165 
-0.688988 -0.241055 1.161 
-0.646023 -0.242301 1.167 
-0.599497 -0.242301 1.167 
-0.553445 -0.242509 1.168 
-0.507748 -0.242924 1.17 
-0.460708 -0.242716 1.169 
-0.413748 -0.242509 1.168 
-0.368125 -0.243132 1.171 
-0.321989 -0.243547 1.173 
-0.275693 -0.243962 1.175 
-0.229433 -0.244585 1.178 
-0.183088 -0.245416 1.182 
-0.135389 -0.244377 1.177 
-0.0885396 -0.244585 1.178 
-0.0416811 -0.245208 1.181 
0.00540296 -0.245208 1.181 
0.0526648 -0.246038 1.185 
0.0999082 -0.246038 1.185 
0.147152 -0.246038 1.185 
0.194887 -0.246661 1.188 
0.241843 -0.246246 1.186 
0.289126 -0.246246 1.186 
0.336977 -0.246661 1.188 
0.383693 -0.246246 1.186 
0.431703 -0.246661 1.188 
0.479066 -0.246661 1.188 
0.525543 -0.246246 1.186 
0.571377 -0.245623 1.183 
0.619587 -0.246038 1.185 
0.668518 -0.246661 1.188 
0.714676 -0.246246 1.186 
0.763245 -0.246661 1.188 
0.808561 -0.246038 1.185 
0.856526 -0.246246 1.186 
0.90381 -0.246246 1.186 
0.951093 -0.246246 1.186 
0.997535 -0.246038 1.185 
1.03949 -0.244793 1.179 
1.04779 -0.236072 1.137 
1.10135 -0.236695 1.14 
-0.807424 -0.192555 0.938 
-0.906496 -0.2293 1.117 
-0.858105 -0.228274 1.112 
-0.834262 -0.234022 1.14 
-0.792273 -0.235048 1.145 
-0.759665 -0.239154 1.165 
-0.71077 -0.238333 1.161 
-0.666773 -0.239154 1.165 
-0.621392 -0.239564 1.167 
-0.575359 -0.23977 1.168 
-0.529246 -0.239975 1.169 
-0.482227 -0.23977 1.168 
-0.436034 -0.239975 1.169 
-0.390095 -0.240385 1.171 
-0.343703 -0.240591 1.172 
-0.297485 -0.241001 1.174 
-0.251747 -0.242028 1.179 
-0.204222 -0.241412 1.176 
-0.157739 -0.242028 1.179 
-0.110734 -0.242028 1.179 
-0.0636761 -0.241822 1.178 
-0.0167542 -0.242438 1.181 
0.0303555 -0.242644 1.182 
0.077676 -0.243259 1.185 
0.12492 -0.243259 1.185 
0.172308 -0.243465 1.186 
0.219406 -0.243259 1.185 
0.26665 -0.243259 1.185 
0.314953 -0.24408 1.189 
0.362356 -0.24408 1.189 
0.409759 -0.24408 1.189 
0.456777 -0.243875 1.188 
0.504141 -0.243875 1.188 
0.548254 -0.242438 1.181 
0.598867 -0.243875 1.188 
0.645142 -0.243465 1.186 
0.692425 -0.243465 1.186 
0.740956 -0.243875 1.188 
0.786992 -0.243465 1.186 
0.833572 -0.243259 1.185 
0.881559 -0.243465 1.186 
0.928842 -0.243465 1.186 
0.976125 -0.243465 1.186 
1.02082 -0.242849 1.183 
1.03097 -0.234432 1.142 
1.04916 -0.228479 1.113 
-0.803025 -0.190355 0.938 
-0.90045 -0.226478 1.116 
-0.853656 -0.225869 1.113 
-0.82528 -0.230334 1.135 
-0.789651 -0.233175 1.149 
-0.754848 -0.236625 1.166 
-0.705325 -0.23561 1.161 
-0.661876 -0.236625 1.166 
-0.615918 -0.236827 1.167 
-0.56988 -0.23703 1.168 
-0.524211 -0.237436 1.17 
-0.477157 -0.237233 1.169 
-0.430551 -0.237233 1.169 
-0.384603 -0.237639 1.171 
-0.338495 -0.238045 1.173 
-0.291978 -0.238248 1.174 
-0.246217 -0.239263 1.179 
-0.198875 -0.238857 1.177 
-0.152209 -0.239263 1.179 
-0.105205 -0.239263 1.179 
-0.0582002 -0.239263 1.179 
-0.0112149 -0.239669 1.181 
0.0358995 -0.239872 1.182 
0.0832341 -0.24048 1.185 
0.130478 -0.24048 1.185 
0.178171 -0.241089 1.188 
0.225154 -0.240683 1.186 
0.272208 -0.24048 1.185 
0.32053 -0.241292 1.189 
0.367933 -0.241292 1.189 
0.414986 -0.241089 1.188 
0.461571 -0.240683 1.186 
0.509713 -0.241089 1.188 
0.553793 -0.239669 1.181 
0.604439 -0.241089 1.188 
0.651802 -0.241089 1.188 
0.697988 -0.240683 1.186 
0.745271 -0.240683 1.186 
0.792555 -0.240683 1.186 
0.83913 -0.24048 1.185 
0.888617 -0.241089 1.188 
0.935981 -0.241089 1.188 
0.98086 -0.24048 1.185 
1.02637 -0.240074 1.183 
1.03179 -0.230739 1.137 
1.04491 -0.22384 1.103 
1.18152 -0.242307 1.194 
-0.936249 -0.227471 1.134 
-0.87218 -0.222657 1.11 
-0.850303 -0.228675 1.14 
-0.803442 -0.228274 1.138 
-0.773394 -0.232887 1.161 
-0.727107 -0.232887 1.161 
-0.679647 -0.232486 1.159 
-0.637266 -0.23389 1.166 
-0.59078 -0.23389 1.166 
-0.544761 -0.234091 1.167 
-0.499943 -0.234893 1.171 
-0.452483 -0.234492 1.169 
-0.406225 -0.234692 1.17 
-0.360502 -0.235294 1.173 
-0.313737 -0.235294 1.173 
-0.267882 -0.236097 1.177 
-0.221145 -0.236297 1.178 
-0.174624 -0.236899 1.181 
-0.127324 -0.236498 1.179 
-0.0802518 -0.236297 1.178 
-0.0333721 -0.236899 1.181 
0.0137235 -0.2371 1.182 
0.0608989 -0.2373 1.183 
0.108063 -0.2373 1.183 
0.155489 -0.237701 1.185 
0.203246 -0.238303 1.188 
0.249554 -0.2373 1.183 
0.297972 -0.238303 1.188 
0.345626 -0.238504 1.189 
0.393028 -0.238504 1.189 
0.440431 -0.238504 1.189 
0.487424 -0.238303 1.188 
0.533437 -0.237701 1.185 
0.58117 -0.237902 1.186 
0.627924 -0.237701 1.185 
0.676876 -0.238303 1.188 
0.72302 -0.237902 1.186 
0.771603 -0.238303 1.188 
0.816898 -0.237701 1.185 
0.86487 -0.237902 1.186 
0.913692 -0.238303 1.188 
0.961055 -0.238303 1.188 
1.00587 -0.237701 1.185 
1.0389 -0.234492 1.169 
1.05114 -0.22707 1.132 
1.14844 -0.2373 1.183 
-0.800825 -0.185955 0.938 
-0.897833 -0.221243 1.116 
-0.856399 -0.222036 1.12 
-0.81682 -0.223424 1.127 
-0.790381 -0.228777 1.154 
-0.751469 -0.230957 1.165 
-0.703207 -0.230363 1.162 
-0.659142 -0.231156 1.166 
-0.613181 -0.231354 1.167 
-0.567141 -0.231552 1.168 
-0.521913 -0.232147 1.171 
-0.474416 -0.23175 1.169 
-0.42781 -0.23175 1.169 
-0.382183 -0.232345 1.172 
-0.335744 -0.232543 1.173 
-0.289225 -0.232742 1.174 
-0.243865 -0.234129 1.181 
-0.196282 -0.233535 1.178 
-0.149317 -0.233535 1.178 
-0.102613 -0.234129 1.181 
-0.0554353 -0.233733 1.179 
-0.00845243 -0.234328 1.182 
0.0386715 -0.234328 1.182 
0.0858679 -0.234526 1.183 
0.133257 -0.234922 1.185 
0.180957 -0.235517 1.188 
0.227936 -0.235121 1.186 
0.274987 -0.234922 1.185 
0.323318 -0.235715 1.189 
0.370721 -0.235715 1.189 
0.417773 -0.235517 1.188 
0.465136 -0.235517 1.188 
0.512499 -0.235517 1.188 
0.557505 -0.234526 1.183 
0.606203 -0.235121 1.186 
0.654588 -0.235517 1.188 
0.700769 -0.235121 1.186 
0.749314 -0.235517 1.188 
0.795336 -0.235121 1.186 
0.842619 -0.235121 1.186 
0.892154 -0.235715 1.189 
0.938767 -0.235517 1.188 
0.983639 -0.234922 1.185 
1.02827 -0.234328 1.182 
1.02991 -0.224415 1.132 
1.0266 -0.214305 1.081 
-0.819704 -0.184539 0.942 
-0.932572 -0.222544 1.136 
-0.867755 -0.217647 1.111 
-0.843474 -0.222936 1.138 
-0.80091 -0.22372 1.142 
-0.76861 -0.227638 1.162 
-0.722283 -0.227638 1.162 
-0.67363 -0.226854 1.158 
-0.631797 -0.228421 1.166 
-0.584809 -0.228225 1.165 
-0.53975 -0.228813 1.168 
-0.494451 -0.229401 1.171 
-0.447383 -0.229205 1.17 
-0.40108 -0.229401 1.171 
-0.354697 -0.229597 1.172 
-0.308235 -0.229792 1.173 
-0.262584 -0.230772 1.178 
-0.21562 -0.230772 1.178 
-0.169085 -0.23136 1.181 
-0.122001 -0.23136 1.181 
-0.0749168 -0.23136 1.181 
-0.0278564 -0.231556 1.182 
0.0192675 -0.231556 1.182 
0.0664476 -0.231751 1.183 
0.113803 -0.232143 1.185 
0.161183 -0.232339 1.186 
0.208466 -0.232339 1.186 
0.255103 -0.231751 1.183 
0.303799 -0.232927 1.189 
0.351793 -0.233319 1.191 
0.399611 -0.233515 1.192 
0.446008 -0.232927 1.189 
0.494241 -0.233319 1.191 
0.538085 -0.231751 1.183 
0.587722 -0.232731 1.188 
0.635086 -0.232731 1.188 
0.682449 -0.232731 1.188 
0.729812 -0.232731 1.188 
0.775867 -0.232339 1.186 
0.82315 -0.232339 1.186 
0.870433 -0.232339 1.186 
0.920038 -0.232927 1.189 
0.966627 -0.232731 1.188 
1.01143 -0.232143 1.185 
1.02472 -0.224699 1.147 
1.03499 -0.217255 1.109 
1.186 -0.237041 1.21 
-0.936882 -0.220267 1.138 
-0.870361 -0.215041 1.111 
-0.845399 -0.220074 1.137 
-0.803588 -0.221041 1.142 
-0.771335 -0.224912 1.162 
-0.725008 -0.224912 1.162 
-0.676345 -0.224138 1.158 
-0.634532 -0.225687 1.166 
-0.587541 -0.225493 1.165 
-0.542489 -0.226074 1.168 
-0.497197 -0.226654 1.171 
-0.450127 -0.226461 1.17 
-0.403826 -0.226654 1.171 
-0.357751 -0.227042 1.173 
-0.310986 -0.227042 1.173 
-0.265347 -0.228009 1.178 
-0.218382 -0.228009 1.178 
-0.171855 -0.22859 1.181 
-0.124771 -0.22859 1.181 
-0.0776865 -0.22859 1.181 
-0.0306025 -0.22859 1.181 
0.0164955 -0.228784 1.182 
0.0636194 -0.228784 1.182 
0.111024 -0.229364 1.185 
0.158401 -0.229558 1.186 
0.206032 -0.229945 1.188 
0.252755 -0.229364 1.185 
0.301011 -0.230138 1.189 
0.349 -0.230526 1.191 
0.396483 -0.230526 1.191 
0.443965 -0.230526 1.191 
0.491448 -0.230526 1.191 
0.536216 -0.229364 1.185 
0.584936 -0.229945 1.188 
0.632299 -0.229945 1.188 
0.680235 -0.230138 1.189 
0.727026 -0.229945 1.188 
0.773085 -0.229558 1.186 
0.820368 -0.229558 1.186 
0.867652 -0.229558 1.186 
0.91725 -0.230138 1.189 
0.963841 -0.229945 1.188 
1.00865 -0.229364 1.185 
1.0256 -0.222783 1.151 
1.03518 -0.215235 1.112 
-0.949223 -0.217981 1.14 
-0.882368 -0.212818 1.113 
-0.856065 -0.217407 1.137 
-0.810735 -0.217407 1.137 
-0.782235 -0.222187 1.162 
-0.735908 -0.222187 1.162 
-0.688988 -0.221996 1.161 
-0.644916 -0.222761 1.165 
-0.598984 -0.222952 1.166 
-0.552972 -0.223143 1.167 
-0.508182 -0.223908 1.171 
-0.460708 -0.223526 1.169 
-0.414457 -0.223717 1.17 
-0.368754 -0.224291 1.173 
-0.321989 -0.224291 1.173 
-0.275928 -0.224864 1.176 
-0.230017 -0.22582 1.181 
-0.182933 -0.22582 1.181 
-0.135504 -0.225247 1.178 
-0.0887651 -0.22582 1.181 
-0.0416811 -0.22582 1.181 
0.00540754 -0.226012 1.182 
0.0525314 -0.226012 1.182 
0.0997396 -0.226203 1.183 
0.147152 -0.226585 1.185 
0.195051 -0.22735 1.189 
0.241843 -0.226776 1.186 
0.289126 -0.226776 1.186 
0.337828 -0.227732 1.191 
0.384663 -0.22735 1.189 
0.432066 -0.22735 1.189 
0.480679 -0.227924 1.192 
0.526429 -0.227159 1.188 
0.573792 -0.227159 1.188 
0.619587 -0.226585 1.185 
0.669081 -0.22735 1.189 
0.714676 -0.226776 1.186 
0.763887 -0.22735 1.189 
0.810608 -0.227159 1.188 
0.857971 -0.227159 1.188 
0.90762 -0.227732 1.191 
0.952697 -0.227159 1.188 
0.997535 -0.226585 1.185 
1.0342 -0.224291 1.173 
1.04134 -0.216069 1.13 
1.02503 -0.202875 1.061 
-0.917633 -0.214174 1.134 
-0.867037 -0.212852 1.127 
-0.822106 -0.212852 1.127 
-0.799242 -0.218896 1.159 
-0.754984 -0.219462 1.162 
-0.711097 -0.220218 1.166 
-0.661761 -0.219273 1.161 
-0.618125 -0.220218 1.166 
-0.569678 -0.219462 1.162 
-0.526955 -0.220973 1.17 
-0.48072 -0.221162 1.171 
-0.433664 -0.220973 1.17 
-0.38768 -0.221351 1.172 
-0.340954 -0.221351 1.172 
-0.294731 -0.221729 1.174 
-0.248982 -0.222673 1.179 
-0.201978 -0.222673 1.179 
-0.154974 -0.222673 1.179 
-0.108153 -0.223051 1.181 
-0.0610686 -0.223051 1.181 
-0.0139964 -0.22324 1.182 
0.0331275 -0.22324 1.182 
0.0803193 -0.223428 1.183 
0.127699 -0.223806 1.185 
0.175385 -0.224373 1.188 
0.222373 -0.223995 1.186 
0.269656 -0.223995 1.186 
0.317741 -0.224562 1.189 
0.365759 -0.224939 1.191 
0.4122 -0.224373 1.188 
0.460724 -0.224939 1.191 
0.508207 -0.224939 1.191 
0.553357 -0.223995 1.186 
0.601653 -0.224373 1.188 
0.649016 -0.224373 1.188 
0.695207 -0.223995 1.186 
0.744368 -0.224562 1.189 
0.789773 -0.223995 1.186 
0.838468 -0.224373 1.188 
0.886577 -0.224562 1.189 
0.93398 -0.224562 1.189 
0.980558 -0.224373 1.188 
1.02359 -0.223428 1.183 
1.02641 -0.214174 1.134 
1.0228 -0.203409 1.077 
-0.956244 -0.213007 1.142 
-0.894766 -0.209276 1.122 
-0.86064 -0.211888 1.136 
-0.816068 -0.212074 1.137 
-0.787685 -0.216737 1.162 
-0.740721 -0.216551 1.161 
-0.696826 -0.217297 1.165 
-0.648706 -0.216737 1.162 
-0.603934 -0.217297 1.165 
-0.557488 -0.217297 1.165 
-0.513674 -0.218416 1.171 
-0.46659 -0.218229 1.17 
-0.419944 -0.218229 1.17 
-0.374256 -0.218789 1.173 
-0.327491 -0.218789 1.173 
-0.281205 -0.219162 1.175 
-0.235158 -0.219908 1.179 
-0.188472 -0.220281 1.181 
-0.141029 -0.219722 1.178 
-0.0943044 -0.220281 1.181 
-0.0472204 -0.220281 1.181 
-0.000136566 -0.220654 1.183 
0.0470272 -0.220654 1.183 
0.0943502 -0.221027 1.185 
0.141594 -0.221027 1.185 
0.189315 -0.221587 1.188 
0.236678 -0.221587 1.188 
0.284041 -0.221587 1.188 
0.332241 -0.222146 1.191 
0.379086 -0.221773 1.189 
0.426489 -0.221773 1.189 
0.47469 -0.222146 1.191 
0.521295 -0.221773 1.189 
0.56822 -0.221587 1.188 
0.614029 -0.221027 1.185 
0.66462 -0.222146 1.191 
0.709114 -0.221214 1.186 
0.759586 -0.222146 1.191 
0.805035 -0.221587 1.188 
0.853116 -0.221773 1.189 
0.900519 -0.221773 1.189 
0.94553 -0.221214 1.186 
0.992814 -0.221214 1.186 
1.03133 -0.219348 1.176 
1.03879 -0.211328 1.133 
1.02447 -0.198272 1.063 
-0.942854 -0.210329 1.142 
-0.882395 -0.206829 1.123 
-0.846574 -0.209039 1.135 
-0.810502 -0.211434 1.148 
-0.776058 -0.214565 1.165 
-0.727733 -0.214012 1.162 
-0.679647 -0.21346 1.159 
-0.63672 -0.214565 1.165 
-0.590274 -0.214565 1.165 
-0.545228 -0.215117 1.168 
-0.50037 -0.215854 1.172 
-0.452871 -0.215485 1.17 
-0.406572 -0.21567 1.171 
-0.360502 -0.216038 1.173 
-0.313737 -0.216038 1.173 
-0.267882 -0.216775 1.177 
-0.221333 -0.217143 1.179 
-0.174624 -0.217511 1.181 
-0.127324 -0.217143 1.179 
-0.0805243 -0.217696 1.182 
-0.0333721 -0.217511 1.181 
0.0137351 -0.21788 1.183 
0.0610018 -0.218248 1.185 
0.108337 -0.218432 1.186 
0.15562 -0.218432 1.186 
0.202903 -0.218432 1.186 
0.250187 -0.218432 1.186 
0.297972 -0.218801 1.188 
0.346207 -0.219353 1.191 
0.39369 -0.219353 1.191 
0.441543 -0.219537 1.192 
0.489065 -0.219537 1.192 
0.534787 -0.218801 1.188 
0.58264 -0.218985 1.189 
0.628454 -0.218432 1.186 
0.678586 -0.219353 1.191 
0.724849 -0.218985 1.189 
0.771603 -0.218801 1.188 
0.818966 -0.218801 1.188 
0.866329 -0.218801 1.188 
0.915999 -0.219353 1.191 
0.961055 -0.218801 1.188 
1.00672 -0.218432 1.186 
1.02023 -0.211434 1.148 
1.03629 -0.20554 1.116 
-0.976571 -0.20856 1.147 
-0.926784 -0.20765 1.142 
-0.87431 -0.206014 1.133 
-0.829872 -0.206196 1.134 
-0.804036 -0.211287 1.162 
-0.760317 -0.212014 1.166 
-0.713831 -0.212014 1.166 
-0.664484 -0.211105 1.161 
-0.620327 -0.211832 1.165 
-0.570925 -0.210742 1.159 
-0.529698 -0.212742 1.17 
-0.483879 -0.213105 1.172 
-0.436407 -0.212742 1.17 
-0.390428 -0.213105 1.172 
-0.343996 -0.213287 1.173 
-0.297738 -0.213651 1.175 
-0.252174 -0.214742 1.181 
-0.204743 -0.214378 1.179 
-0.158006 -0.214742 1.181 
-0.110922 -0.214742 1.181 
-0.0638383 -0.214742 1.181 
-0.0167826 -0.215105 1.183 
0.0303555 -0.214924 1.182 
0.077676 -0.215469 1.185 
0.125236 -0.216015 1.188 
0.172599 -0.216015 1.188 
0.219592 -0.215651 1.186 
0.26755 -0.216196 1.189 
0.314953 -0.216196 1.189 
0.362966 -0.21656 1.191 
0.409414 -0.216015 1.188 
0.457931 -0.21656 1.191 
0.505838 -0.216742 1.192 
0.551968 -0.216196 1.189 
0.598867 -0.216015 1.188 
0.64623 -0.216015 1.188 
0.693593 -0.216015 1.188 
0.74158 -0.216196 1.189 
0.786992 -0.215651 1.186 
0.836386 -0.216196 1.189 
0.883045 -0.216015 1.188 
0.931192 -0.216196 1.189 
0.978594 -0.216196 1.189 
1.02255 -0.215469 1.185 
1.02465 -0.206378 1.135 
1.02375 -0.196013 1.078 
-0.968501 -0.20587 1.147 
-0.917141 -0.204613 1.14 
-0.868633 -0.203895 1.136 
-0.825517 -0.204434 1.139 
-0.7986 -0.20928 1.166 
-0.751469 -0.2091 1.165 
-0.705023 -0.2091 1.165 
-0.658577 -0.2091 1.165 
-0.612131 -0.2091 1.165 
-0.562286 -0.207844 1.158 
-0.521467 -0.209998 1.17 
-0.475227 -0.210177 1.171 
-0.428176 -0.209998 1.17 
-0.382509 -0.210536 1.173 
-0.335744 -0.210536 1.173 
-0.289471 -0.210895 1.175 
-0.243865 -0.211972 1.181 
-0.196448 -0.211613 1.179 
-0.149444 -0.211613 1.179 
-0.102613 -0.211972 1.181 
-0.0555763 -0.212152 1.182 
-0.00845958 -0.212331 1.183 
0.0387042 -0.212331 1.183 
0.0860131 -0.21269 1.185 
0.133369 -0.21287 1.186 
0.180957 -0.213229 1.188 
0.22832 -0.213229 1.188 
0.276379 -0.213767 1.191 
0.323318 -0.213408 1.189 
0.370721 -0.213408 1.189 
0.417069 -0.21287 1.186 
0.46631 -0.213767 1.191 
0.513793 -0.213767 1.191 
0.561276 -0.213767 1.191 
0.605692 -0.21269 1.185 
0.655139 -0.213408 1.189 
0.701951 -0.213229 1.188 
0.751206 -0.213767 1.191 
0.796677 -0.213229 1.188 
0.844751 -0.213408 1.189 
0.892154 -0.213408 1.189 
0.937186 -0.21287 1.186 
0.98613 -0.213229 1.188 
1.0274 -0.211972 1.181 
1.03264 -0.203716 1.135 
1.02786 -0.193306 1.077 
-0.957741 -0.20318 1.147 
-0.905652 -0.201763 1.139 
-0.858732 -0.201408 1.137 
-0.819125 -0.202825 1.145 
-0.787662 -0.206545 1.166 
-0.738634 -0.205837 1.162 
-0.694094 -0.206368 1.165 
-0.647648 -0.206368 1.165 
-0.599654 -0.205837 1.162 
-0.554756 -0.206368 1.165 
-0.510491 -0.207254 1.17 
-0.464242 -0.207431 1.171 
-0.4172 -0.207254 1.17 
-0.371505 -0.207785 1.173 
-0.325017 -0.207962 1.174 
-0.278686 -0.208317 1.176 
-0.232787 -0.209202 1.181 
-0.185703 -0.209202 1.181 
-0.138384 -0.208848 1.179 
-0.0916122 -0.20938 1.182 
-0.044526 -0.209557 1.183 
0.00263777 -0.209557 1.183 
0.0498857 -0.209911 1.185 
0.0971292 -0.209911 1.185 
0.144495 -0.210088 1.186 
0.191778 -0.210088 1.186 
0.239666 -0.21062 1.189 
0.287069 -0.21062 1.189 
0.335035 -0.210974 1.191 
0.381875 -0.21062 1.189 
0.429278 -0.21062 1.189 
0.477483 -0.210974 1.191 
0.524084 -0.21062 1.189 
0.572448 -0.210974 1.191 
0.615767 -0.209557 1.183 
0.667974 -0.211151 1.192 
0.713095 -0.210442 1.188 
0.762379 -0.210974 1.191 
0.808502 -0.21062 1.189 
0.855905 -0.21062 1.189 
0.903307 -0.21062 1.189 
0.948312 -0.210088 1.186 
0.997274 -0.210442 1.188 
1.03057 -0.207608 1.172 
1.04144 -0.2007 1.133 
-0.991634 -0.201364 1.152 
-0.942423 -0.200665 1.148 
-0.889625 -0.199091 1.139 
-0.844215 -0.199091 1.139 
-0.812832 -0.202587 1.159 
-0.771255 -0.203811 1.166 
-0.724148 -0.203636 1.165 
-0.675956 -0.203112 1.162 
-0.631797 -0.203811 1.166 
-0.582801 -0.202937 1.161 
-0.540212 -0.204335 1.169 
-0.494873 -0.20486 1.172 
-0.447765 -0.204685 1.171 
-0.40108 -0.204685 1.171 
-0.355 -0.205034 1.173 
-0.30876 -0.205384 1.175 
-0.262584 -0.205908 1.178 
-0.215803 -0.206083 1.179 
-0.169228 -0.206608 1.182 
-0.122001 -0.206433 1.181 
-0.0749168 -0.206433 1.181 
-0.02788 -0.206782 1.183 
0.0192838 -0.206782 1.183 
0.0666161 -0.207307 1.186 
0.114092 -0.207656 1.188 
0.161183 -0.207307 1.186 
0.208466 -0.207307 1.186 
0.256828 -0.208181 1.191 
0.303799 -0.207831 1.189 
0.352088 -0.208356 1.192 
0.39827 -0.207656 1.188 
0.446008 -0.207831 1.189 
0.494656 -0.208356 1.192 
0.540814 -0.207831 1.189 
0.588217 -0.207831 1.189 
0.634016 -0.207307 1.186 
0.683023 -0.207831 1.189 
0.730426 -0.207831 1.189 
0.777175 -0.207656 1.188 
0.824538 -0.207656 1.188 
0.871901 -0.207656 1.188 
0.920038 -0.207831 1.189 
0.967441 -0.207831 1.189 
1.01228 -0.207307 1.186 
1.01847 -0.199266 1.14 
1.02846 -0.192624 1.102 
-1.00784 -0.198662 1.152 
-0.961081 -0.19849 1.151 
-0.908832 -0.19711 1.143 
-0.860242 -0.19642 1.139 
-0.821986 -0.198145 1.149 
-0.788338 -0.201249 1.167 
-0.738634 -0.200387 1.162 
-0.694094 -0.200904 1.165 
-0.648204 -0.201076 1.166 
-0.599654 -0.200387 1.162 
-0.554756 -0.200904 1.165 
-0.510491 -0.201766 1.17 
-0.464242 -0.201939 1.171 
-0.417557 -0.201939 1.171 
-0.371822 -0.202456 1.174 
-0.325294 -0.202628 1.175 
-0.278686 -0.202801 1.176 
-0.232787 -0.203663 1.181 
-0.185703 -0.203663 1.181 
-0.138619 -0.203663 1.181 
-0.0916122 -0.203836 1.182 
-0.044526 -0.204008 1.183 
0.00263777 -0.204008 1.183 
0.0499278 -0.204525 1.186 
0.0972112 -0.204525 1.186 
0.144373 -0.204353 1.185 
0.192101 -0.20487 1.188 
0.240271 -0.20556 1.192 
0.287552 -0.205388 1.191 
0.335316 -0.20556 1.192 
0.381554 -0.20487 1.188 
0.429278 -0.205043 1.189 
0.477483 -0.205388 1.191 
0.524084 -0.205043 1.189 
0.572448 -0.205388 1.191 
0.616808 -0.204353 1.185 
0.667974 -0.20556 1.192 
0.713696 -0.205043 1.189 
0.762379 -0.205388 1.191 
0.808502 -0.205043 1.189 
0.855905 -0.205043 1.189 
0.903307 -0.205043 1.189 
0.949911 -0.20487 1.188 
0.997274 -0.20487 1.188 
1.02969 -0.201939 1.171 
1.04053 -0.195213 1.132 
1.05017 -0.188833 1.095 
-0.988799 -0.196471 1.155 
-0.941936 -0.196301 1.154 
-0.885059 -0.193919 1.14 
-0.842555 -0.1946 1.144 
-0.811576 -0.198172 1.165 
-0.765786 -0.198342 1.166 
-0.7193 -0.198342 1.166 
-0.672237 -0.198172 1.165 
-0.626328 -0.198342 1.166 
-0.577356 -0.197491 1.161 
-0.534729 -0.198852 1.169 
-0.489376 -0.199363 1.172 
-0.442273 -0.199192 1.171 
-0.395925 -0.199363 1.172 
-0.349796 -0.199703 1.174 
-0.303507 -0.200043 1.176 
-0.257932 -0.201064 1.182 
-0.210273 -0.200553 1.179 
-0.163684 -0.201064 1.182 
-0.116462 -0.200894 1.181 
-0.0693775 -0.200894 1.181 
-0.022369 -0.201574 1.185 
0.0248745 -0.201574 1.185 
0.0721788 -0.201744 1.186 
0.119664 -0.202084 1.188 
0.166746 -0.201744 1.186 
0.21439 -0.202084 1.188 
0.263075 -0.203105 1.194 
0.309897 -0.202595 1.191 
0.357379 -0.202595 1.191 
0.403842 -0.202084 1.188 
0.451585 -0.202254 1.189 
0.499827 -0.202595 1.191 
0.546391 -0.202254 1.189 
0.593794 -0.202254 1.189 
0.640658 -0.202084 1.188 
0.6886 -0.202254 1.189 
0.737241 -0.202595 1.191 
0.783406 -0.202254 1.189 
0.83011 -0.202084 1.188 
0.878212 -0.202254 1.189 
0.924836 -0.202084 1.188 
0.973018 -0.202254 1.189 
1.01699 -0.201574 1.185 
1.02292 -0.193749 1.139 
1.01862 -0.184734 1.086 
-1.03485 -0.193762 1.155 
-0.990511 -0.194098 1.157 
-0.942752 -0.193762 1.155 
-0.885835 -0.191414 1.141 
-0.844028 -0.192252 1.146 
-0.812272 -0.195607 1.166 
-0.765786 -0.195607 1.166 
-0.7193 -0.195607 1.166 
-0.672814 -0.195607 1.166 
-0.626328 -0.195607 1.166 
-0.577853 -0.194936 1.162 
-0.534729 -0.196111 1.169 
-0.489376 -0.196614 1.172 
-0.442273 -0.196446 1.171 
-0.396263 -0.196782 1.173 
-0.350094 -0.197117 1.175 
-0.303507 -0.197285 1.176 
-0.257932 -0.198292 1.182 
-0.210273 -0.197788 1.179 
-0.163684 -0.198292 1.182 
-0.116462 -0.198124 1.181 
-0.0693775 -0.198124 1.181 
-0.022369 -0.198795 1.185 
0.0248745 -0.198795 1.185 
0.0721788 -0.198963 1.186 
0.119664 -0.199298 1.188 
0.167027 -0.199298 1.188 
0.21439 -0.199298 1.188 
0.263516 -0.20064 1.196 
0.309897 -0.199801 1.191 
0.357379 -0.199801 1.191 
0.403842 -0.199298 1.188 
0.451585 -0.199466 1.189 
0.499827 -0.199801 1.191 
0.546391 -0.199466 1.189 
0.593794 -0.199466 1.189 
0.640658 -0.199298 1.188 
0.6886 -0.199466 1.189 
0.737241 -0.199801 1.191 
0.782747 -0.199298 1.188 
0.830809 -0.199466 1.189 
0.878212 -0.199466 1.189 
0.924836 -0.199298 1.188 
0.973018 -0.199466 1.189 
1.01699 -0.198795 1.185 
1.02292 -0.191078 1.139 
1.02143 -0.18269 1.089 
1.15305 -0.195943 1.168 
-0.996799 -0.19155 1.158 
-0.948169 -0.191053 1.155 
-0.891968 -0.188903 1.142 
-0.850886 -0.189896 1.148 
-0.81704 -0.192708 1.165 
-0.771917 -0.193038 1.167 
-0.724148 -0.192708 1.165 
-0.678283 -0.192873 1.166 
-0.631797 -0.192873 1.166 
-0.584809 -0.192708 1.165 
-0.540212 -0.193369 1.169 
-0.494451 -0.1937 1.171 
-0.447765 -0.1937 1.171 
-0.401422 -0.193866 1.172 
-0.355605 -0.194362 1.175 
-0.309023 -0.194527 1.176 
-0.263253 -0.195354 1.181 
-0.216169 -0.195354 1.181 
-0.169371 -0.195685 1.183 
-0.122001 -0.195354 1.181 
-0.0749168 -0.195354 1.181 
-0.0279271 -0.196016 1.185 
0.0193164 -0.196016 1.185 
0.0665599 -0.196016 1.185 
0.114092 -0.196512 1.188 
0.161183 -0.196181 1.186 
0.208993 -0.196678 1.189 
0.257475 -0.197505 1.194 
0.303799 -0.196678 1.189 
0.352088 -0.197174 1.192 
0.39827 -0.196512 1.188 
0.446008 -0.196678 1.189 
0.494241 -0.197008 1.191 
0.540814 -0.196678 1.189 
0.588217 -0.196678 1.189 
0.634016 -0.196181 1.186 
0.682449 -0.196512 1.188 
0.731655 -0.197008 1.191 
0.777175 -0.196512 1.188 
0.824538 -0.196512 1.188 
0.872635 -0.196678 1.189 
0.919264 -0.196512 1.188 
0.967441 -0.196678 1.189 
1.01228 -0.196181 1.186 
1.02026 -0.188903 1.142 
1.02846 -0.182287 1.102 
-1.03935 -0.188671 1.157 
-0.996659 -0.189323 1.161 
-0.947098 -0.188671 1.157 
-0.88929 -0.186225 1.142 
-0.851149 -0.187856 1.152 
-0.815007 -0.190139 1.166 
-0.76918 -0.190302 1.167 
-0.722035 -0.190139 1.166 
-0.675549 -0.190139 1.166 
-0.629063 -0.190139 1.166 
-0.582077 -0.189975 1.165 
-0.53747 -0.190628 1.169 
-0.491704 -0.190954 1.171 
-0.445019 -0.190954 1.171 
-0.399014 -0.19128 1.173 
-0.35315 -0.191769 1.176 
-0.306265 -0.191769 1.176 
-0.260704 -0.192748 1.182 
-0.213399 -0.192585 1.181 
-0.166456 -0.192748 1.182 
-0.119332 -0.192748 1.182 
-0.0721472 -0.192585 1.181 
-0.0251481 -0.193237 1.185 
0.0220954 -0.193237 1.185 
0.0693389 -0.193237 1.185 
0.116878 -0.193726 1.188 
0.164241 -0.193726 1.188 
0.211782 -0.193889 1.189 
0.260275 -0.194704 1.194 
0.307104 -0.194215 1.191 
0.354884 -0.194378 1.192 
0.401394 -0.193889 1.189 
0.449552 -0.194215 1.191 
0.497034 -0.194215 1.191 
0.543603 -0.193889 1.189 
0.591006 -0.193889 1.189 
0.636798 -0.1934 1.186 
0.685812 -0.193889 1.189 
0.734448 -0.194215 1.191 
0.779961 -0.193726 1.188 
0.82802 -0.193889 1.189 
0.875423 -0.193889 1.189 
0.92205 -0.193726 1.188 
0.970229 -0.193889 1.189 
1.01506 -0.1934 1.186 
1.02114 -0.185899 1.14 
1.0273 -0.17905 1.098 
1.15228 -0.190791 1.17 
-1.00581 -0.186279 1.159 
