# .PCD v.7 - Point Cloud Data file format
VERSION .7
FIELDS x y z
SIZE 4 4 4
TYPE F F F
COUNT 1 1 1
WIDTH 1827
HEIGHT 1
VIEWPOINT 0 0 0 1 0 0 0
POINTS 1827
DATA ascii
0.520657 -0.32824 1.133 
0.565827 -0.32824 1.133 
0.610998 -0.32824 1.133 
0.658485 -0.329398 1.137 
0.703195 -0.329109 1.136 
0.747827 -0.328819 1.135 
0.795871 -0.329978 1.139 
0.825032 -0.323604 1.117 
0.821298 -0.305642 1.055 
0.827351 -0.292895 1.011 
0.833329 -0.281307 0.971 
0.836118 -0.269718 0.931 
0.837592 -0.25871 0.893 
0.842882 -0.249729 0.862 
-0.617598 -0.225867 0.786 
-0.55441 -0.214948 0.748 
-0.508458 -0.208338 0.725 
-0.483523 -0.210063 0.731 
-0.461217 -0.213224 0.742 
-0.422327 -0.208626 0.726 
-0.395009 -0.209488 0.729 
-0.379499 -0.217247 0.756 
-0.356752 -0.221844 0.772 
-0.425059 -0.311789 1.085 
-0.385321 -0.314663 1.095 
-0.341978 -0.31495 1.096 
-0.300732 -0.317536 1.105 
-0.256678 -0.317536 1.105 
-0.213201 -0.318398 1.108 
-0.169027 -0.318398 1.108 
-0.125642 -0.32041 1.115 
-0.0811168 -0.320123 1.114 
-0.0367698 -0.320697 1.116 
0.00772972 -0.320985 1.117 
0.0524961 -0.322422 1.122 
0.0970546 -0.321847 1.12 
0.142086 -0.322709 1.123 
0.187856 -0.324433 1.129 
0.233486 -0.325295 1.132 
0.27714 -0.323571 1.126 
0.322317 -0.323858 1.127 
0.367248 -0.323858 1.127 
0.412911 -0.324433 1.129 
0.45711 -0.323858 1.127 
0.504269 -0.325295 1.132 
0.549885 -0.325583 1.133 
0.596106 -0.326157 1.135 
0.642486 -0.326732 1.137 
0.687211 -0.326445 1.136 
0.729921 -0.325295 1.132 
0.779845 -0.327307 1.139 
0.82453 -0.327019 1.138 
0.824799 -0.310065 1.079 
0.825994 -0.295122 1.027 
0.83064 -0.282765 0.984 
0.835394 -0.271558 0.945 
0.838885 -0.260926 0.908 
0.84039 -0.250581 0.872 
-0.622827 -0.222599 0.781 
-0.59169 -0.222599 0.781 
-0.523949 -0.208063 0.73 
-0.49349 -0.207493 0.728 
-0.471484 -0.210628 0.739 
-0.439031 -0.209203 0.734 
-0.405301 -0.206923 0.726 
-0.38517 -0.211768 0.743 
-0.362248 -0.215759 0.757 
-0.377887 -0.253666 0.89 
-0.406195 -0.310385 1.089 
-0.365443 -0.312665 1.097 
-0.323175 -0.31409 1.102 
-0.28 -0.314945 1.105 
-0.235946 -0.314945 1.105 
-0.192413 -0.3158 1.108 
-0.148373 -0.316085 1.109 
-0.104629 -0.31751 1.114 
-0.0603247 -0.31808 1.116 
-0.0158463 -0.318365 1.117 
0.0287375 -0.318935 1.119 
0.0736119 -0.320075 1.123 
0.118278 -0.31979 1.122 
0.163446 -0.320645 1.125 
0.209223 -0.32207 1.13 
0.254049 -0.321785 1.129 
0.298 -0.320645 1.125 
0.344375 -0.32207 1.13 
0.389081 -0.321785 1.129 
0.434092 -0.321785 1.129 
0.479528 -0.32207 1.13 
0.525507 -0.32264 1.132 
0.571645 -0.32321 1.134 
0.616856 -0.32321 1.134 
0.663817 -0.324066 1.137 
0.708524 -0.32378 1.136 
0.754477 -0.324066 1.137 
0.801917 -0.324921 1.14 
0.826554 -0.31694 1.112 
0.82468 -0.300124 1.053 
0.827978 -0.286728 1.006 
0.832706 -0.275042 0.965 
0.839582 -0.265067 0.93 
0.840838 -0.254236 0.892 
0.843978 -0.24483 0.859 
-0.612068 -0.222181 0.786 
-0.547219 -0.210026 0.743 
-0.503665 -0.204372 0.723 
-0.484692 -0.208613 0.738 
-0.462055 -0.211722 0.749 
-0.419499 -0.205503 0.727 
-0.39159 -0.206069 0.729 
-0.374958 -0.213135 0.754 
-0.353131 -0.218223 0.772 
-0.419196 -0.306135 1.083 
-0.381227 -0.310375 1.098 
-0.337144 -0.310092 1.097 
-0.295549 -0.312354 1.105 
-0.251267 -0.312071 1.104 
-0.208004 -0.313202 1.108 
-0.16383 -0.313202 1.108 
-0.120521 -0.315463 1.116 
-0.0759599 -0.31518 1.115 
-0.0315636 -0.315746 1.117 
0.0129921 -0.316311 1.119 
0.0578102 -0.317442 1.123 
0.102491 -0.317159 1.122 
0.147354 -0.317442 1.123 
0.193323 -0.31942 1.13 
0.238163 -0.319138 1.129 
0.282421 -0.31829 1.126 
0.327603 -0.318572 1.127 
0.372534 -0.318572 1.127 
0.418206 -0.319138 1.129 
0.463217 -0.319138 1.129 
0.510029 -0.320268 1.133 
0.555199 -0.320268 1.133 
0.601429 -0.320834 1.135 
0.647819 -0.321399 1.137 
0.693758 -0.321682 1.138 
0.73588 -0.320268 1.133 
0.785876 -0.322247 1.14 
0.828409 -0.321116 1.136 
0.827553 -0.304156 1.076 
0.828384 -0.289457 1.024 
0.83186 -0.277019 0.98 
0.841603 -0.267691 0.947 
0.843144 -0.256667 0.908 
0.842543 -0.245925 0.87 
-0.617077 -0.219497 0.783 
-0.547219 -0.208283 0.743 
-0.503665 -0.202677 0.723 
-0.486005 -0.207442 0.74 
-0.465139 -0.211367 0.754 
-0.41722 -0.203518 0.726 
-0.390415 -0.204639 0.73 
-0.3722 -0.210806 0.752 
-0.351321 -0.216413 0.772 
-0.409792 -0.304156 1.085 
-0.371264 -0.30808 1.099 
-0.32745 -0.30808 1.099 
-0.285441 -0.310042 1.106 
-0.240911 -0.309482 1.104 
-0.19761 -0.310603 1.108 
-0.153298 -0.310323 1.107 
-0.109953 -0.312565 1.115 
-0.0655591 -0.312846 1.116 
-0.0211232 -0.313687 1.119 
0.0234471 -0.313126 1.117 
0.0684664 -0.315369 1.125 
0.113016 -0.314528 1.122 
0.158169 -0.315369 1.125 
0.203923 -0.31677 1.13 
0.248753 -0.31649 1.129 
0.293244 -0.315929 1.127 
0.339075 -0.31677 1.13 
0.383106 -0.315929 1.127 
0.429177 -0.31677 1.13 
0.473808 -0.31649 1.129 
0.520657 -0.317611 1.133 
0.565827 -0.317611 1.133 
0.612076 -0.318172 1.135 
0.659064 -0.319013 1.138 
0.704433 -0.319013 1.138 
0.748485 -0.318452 1.136 
0.79657 -0.319574 1.14 
0.828725 -0.314528 1.122 
0.825969 -0.297428 1.061 
0.831443 -0.284813 1.016 
0.835046 -0.272759 0.973 
0.842404 -0.262947 0.938 
0.844158 -0.252295 0.9 
0.842882 -0.241642 0.862 
-0.614188 -0.217938 0.784 
-0.5497 -0.206819 0.744 
-0.506758 -0.201537 0.725 
-0.4884 -0.205985 0.741 
-0.468146 -0.210155 0.756 
-0.418369 -0.202371 0.728 
-0.390415 -0.202927 0.73 
-0.371705 -0.208765 0.751 
-0.350866 -0.214325 0.771 
-0.405076 -0.301889 1.086 
-0.36611 -0.305503 1.099 
-0.323175 -0.306337 1.102 
-0.280254 -0.307449 1.106 
-0.235946 -0.307171 1.105 
-0.192413 -0.308005 1.108 
-0.14824 -0.308005 1.108 
-0.104723 -0.309951 1.115 
-0.0602707 -0.309951 1.115 
-0.0158888 -0.31134 1.12 
0.0287375 -0.311062 1.119 
0.073743 -0.31273 1.125 
0.118384 -0.312174 1.123 
0.163591 -0.313008 1.126 
0.209038 -0.313842 1.129 
0.254049 -0.313842 1.129 
0.298265 -0.313008 1.126 
0.344985 -0.314676 1.132 
0.389081 -0.313842 1.129 
0.434477 -0.31412 1.13 
0.479528 -0.31412 1.13 
0.525971 -0.314954 1.133 
0.571645 -0.315232 1.134 
0.6174 -0.31551 1.135 
0.664401 -0.316344 1.138 
0.709771 -0.316344 1.138 
0.755141 -0.316344 1.138 
0.801917 -0.3169 1.14 
0.828041 -0.309673 1.114 
0.827813 -0.293828 1.057 
0.83127 -0.280762 1.01 
0.837021 -0.269643 0.97 
0.84229 -0.259358 0.933 
0.843666 -0.248794 0.895 
0.846925 -0.239621 0.862 
-0.614455 -0.215548 0.782 
-0.563885 -0.208382 0.756 
-0.511859 -0.199837 0.725 
-0.492947 -0.203972 0.74 
-0.471586 -0.207555 0.753 
-0.429871 -0.202869 0.736 
-0.396174 -0.200664 0.728 
-0.376228 -0.205625 0.746 
-0.355312 -0.210863 0.765 
-0.409414 -0.298791 1.084 
-0.37194 -0.303477 1.101 
-0.32745 -0.302925 1.099 
-0.285441 -0.304855 1.106 
-0.240911 -0.304304 1.104 
-0.19761 -0.305406 1.108 
-0.153298 -0.305131 1.107 
-0.110052 -0.307611 1.116 
-0.0655004 -0.307336 1.115 
-0.021142 -0.308714 1.12 
0.0234471 -0.307887 1.117 
0.0685273 -0.310368 1.126 
0.113116 -0.309541 1.123 
0.158169 -0.310092 1.125 
0.203743 -0.311195 1.129 
0.248753 -0.311195 1.129 
0.293244 -0.310643 1.127 
0.339075 -0.31147 1.13 
0.383106 -0.310643 1.127 
0.429936 -0.312021 1.132 
0.474227 -0.31147 1.13 
0.521116 -0.312573 1.134 
0.565827 -0.312297 1.133 
0.612615 -0.313124 1.136 
0.659064 -0.313675 1.138 
0.704433 -0.313675 1.138 
0.749144 -0.3134 1.137 
0.79657 -0.314227 1.14 
0.829463 -0.309541 1.123 
0.83064 -0.294105 1.067 
0.83308 -0.280599 1.018 
0.835904 -0.268471 0.974 
0.846895 -0.259926 0.943 
0.846034 -0.248625 0.902 
0.844838 -0.238151 0.864 
-0.61565 -0.210982 0.772 
-0.587902 -0.212075 0.776 
-0.522513 -0.198957 0.728 
-0.496879 -0.200323 0.733 
-0.474674 -0.203329 0.744 
-0.44628 -0.206336 0.755 
-0.401296 -0.198957 0.728 
-0.379943 -0.203056 0.743 
-0.356922 -0.206882 0.757 
-0.363276 -0.24323 0.89 
-0.393384 -0.299528 1.096 
-0.350646 -0.300348 1.099 
-0.308506 -0.301988 1.105 
-0.264691 -0.302261 1.106 
-0.220996 -0.302808 1.108 
-0.176982 -0.303081 1.109 
-0.133128 -0.303901 1.112 
-0.089114 -0.304994 1.116 
-0.0446214 -0.304994 1.116 
-0.000128947 -0.305267 1.117 
0.044642 -0.306907 1.123 
0.089573 -0.307454 1.125 
0.134424 -0.307454 1.125 
0.180073 -0.30882 1.13 
0.224924 -0.308547 1.129 
0.270174 -0.30882 1.13 
0.314946 -0.308547 1.129 
0.359957 -0.308547 1.129 
0.405326 -0.30882 1.13 
0.449979 -0.308547 1.129 
0.496743 -0.30964 1.133 
0.541914 -0.30964 1.133 
0.58812 -0.310187 1.135 
0.634486 -0.310733 1.137 
0.679816 -0.310733 1.137 
0.723871 -0.310187 1.135 
0.771831 -0.31128 1.139 
0.817958 -0.311553 1.14 
0.829326 -0.299255 1.095 
0.828336 -0.283951 1.039 
0.836274 -0.273019 0.999 
0.837515 -0.260994 0.955 
0.840749 -0.250609 0.917 
0.849563 -0.242683 0.888 
-0.631126 -0.2089 0.771 
-0.608175 -0.21161 0.781 
-0.5497 -0.201585 0.744 
-0.507457 -0.196708 0.726 
-0.489718 -0.201314 0.743 
-0.4731 -0.207004 0.764 
-0.415518 -0.198333 0.732 
-0.384652 -0.201043 0.742 
-0.359855 -0.203752 0.752 
-0.371207 -0.240872 0.889 
-0.402529 -0.294248 1.086 
-0.364194 -0.298313 1.101 
-0.32059 -0.298584 1.102 
-0.27766 -0.299667 1.106 
-0.233566 -0.299667 1.106 
-0.189815 -0.300209 1.108 
-0.145641 -0.300209 1.108 
-0.1022 -0.302377 1.116 
-0.0577075 -0.302377 1.116 
-0.0132623 -0.303461 1.12 
0.0313898 -0.303461 1.12 
0.0764493 -0.305086 1.126 
0.121341 -0.305086 1.126 
0.166379 -0.305357 1.127 
0.211311 -0.305357 1.127 
0.256924 -0.30617 1.13 
0.301173 -0.305357 1.127 
0.34764 -0.306712 1.132 
0.391729 -0.305899 1.129 
0.437901 -0.306712 1.132 
0.482178 -0.30617 1.13 
0.529095 -0.307254 1.134 
0.574811 -0.307525 1.135 
0.620608 -0.307796 1.136 
0.66707 -0.308338 1.138 
0.71244 -0.308338 1.138 
0.757809 -0.308338 1.138 
0.805297 -0.309151 1.141 
0.829162 -0.301293 1.112 
0.831077 -0.286662 1.058 
0.834464 -0.273927 1.011 
0.840161 -0.26309 0.971 
0.845383 -0.253064 0.934 
0.847655 -0.243039 0.897 
0.852886 -0.23464 0.866 
-0.610218 -0.207361 0.772 
-0.574937 -0.205749 0.766 
-0.51597 -0.195005 0.726 
-0.49843 -0.199571 0.743 
-0.47638 -0.202794 0.755 
-0.456328 -0.207361 0.772 
-0.388132 -0.199303 0.742 
-0.361932 -0.201183 0.749 
-0.342268 -0.207361 0.772 
-0.408659 -0.290627 1.082 
-0.372278 -0.295999 1.102 
-0.328045 -0.295731 1.101 
-0.285441 -0.297074 1.106 
-0.241129 -0.296805 1.105 
-0.197789 -0.297879 1.109 
-0.153436 -0.297611 1.108 
-0.11015 -0.300028 1.117 
-0.0655591 -0.29976 1.116 
-0.021142 -0.300834 1.12 
0.02351 -0.300834 1.12 
0.0685881 -0.302714 1.127 
0.113419 -0.302446 1.126 
0.158169 -0.302177 1.125 
0.203382 -0.302714 1.127 
0.248753 -0.303251 1.129 
0.293764 -0.303251 1.129 
0.339675 -0.304057 1.132 
0.383786 -0.303251 1.129 
0.429936 -0.304057 1.132 
0.474227 -0.30352 1.13 
0.521116 -0.304594 1.134 
0.566327 -0.304594 1.134 
0.613155 -0.3054 1.137 
0.659643 -0.305937 1.139 
0.705052 -0.305937 1.139 
0.749144 -0.3054 1.137 
0.797269 -0.306475 1.141 
0.831679 -0.302446 1.126 
0.835311 -0.28821 1.073 
0.836353 -0.274511 1.022 
0.838479 -0.262424 0.977 
0.850487 -0.254366 0.947 
0.849786 -0.243353 0.906 
0.849727 -0.233415 0.869 
-0.614055 -0.205018 0.77 
-0.586387 -0.206083 0.774 
-0.515259 -0.193036 0.725 
-0.499101 -0.198095 0.744 
-0.477011 -0.20129 0.756 
-0.462239 -0.208213 0.782 
-0.381171 -0.197562 0.742 
-0.356802 -0.200491 0.753 
-0.369122 -0.236702 0.889 
-0.399982 -0.289155 1.086 
-0.362269 -0.293681 1.103 
-0.318006 -0.293415 1.102 
-0.275066 -0.29448 1.106 
-0.23139 -0.295012 1.108 
-0.187385 -0.295279 1.109 
-0.14343 -0.295811 1.111 
-0.0996721 -0.297409 1.117 
-0.0550903 -0.297142 1.116 
-0.0106357 -0.298207 1.12 
0.0340772 -0.29874 1.122 
0.0791602 -0.300071 1.127 
0.123981 -0.299805 1.126 
0.169322 -0.300604 1.129 
0.213954 -0.300071 1.127 
0.260033 -0.301403 1.132 
0.304355 -0.300604 1.129 
0.350604 -0.301669 1.133 
0.394726 -0.30087 1.13 
0.440944 -0.301669 1.133 
0.484828 -0.30087 1.13 
0.531754 -0.301935 1.134 
0.577473 -0.302201 1.135 
0.623821 -0.302734 1.137 
0.670327 -0.303266 1.139 
0.715109 -0.303 1.138 
0.760478 -0.303 1.138 
0.807972 -0.303799 1.141 
0.830274 -0.295545 1.11 
0.831983 -0.281167 1.056 
0.836835 -0.269185 1.011 
0.84157 -0.258269 0.97 
0.845758 -0.248151 0.932 
0.848811 -0.238566 0.896 
0.856891 -0.231111 0.868 
-0.60762 -0.203476 0.771 
-0.535684 -0.193183 0.732 
-0.514112 -0.196086 0.743 
-0.481006 -0.196086 0.743 
-0.473862 -0.205851 0.78 
-0.404111 -0.192655 0.73 
-0.369488 -0.196086 0.743 
-0.349015 -0.201364 0.763 
-0.357416 -0.235145 0.891 
-0.386826 -0.288191 1.092 
-0.346434 -0.29083 1.102 
-0.303598 -0.291886 1.106 
-0.259738 -0.29215 1.107 
-0.216189 -0.292942 1.11 
-0.171781 -0.292678 1.109 
-0.128257 -0.294261 1.115 
-0.0839548 -0.294789 1.117 
-0.0395282 -0.295581 1.12 
0.00511932 -0.295317 1.119 
0.0499982 -0.2969 1.125 
0.0950182 -0.297428 1.127 
0.139701 -0.2969 1.125 
0.185701 -0.298748 1.132 
0.23022 -0.297956 1.129 
0.275962 -0.298748 1.132 
0.321376 -0.299012 1.133 
0.365576 -0.29822 1.13 
0.411353 -0.298748 1.132 
0.456887 -0.299012 1.133 
0.502057 -0.299012 1.133 
0.547228 -0.299012 1.133 
0.593967 -0.299803 1.136 
0.640382 -0.300331 1.138 
0.686354 -0.300595 1.139 
0.728552 -0.299276 1.134 
0.777856 -0.300859 1.14 
0.823305 -0.300859 1.14 
0.828365 -0.286872 1.087 
0.836417 -0.27526 1.043 
0.842458 -0.263384 0.998 
0.843814 -0.251244 0.952 
0.843793 -0.240423 0.911 
0.845449 -0.230395 0.873 
-0.621278 -0.201406 0.77 
-0.576438 -0.200883 0.768 
-0.515128 -0.19539 0.747 
-0.482098 -0.194082 0.742 
-0.476301 -0.204283 0.781 
-0.449724 -0.206376 0.789 
-0.369488 -0.194344 0.743 
-0.349015 -0.199575 0.763 
-0.353237 -0.233056 0.891 
-0.382054 -0.285892 1.093 
-0.341265 -0.288246 1.102 
-0.29868 -0.289554 1.107 
-0.254546 -0.289554 1.107 
-0.210983 -0.290339 1.11 
-0.166579 -0.290077 1.109 
-0.123138 -0.291908 1.116 
-0.0787157 -0.29217 1.117 
-0.0342444 -0.292693 1.119 
0.0103771 -0.292954 1.12 
0.0552748 -0.294262 1.125 
0.100304 -0.294785 1.127 
0.145107 -0.294524 1.126 
0.190673 -0.29557 1.13 
0.235515 -0.295308 1.129 
0.281271 -0.296093 1.132 
0.32669 -0.296355 1.133 
0.370876 -0.29557 1.13 
0.416663 -0.296093 1.132 
0.462201 -0.296355 1.133 
0.507819 -0.296616 1.134 
0.55303 -0.296616 1.134 
0.599295 -0.297139 1.136 
0.646287 -0.297924 1.139 
0.692304 -0.298186 1.14 
0.73387 -0.296616 1.134 
0.783203 -0.298186 1.14 
0.828652 -0.298186 1.14 
0.830397 -0.283276 1.083 
0.835662 -0.270983 1.036 
0.843106 -0.26052 0.996 
0.846047 -0.249011 0.952 
0.84593 -0.238287 0.911 
0.845449 -0.228347 0.873 
-0.623084 -0.1996 0.77 
-0.513977 -0.188713 0.728 
-0.489059 -0.192342 0.742 
-0.477435 -0.199859 0.771 
-0.461181 -0.20634 0.796 
-0.377182 -0.192083 0.741 
-0.352801 -0.194934 0.752 
-0.368707 -0.230188 0.888 
-0.395605 -0.280218 1.081 
-0.360008 -0.28618 1.104 
-0.315994 -0.28618 1.104 
-0.272719 -0.286958 1.107 
-0.228998 -0.287476 1.109 
-0.184951 -0.287735 1.11 
-0.141205 -0.288772 1.114 
-0.0972263 -0.290068 1.119 
-0.0525201 -0.28955 1.117 
-0.00802337 -0.290846 1.122 
0.0367412 -0.291105 1.123 
0.0817306 -0.291883 1.126 
0.126734 -0.292142 1.127 
0.172427 -0.293438 1.132 
0.216981 -0.292661 1.129 
0.262224 -0.29292 1.13 
0.307003 -0.292661 1.129 
0.353261 -0.293698 1.133 
0.398431 -0.293698 1.133 
0.443993 -0.293957 1.134 
0.488341 -0.293438 1.132 
0.534414 -0.293957 1.134 
0.580646 -0.294475 1.136 
0.627038 -0.294994 1.138 
0.673589 -0.295512 1.14 
0.717777 -0.294994 1.138 
0.763818 -0.295253 1.139 
0.810648 -0.295771 1.141 
0.833627 -0.287995 1.111 
0.83604 -0.274256 1.058 
0.840866 -0.262591 1.013 
0.844715 -0.251704 0.971 
0.846125 -0.241076 0.93 
0.849963 -0.232003 0.895 
0.859916 -0.225263 0.869 
-0.445011 -0.158749 0.618 
-0.48427 -0.190088 0.74 
-0.479357 -0.201134 0.783 
-0.453291 -0.203446 0.792 
-0.377182 -0.190345 0.741 
-0.352801 -0.193171 0.752 
-0.364132 -0.227849 0.887 
-0.389812 -0.277169 1.079 
-0.354509 -0.283334 1.103 
-0.311097 -0.283848 1.105 
-0.267527 -0.284362 1.107 
-0.223998 -0.285132 1.11 
-0.179745 -0.285132 1.11 
-0.136102 -0.286417 1.115 
-0.0919778 -0.287444 1.119 
-0.0473656 -0.287444 1.119 
-0.00275589 -0.287701 1.12 
0.0420084 -0.288472 1.123 
0.0870892 -0.289499 1.127 
0.13202 -0.289499 1.127 
0.177894 -0.29104 1.133 
0.222473 -0.29027 1.13 
0.267998 -0.290784 1.132 
0.313128 -0.290784 1.132 
0.358259 -0.290784 1.132 
0.404102 -0.291297 1.134 
0.449312 -0.291297 1.134 
0.494086 -0.29104 1.133 
0.540208 -0.291554 1.135 
0.585974 -0.291811 1.136 
0.632376 -0.292325 1.138 
0.679532 -0.293095 1.141 
0.72248 -0.292068 1.137 
0.769835 -0.292839 1.14 
0.816 -0.293095 1.141 
0.835818 -0.284362 1.107 
0.837822 -0.270747 1.054 
0.839774 -0.258417 1.006 
0.842272 -0.247372 0.963 
0.846829 -0.237867 0.926 
0.850343 -0.228876 0.891 
0.863992 -0.223225 0.869 
-0.448632 -0.157046 0.617 
-0.514503 -0.193189 0.759 
-0.469439 -0.189371 0.744 
-0.47347 -0.203879 0.801 
-0.388973 -0.187589 0.737 
-0.363006 -0.189371 0.744 
-0.344993 -0.195989 0.77 
-0.346968 -0.226787 0.891 
-0.370927 -0.279475 1.098 
-0.328045 -0.280238 1.101 
-0.285699 -0.281766 1.107 
-0.242002 -0.282275 1.109 
-0.198145 -0.282784 1.111 
-0.154129 -0.283293 1.113 
-0.110348 -0.28482 1.119 
-0.0656179 -0.284311 1.117 
-0.021142 -0.285074 1.12 
0.023573 -0.285838 1.123 
0.0685273 -0.286602 1.126 
0.113721 -0.287365 1.129 
0.158872 -0.28762 1.13 
0.203382 -0.286856 1.127 
0.248753 -0.287365 1.129 
0.294545 -0.288129 1.132 
0.339975 -0.288383 1.133 
0.385146 -0.288383 1.133 
0.430316 -0.288383 1.133 
0.475487 -0.288383 1.133 
0.521576 -0.288892 1.135 
0.567825 -0.289402 1.137 
0.614233 -0.289911 1.139 
0.660222 -0.290165 1.14 
0.70629 -0.29042 1.141 
0.749144 -0.289402 1.137 
0.797968 -0.290674 1.142 
0.840542 -0.289656 1.138 
0.839203 -0.274384 1.078 
0.838808 -0.260894 1.025 
0.846202 -0.250967 0.986 
0.850487 -0.241041 0.947 
0.851662 -0.231114 0.908 
0.850705 -0.221442 0.87 
-0.614055 -0.194183 0.77 
-0.445011 -0.155851 0.618 
-0.488815 -0.186365 0.739 
-0.467527 -0.1904 0.755 
-0.464078 -0.202001 0.801 
-0.377897 -0.186365 0.739 
-0.353621 -0.189139 0.75 
-0.36249 -0.22268 0.883 
-0.383682 -0.271352 1.076 
-0.349335 -0.278161 1.103 
-0.305915 -0.278665 1.105 
-0.262571 -0.279422 1.108 
-0.218989 -0.280178 1.111 
-0.174853 -0.28043 1.112 
-0.131107 -0.281691 1.117 
-0.0868068 -0.282448 1.12 
-0.0421548 -0.282448 1.12 
0.00250176 -0.282952 1.122 
0.0472757 -0.283204 1.123 
0.0925391 -0.284718 1.129 
0.13755 -0.284718 1.129 
0.183208 -0.285726 1.133 
0.227773 -0.28497 1.13 
0.273548 -0.285726 1.133 
0.318719 -0.285726 1.133 
0.363568 -0.285474 1.132 
0.409421 -0.285978 1.134 
0.454631 -0.285978 1.134 
0.4994 -0.285726 1.133 
0.546013 -0.286483 1.136 
0.591823 -0.286735 1.137 
0.638274 -0.287239 1.139 
0.685484 -0.287996 1.142 
0.727172 -0.286483 1.136 
0.775862 -0.287744 1.141 
0.822071 -0.287996 1.142 
0.836452 -0.277656 1.101 
0.839568 -0.264795 1.05 
0.841975 -0.252942 1.003 
0.84503 -0.24235 0.961 
0.846576 -0.232263 0.921 
0.851645 -0.223941 0.888 
-0.621278 -0.192377 0.77 
-0.448632 -0.154152 0.617 
-0.490548 -0.184632 0.739 
-0.462333 -0.185132 0.741 
-0.46712 -0.200622 0.803 
-0.376874 -0.184132 0.737 
-0.353621 -0.18738 0.75 
-0.362909 -0.21961 0.879 
-0.384052 -0.267329 1.07 
-0.352241 -0.275824 1.104 
-0.308506 -0.276074 1.105 
-0.26517 -0.276823 1.108 
-0.221595 -0.277573 1.111 
-0.177461 -0.277823 1.112 
-0.133726 -0.279072 1.117 
-0.0894334 -0.279821 1.12 
-0.0447814 -0.279821 1.12 
-0.000129525 -0.280321 1.122 
0.044642 -0.280571 1.123 
0.0898914 -0.28207 1.129 
0.134902 -0.28207 1.129 
0.180551 -0.283069 1.133 
0.225522 -0.282819 1.132 
0.270891 -0.283069 1.133 
0.316062 -0.283069 1.133 
0.360913 -0.282819 1.132 
0.40712 -0.283569 1.135 
0.45237 -0.283569 1.135 
0.496743 -0.283069 1.133 
0.543348 -0.283819 1.136 
0.589157 -0.284069 1.137 
0.635602 -0.284568 1.139 
0.682806 -0.285318 1.142 
0.725784 -0.284318 1.138 
0.773186 -0.285068 1.141 
0.818676 -0.285068 1.141 
0.838414 -0.276573 1.107 
0.839497 -0.263082 1.053 
0.843808 -0.251839 1.008 
0.847162 -0.241346 0.966 
0.849 -0.231352 0.926 
0.850519 -0.222108 0.889 
-0.614852 -0.190819 0.771 
-0.445011 -0.152952 0.618 
-0.475361 -0.180424 0.729 
-0.48226 -0.197996 0.8 
-0.384618 -0.181167 0.732 
-0.359695 -0.185126 0.748 
-0.337273 -0.191314 0.773 
-0.390116 -0.26383 1.066 
-0.359682 -0.272987 1.103 
-0.315994 -0.273235 1.104 
-0.272965 -0.274225 1.108 
-0.229618 -0.275215 1.112 
-0.185618 -0.27571 1.114 
-0.141585 -0.276452 1.117 
-0.0972263 -0.276947 1.119 
-0.0526611 -0.277195 1.12 
-0.00802337 -0.27769 1.122 
0.0367412 -0.277937 1.123 
0.0818032 -0.278927 1.127 
0.127072 -0.27967 1.13 
0.172579 -0.280412 1.133 
0.217558 -0.280165 1.132 
0.262224 -0.27967 1.13 
0.30809 -0.280412 1.133 
0.353261 -0.280412 1.133 
0.399486 -0.281155 1.136 
0.444776 -0.281155 1.136 
0.489203 -0.28066 1.134 
0.535356 -0.281155 1.136 
0.581668 -0.28165 1.138 
0.627589 -0.281897 1.139 
0.674771 -0.28264 1.142 
0.719039 -0.282145 1.14 
0.764488 -0.282145 1.14 
0.810648 -0.282392 1.141 
0.84038 -0.277195 1.12 
0.840781 -0.263335 1.064 
0.846677 -0.252445 1.02 
0.847325 -0.24106 0.974 
0.847944 -0.230666 0.932 
0.851862 -0.222003 0.897 
-0.622892 -0.189256 0.772 
-0.453707 -0.151503 0.618 
-0.433929 -0.153219 0.625 
-0.451271 -0.177979 0.726 
-0.380504 -0.17994 0.734 
-0.355854 -0.184108 0.751 
-0.365779 -0.214751 0.876 
-0.388286 -0.260104 1.061 
-0.359682 -0.270401 1.103 
-0.315994 -0.270646 1.104 
-0.272965 -0.271626 1.108 
-0.229618 -0.272607 1.112 
-0.185618 -0.273097 1.114 
-0.141585 -0.273833 1.117 
-0.0972263 -0.274323 1.119 
-0.0526611 -0.274568 1.12 
-0.00803052 -0.275304 1.123 
0.0368066 -0.275794 1.125 
0.0819483 -0.276774 1.129 
0.127072 -0.27702 1.13 
0.172427 -0.27751 1.132 
0.217558 -0.27751 1.132 
0.262224 -0.27702 1.13 
0.30809 -0.277755 1.133 
0.353261 -0.277755 1.133 
0.399486 -0.278491 1.136 
0.444776 -0.278491 1.136 
0.489203 -0.278 1.134 
0.535356 -0.278491 1.136 
0.581668 -0.278981 1.138 
0.627589 -0.279226 1.139 
0.674771 -0.279961 1.142 
0.71967 -0.279716 1.141 
0.765159 -0.279716 1.141 
0.811359 -0.279961 1.142 
0.841881 -0.275058 1.122 
0.843151 -0.261575 1.067 
0.846677 -0.250053 1.02 
0.848195 -0.239021 0.975 
0.847944 -0.22848 0.932 
0.850913 -0.219654 0.896 
0.864987 -0.213281 0.87 
-0.449359 -0.150053 0.618 
-0.429532 -0.151753 0.625 
-0.442314 -0.174091 0.717 
-0.37223 -0.18089 0.745 
-0.348152 -0.186717 0.769 
-0.352047 -0.215611 0.888 
-0.372099 -0.261986 1.079 
-0.336707 -0.268057 1.104 
-0.293488 -0.268785 1.107 
-0.25003 -0.269513 1.11 
-0.206147 -0.269999 1.112 
-0.162105 -0.270485 1.114 
-0.118009 -0.271213 1.117 
-0.0736739 -0.271942 1.12 
-0.0290736 -0.272427 1.122 
0.0157 -0.273156 1.125 
0.0606591 -0.273641 1.127 
0.105778 -0.274127 1.129 
0.150922 -0.27437 1.13 
0.195799 -0.274127 1.129 
0.241024 -0.27437 1.13 
0.28734 -0.275584 1.135 
0.332297 -0.275341 1.134 
0.376842 -0.274855 1.132 
0.423463 -0.275826 1.136 
0.467928 -0.275341 1.134 
0.514043 -0.275826 1.136 
0.560318 -0.276312 1.138 
0.60622 -0.276555 1.139 
0.652774 -0.27704 1.141 
0.699487 -0.277526 1.143 
0.742449 -0.276555 1.139 
0.789933 -0.277283 1.142 
0.836194 -0.277526 1.143 
0.840105 -0.264415 1.089 
0.840521 -0.251546 1.036 
0.84948 -0.242319 0.998 
0.850062 -0.231636 0.954 
0.848997 -0.221438 0.912 
0.853321 -0.213426 0.879 
-0.465354 -0.149085 0.62 
-0.440636 -0.149085 0.62 
-0.459769 -0.17265 0.718 
-0.38988 -0.175295 0.729 
-0.360657 -0.180345 0.75 
-0.365362 -0.210402 0.875 
-0.386456 -0.253926 1.056 
-0.358052 -0.264025 1.098 
-0.315994 -0.265468 1.104 
-0.273212 -0.26667 1.109 
-0.230031 -0.267872 1.114 
-0.185951 -0.268353 1.116 
-0.141458 -0.268353 1.116 
-0.0972263 -0.269074 1.119 
-0.0527552 -0.269796 1.122 
-0.00803052 -0.270036 1.123 
0.0368393 -0.270758 1.126 
0.0819483 -0.271479 1.129 
0.127072 -0.27172 1.13 
0.172427 -0.2722 1.132 
0.217558 -0.2722 1.132 
0.262224 -0.27172 1.13 
0.308362 -0.272681 1.134 
0.353573 -0.272681 1.134 
0.399838 -0.273403 1.137 
0.444385 -0.272922 1.135 
0.489203 -0.272681 1.134 
0.535356 -0.273162 1.136 
0.581668 -0.273643 1.138 
0.627589 -0.273884 1.139 
0.675362 -0.274846 1.143 
0.720931 -0.274846 1.143 
0.76583 -0.274605 1.142 
0.811359 -0.274605 1.142 
0.844882 -0.270758 1.126 
0.843151 -0.256571 1.067 
0.849167 -0.24599 1.023 
0.848195 -0.234448 0.975 
0.848854 -0.224349 0.933 
0.849963 -0.215211 0.895 
0.861896 -0.20944 0.871 
-0.455157 -0.147155 0.618 
-0.434001 -0.148345 0.623 
-0.460168 -0.17049 0.716 
-0.429814 -0.169776 0.713 
-0.358091 -0.179062 0.752 
-0.365779 -0.208588 0.876 
-0.38398 -0.251449 1.056 
-0.3558 -0.261688 1.099 
-0.313689 -0.263117 1.105 
-0.270611 -0.264069 1.109 
-0.227418 -0.26526 1.114 
-0.183334 -0.265736 1.116 
-0.138841 -0.265736 1.116 
-0.0946021 -0.26645 1.119 
-0.0501686 -0.267403 1.123 
-0.0053969 -0.267403 1.123 
0.03948 -0.268117 1.126 
0.084596 -0.268831 1.129 
0.129722 -0.269069 1.13 
0.175082 -0.269546 1.132 
0.220212 -0.269546 1.132 
0.264874 -0.269069 1.13 
0.311022 -0.270022 1.134 
0.356232 -0.270022 1.134 
0.40215 -0.270498 1.136 
0.44744 -0.270498 1.136 
0.492297 -0.27026 1.135 
0.538494 -0.270736 1.137 
0.584337 -0.270974 1.138 
0.630814 -0.271451 1.14 
0.678043 -0.272165 1.143 
0.723612 -0.272165 1.143 
0.768508 -0.271927 1.142 
0.814037 -0.271927 1.142 
0.844512 -0.267165 1.122 
0.843276 -0.253354 1.064 
0.851566 -0.243591 1.023 
0.849609 -0.231924 0.974 
0.849218 -0.221685 0.931 
0.849206 -0.212398 0.892 
0.863938 -0.207398 0.871 
-0.450809 -0.145706 0.618 
-0.430308 -0.14712 0.624 
-0.459525 -0.168575 0.715 
-0.429211 -0.167868 0.712 
-0.360657 -0.176827 0.75 
-0.334159 -0.181542 0.77 
-0.386822 -0.249208 1.057 
-0.356095 -0.25746 1.092 
-0.31628 -0.260525 1.105 
-0.273212 -0.261468 1.109 
-0.230031 -0.262647 1.114 
-0.186118 -0.263354 1.117 
-0.141458 -0.263119 1.116 
-0.0973132 -0.264062 1.12 
-0.0528022 -0.264769 1.123 
-0.00803052 -0.264769 1.123 
0.036872 -0.265712 1.127 
0.0819483 -0.266184 1.129 
0.127072 -0.266419 1.13 
0.172427 -0.266891 1.132 
0.217558 -0.266891 1.132 
0.262224 -0.266419 1.13 
0.308634 -0.267598 1.135 
0.353573 -0.267363 1.134 
0.399486 -0.267834 1.136 
0.444776 -0.267834 1.136 
0.489635 -0.267598 1.135 
0.535827 -0.26807 1.137 
0.581668 -0.268306 1.138 
0.62814 -0.268777 1.14 
0.675953 -0.26972 1.144 
0.722193 -0.269956 1.145 
0.76583 -0.269249 1.142 
0.812069 -0.269484 1.143 
0.847133 -0.266184 1.129 
0.844732 -0.252037 1.069 
0.849997 -0.241428 1.024 
0.849935 -0.230347 0.977 
0.849764 -0.220209 0.934 
0.849013 -0.210778 0.894 
0.862885 -0.205591 0.872 
-0.452258 -0.144256 0.618 
-0.431079 -0.145423 0.623 
-0.462231 -0.166665 0.714 
-0.431336 -0.165731 0.71 
-0.365731 -0.174134 0.746 
-0.340959 -0.17857 0.765 
-0.393513 -0.246263 1.055 
-0.360113 -0.252332 1.081 
-0.324054 -0.257934 1.105 
-0.281014 -0.258868 1.109 
-0.237441 -0.259568 1.112 
-0.193803 -0.260501 1.116 
-0.149176 -0.260268 1.115 
-0.105193 -0.261435 1.12 
-0.060649 -0.261902 1.122 
-0.0159314 -0.262135 1.123 
0.028943 -0.263069 1.127 
0.0740052 -0.263536 1.129 
0.119122 -0.263769 1.13 
0.164172 -0.263769 1.13 
0.209593 -0.264236 1.132 
0.253599 -0.263069 1.127 
0.300649 -0.264937 1.135 
0.345899 -0.264937 1.135 
0.391149 -0.264937 1.135 
0.437168 -0.265403 1.137 
0.482074 -0.26517 1.136 
0.527828 -0.265403 1.137 
0.573662 -0.265637 1.138 
0.619576 -0.26587 1.139 
0.66732 -0.266804 1.143 
0.714761 -0.267504 1.146 
0.757795 -0.26657 1.142 
0.804027 -0.266804 1.143 
0.84811 -0.266337 1.141 
0.845043 -0.251865 1.079 
0.845262 -0.239727 1.027 
0.846513 -0.228989 0.981 
0.857637 -0.221753 0.95 
0.849322 -0.210315 0.901 
0.858715 -0.204013 0.874 
-0.455893 -0.143038 0.619 
-0.432608 -0.1435 0.621 
-0.425583 -0.149739 0.648 
-0.431781 -0.163604 0.708 
-0.39276 -0.168226 0.728 
-0.35327 -0.174003 0.753 
-0.388933 -0.244019 1.056 
-0.355372 -0.250028 1.082 
-0.319449 -0.255805 1.107 
-0.275812 -0.256267 1.109 
-0.232643 -0.257422 1.114 
-0.189075 -0.258577 1.119 
-0.144205 -0.258115 1.117 
-0.100118 -0.259271 1.122 
-0.0554358 -0.259502 1.123 
-0.0106642 -0.259502 1.123 
0.0342898 -0.260888 1.129 
0.0791602 -0.260426 1.127 
0.124422 -0.261119 1.13 
0.169772 -0.261582 1.132 
0.215093 -0.261813 1.133 
0.259344 -0.260888 1.129 
0.305703 -0.262044 1.134 
0.351223 -0.262275 1.135 
0.396822 -0.262506 1.136 
0.442501 -0.262737 1.137 
0.487402 -0.262506 1.136 
0.53363 -0.262968 1.138 
0.578999 -0.262968 1.138 
0.625467 -0.26343 1.14 
0.67327 -0.264354 1.144 
0.720764 -0.265048 1.147 
0.763151 -0.263892 1.142 
0.809389 -0.264123 1.143 
0.849722 -0.262506 1.136 
0.84774 -0.248641 1.076 
0.849251 -0.237087 1.026 
0.848511 -0.225995 0.978 
0.854833 -0.217676 0.942 
0.848811 -0.207047 0.896 
0.861827 -0.201732 0.873 
-0.451538 -0.141586 0.619 
-0.430308 -0.14273 0.624 
-0.455397 -0.161486 0.706 
-0.42725 -0.161486 0.706 
-0.38817 -0.166747 0.729 
-0.347585 -0.172923 0.756 
-0.386822 -0.241772 1.057 
-0.352834 -0.24749 1.082 
-0.316853 -0.253208 1.107 
-0.273458 -0.253895 1.11 
-0.230031 -0.25481 1.114 
-0.186451 -0.255953 1.119 
-0.141839 -0.255953 1.119 
-0.097487 -0.256639 1.122 
-0.0528022 -0.256868 1.123 
-0.00803052 -0.256868 1.123 
0.0369375 -0.258241 1.129 
0.0818032 -0.257783 1.127 
0.127297 -0.258927 1.132 
0.172579 -0.259155 1.133 
0.217942 -0.259384 1.134 
0.262224 -0.258469 1.13 
0.308634 -0.259613 1.135 
0.353884 -0.259613 1.135 
0.399486 -0.259842 1.136 
0.445168 -0.26007 1.137 
0.490066 -0.259842 1.136 
0.536299 -0.260299 1.138 
0.582179 -0.260528 1.139 
0.62814 -0.260757 1.14 
0.676544 -0.2619 1.145 
0.723454 -0.262358 1.147 
0.76583 -0.261214 1.142 
0.81278 -0.261672 1.144 
0.850885 -0.259384 1.134 
0.850263 -0.246118 1.076 
0.850827 -0.234452 1.025 
0.849935 -0.223473 0.977 
0.850674 -0.213866 0.935 
0.849013 -0.204488 0.894 
0.864864 -0.199913 0.874 
-0.451538 -0.140135 0.619 
-0.429618 -0.14104 0.623 
-0.422323 -0.147153 0.65 
-0.428906 -0.15983 0.706 
-0.407534 -0.165264 0.73 
-0.36725 -0.16798 0.742 
-0.344495 -0.171376 0.757 
-0.381539 -0.240651 1.063 
-0.347455 -0.246537 1.089 
-0.309344 -0.250839 1.108 
-0.265888 -0.251518 1.111 
-0.222193 -0.252197 1.114 
-0.178578 -0.253329 1.119 
-0.134086 -0.253555 1.12 
-0.0895931 -0.254008 1.122 
-0.0449013 -0.254235 1.123 
-0.00012964 -0.254235 1.123 
0.0448011 -0.25514 1.127 
0.0898914 -0.255593 1.129 
0.13538 -0.256498 1.133 
0.180551 -0.256498 1.133 
0.226119 -0.256951 1.135 
0.27113 -0.256725 1.134 
0.316899 -0.257178 1.136 
0.36187 -0.256951 1.135 
0.407837 -0.257404 1.137 
0.452769 -0.257178 1.136 
0.498497 -0.257404 1.137 
0.543827 -0.257404 1.137 
0.590193 -0.257857 1.139 
0.636719 -0.25831 1.141 
0.685197 -0.259441 1.146 
0.730886 -0.259441 1.146 
0.774542 -0.258762 1.143 
0.822263 -0.259441 1.146 
0.84826 -0.253555 1.12 
0.847469 -0.240651 1.063 
0.855527 -0.231369 1.022 
0.855054 -0.220729 0.975 
0.849917 -0.209862 0.927 
0.852433 -0.201712 0.891 
-0.474842 -0.139131 0.621 
-0.448635 -0.138683 0.619 
-0.428066 -0.140027 0.625 
-0.42508 -0.147645 0.659 
-0.425594 -0.158175 0.706 
-0.406976 -0.163328 0.729 
-0.378431 -0.163552 0.73 
-0.356027 -0.166688 0.744 
-0.3347 -0.170945 0.763 
-0.365678 -0.240847 1.075 
-0.33273 -0.24824 1.108 
-0.288816 -0.248464 1.109 
-0.245265 -0.249136 1.112 
-0.201473 -0.249809 1.115 
-0.157302 -0.250257 1.117 
-0.113073 -0.250929 1.12 
-0.0685429 -0.251377 1.122 
-0.0238323 -0.251601 1.123 
0.0210513 -0.252945 1.129 
0.0660622 -0.252945 1.129 
0.111467 -0.253841 1.133 
0.156499 -0.253617 1.132 
0.201807 -0.253841 1.133 
0.246978 -0.253841 1.133 
0.292664 -0.254289 1.135 
0.338212 -0.254513 1.136 
0.383501 -0.254513 1.136 
0.429546 -0.254962 1.138 
0.474499 -0.254738 1.137 
0.520286 -0.254962 1.138 
0.565655 -0.254962 1.138 
0.611562 -0.255186 1.139 
0.659856 -0.256306 1.144 
0.707315 -0.256978 1.147 
0.751073 -0.256306 1.144 
0.796682 -0.256306 1.144 
0.8445 -0.256978 1.147 
0.849869 -0.245328 1.095 
0.851093 -0.233677 1.043 
0.854161 -0.223595 0.998 
0.857223 -0.21441 0.957 
0.850468 -0.203656 0.909 
0.865247 -0.198727 0.887 
-0.464603 -0.137231 0.619 
-0.441346 -0.137675 0.621 
-0.424638 -0.140335 0.633 
-0.435888 -0.154302 0.696 
-0.417523 -0.157849 0.712 
-0.398428 -0.161618 0.729 
-0.371391 -0.162505 0.733 
-0.351037 -0.166717 0.752 
-0.328741 -0.170708 0.77 
-0.351204 -0.238769 1.077 
-0.317139 -0.245642 1.108 
-0.273704 -0.246307 1.111 
-0.230031 -0.246972 1.114 
-0.186451 -0.24808 1.119 
-0.141965 -0.248302 1.12 
-0.097487 -0.248746 1.122 
-0.0528022 -0.248967 1.123 
-0.00805198 -0.249632 1.126 
0.0369375 -0.250297 1.129 
0.0819483 -0.250297 1.129 
0.127297 -0.250963 1.132 
0.172732 -0.251406 1.134 
0.218134 -0.251628 1.135 
0.26292 -0.251184 1.133 
0.308906 -0.251849 1.136 
0.354196 -0.251849 1.136 
0.399486 -0.251849 1.136 
0.445559 -0.252293 1.138 
0.490498 -0.252071 1.137 
0.536299 -0.252293 1.138 
0.582179 -0.252514 1.139 
0.628691 -0.252958 1.141 
0.676544 -0.253845 1.145 
0.724085 -0.25451 1.148 
0.7665 -0.253401 1.143 
0.814911 -0.254288 1.147 
0.853886 -0.252293 1.138 
0.851844 -0.238991 1.078 
0.852488 -0.227684 1.027 
0.852545 -0.217264 0.98 
0.857042 -0.20884 0.942 
0.855661 -0.19975 0.901 
0.87377 -0.19576 0.883 
-0.456606 -0.13556 0.618 
-0.434065 -0.136218 0.621 
-0.424466 -0.141263 0.644 
-0.431827 -0.153547 0.7 
-0.413152 -0.157057 0.716 
-0.391052 -0.159689 0.728 
-0.366504 -0.161663 0.737 
-0.345355 -0.165612 0.755 
-0.380096 -0.235366 1.073 
-0.342662 -0.239095 1.09 
-0.304147 -0.243043 1.108 
-0.260912 -0.243921 1.112 
-0.216968 -0.244359 1.114 
-0.17302 -0.245018 1.117 
-0.128832 -0.245676 1.12 
-0.0841051 -0.245456 1.119 
-0.0397046 -0.246772 1.125 
0.00515134 -0.246992 1.126 
0.050176 -0.24765 1.129 
0.0952711 -0.247869 1.13 
0.140694 -0.248527 1.133 
0.186029 -0.248747 1.134 
0.231647 -0.249185 1.136 
0.276937 -0.249185 1.136 
0.32251 -0.249405 1.137 
0.367517 -0.249185 1.136 
0.41317 -0.249405 1.137 
0.458903 -0.249624 1.138 
0.504273 -0.249624 1.138 
0.54916 -0.249405 1.137 
0.595535 -0.249843 1.139 
0.643196 -0.250721 1.143 
0.691175 -0.251598 1.147 
0.736261 -0.251379 1.146 
0.780585 -0.25094 1.144 
0.829805 -0.252037 1.149 
0.848941 -0.244359 1.114 
0.850851 -0.232734 1.061 
0.856954 -0.223302 1.018 
0.858746 -0.21365 0.974 
0.854265 -0.20334 0.927 
0.859496 -0.196102 0.894 
-0.654917 -0.175125 0.807 
-0.45299 -0.134328 0.619 
-0.430387 -0.134979 0.622 
-0.422543 -0.140621 0.648 
-0.427083 -0.152557 0.703 
-0.410976 -0.157114 0.724 
-0.384751 -0.158199 0.729 
-0.360566 -0.160369 0.739 
-0.338721 -0.164058 0.756 
-0.372894 -0.233067 1.074 
-0.338988 -0.23936 1.103 
-0.296619 -0.240662 1.109 
-0.253316 -0.24153 1.113 
-0.209318 -0.241964 1.115 
-0.165457 -0.242832 1.119 
-0.120953 -0.243049 1.12 
-0.0764367 -0.243483 1.122 
-0.0317897 -0.244134 1.125 
0.0131082 -0.245002 1.129 
0.0581705 -0.245219 1.13 
0.103495 -0.24587 1.133 
0.148666 -0.24587 1.133 
0.194007 -0.246087 1.134 
0.239428 -0.246304 1.135 
0.284929 -0.246521 1.136 
0.33051 -0.246738 1.137 
0.37584 -0.246738 1.137 
0.42154 -0.246955 1.138 
0.46691 -0.246955 1.138 
0.51273 -0.247172 1.139 
0.557159 -0.246738 1.137 
0.603549 -0.247172 1.139 
0.651237 -0.24804 1.143 
0.699245 -0.248908 1.147 
0.744324 -0.248691 1.146 
0.788634 -0.248257 1.144 
0.837889 -0.249342 1.149 
0.851395 -0.240228 1.107 
0.852653 -0.228726 1.054 
0.85393 -0.21831 1.006 
0.860266 -0.210064 0.968 
0.853358 -0.19943 0.919 
0.863849 -0.193571 0.892 
-0.652745 -0.173662 0.809 
-0.451538 -0.132876 0.619 
-0.428929 -0.13352 0.622 
-0.423623 -0.13996 0.652 
-0.428122 -0.150693 0.702 
-0.410964 -0.154772 0.721 
-0.386461 -0.156489 0.729 
-0.361809 -0.158421 0.738 
-0.340494 -0.162285 0.756 
-0.372199 -0.230119 1.072 
-0.338681 -0.236558 1.102 
-0.296886 -0.238276 1.11 
-0.253316 -0.23892 1.113 
-0.209318 -0.239349 1.115 
-0.165161 -0.239778 1.117 
-0.120953 -0.240422 1.12 
-0.0763005 -0.240422 1.12 
-0.0317897 -0.241496 1.125 
0.0131082 -0.242354 1.129 
0.0581705 -0.242569 1.13 
0.103495 -0.243213 1.133 
0.148666 -0.243213 1.133 
0.194007 -0.243428 1.134 
0.239428 -0.243642 1.135 
0.28518 -0.244072 1.137 
0.33051 -0.244072 1.137 
0.37584 -0.244072 1.137 
0.42154 -0.244286 1.138 
0.46732 -0.244501 1.139 
0.51273 -0.244501 1.139 
0.557159 -0.244072 1.137 
0.604079 -0.244716 1.14 
0.651807 -0.245574 1.144 
0.699245 -0.246218 1.147 
0.744973 -0.246218 1.147 
0.789323 -0.245789 1.145 
0.837889 -0.246648 1.149 
0.852164 -0.237846 1.108 
0.854271 -0.226684 1.056 
0.856476 -0.216595 1.009 
0.861155 -0.208008 0.969 
0.858001 -0.198348 0.924 
0.865786 -0.191909 0.894 
-0.662507 -0.172827 0.814 
-0.454442 -0.131425 0.619 
-0.431152 -0.131849 0.621 
-0.423409 -0.13737 0.647 
-0.427113 -0.147561 0.695 
-0.412622 -0.152444 0.718 
-0.389345 -0.154567 0.728 
-0.364281 -0.156266 0.736 
-0.34404 -0.160512 0.756 
-0.320128 -0.163697 0.771 
-0.339098 -0.232488 1.095 
-0.29922 -0.23546 1.109 
-0.256156 -0.236522 1.114 
-0.211933 -0.236734 1.115 
-0.16763 -0.236947 1.116 
-0.123469 -0.237584 1.119 
-0.0788566 -0.237584 1.119 
-0.034428 -0.238857 1.125 
0.0104605 -0.239707 1.129 
0.0555205 -0.239919 1.13 
0.100838 -0.240556 1.133 
0.146009 -0.240556 1.133 
0.191516 -0.240981 1.135 
0.236975 -0.241193 1.136 
0.282514 -0.241405 1.137 
0.327843 -0.241405 1.137 
0.373173 -0.241405 1.137 
0.418871 -0.241618 1.138 
0.464649 -0.24183 1.139 
0.510058 -0.24183 1.139 
0.55498 -0.241618 1.138 
0.601405 -0.242042 1.14 
0.649124 -0.242891 1.144 
0.696555 -0.243528 1.147 
0.742283 -0.243528 1.147 
0.786638 -0.243104 1.145 
0.835194 -0.243953 1.149 
0.851866 -0.235885 1.111 
0.857441 -0.225694 1.063 
0.858343 -0.21529 1.014 
0.861542 -0.206373 0.972 
0.861392 -0.197455 0.93 
0.866588 -0.190449 0.897 
-0.666864 -0.171548 0.817 
-0.455893 -0.129973 0.619 
-0.431912 -0.130183 0.62 
-0.423613 -0.135432 0.645 
-0.426892 -0.145301 0.692 
-0.413729 -0.15055 0.717 
-0.391052 -0.15286 0.728 
-0.36551 -0.15433 0.735 
-0.345355 -0.158529 0.755 
-0.321936 -0.161889 0.771 
-0.340147 -0.22719 1.082 
-0.304147 -0.23265 1.108 
-0.261146 -0.233699 1.113 
-0.216968 -0.233909 1.114 
-0.172865 -0.234329 1.116 
-0.128832 -0.235169 1.12 
-0.0839548 -0.234539 1.117 
-0.0397399 -0.236429 1.126 
0.00516964 -0.237269 1.13 
0.0503093 -0.237689 1.132 
0.0955241 -0.237899 1.133 
0.140694 -0.237899 1.133 
0.186193 -0.238319 1.135 
0.231647 -0.238529 1.136 
0.276937 -0.238529 1.136 
0.32251 -0.238739 1.137 
0.368164 -0.238949 1.138 
0.413534 -0.238949 1.138 
0.45971 -0.239369 1.14 
0.505159 -0.239369 1.14 
0.549643 -0.238949 1.138 
0.596058 -0.239369 1.14 
0.643758 -0.240209 1.144 
0.691175 -0.240838 1.147 
0.737546 -0.241048 1.148 
0.78195 -0.240629 1.146 
0.829805 -0.241258 1.149 
0.852751 -0.234959 1.119 
0.861277 -0.22551 1.074 
0.861163 -0.214802 1.023 
0.859627 -0.204723 0.975 
0.864402 -0.196954 0.938 
0.867187 -0.189395 0.902 
-0.670696 -0.169632 0.817 
-0.460279 -0.128937 0.621 
-0.435521 -0.128937 0.621 
-0.423331 -0.132882 0.64 
-0.426408 -0.142432 0.686 
-0.415928 -0.148454 0.715 
-0.393925 -0.150945 0.727 
-0.368455 -0.152398 0.734 
-0.348434 -0.156551 0.754 
-0.325552 -0.160081 0.771 
-0.341734 -0.22403 1.079 
-0.306745 -0.230051 1.108 
-0.263756 -0.231089 1.113 
-0.219778 -0.231504 1.115 
-0.175482 -0.231712 1.116 
-0.131342 -0.232335 1.119 
-0.0865743 -0.23192 1.117 
-0.0423806 -0.233788 1.126 
0.0025196 -0.234619 1.13 
0.0476545 -0.235034 1.132 
0.092867 -0.235242 1.133 
0.138037 -0.235242 1.133 
0.183531 -0.235657 1.135 
0.228983 -0.235865 1.136 
0.274273 -0.235865 1.136 
0.319844 -0.236072 1.137 
0.365495 -0.23628 1.138 
0.410865 -0.23628 1.138 
0.457036 -0.236695 1.14 
0.502486 -0.236695 1.14 
0.547454 -0.236488 1.139 
0.593385 -0.236695 1.14 
0.641075 -0.237526 1.144 
0.688485 -0.238149 1.147 
0.734214 -0.238149 1.147 
0.779942 -0.238149 1.147 
0.82711 -0.238564 1.149 
0.857724 -0.234411 1.129 
0.861157 -0.223615 1.077 
0.860443 -0.212818 1.025 
0.8591 -0.202852 0.977 
0.868636 -0.196208 0.945 
0.867949 -0.187903 0.905 
-0.673436 -0.167921 0.818 
-0.461735 -0.12748 0.621 
-0.436977 -0.12748 0.621 
-0.424168 -0.131175 0.639 
-0.425521 -0.140002 0.682 
-0.417021 -0.146571 0.714 
-0.39563 -0.14924 0.727 
-0.369168 -0.150267 0.732 
-0.349274 -0.154372 0.752 
-0.326936 -0.158067 0.77 
-0.344867 -0.220268 1.073 
-0.31166 -0.227247 1.107 
-0.268977 -0.228479 1.113 
-0.225007 -0.22889 1.115 
-0.180555 -0.22889 1.115 
-0.136712 -0.229916 1.12 
-0.0919778 -0.229711 1.119 
-0.0476196 -0.230942 1.125 
-0.00278049 -0.231969 1.13 
0.0422703 -0.231969 1.13 
0.0875528 -0.232585 1.133 
0.13284 -0.23279 1.134 
0.178051 -0.23279 1.134 
0.223655 -0.233201 1.136 
0.268708 -0.232995 1.135 
0.314511 -0.233406 1.137 
0.360157 -0.233611 1.138 
0.405527 -0.233611 1.138 
0.451689 -0.234022 1.14 
0.497139 -0.234022 1.14 
0.542588 -0.234022 1.14 
0.588038 -0.234022 1.14 
0.636266 -0.235048 1.145 
0.683105 -0.235459 1.147 
0.730105 -0.235869 1.149 
0.775238 -0.235664 1.148 
0.821721 -0.235869 1.149 
0.859979 -0.233816 1.139 
0.85849 -0.221705 1.08 
0.863148 -0.212262 1.034 
0.857141 -0.201177 0.98 
0.870606 -0.195429 0.952 
0.866568 -0.186396 0.908 
0.885866 -0.182906 0.891 
-0.465396 -0.126227 0.622 
-0.43989 -0.126024 0.621 
-0.425828 -0.129271 0.637 
-0.426834 -0.137794 0.679 
-0.418604 -0.144288 0.711 
-0.398491 -0.147332 0.726 
-0.371583 -0.148144 0.73 
-0.350455 -0.151594 0.747 
-0.329259 -0.155653 0.767 
-0.348269 -0.216737 1.068 
-0.316853 -0.224651 1.107 
-0.274197 -0.225869 1.113 
-0.230237 -0.226275 1.115 
-0.185951 -0.226478 1.116 
-0.141965 -0.227289 1.12 
-0.097487 -0.227695 1.122 
-0.0528962 -0.228304 1.125 
-0.00808058 -0.229319 1.13 
0.0369375 -0.229116 1.129 
0.0822387 -0.229928 1.133 
0.127521 -0.230131 1.134 
0.172732 -0.230131 1.134 
0.218326 -0.230536 1.136 
0.263384 -0.230334 1.135 
0.309178 -0.230739 1.137 
0.35482 -0.230942 1.138 
0.40019 -0.230942 1.138 
0.446342 -0.231348 1.14 
0.491792 -0.231348 1.14 
0.537712 -0.231551 1.141 
0.582179 -0.231145 1.139 
0.630344 -0.23216 1.144 
0.677725 -0.232769 1.147 
0.724715 -0.233175 1.149 
0.770524 -0.233175 1.149 
0.815621 -0.232972 1.148 
0.858388 -0.23216 1.144 
0.855005 -0.219578 1.082 
0.864939 -0.21146 1.042 
0.860374 -0.200705 0.989 
0.86796 -0.193602 0.954 
0.865158 -0.184876 0.911 
0.880697 -0.180614 0.89 
-0.469772 -0.124768 0.622 
-0.444974 -0.124768 0.622 
-0.426256 -0.126573 0.631 
-0.426526 -0.134597 0.671 
-0.420627 -0.141618 0.706 
-0.403043 -0.145429 0.725 
-0.376719 -0.146432 0.73 
-0.353806 -0.14904 0.743 
-0.331601 -0.15245 0.76 
-0.35445 -0.21343 1.064 
-0.324934 -0.222256 1.108 
-0.282028 -0.223259 1.113 
-0.238509 -0.224061 1.117 
-0.193976 -0.224061 1.117 
-0.149711 -0.224462 1.119 
-0.105193 -0.224663 1.12 
-0.0608112 -0.225666 1.125 
-0.0160165 -0.226468 1.129 
0.0289944 -0.226468 1.129 
0.0742019 -0.22707 1.132 
0.119543 -0.227471 1.134 
0.164608 -0.227271 1.133 
0.210519 -0.228073 1.137 
0.255399 -0.227672 1.135 
0.301179 -0.228073 1.137 
0.346813 -0.228274 1.138 
0.392183 -0.228274 1.138 
0.438322 -0.228675 1.14 
0.483771 -0.228675 1.14 
0.529685 -0.228875 1.141 
0.574166 -0.228474 1.139 
0.621751 -0.229276 1.143 
0.669656 -0.230079 1.147 
0.716008 -0.230279 1.148 
0.763767 -0.230881 1.151 
0.807545 -0.230279 1.148 
0.854056 -0.23048 1.149 
0.850525 -0.217843 1.086 
0.865015 -0.210822 1.051 
0.862045 -0.200391 0.999 
0.864859 -0.192167 0.958 
0.865347 -0.184143 0.918 
0.875418 -0.178727 0.891 
-0.469066 -0.123508 0.623 
-0.443516 -0.123309 0.622 
-0.426796 -0.125688 0.634 
-0.427486 -0.133816 0.675 
-0.419565 -0.14016 0.707 
-0.401343 -0.143729 0.725 
-0.375007 -0.14472 0.73 
-0.352537 -0.147496 0.744 
-0.330687 -0.151064 0.762 
-0.35445 -0.210934 1.064 
-0.324934 -0.219657 1.108 
-0.282281 -0.220847 1.114 
-0.238509 -0.221442 1.117 
-0.193976 -0.221442 1.117 
-0.149444 -0.221442 1.117 
-0.105381 -0.222433 1.122 
-0.0608112 -0.223027 1.125 
-0.0160165 -0.22382 1.129 
0.0289944 -0.22382 1.129 
0.0742019 -0.224415 1.132 
0.119543 -0.224812 1.134 
0.164753 -0.224812 1.134 
0.210519 -0.225406 1.137 
0.255624 -0.225208 1.136 
0.301444 -0.225605 1.138 
0.346813 -0.225605 1.138 
0.392183 -0.225605 1.138 
0.438322 -0.226001 1.14 
0.483771 -0.226001 1.14 
0.529685 -0.226199 1.141 
0.574166 -0.225803 1.139 
0.621751 -0.226596 1.143 
0.669656 -0.227389 1.147 
0.716008 -0.227587 1.148 
0.764431 -0.22838 1.152 
0.807545 -0.227587 1.148 
0.854056 -0.227785 1.149 
0.850525 -0.215296 1.086 
0.865838 -0.208555 1.052 
0.864634 -0.198643 1.002 
0.866665 -0.190317 0.96 
0.867232 -0.182387 0.92 
0.875418 -0.176638 0.891 
-0.469772 -0.121851 0.622 
-0.444974 -0.121851 0.622 
-0.427607 -0.124006 0.633 
-0.426526 -0.13145 0.671 
-0.420627 -0.138306 0.706 
-0.403043 -0.142029 0.725 
-0.376719 -0.143008 0.73 
-0.353806 -0.145555 0.743 
-0.331601 -0.148885 0.76 
-0.33719 -0.177095 0.904 
-0.337297 -0.21177 1.081 
-0.302365 -0.217647 1.111 
-0.258768 -0.218234 1.114 
-0.214933 -0.218822 1.117 
-0.1704 -0.218822 1.117 
-0.125755 -0.218626 1.116 
-0.0819177 -0.220389 1.125 
-0.0371322 -0.220781 1.127 
0.00781969 -0.221369 1.13 
0.0530108 -0.221956 1.133 
0.0982678 -0.222152 1.134 
0.143352 -0.221956 1.133 
0.189021 -0.222544 1.136 
0.234311 -0.222544 1.136 
0.279847 -0.22274 1.137 
0.325463 -0.222936 1.138 
0.370833 -0.222936 1.138 
0.416568 -0.223132 1.139 
0.463194 -0.22372 1.142 
0.508724 -0.22372 1.142 
0.553282 -0.223328 1.14 
0.599782 -0.22372 1.142 
0.648136 -0.224699 1.147 
0.69447 -0.224895 1.148 
0.742173 -0.225483 1.151 
0.788061 -0.225483 1.151 
0.833949 -0.225483 1.151 
0.861491 -0.220781 1.127 
0.866208 -0.210986 1.077 
0.86525 -0.200799 1.025 
0.863682 -0.191396 0.977 
0.871221 -0.184735 0.943 
0.868339 -0.176507 0.901 
-0.669832 -0.159297 0.823 
-0.455917 -0.120586 0.623 
-0.433155 -0.121166 0.626 
-0.426456 -0.126586 0.654 
-0.423034 -0.133747 0.691 
-0.411511 -0.139167 0.719 
-0.388703 -0.141296 0.73 
-0.363047 -0.142651 0.737 
-0.342267 -0.146329 0.756 
-0.316255 -0.148264 0.766 
-0.352616 -0.206331 1.066 
-0.322627 -0.214654 1.109 
-0.279668 -0.215622 1.114 
-0.235678 -0.216009 1.116 
-0.191699 -0.21659 1.119 
-0.146824 -0.216202 1.117 
-0.102841 -0.217364 1.123 
-0.0582246 -0.217944 1.126 
-0.0133807 -0.218719 1.13 
0.0316701 -0.218719 1.13 
0.0769245 -0.219299 1.133 
0.12231 -0.219686 1.135 
0.167413 -0.219493 1.134 
0.213373 -0.220267 1.138 
0.258515 -0.220074 1.137 
0.304112 -0.220267 1.138 
0.349482 -0.220267 1.138 
0.394852 -0.220267 1.138 
0.440995 -0.220654 1.14 
0.486871 -0.220848 1.141 
0.532361 -0.220848 1.141 
0.577344 -0.220654 1.14 
0.624978 -0.221428 1.144 
0.672346 -0.222009 1.147 
0.719326 -0.222396 1.149 
0.767132 -0.222977 1.152 
0.810943 -0.222396 1.149 
0.856751 -0.222396 1.149 
0.853857 -0.210396 1.087 
0.86748 -0.203428 1.051 
0.866984 -0.193943 1.002 
0.868011 -0.185621 0.959 
0.868445 -0.177878 0.919 
0.876523 -0.172265 0.89 
-0.466144 -0.119125 0.623 
-0.442015 -0.119316 0.624 
-0.427165 -0.122184 0.639 
-0.426205 -0.129641 0.678 
-0.419193 -0.136142 0.712 
-0.399589 -0.139202 0.728 
-0.372601 -0.139967 0.732 
-0.350455 -0.142835 0.747 
-0.326254 -0.14532 0.76 
-0.335811 -0.173237 0.906 
-0.334071 -0.207847 1.087 
-0.297689 -0.212818 1.113 
-0.253771 -0.2132 1.115 
-0.210069 -0.213965 1.119 
-0.165457 -0.213965 1.119 
-0.120521 -0.213392 1.116 
-0.0766411 -0.215113 1.125 
-0.0319027 -0.215877 1.129 
0.0131082 -0.215877 1.129 
0.0583764 -0.216833 1.134 
0.103678 -0.217025 1.135 
0.148797 -0.216833 1.134 
0.194691 -0.217598 1.138 
0.23985 -0.217407 1.137 
0.285431 -0.217598 1.138 
0.330801 -0.217598 1.138 
0.37617 -0.217598 1.138 
0.42191 -0.217789 1.139 
0.468551 -0.218363 1.142 
0.51408 -0.218363 1.142 
0.559609 -0.218363 1.142 
0.605668 -0.218554 1.143 
0.653516 -0.219319 1.147 
0.699854 -0.21951 1.148 
0.74952 -0.220658 1.154 
0.793459 -0.220084 1.151 
0.840077 -0.220275 1.152 
0.859086 -0.213583 1.117 
0.870451 -0.205743 1.076 
0.86836 -0.195609 1.023 
0.866487 -0.186431 0.975 
0.868216 -0.178782 0.935 
0.867723 -0.171325 0.896 
-0.467605 -0.117663 0.623 
-0.443478 -0.117852 0.624 
-0.427322 -0.120308 0.637 
-0.427164 -0.127862 0.677 
-0.41968 -0.134095 0.71 
-0.401296 -0.137494 0.728 
-0.374318 -0.13825 0.732 
-0.351264 -0.140705 0.745 
-0.328037 -0.143538 0.76 
-0.337936 -0.171113 0.906 
-0.333047 -0.206242 1.092 
-0.295344 -0.210397 1.114 
-0.251156 -0.210586 1.115 
-0.207445 -0.211341 1.119 
-0.162833 -0.211341 1.119 
-0.118009 -0.210963 1.117 
-0.0740028 -0.212474 1.125 
-0.029255 -0.21323 1.129 
