# .PCD v.7 - Point Cloud Data file format
VERSION .7
FIELDS x y z
SIZE 4 4 4
TYPE F F F
COUNT 1 1 1
WIDTH 1827
HEIGHT 1
VIEWPOINT 0 0 0 1 0 0 0
POINTS 1827
DATA ascii
-0.34702 -0.256377 0.736 
-0.316814 -0.25568 0.734 
-0.286376 -0.254635 0.731 
-0.258288 -0.25568 0.734 
-0.231209 -0.258118 0.741 
-0.201667 -0.258118 0.741 
-0.171893 -0.25777 0.74 
-0.141044 -0.255332 0.733 
0.246263 -0.259512 0.745 
0.278928 -0.262298 0.753 
0.304435 -0.258467 0.742 
0.331766 -0.256725 0.737 
0.339736 -0.240353 0.69 
0.335262 -0.215621 0.619 
0.34424 -0.206216 0.592 
0.35293 -0.197856 0.568 
0.376897 -0.198552 0.57 
0.399622 -0.198552 0.57 
0.423829 -0.199249 0.572 
0.445852 -0.198901 0.571 
0.467796 -0.198552 0.57 
0.491381 -0.198901 0.571 
0.515947 -0.199597 0.573 
0.539731 -0.199946 0.574 
0.562616 -0.199946 0.574 
-0.599341 -0.251883 0.728 
-0.568751 -0.251191 0.726 
-0.541294 -0.251883 0.728 
-0.51227 -0.251883 0.728 
-0.485237 -0.252921 0.731 
-0.457342 -0.253612 0.733 
-0.440968 -0.261224 0.755 
-0.409097 -0.261224 0.755 
-0.368957 -0.254304 0.735 
-0.340578 -0.254996 0.737 
-0.309507 -0.253612 0.733 
-0.279901 -0.253267 0.732 
-0.251403 -0.253958 0.734 
-0.223653 -0.255688 0.739 
-0.194716 -0.25638 0.741 
-0.164951 -0.256034 0.74 
-0.133252 -0.251883 0.728 
0.251504 -0.257764 0.745 
0.284225 -0.260532 0.753 
0.308821 -0.256034 0.74 
0.334208 -0.252921 0.731 
0.338996 -0.235967 0.682 
0.337073 -0.213477 0.617 
0.345259 -0.20379 0.589 
0.355594 -0.196524 0.568 
0.378905 -0.19687 0.569 
0.403001 -0.197562 0.571 
0.425766 -0.197562 0.571 
0.447745 -0.197216 0.57 
0.47047 -0.197216 0.57 
0.49406 -0.197562 0.571 
0.518634 -0.198254 0.573 
0.542424 -0.1986 0.574 
0.565308 -0.1986 0.574 
-0.594219 -0.250175 0.728 
-0.562866 -0.249144 0.725 
-0.536172 -0.250175 0.728 
-0.507148 -0.250175 0.728 
-0.480751 -0.25155 0.732 
-0.452801 -0.252237 0.734 
-0.437387 -0.260485 0.758 
-0.402181 -0.258423 0.752 
-0.363786 -0.252581 0.735 
-0.334938 -0.252924 0.736 
-0.30435 -0.251894 0.733 
-0.275877 -0.252581 0.735 
-0.246239 -0.252237 0.734 
-0.218454 -0.253955 0.739 
-0.189247 -0.254299 0.74 
-0.160176 -0.254986 0.742 
-0.12725 -0.248457 0.723 
0.25709 -0.256361 0.746 
0.289523 -0.258766 0.753 
0.314876 -0.254986 0.742 
0.335637 -0.248457 0.723 
0.337745 -0.230244 0.67 
0.33617 -0.212374 0.618 
0.345045 -0.203096 0.591 
0.35622 -0.195535 0.569 
0.378905 -0.195535 0.569 
0.402295 -0.195879 0.57 
0.425766 -0.196223 0.571 
0.447745 -0.195879 0.57 
0.47047 -0.195879 0.57 
0.49406 -0.196223 0.571 
0.518634 -0.19691 0.573 
0.542424 -0.197254 0.574 
0.565308 -0.197254 0.574 
-0.594219 -0.248468 0.728 
-0.562866 -0.247444 0.725 
-0.535435 -0.248127 0.727 
-0.507148 -0.248468 0.728 
-0.480751 -0.249833 0.732 
-0.452801 -0.250516 0.734 
-0.438541 -0.25939 0.76 
-0.403785 -0.257683 0.755 
-0.363786 -0.250857 0.735 
-0.334938 -0.251198 0.736 
-0.30435 -0.250174 0.733 
-0.275877 -0.250857 0.735 
-0.246574 -0.250857 0.735 
-0.218454 -0.252222 0.739 
-0.189247 -0.252564 0.74 
-0.159961 -0.252905 0.741 
0.231776 -0.255635 0.749 
0.260589 -0.254611 0.746 
0.292666 -0.256659 0.752 
0.318785 -0.253588 0.743 
0.335746 -0.244372 0.716 
0.337347 -0.225259 0.66 
0.338314 -0.20956 0.614 
0.344476 -0.198979 0.583 
0.359519 -0.194542 0.57 
0.380903 -0.19386 0.568 
0.404969 -0.194542 0.57 
0.428444 -0.194884 0.571 
0.450418 -0.194542 0.57 
0.473143 -0.194542 0.57 
0.496738 -0.194884 0.571 
0.521322 -0.195566 0.573 
0.545116 -0.195907 0.574 
0.568 -0.195907 0.574 
-0.589097 -0.246761 0.728 
-0.557766 -0.245744 0.725 
-0.53105 -0.246761 0.728 
-0.502716 -0.2471 0.729 
-0.474951 -0.247778 0.731 
-0.451297 -0.250828 0.74 
-0.438324 -0.260658 0.769 
-0.399714 -0.255574 0.754 
-0.360829 -0.249472 0.736 
-0.331036 -0.249133 0.735 
-0.300501 -0.248117 0.732 
-0.2728 -0.249472 0.736 
-0.243127 -0.249133 0.735 
-0.215278 -0.250828 0.74 
-0.185776 -0.250828 0.74 
-0.156696 -0.251506 0.742 
0.232085 -0.254218 0.75 
0.261288 -0.25354 0.748 
0.292666 -0.254896 0.752 
0.318785 -0.251845 0.743 
0.336215 -0.243032 0.717 
0.336817 -0.22439 0.662 
0.337971 -0.208798 0.616 
0.345463 -0.198968 0.587 
0.359519 -0.193205 0.57 
0.380903 -0.192528 0.568 
0.404969 -0.193205 0.57 
0.428444 -0.193544 0.571 
0.450418 -0.193205 0.57 
0.473143 -0.193205 0.57 
0.496738 -0.193544 0.571 
0.521322 -0.194222 0.573 
0.545116 -0.194561 0.574 
0.568 -0.194561 0.574 
-0.589097 -0.245053 0.728 
-0.557766 -0.244044 0.725 
-0.53032 -0.244717 0.727 
-0.502716 -0.24539 0.729 
-0.474951 -0.246063 0.731 
-0.450687 -0.248756 0.739 
-0.438894 -0.259191 0.77 
-0.400774 -0.254479 0.756 
-0.360829 -0.247746 0.736 
-0.330585 -0.247073 0.734 
-0.300501 -0.2464 0.732 
-0.2728 -0.247746 0.736 
-0.243458 -0.247746 0.736 
-0.215278 -0.249093 0.74 
-0.185776 -0.249093 0.74 
-0.156696 -0.249766 0.742 
0.22685 -0.254479 0.756 
0.253931 -0.251449 0.747 
0.285611 -0.253132 0.752 
0.311395 -0.249766 0.742 
0.335003 -0.24539 0.729 
0.339596 -0.228896 0.68 
0.337046 -0.210382 0.625 
0.34459 -0.200284 0.595 
0.353551 -0.191532 0.569 
0.375575 -0.191196 0.568 
0.398921 -0.191532 0.569 
0.422347 -0.191869 0.57 
0.445071 -0.191869 0.57 
0.467796 -0.191869 0.57 
0.490521 -0.191869 0.57 
0.515947 -0.192879 0.573 
0.538791 -0.192879 0.573 
0.562616 -0.193215 0.574 
-0.601048 -0.243346 0.728 
-0.570453 -0.242678 0.726 
-0.540763 -0.242343 0.725 
-0.513977 -0.243346 0.728 
-0.486285 -0.244015 0.73 
-0.457808 -0.244349 0.731 
-0.443325 -0.252706 0.756 
-0.42029 -0.257051 0.769 
-0.373924 -0.246689 0.738 
-0.342168 -0.245017 0.733 
-0.312518 -0.244683 0.732 
-0.283721 -0.245017 0.733 
-0.255887 -0.246355 0.737 
-0.227119 -0.247023 0.739 
-0.198192 -0.247692 0.741 
-0.168194 -0.247023 0.739 
-0.139483 -0.24836 0.743 
0.241992 -0.250031 0.748 
0.27363 -0.251703 0.753 
0.300424 -0.249029 0.745 
0.32791 -0.247357 0.74 
0.340025 -0.235324 0.704 
0.337766 -0.215936 0.646 
0.340449 -0.202231 0.605 
0.34542 -0.190866 0.571 
0.36754 -0.190532 0.57 
0.388895 -0.189863 0.568 
0.412265 -0.190198 0.569 
0.435714 -0.190532 0.57 
0.458439 -0.190532 0.57 
0.481164 -0.190532 0.57 
0.504772 -0.190866 0.571 
0.529385 -0.191535 0.573 
0.553193 -0.191869 0.574 
-0.612157 -0.241307 0.727 
-0.583173 -0.241307 0.727 
-0.55114 -0.239979 0.723 
-0.525928 -0.241639 0.728 
-0.497587 -0.241971 0.729 
-0.469808 -0.242635 0.731 
-0.447899 -0.246618 0.743 
-0.433477 -0.25558 0.77 
-0.394409 -0.250269 0.754 
-0.354684 -0.24363 0.734 
-0.324978 -0.243298 0.733 
-0.295755 -0.243298 0.733 
-0.267986 -0.244626 0.737 
-0.238927 -0.244958 0.738 
-0.209788 -0.24529 0.739 
-0.180326 -0.24529 0.739 
-0.15168 -0.246618 0.743 
0.223009 -0.250601 0.755 
0.251098 -0.248609 0.749 
0.282084 -0.249605 0.752 
0.307915 -0.246286 0.742 
0.332949 -0.242967 0.732 
0.341354 -0.229026 0.69 
0.336654 -0.208115 0.627 
0.343194 -0.197493 0.595 
0.352836 -0.189195 0.57 
0.374243 -0.188531 0.568 
0.397586 -0.188863 0.569 
0.42101 -0.189195 0.57 
0.442956 -0.188863 0.569 
0.466459 -0.189195 0.57 
0.488326 -0.188863 0.569 
0.514603 -0.190191 0.573 
0.537447 -0.190191 0.573 
0.561269 -0.190523 0.574 
-0.599341 -0.239932 0.728 
-0.567967 -0.238943 0.725 
-0.539063 -0.238943 0.725 
-0.51227 -0.239932 0.728 
-0.48391 -0.240261 0.729 
-0.456094 -0.24092 0.731 
-0.442136 -0.249489 0.757 
-0.41903 -0.253774 0.77 
-0.370681 -0.242239 0.735 
-0.339984 -0.24125 0.732 
-0.310801 -0.24125 0.732 
-0.282387 -0.241909 0.734 
-0.254159 -0.242898 0.737 
-0.225081 -0.243227 0.738 
-0.196454 -0.244216 0.741 
-0.166686 -0.243886 0.74 
-0.137926 -0.245205 0.744 
0.233014 -0.248171 0.753 
0.262685 -0.247841 0.752 
0.291887 -0.247182 0.75 
0.318785 -0.244875 0.743 
0.336684 -0.236636 0.718 
0.337326 -0.218509 0.663 
0.33852 -0.203349 0.617 
0.344476 -0.192143 0.583 
0.360856 -0.187858 0.57 
0.382235 -0.187199 0.568 
0.405593 -0.187529 0.569 
0.42903 -0.187858 0.57 
0.450962 -0.187529 0.569 
0.47448 -0.187858 0.57 
0.496332 -0.187529 0.569 
0.521754 -0.188518 0.572 
0.546462 -0.189177 0.574 
0.569346 -0.189177 0.574 
-0.591698 -0.237897 0.727 
-0.559618 -0.236588 0.723 
-0.532262 -0.237243 0.725 
-0.50544 -0.238224 0.728 
-0.477725 -0.238879 0.73 
-0.45108 -0.240188 0.734 
-0.440207 -0.250659 0.766 
-0.410203 -0.250986 0.767 
-0.361077 -0.23986 0.733 
-0.331401 -0.239533 0.732 
-0.302631 -0.23986 0.733 
-0.27378 -0.240188 0.734 
-0.245517 -0.241169 0.737 
-0.216721 -0.241824 0.739 
-0.187512 -0.242151 0.74 
-0.158436 -0.242805 0.742 
-0.129028 -0.243133 0.743 
0.231248 -0.246405 0.753 
0.261268 -0.246405 0.753 
0.290128 -0.245423 0.75 
0.317042 -0.243133 0.743 
0.3364 -0.235934 0.721 
0.338303 -0.21859 0.668 
0.337619 -0.202229 0.618 
0.343697 -0.191103 0.584 
0.357554 -0.186195 0.569 
0.379571 -0.185867 0.568 
0.402924 -0.186195 0.569 
0.426357 -0.186522 0.57 
0.448294 -0.186195 0.569 
0.471806 -0.186522 0.57 
0.493663 -0.186195 0.569 
0.519071 -0.187176 0.572 
0.542822 -0.187503 0.573 
0.566654 -0.187831 0.574 
-0.594289 -0.235867 0.726 
-0.564567 -0.235542 0.725 
-0.535662 -0.235542 0.725 
-0.508855 -0.236517 0.728 
-0.48049 -0.236842 0.729 
-0.453284 -0.237817 0.732 
-0.439744 -0.246588 0.759 
-0.413076 -0.249837 0.769 
-0.360584 -0.237817 0.732 
-0.331401 -0.237817 0.732 
-0.303043 -0.238466 0.734 
-0.27378 -0.238466 0.734 
-0.245517 -0.239441 0.737 
-0.216721 -0.240091 0.739 
-0.187512 -0.240416 0.74 
-0.158436 -0.241065 0.742 
-0.129028 -0.24139 0.743 
0.229482 -0.244639 0.753 
0.259847 -0.244964 0.754 
0.28837 -0.243664 0.75 
0.3153 -0.24139 0.743 
0.336102 -0.235217 0.724 
0.338249 -0.217998 0.671 
0.337619 -0.20078 0.618 
0.3435 -0.190383 0.586 
0.356846 -0.185185 0.57 
0.378239 -0.184535 0.568 
0.400884 -0.184535 0.568 
0.42502 -0.185185 0.57 
0.446959 -0.18486 0.569 
0.47047 -0.185185 0.57 
0.491464 -0.184535 0.568 
0.517729 -0.185835 0.572 
0.541479 -0.18616 0.573 
0.565308 -0.186485 0.574 
-0.591771 -0.233842 0.725 
-0.562866 -0.233842 0.725 
-0.533226 -0.23352 0.724 
-0.507148 -0.23481 0.728 
-0.479437 -0.235455 0.73 
-0.451568 -0.2361 0.732 
-0.438541 -0.245131 0.76 
-0.410203 -0.247389 0.767 
-0.355434 -0.2361 0.732 
-0.326251 -0.2361 0.732 
-0.297879 -0.236745 0.734 
-0.268616 -0.236745 0.734 
-0.240005 -0.23739 0.736 
-0.210949 -0.237713 0.737 
-0.182305 -0.23868 0.74 
-0.153423 -0.239648 0.743 
-0.122058 -0.239648 0.743 
0.234468 -0.242551 0.752 
0.265504 -0.243518 0.755 
0.293255 -0.241583 0.749 
0.320527 -0.239648 0.743 
0.337896 -0.231262 0.717 
0.337858 -0.213199 0.661 
0.338094 -0.197072 0.611 
0.343197 -0.185138 0.574 
0.362892 -0.183526 0.569 
0.384899 -0.183203 0.568 
0.408262 -0.183526 0.569 
0.431704 -0.183848 0.57 
0.454429 -0.183848 0.57 
0.477153 -0.183848 0.57 
0.499001 -0.183526 0.569 
0.524436 -0.184493 0.572 
0.548198 -0.184816 0.573 
-0.613027 -0.231822 0.724 
-0.58497 -0.232142 0.725 
-0.555298 -0.231822 0.724 
-0.527161 -0.232142 0.725 
-0.500319 -0.233102 0.728 
-0.47259 -0.233743 0.73 
-0.450169 -0.237265 0.741 
-0.420276 -0.242068 0.756 
-0.372601 -0.234383 0.732 
-0.343418 -0.234383 0.732 
-0.314234 -0.234383 0.732 
-0.28583 -0.235024 0.734 
-0.257615 -0.235984 0.737 
-0.228542 -0.236304 0.738 
-0.19966 -0.236945 0.74 
-0.170157 -0.236945 0.74 
-0.141605 -0.238546 0.745 
0.21217 -0.239506 0.748 
0.243286 -0.240787 0.752 
0.273993 -0.241427 0.754 
0.300021 -0.238226 0.744 
0.327467 -0.236625 0.739 
0.340508 -0.225738 0.705 
0.337766 -0.206846 0.646 
0.340449 -0.193718 0.605 
0.345286 -0.183472 0.573 
0.364918 -0.181871 0.568 
0.386881 -0.181551 0.567 
0.41093 -0.182191 0.569 
0.434377 -0.182511 0.57 
0.457102 -0.182511 0.57 
0.479827 -0.182511 0.57 
0.50167 -0.182191 0.569 
0.527119 -0.183152 0.572 
0.551847 -0.183792 0.574 
-0.608773 -0.230442 0.725 
-0.579869 -0.230442 0.725 
-0.550205 -0.230124 0.724 
-0.52278 -0.230759 0.726 
-0.495197 -0.231395 0.728 
-0.468094 -0.232349 0.731 
-0.446757 -0.236481 0.744 
-0.374318 -0.232667 0.732 
-0.345134 -0.232667 0.732 
-0.315951 -0.232667 0.732 
-0.287551 -0.233302 0.734 
-0.258992 -0.233938 0.736 
-0.229961 -0.234256 0.737 
-0.201395 -0.235209 0.74 
-0.171893 -0.235209 0.74 
-0.143353 -0.236799 0.745 
-3.08138 -20.8303 65.535 
0.237679 -0.238706 0.751 
0.269045 -0.239977 0.755 
0.295975 -0.237434 0.747 
0.32314 -0.235527 0.741 
0.33888 -0.226309 0.712 
0.338895 -0.208828 0.657 
0.339286 -0.193253 0.608 
0.343197 -0.182446 0.574 
0.362254 -0.180539 0.568 
0.384221 -0.180221 0.567 
0.408262 -0.180857 0.569 
0.431704 -0.181175 0.57 
0.454429 -0.181175 0.57 
0.477153 -0.181175 0.57 
0.498124 -0.180539 0.568 
0.524436 -0.18181 0.572 
0.548198 -0.182128 0.573 
-0.611329 -0.228426 0.724 
-0.58166 -0.22811 0.723 
-0.554365 -0.228741 0.725 
-0.525461 -0.228741 0.725 
-0.498611 -0.229688 0.728 
-0.470878 -0.230319 0.73 
-0.449641 -0.23442 0.743 
-0.414717 -0.235367 0.746 
-0.358377 -0.230634 0.731 
-0.329684 -0.23095 0.732 
-0.302143 -0.232212 0.736 
-0.271318 -0.23095 0.732 
-0.243127 -0.231896 0.735 
-0.214697 -0.232843 0.738 
-0.185776 -0.233474 0.74 
-0.156696 -0.234105 0.742 
-0.127286 -0.23442 0.743 
0.217724 -0.236313 0.749 
0.248907 -0.237575 0.753 
0.278928 -0.237575 0.753 
0.304845 -0.23442 0.743 
0.330866 -0.231896 0.735 
0.340078 -0.218961 0.694 
0.335952 -0.20003 0.634 
0.342692 -0.188988 0.599 
0.349548 -0.179522 0.569 
0.371579 -0.179207 0.568 
0.394224 -0.179207 0.568 
0.418336 -0.179838 0.57 
0.441061 -0.179838 0.57 
0.464599 -0.180154 0.571 
0.485657 -0.179522 0.569 
0.509235 -0.179838 0.57 
0.532893 -0.180154 0.571 
0.558577 -0.1811 0.574 
-0.601972 -0.227041 0.725 
-0.573858 -0.227354 0.726 
-0.544164 -0.227041 0.725 
-0.516681 -0.227667 0.727 
-0.488368 -0.227981 0.728 
-0.461237 -0.22892 0.731 
-0.442733 -0.234557 0.749 
-0.374318 -0.229233 0.732 
-0.344663 -0.22892 0.731 
-0.316383 -0.229546 0.733 
-0.287551 -0.22986 0.734 
-0.25864 -0.230173 0.735 
-0.230273 -0.231112 0.738 
-0.201395 -0.231738 0.74 
-0.171893 -0.231738 0.74 
-0.143353 -0.233304 0.745 
-3.54246 -20.5229 65.535 
0.22475 -0.234557 0.749 
0.256311 -0.236123 0.754 
0.285611 -0.235496 0.752 
0.311815 -0.232678 0.743 
0.334544 -0.227981 0.728 
0.339097 -0.212636 0.679 
0.33435 -0.194159 0.62 
0.342852 -0.185391 0.592 
0.353551 -0.178188 0.569 
0.374913 -0.177562 0.567 
0.39822 -0.177875 0.568 
0.421606 -0.178188 0.569 
0.445071 -0.178501 0.57 
0.467796 -0.178501 0.57 
0.4888 -0.177875 0.568 
0.514146 -0.178814 0.571 
0.53597 -0.178501 0.57 
0.562616 -0.179754 0.574 
-0.596048 -0.22503 0.724 
-0.568751 -0.225652 0.726 
-0.538319 -0.22503 0.724 
-0.511566 -0.225962 0.727 
-0.483246 -0.226273 0.728 
-0.456094 -0.227206 0.731 
-0.439216 -0.233733 0.752 
-0.381363 -0.229692 0.739 
-0.348568 -0.227517 0.732 
-0.319384 -0.227517 0.732 
-0.29139 -0.228449 0.735 
-0.261731 -0.228138 0.734 
-0.233418 -0.229071 0.737 
-0.204866 -0.230003 0.74 
-0.175127 -0.229692 0.739 
-0.14665 -0.231246 0.744 
-0.116516 -0.230314 0.741 
0.219773 -0.233111 0.75 
0.250673 -0.234044 0.753 
0.280694 -0.234044 0.753 
0.306588 -0.230935 0.743 
0.332137 -0.228138 0.734 
0.340228 -0.214773 0.691 
0.336375 -0.196435 0.632 
0.343264 -0.186489 0.6 
0.348934 -0.176543 0.568 
0.370924 -0.176232 0.567 
0.394224 -0.176543 0.568 
0.418336 -0.177165 0.57 
0.441061 -0.177165 0.57 
0.463786 -0.177165 0.57 
0.485657 -0.176854 0.569 
0.509235 -0.177165 0.57 
0.53196 -0.177165 0.57 
0.558577 -0.178408 0.574 
-0.600272 -0.223641 0.725 
-0.571368 -0.223641 0.725 
-0.542463 -0.223641 0.725 
-0.514268 -0.223949 0.726 
-0.48666 -0.224566 0.728 
-0.459522 -0.225491 0.731 
-0.442743 -0.231969 0.752 
-0.403793 -0.228885 0.742 
-0.358377 -0.225491 0.731 
-0.329684 -0.2258 0.732 
-0.302554 -0.227342 0.737 
-0.271318 -0.2258 0.732 
-0.243458 -0.227034 0.736 
-0.214697 -0.227651 0.738 
-0.185776 -0.228268 0.74 
-0.156485 -0.228576 0.741 
-0.127286 -0.229193 0.743 
0.202993 -0.232278 0.753 
0.232085 -0.231352 0.75 
0.263384 -0.232586 0.754 
0.291887 -0.231352 0.75 
0.318785 -0.229193 0.743 
0.336215 -0.221173 0.717 
0.336836 -0.203282 0.659 
0.335559 -0.187858 0.609 
0.343294 -0.179221 0.581 
0.357627 -0.174902 0.567 
0.380232 -0.174902 0.567 
0.403548 -0.175211 0.568 
0.427694 -0.175828 0.57 
0.450418 -0.175828 0.57 
0.472313 -0.175519 0.569 
0.494128 -0.175211 0.568 
0.519502 -0.176136 0.571 
0.542267 -0.176136 0.571 
0.568 -0.177062 0.574 
-0.585936 -0.221022 0.722 
-0.559466 -0.22194 0.725 
-0.52983 -0.221634 0.724 
-0.503733 -0.222859 0.728 
-0.475361 -0.223165 0.729 
-0.45242 -0.226226 0.739 
-0.421762 -0.227451 0.743 
-0.384652 -0.227144 0.742 
-0.349806 -0.223777 0.731 
-0.321101 -0.224083 0.732 
-0.293114 -0.225002 0.735 
-0.263452 -0.224695 0.734 
-0.235146 -0.225614 0.737 
-0.20688 -0.226838 0.741 
-0.17686 -0.226226 0.739 
-0.148195 -0.227451 0.743 
-0.118414 -0.227144 0.742 
0.208291 -0.230512 0.753 
0.237995 -0.230206 0.752 
0.268688 -0.230818 0.754 
0.296768 -0.229287 0.749 
0.323576 -0.227144 0.742 
0.33888 -0.217961 0.712 
0.33838 -0.200818 0.656 
0.33786 -0.186124 0.608 
0.343042 -0.176328 0.576 
0.360287 -0.173573 0.567 
0.382892 -0.173573 0.567 
0.406212 -0.173879 0.568 
0.430367 -0.174491 0.57 
0.453092 -0.174491 0.57 
0.474982 -0.174185 0.569 
0.497667 -0.174185 0.569 
0.52218 -0.174797 0.571 
0.544945 -0.174797 0.571 
0.570692 -0.175716 0.574 
-0.581742 -0.219025 0.721 
-0.556065 -0.22024 0.725 
-0.526434 -0.219936 0.724 
-0.500319 -0.221151 0.728 
-0.471942 -0.221455 0.729 
-0.451384 -0.225708 0.743 
-0.418277 -0.225708 0.743 
-0.386913 -0.225708 0.743 
-0.35152 -0.222063 0.731 
-0.322818 -0.222367 0.732 
-0.294838 -0.223278 0.735 
-0.265174 -0.222974 0.734 
-0.237196 -0.224189 0.738 
-0.208337 -0.224797 0.74 
-0.178593 -0.224493 0.739 
-0.149938 -0.225708 0.743 
-0.120154 -0.225404 0.742 
0.190379 -0.228442 0.752 
0.220359 -0.228442 0.752 
0.25034 -0.228442 0.752 
0.280321 -0.228442 0.752 
0.307 -0.226012 0.744 
0.332137 -0.222974 0.734 
0.339736 -0.209608 0.69 
0.334888 -0.186217 0.613 
0.343697 -0.177407 0.584 
0.356298 -0.172243 0.567 
0.378903 -0.172243 0.567 
0.402216 -0.172547 0.568 
0.426357 -0.173154 0.57 
0.449082 -0.173154 0.57 
0.470979 -0.17285 0.569 
0.493663 -0.17285 0.569 
0.518163 -0.173458 0.571 
0.53998 -0.173154 0.57 
0.566654 -0.174369 0.574 
-0.589322 -0.217636 0.722 
-0.561314 -0.217937 0.723 
-0.533962 -0.21854 0.725 
-0.507148 -0.219444 0.728 
-0.478124 -0.219444 0.728 
-0.452185 -0.220951 0.733 
-0.428681 -0.225774 0.749 
-0.395625 -0.223966 0.743 
-0.359599 -0.220047 0.73 
-0.330948 -0.220348 0.731 
-0.303456 -0.221554 0.735 
-0.274153 -0.221554 0.735 
-0.245517 -0.222157 0.737 
-0.216721 -0.22276 0.739 
-0.187512 -0.223061 0.74 
-0.158009 -0.223061 0.74 
-0.129028 -0.223966 0.743 
-0.0996737 -0.224569 0.745 
0.206525 -0.22698 0.753 
0.235603 -0.226076 0.75 
0.26692 -0.227281 0.754 
0.295405 -0.226076 0.75 
0.321836 -0.223664 0.742 
0.338157 -0.215224 0.714 
0.337864 -0.197439 0.655 
0.340151 -0.182971 0.607 
0.345286 -0.172722 0.573 
0.364276 -0.170913 0.567 
0.386881 -0.170913 0.567 
0.41093 -0.171516 0.569 
0.433615 -0.171516 0.569 
0.4563 -0.171516 0.569 
0.478985 -0.171516 0.569 
0.50167 -0.171516 0.569 
0.525276 -0.171818 0.57 
0.550885 -0.172722 0.573 
-0.614707 -0.217737 0.728 
-0.579247 -0.215344 0.72 
-0.552836 -0.216241 0.723 
-0.523287 -0.215942 0.722 
-0.498611 -0.217737 0.728 
-0.470233 -0.218036 0.729 
-0.450246 -0.222522 0.744 
-0.418277 -0.222223 0.743 
-0.388655 -0.222223 0.743 
-0.352751 -0.218335 0.73 
-0.324534 -0.218933 0.732 
-0.296158 -0.219531 0.734 
-0.267259 -0.21983 0.735 
-0.238927 -0.220728 0.738 
-0.210072 -0.221326 0.74 
-0.180326 -0.221027 0.739 
-0.151476 -0.221924 0.742 
-0.121894 -0.221924 0.742 
-0.0924363 -0.222223 0.743 
0.195669 -0.224915 0.752 
0.22565 -0.224915 0.752 
0.255291 -0.224616 0.751 
0.285232 -0.224616 0.751 
0.312235 -0.222522 0.744 
0.335003 -0.218036 0.729 
0.3361 -0.201287 0.673 
0.334721 -0.184837 0.618 
0.34424 -0.177061 0.592 
0.353638 -0.169583 0.567 
0.376243 -0.169583 0.567 
0.398848 -0.169583 0.567 
0.42294 -0.170182 0.569 
0.445625 -0.170182 0.569 
0.46831 -0.170182 0.569 
0.490995 -0.170182 0.569 
0.514582 -0.170481 0.57 
0.537307 -0.170481 0.57 
0.563962 -0.171677 0.574 
-0.595225 -0.214546 0.723 
-0.565617 -0.214249 0.722 
-0.539806 -0.215436 0.726 
-0.511566 -0.215733 0.727 
-0.483246 -0.21603 0.728 
-0.45547 -0.216623 0.73 
-0.440384 -0.223745 0.754 
-0.402595 -0.220481 0.743 
-0.366949 -0.21692 0.731 
-0.337343 -0.216623 0.73 
-0.309929 -0.21781 0.734 
-0.280666 -0.21781 0.734 
-0.25243 -0.2187 0.737 
-0.223956 -0.21959 0.74 
-0.194453 -0.21959 0.74 
-0.164951 -0.21959 0.74 
-0.135998 -0.220481 0.743 
-0.106519 -0.220777 0.744 
0.0348571 -0.221074 0.745 
0.0768918 -0.221371 0.746 
0.191631 -0.222558 0.75 
0.222123 -0.223151 0.752 
0.251433 -0.222558 0.75 
0.282084 -0.223151 0.752 
0.309575 -0.221371 0.746 
0.332494 -0.21692 0.731 
0.336902 -0.202083 0.681 
0.335719 -0.186355 0.628 
0.344097 -0.17775 0.599 
0.349649 -0.168254 0.567 
0.372911 -0.168551 0.568 
0.394859 -0.168254 0.567 
0.419673 -0.169144 0.57 
0.441622 -0.168847 0.569 
0.463491 -0.168551 0.568 
0.486991 -0.168847 0.569 
0.510572 -0.169144 0.57 
0.533297 -0.169144 0.57 
0.558948 -0.170034 0.573 
-0.602802 -0.213733 0.726 
-0.569906 -0.212261 0.721 
-0.544914 -0.213733 0.726 
-0.513838 -0.21285 0.723 
-0.488368 -0.214322 0.728 
-0.460606 -0.214911 0.73 
-0.443915 -0.221093 0.751 
-0.407822 -0.218738 0.743 
-0.372601 -0.2155 0.732 
-0.342479 -0.214911 0.73 
-0.314234 -0.2155 0.732 
-0.28583 -0.216089 0.734 
-0.257615 -0.216972 0.737 
-0.229162 -0.217855 0.74 
-0.19966 -0.217855 0.74 
-0.170157 -0.217855 0.74 
-0.141225 -0.218738 0.743 
-0.111603 -0.218738 0.743 
0.022627 -0.219327 0.745 
0.0523286 -0.219327 0.745 
0.0857541 -0.219916 0.747 
0.188113 -0.220799 0.75 
0.218886 -0.221682 0.753 
0.247585 -0.220505 0.749 
0.278557 -0.221388 0.752 
0.306897 -0.22021 0.748 
0.330416 -0.216089 0.734 
0.336782 -0.201369 0.684 
0.336118 -0.184294 0.626 
0.344925 -0.17605 0.598 
0.349649 -0.166924 0.567 
0.372911 -0.167218 0.568 
0.394163 -0.16663 0.566 
0.418937 -0.167513 0.569 
0.441622 -0.167513 0.569 
0.463491 -0.167218 0.568 
0.486991 -0.167513 0.569 
0.511468 -0.168102 0.571 
0.533297 -0.167807 0.57 
0.558948 -0.16869 0.573 
-0.597746 -0.211447 0.724 
-0.565739 -0.210279 0.72 
-0.540763 -0.211739 0.725 
-0.511859 -0.211739 0.725 
-0.484953 -0.212615 0.728 
-0.457182 -0.213199 0.73 
-0.441566 -0.219916 0.753 
-0.404337 -0.216996 0.743 
-0.368159 -0.213199 0.73 
-0.339055 -0.213199 0.73 
-0.311226 -0.214075 0.733 
-0.282387 -0.214367 0.734 
-0.254159 -0.215243 0.737 
-0.225691 -0.21612 0.74 
-0.196189 -0.21612 0.74 
-0.166686 -0.21612 0.74 
-0.13774 -0.216996 0.743 
-0.108264 -0.217288 0.744 
0.0069304 -0.218456 0.748 
0.0366042 -0.21758 0.745 
0.0663948 -0.217872 0.746 
0.124128 -0.217872 0.746 
0.15387 -0.217872 0.746 
0.186355 -0.21904 0.75 
0.216832 -0.219624 0.752 
0.245828 -0.218748 0.749 
0.277162 -0.219916 0.753 
0.30555 -0.218748 0.749 
0.329142 -0.214659 0.735 
0.337475 -0.202101 0.692 
0.337103 -0.186622 0.639 
0.342152 -0.176108 0.603 
0.345545 -0.166178 0.569 
0.367582 -0.165886 0.568 
0.388853 -0.165302 0.566 
0.412872 -0.165886 0.568 
0.436284 -0.166178 0.569 
0.458162 -0.165886 0.568 
0.480807 -0.165886 0.568 
0.506111 -0.166763 0.571 
0.52795 -0.166471 0.57 
0.553573 -0.167347 0.573 
-0.609585 -0.210908 0.728 
-0.574181 -0.20859 0.72 
-0.547749 -0.209459 0.723 
-0.517489 -0.20888 0.721 
-0.49349 -0.210908 0.728 
-0.465742 -0.211487 0.73 
-0.446208 -0.216122 0.746 
-0.41535 -0.215543 0.744 
-0.381541 -0.213225 0.736 
-0.349327 -0.211487 0.73 
-0.320662 -0.211777 0.731 
-0.292317 -0.212356 0.733 
-0.263811 -0.212936 0.735 
-0.235784 -0.214094 0.739 
-0.206601 -0.214384 0.74 
-0.177099 -0.214384 0.74 
-0.147996 -0.214964 0.742 
-0.118573 -0.215253 0.743 
-0.0889514 -0.215253 0.743 
-8.62342e-05 -0.216412 0.747 
0.0383514 -0.215833 0.745 
0.0681443 -0.216122 0.746 
0.124128 -0.216122 0.746 
0.15387 -0.216122 0.746 
0.186355 -0.217281 0.75 
0.216832 -0.217861 0.752 
0.2455 -0.216702 0.748 
0.277162 -0.21815 0.753 
0.305958 -0.217281 0.75 
0.329142 -0.212936 0.735 
0.335417 -0.196422 0.678 
0.336118 -0.181357 0.626 
0.344348 -0.172956 0.597 
0.350979 -0.164265 0.567 
0.374243 -0.164554 0.568 
0.39549 -0.163975 0.566 
0.420271 -0.164844 0.569 
0.442178 -0.164554 0.568 
0.464823 -0.164554 0.568 
0.488326 -0.164844 0.569 
0.512807 -0.165423 0.571 
0.534633 -0.165134 0.57 
0.560292 -0.166003 0.573 
-0.587629 -0.207476 0.722 
-0.55807 -0.207189 0.721 
-0.529325 -0.207189 0.721 
-0.50544 -0.2092 0.728 
-0.477071 -0.209488 0.729 
-0.451695 -0.211212 0.735 
-0.431587 -0.21581 0.751 
-0.397367 -0.213511 0.743 
-0.360816 -0.209488 0.729 
-0.332208 -0.209775 0.73 
-0.30435 -0.210637 0.733 
-0.275126 -0.210637 0.733 
-0.247245 -0.211787 0.737 
-0.218158 -0.212074 0.738 
-0.188991 -0.212361 0.739 
-0.159961 -0.212936 0.741 
-0.13077 -0.213511 0.743 
-0.101149 -0.213511 0.743 
-0.0609898 -0.213224 0.742 
-0.0192788 -0.213798 0.744 
0.0226574 -0.214373 0.746 
0.0523988 -0.214373 0.746 
0.0821403 -0.214373 0.746 
0.134986 -0.214948 0.748 
0.164807 -0.214948 0.748 
0.194889 -0.215235 0.749 
0.22505 -0.215522 0.75 
0.254271 -0.214948 0.748 
0.285232 -0.21581 0.751 
0.312654 -0.214086 0.745 
0.334544 -0.2092 0.728 
0.335224 -0.191097 0.665 
0.33617 -0.17759 0.618 
0.345629 -0.170119 0.592 
0.356298 -0.162935 0.567 
0.378903 -0.162935 0.567 
0.401508 -0.162935 0.567 
0.424861 -0.163222 0.568 
0.447506 -0.163222 0.568 
0.470151 -0.163222 0.568 
0.494531 -0.163797 0.57 
0.518163 -0.164084 0.571 
0.540928 -0.164084 0.571 
0.566654 -0.164946 0.574 
-0.581742 -0.205498 0.721 
-0.553764 -0.205783 0.722 
-0.524253 -0.205498 0.721 
-0.500319 -0.207493 0.728 
-0.47259 -0.208063 0.73 
-0.450776 -0.211483 0.742 
-0.423465 -0.212623 0.746 
-0.390557 -0.210913 0.74 
-0.355687 -0.207778 0.729 
-0.327072 -0.208063 0.73 
-0.298784 -0.208633 0.732 
-0.269601 -0.208633 0.732 
-0.24206 -0.210058 0.737 
-0.212966 -0.210343 0.738 
-0.184041 -0.210913 0.74 
-0.154956 -0.211483 0.742 
-0.125543 -0.211768 0.743 
-0.0959212 -0.211768 0.743 
-0.0592497 -0.211483 0.742 
-0.0210236 -0.212053 0.744 
0.00868459 -0.213193 0.748 
0.0384028 -0.212623 0.746 
0.0681443 -0.212623 0.746 
0.113631 -0.212623 0.746 
0.143757 -0.213193 0.748 
0.17381 -0.213479 0.749 
0.203671 -0.213479 0.749 
0.233221 -0.213193 0.748 
0.263745 -0.213764 0.75 
0.293646 -0.213764 0.75 
0.320096 -0.211483 0.742 
0.335069 -0.202648 0.711 
0.338363 -0.186117 0.653 
0.339286 -0.173291 0.608 
0.343197 -0.1636 0.574 
0.361616 -0.161605 0.567 
0.384221 -0.161605 0.567 
0.406827 -0.161605 0.567 
0.430189 -0.16189 0.568 
0.452834 -0.16189 0.568 
0.476316 -0.162175 0.569 
0.500755 -0.162745 0.571 
0.52352 -0.162745 0.571 
0.547241 -0.16303 0.572 
-0.616414 -0.205786 0.728 
-0.57836 -0.203807 0.721 
-0.55114 -0.204372 0.723 
-0.520871 -0.203807 0.721 
-0.496904 -0.205786 0.728 
-0.469166 -0.206351 0.73 
-0.447899 -0.210026 0.743 
-0.419403 -0.210591 0.745 
-0.383947 -0.207482 0.734 
-0.352268 -0.206069 0.729 
-0.323648 -0.206351 0.73 
-0.295351 -0.206917 0.732 
-0.266168 -0.206917 0.732 
-0.238279 -0.208047 0.736 
-0.209504 -0.208613 0.738 
-0.18057 -0.209178 0.74 
-0.151476 -0.209743 0.742 
-0.122058 -0.210026 0.743 
-0.0923119 -0.209743 0.742 
-0.0627299 -0.209743 0.742 
-0.0331926 -0.210026 0.743 
-0.00358512 -0.210874 0.746 
0.0261213 -0.210591 0.745 
0.0558229 -0.210591 0.745 
0.0856393 -0.210874 0.746 
0.115381 -0.210874 0.746 
0.145122 -0.210874 0.746 
0.175567 -0.211722 0.749 
0.205154 -0.211439 0.748 
0.234661 -0.211157 0.747 
0.265504 -0.212005 0.75 
0.295405 -0.212005 0.75 
0.321402 -0.209461 0.741 
0.334368 -0.199567 0.706 
0.33718 -0.181476 0.642 
0.340738 -0.170452 0.603 
0.34699 -0.160276 0.567 
0.369595 -0.160276 0.567 
0.391508 -0.159993 0.566 
0.414805 -0.160276 0.567 
0.438181 -0.160558 0.568 
0.460826 -0.160558 0.568 
0.484323 -0.160841 0.569 
0.50879 -0.161406 0.571 
0.531554 -0.161406 0.571 
0.55626 -0.161972 0.573 
-0.597695 -0.203518 0.726 
-0.563267 -0.201556 0.719 
-0.536089 -0.202116 0.721 
-0.509455 -0.202957 0.724 
-0.48391 -0.204359 0.729 
-0.45547 -0.204639 0.73 
-0.438047 -0.210246 0.75 
-0.405426 -0.208844 0.745 
-0.366646 -0.203798 0.727 
-0.338591 -0.204359 0.729 
-0.310376 -0.20492 0.731 
-0.280848 -0.204639 0.73 
-0.253469 -0.206041 0.735 
-0.224776 -0.206602 0.737 
-0.195924 -0.207162 0.739 
-0.166912 -0.207723 0.741 
-0.13774 -0.208283 0.743 
-0.108118 -0.208283 0.743 
-0.0784966 -0.208283 0.743 
-0.0487432 -0.207723 0.741 
-0.0192788 -0.208564 0.744 
0.0104248 -0.209405 0.747 
0.0401523 -0.209124 0.746 
0.0698001 -0.208844 0.745 
0.0999024 -0.209685 0.748 
0.129203 -0.208844 0.745 
0.159118 -0.209124 0.746 
0.189113 -0.209405 0.747 
0.21948 -0.209965 0.749 
0.248343 -0.209124 0.746 
0.280321 -0.210806 0.752 
0.309063 -0.209965 0.749 
0.331232 -0.2052 0.732 
0.335728 -0.186698 0.666 
0.335082 -0.172682 0.616 
0.344461 -0.165393 0.59 
0.353638 -0.158946 0.567 
0.376243 -0.158946 0.567 
0.398145 -0.158665 0.566 
0.422197 -0.159226 0.568 
0.444842 -0.159226 0.568 
0.467487 -0.159226 0.568 
0.490995 -0.159506 0.569 
0.516388 -0.160347 0.572 
0.537307 -0.159787 0.57 
0.563962 -0.160908 0.574 
-0.588443 -0.200981 0.723 
-0.55807 -0.200425 0.721 
-0.529325 -0.200425 0.721 
-0.504052 -0.201815 0.726 
-0.477071 -0.202649 0.729 
-0.45108 -0.204039 0.734 
-0.431012 -0.208487 0.75 
-0.397367 -0.206541 0.743 
-0.360321 -0.202371 0.728 
-0.331752 -0.202649 0.729 
-0.303934 -0.203483 0.732 
-0.274 -0.202927 0.73 
-0.246574 -0.204317 0.735 
-0.218158 -0.205151 0.738 
-0.189247 -0.205707 0.74 
-0.160176 -0.206263 0.742 
-0.130594 -0.206263 0.742 
-0.101149 -0.206541 0.743 
-0.0715268 -0.206541 0.743 
-0.0418485 -0.206263 0.742 
-0.0122995 -0.206819 0.744 
0.0174089 -0.207375 0.746 
0.0471503 -0.207375 0.746 
0.0768918 -0.207375 0.746 
0.106633 -0.207375 0.746 
0.136192 -0.207097 0.745 
0.166784 -0.208209 0.749 
0.195858 -0.207375 0.746 
0.226506 -0.208209 0.749 
0.255341 -0.207375 0.746 
0.286611 -0.208487 0.75 
0.313558 -0.206541 0.743 
0.33378 -0.199869 0.719 
0.336232 -0.185414 0.667 
0.334342 -0.170125 0.612 
0.342914 -0.16262 0.585 
0.357627 -0.157616 0.567 
0.380232 -0.157616 0.567 
0.402837 -0.157616 0.567 
0.426193 -0.157894 0.568 
0.449628 -0.158172 0.569 
0.471483 -0.157894 0.568 
0.495868 -0.15845 0.57 
0.519502 -0.158728 0.571 
0.542267 -0.158728 0.571 
0.568 -0.159562 0.574 
-0.581742 -0.198735 0.721 
-0.552997 -0.198735 0.721 
-0.52498 -0.19901 0.722 
-0.499631 -0.200388 0.727 
-0.47259 -0.201215 0.73 
-0.449561 -0.203972 0.74 
-0.418216 -0.205625 0.746 
-0.380143 -0.201215 0.73 
-0.350558 -0.20094 0.729 
-0.321495 -0.20094 0.729 
-0.292832 -0.201215 0.73 
-0.26409 -0.201491 0.731 
-0.235911 -0.202318 0.734 
-0.207774 -0.20342 0.738 
-0.179076 -0.204247 0.741 
-0.149736 -0.204523 0.742 
-0.120154 -0.204523 0.742 
-0.0905718 -0.204523 0.742 
-0.061072 -0.204799 0.743 
-0.0314501 -0.204799 0.743 
-0.00183562 -0.205625 0.746 
0.0279059 -0.205625 0.746 
0.0574928 -0.205074 0.744 
0.0875059 -0.205901 0.747 
0.11713 -0.205625 0.746 
0.146675 -0.20535 0.745 
0.177323 -0.206452 0.749 
0.206355 -0.205625 0.746 
0.236413 -0.205901 0.747 
0.267263 -0.206728 0.75 
0.297164 -0.206728 0.75 
0.322268 -0.203696 0.739 
0.335072 -0.194049 0.704 
0.33838 -0.180818 0.656 
0.33903 -0.166761 0.605 
0.342742 -0.157389 0.571 
0.362946 -0.156286 0.567 
0.384871 -0.156011 0.566 
0.408156 -0.156286 0.567 
0.431521 -0.156562 0.568 
0.454966 -0.156838 0.569 
0.477651 -0.156838 0.569 
0.501215 -0.157113 0.57 
0.524859 -0.157389 0.571 
0.547623 -0.157389 0.571 
-0.609613 -0.19841 0.726 
-0.57587 -0.19677 0.72 
-0.548685 -0.197317 0.722 
-0.52062 -0.19759 0.723 
-0.494517 -0.198683 0.727 
-0.467454 -0.199503 0.73 
-0.445556 -0.202783 0.742 
-0.412968 -0.203876 0.746 
-0.372952 -0.19841 0.726 
-0.34543 -0.19923 0.729 
-0.3168 -0.199503 0.73 
-0.287696 -0.199503 0.73 
-0.259301 -0.20005 0.732 
-0.231061 -0.20087 0.735 
-0.202307 -0.201416 0.737 
-0.174097 -0.202783 0.742 
-0.14471 -0.203056 0.743 
-0.114779 -0.20251 0.741 
-0.0853514 -0.202783 0.742 
-0.0557694 -0.202783 0.742 
-0.0262227 -0.203056 0.743 
0.00341288 -0.203876 0.746 
0.0331544 -0.203876 0.746 
0.0626429 -0.203056 0.743 
0.0927615 -0.204149 0.747 
0.122379 -0.203876 0.746 
0.15212 -0.203876 0.746 
0.182349 -0.204423 0.748 
0.211887 -0.204149 0.747 
0.241345 -0.203876 0.746 
0.272903 -0.205242 0.751 
0.303247 -0.205516 0.752 
0.325695 -0.20087 0.735 
0.334229 -0.189118 0.692 
0.338289 -0.17682 0.647 
0.34045 -0.163975 0.6 
0.34433 -0.154957 0.567 
0.366935 -0.154957 0.567 
0.388853 -0.154683 0.566 
0.412145 -0.154957 0.567 
0.434751 -0.154957 0.567 
0.458969 -0.155503 0.569 
0.481654 -0.155503 0.569 
0.506111 -0.15605 0.571 
0.528876 -0.15605 0.571 
0.552607 -0.156323 0.572 
-0.609613 -0.196708 0.726 
-0.57587 -0.195082 0.72 
-0.547925 -0.195353 0.721 
-0.52134 -0.196166 0.724 
-0.493836 -0.196708 0.726 
-0.467454 -0.197791 0.73 
-0.445556 -0.201043 0.742 
-0.412968 -0.202126 0.746 
-0.372952 -0.196708 0.726 
-0.34543 -0.19752 0.729 
-0.3168 -0.197791 0.73 
-0.287696 -0.197791 0.73 
-0.259301 -0.198333 0.732 
-0.231061 -0.199146 0.735 
-0.202032 -0.199417 0.736 
-0.173863 -0.200772 0.741 
-0.14471 -0.201314 0.743 
-0.114779 -0.200772 0.741 
-0.0854665 -0.201314 0.743 
-0.0557694 -0.201043 0.742 
-0.026258 -0.201585 0.744 
0.00341288 -0.202126 0.746 
0.0331544 -0.202126 0.746 
0.0626429 -0.201314 0.743 
0.0926373 -0.202126 0.746 
0.122379 -0.202126 0.746 
0.15212 -0.202126 0.746 
0.182105 -0.202397 0.747 
0.211603 -0.202126 0.746 
0.241345 -0.202126 0.746 
0.272903 -0.203481 0.751 
0.303247 -0.203752 0.752 
0.325695 -0.199146 0.735 
0.334229 -0.187495 0.692 
0.337766 -0.175032 0.646 
0.341287 -0.162297 0.599 
0.34566 -0.153627 0.567 
0.367615 -0.153356 0.566 
0.390181 -0.153356 0.566 
0.413475 -0.153627 0.567 
0.43608 -0.153627 0.567 
0.460303 -0.154169 0.569 
0.482988 -0.154169 0.569 
0.506562 -0.15444 0.57 
0.529286 -0.15444 0.57 
0.553948 -0.154982 0.572 
-0.60791 -0.195005 0.726 
-0.574181 -0.193393 0.72 
-0.546992 -0.193931 0.722 
-0.519642 -0.194468 0.724 
-0.492134 -0.195005 0.726 
-0.465742 -0.196079 0.73 
-0.444414 -0.199571 0.743 
-0.412968 -0.200377 0.746 
-0.372952 -0.195005 0.726 
-0.34543 -0.195811 0.729 
-0.316366 -0.195811 0.729 
-0.287696 -0.196079 0.73 
-0.258947 -0.196348 0.731 
-0.231061 -0.197422 0.735 
-0.202032 -0.197691 0.736 
-0.173863 -0.199034 0.741 
-0.14471 -0.199571 0.743 
-0.114779 -0.199034 0.741 
-0.0854665 -0.199571 0.743 
-0.0557694 -0.199303 0.742 
-0.026258 -0.19984 0.744 
0.00341288 -0.200377 0.746 
0.0331544 -0.200377 0.746 
0.0626429 -0.199571 0.743 
0.0926373 -0.200377 0.746 
0.122379 -0.200377 0.746 
0.15212 -0.200377 0.746 
0.181862 -0.200377 0.746 
0.211603 -0.200377 0.746 
0.241345 -0.200377 0.746 
0.27254 -0.201451 0.75 
0.303247 -0.201989 0.752 
0.325695 -0.197422 0.735 
0.334229 -0.185872 0.692 
0.336048 -0.171099 0.637 
0.341224 -0.159549 0.594 
0.347705 -0.152029 0.566 
0.37027 -0.152029 0.566 
0.392835 -0.152029 0.566 
0.416868 -0.152566 0.568 
0.439513 -0.152566 0.568 
0.462972 -0.152834 0.569 
0.485657 -0.152834 0.569 
0.509235 -0.153103 0.57 
0.53196 -0.153103 0.57 
0.556631 -0.15364 0.572 
-0.604505 -0.193302 0.726 
-0.571597 -0.191971 0.721 
-0.543605 -0.192237 0.722 
-0.51696 -0.193036 0.725 
-0.489402 -0.193569 0.727 
-0.462318 -0.194367 0.73 
-0.441522 -0.198095 0.744 
-0.409469 -0.198627 0.746 
-0.369038 -0.193036 0.725 
-0.34201 -0.194101 0.729 
-0.312947 -0.194101 0.729 
-0.284272 -0.194367 0.73 
-0.255868 -0.1949 0.732 
-0.227923 -0.195965 0.736 
-0.198311 -0.195699 0.735 
-0.170387 -0.197296 0.741 
-0.141035 -0.197562 0.742 
-0.111303 -0.197296 0.741 
-0.0819815 -0.197829 0.743 
-0.0522892 -0.197562 0.742 
-0.0227684 -0.198095 0.744 
0.00691187 -0.198627 0.746 
0.0366533 -0.198627 0.746 
0.0661278 -0.197829 0.743 
0.0960074 -0.198361 0.745 
0.125878 -0.198627 0.746 
0.155619 -0.198627 0.746 
0.185361 -0.198627 0.746 
0.215679 -0.19916 0.748 
0.244844 -0.198627 0.746 
0.276057 -0.199692 0.75 
0.306366 -0.199959 0.751 
0.327799 -0.1949 0.732 
0.333573 -0.18212 0.684 
0.334778 -0.167475 0.629 
0.340887 -0.157358 0.591 
0.349032 -0.150701 0.566 
0.371598 -0.150701 0.566 
0.394859 -0.150968 0.567 
0.418201 -0.151234 0.568 
0.440846 -0.151234 0.568 
0.464307 -0.1515 0.569 
0.486136 -0.151234 0.568 
0.510572 -0.151766 0.57 
0.533297 -0.151766 0.57 
0.557972 -0.152299 0.572 
-0.602802 -0.1916 0.726 
-0.569906 -0.19028 0.721 
-0.542663 -0.190808 0.723 
-0.515259 -0.191336 0.725 
-0.487697 -0.191864 0.727 
-0.460606 -0.192655 0.73 
-0.44096 -0.196878 0.746 
-0.407719 -0.196878 0.746 
-0.367338 -0.191336 0.725 
-0.340301 -0.192391 0.729 
-0.311237 -0.192391 0.729 
-0.28256 -0.192655 0.73 
-0.254151 -0.193183 0.732 
-0.226197 -0.194239 0.736 
-0.196587 -0.193975 0.735 
-0.168422 -0.195294 0.74 
-0.139295 -0.195822 0.742 
-0.109713 -0.195822 0.742 
-0.0802391 -0.196086 0.743 
-0.0506172 -0.196086 0.743 
-0.0210518 -0.196614 0.745 
0.00864976 -0.196614 0.745 
0.0383514 -0.196614 0.745 
0.0678703 -0.196086 0.743 
0.0977546 -0.196614 0.745 
0.127627 -0.196878 0.746 
0.15758 -0.197142 0.747 
0.186859 -0.196614 0.745 
0.217433 -0.197406 0.748 
0.246593 -0.196878 0.746 
0.277446 -0.19767 0.749 
0.307717 -0.197934 0.75 
0.329065 -0.192919 0.731 
0.333707 -0.179724 0.681 
0.334778 -0.166 0.629 
0.340887 -0.155972 0.591 
0.349032 -0.149374 0.566 
0.371598 -0.149374 0.566 
0.394859 -0.149638 0.567 
0.418201 -0.149902 0.568 
0.440846 -0.149902 0.568 
0.464307 -0.150166 0.569 
0.486136 -0.149902 0.568 
0.509676 -0.150166 0.569 
0.533297 -0.15043 0.57 
0.556997 -0.150693 0.571 
-0.601972 -0.189636 0.725 
-0.569906 -0.188589 0.721 
-0.542663 -0.189112 0.723 
-0.515259 -0.189636 0.725 
-0.487026 -0.189897 0.726 
-0.460606 -0.190943 0.73 
-0.44096 -0.195128 0.746 
-0.40892 -0.194867 0.745 
-0.368529 -0.189374 0.724 
-0.34201 -0.190682 0.729 
-0.312947 -0.190682 0.729 
-0.284272 -0.190943 0.73 
-0.255518 -0.191205 0.731 
-0.227613 -0.192251 0.735 
-0.198041 -0.19199 0.734 
-0.170157 -0.193559 0.74 
-0.141035 -0.194082 0.742 
-0.111303 -0.193821 0.741 
-0.0819815 -0.194344 0.743 
-0.0523597 -0.194344 0.743 
-0.022799 -0.194867 0.745 
0.00689334 -0.194605 0.744 
0.0366042 -0.194867 0.745 
0.0661278 -0.194344 0.743 
0.0960074 -0.194867 0.745 
0.125878 -0.195128 0.746 
0.155828 -0.19539 0.747 
0.185361 -0.195128 0.746 
0.215679 -0.195652 0.748 
0.2455 -0.195652 0.748 
0.275689 -0.195913 0.749 
0.305958 -0.196175 0.75 
0.327799 -0.191467 0.732 
0.334549 -0.179435 0.686 
0.336048 -0.166618 0.637 
0.339315 -0.156417 0.598 
0.34433 -0.148308 0.567 
0.366288 -0.148047 0.566 
0.388853 -0.148047 0.566 
0.412872 -0.14857 0.568 
0.434751 -0.148308 0.567 
0.458969 -0.148831 0.569 
0.480807 -0.14857 0.568 
0.504339 -0.148831 0.569 
0.527023 -0.148831 0.569 
0.550674 -0.149093 0.57 
-0.607073 -0.187935 0.725 
-0.573384 -0.18638 0.719 
-0.546992 -0.187158 0.722 
-0.52036 -0.187935 0.725 
-0.4901 -0.187417 0.723 
-0.465742 -0.189231 0.73 
-0.445012 -0.192861 0.744 
-0.414161 -0.19312 0.745 
-0.371925 -0.187676 0.724 
-0.34543 -0.188972 0.729 
-0.316366 -0.188972 0.729 
-0.287696 -0.189231 0.73 
-0.258947 -0.189491 0.731 
-0.231061 -0.190528 0.735 
-0.200934 -0.18975 0.732 
-0.173628 -0.191824 0.74 
-0.144515 -0.192342 0.742 
-0.114779 -0.192083 0.741 
-0.0854665 -0.192601 0.743 
-0.0558446 -0.192601 0.743 
-0.026258 -0.192861 0.744 
0.00340373 -0.192861 0.744 
0.0331099 -0.19312 0.745 
0.0626429 -0.192601 0.743 
0.0925131 -0.19312 0.745 
0.122379 -0.193379 0.746 
0.152324 -0.193638 0.747 
0.181862 -0.193379 0.746 
0.211887 -0.193638 0.747 
0.242639 -0.194416 0.75 
0.27254 -0.194416 0.75 
0.302844 -0.194675 0.751 
0.325252 -0.190268 0.734 
0.334881 -0.178863 0.69 
0.33613 -0.165902 0.64 
0.338478 -0.155273 0.599 
0.343 -0.146978 0.567 
0.365606 -0.146978 0.567 
0.387526 -0.146719 0.566 
0.410816 -0.146978 0.567 
0.433421 -0.146978 0.567 
0.457635 -0.147497 0.569 
0.479475 -0.147238 0.568 
0.50212 -0.147238 0.568 
0.525689 -0.147497 0.569 
0.549338 -0.147756 0.57 
-0.608773 -0.186235 0.725 
-0.57507 -0.184694 0.719 
-0.548685 -0.185464 0.722 
-0.52206 -0.186235 0.725 
-0.491796 -0.185721 0.723 
-0.467454 -0.187519 0.73 
-0.446757 -0.191116 0.744 
-0.415909 -0.191373 0.745 
-0.376876 -0.186749 0.727 
-0.348849 -0.187263 0.729 
-0.319346 -0.187006 0.728 
-0.29112 -0.187519 0.73 
-0.262017 -0.187519 0.73 
-0.234189 -0.188547 0.734 
-0.204368 -0.188033 0.732 
-0.177099 -0.190088 0.74 
-0.147996 -0.190602 0.742 
-0.118254 -0.190345 0.741 
-0.0889514 -0.190859 0.743 
-0.0592497 -0.190602 0.742 
-0.0297476 -0.191116 0.744 
-8.57725e-05 -0.190859 0.743 
0.0295758 -0.191116 0.744 
0.059158 -0.190859 0.743 
0.0890188 -0.191373 0.745 
0.11872 -0.191373 0.745 
0.14882 -0.191886 0.747 
0.178363 -0.191629 0.746 
0.208383 -0.191886 0.747 
0.23944 -0.192914 0.751 
0.268663 -0.1924 0.749 
0.29972 -0.193171 0.752 
0.322247 -0.188804 0.735 
0.333375 -0.179043 0.697 
0.337845 -0.167483 0.652 
0.337053 -0.155153 0.604 
0.342001 -0.146933 0.572 
0.361616 -0.145649 0.567 
0.383544 -0.145392 0.566 
0.406827 -0.145649 0.567 
0.430189 -0.145906 0.568 
0.453631 -0.146162 0.569 
0.474642 -0.145649 0.567 
0.498124 -0.145906 0.568 
0.520769 -0.145906 0.568 
0.545327 -0.146419 0.57 
-0.615574 -0.184535 0.725 
-0.582624 -0.183262 0.72 
-0.554688 -0.183517 0.721 
-0.528132 -0.18428 0.724 
-0.497199 -0.183517 0.721 
-0.473652 -0.185553 0.729 
-0.451297 -0.188353 0.74 
-0.422329 -0.189371 0.744 
-0.388973 -0.187589 0.737 
-0.355199 -0.185298 0.728 
-0.326624 -0.185553 0.729 
-0.297968 -0.185807 0.73 
-0.268864 -0.185807 0.73 
-0.241075 -0.186826 0.734 
-0.211812 -0.186826 0.734 
-0.183295 -0.187589 0.737 
-0.154747 -0.188607 0.741 
-0.125036 -0.188353 0.74 
-0.0957921 -0.188862 0.742 
-0.0662101 -0.188862 0.742 
-0.0366775 -0.189116 0.743 
-0.00706512 -0.189371 0.744 
0.0225966 -0.189371 0.744 
0.0522583 -0.189371 0.744 
0.0820302 -0.189625 0.745 
0.111582 -0.189371 0.744 
0.141623 -0.18988 0.746 
0.171365 -0.18988 0.746 
0.201376 -0.190135 0.747 
0.232704 -0.191407 0.752 
0.261637 -0.190644 0.749 
0.291887 -0.190898 0.75 
0.317927 -0.188607 0.741 
0.331526 -0.179953 0.707 
0.335799 -0.16799 0.66 
0.335559 -0.155009 0.609 
0.341522 -0.147119 0.578 
0.357627 -0.144319 0.567 
0.379562 -0.144064 0.566 
0.402837 -0.144319 0.567 
0.426943 -0.144828 0.569 
0.448838 -0.144573 0.568 
0.470653 -0.144319 0.567 
0.494128 -0.144573 0.568 
0.517683 -0.144828 0.569 
0.541317 -0.145083 0.57 
0.564042 -0.145083 0.57 
-0.583501 -0.181321 0.719 
-0.556379 -0.181826 0.721 
-0.52983 -0.182582 0.724 
-0.499582 -0.182078 0.722 
-0.475361 -0.183843 0.729 
-0.450583 -0.185609 0.736 
-0.425819 -0.187626 0.744 
-0.395092 -0.187122 0.742 
-0.358614 -0.183591 0.728 
-0.330043 -0.183843 0.729 
-0.301392 -0.184096 0.73 
-0.272288 -0.184096 0.73 
-0.244184 -0.184852 0.733 
-0.215254 -0.185104 0.734 
-0.186245 -0.185356 0.735 
-0.158009 -0.186617 0.74 
-0.128507 -0.186617 0.74 
-0.0991386 -0.18687 0.741 
-0.0695964 -0.18687 0.741 
-0.0401624 -0.187374 0.743 
-0.0105547 -0.187626 0.744 
0.019107 -0.187626 0.744 
0.0488343 -0.187878 0.745 
0.0785359 -0.187878 0.745 
0.108092 -0.187626 0.744 
0.138124 -0.18813 0.746 
0.167866 -0.18813 0.746 
0.197872 -0.188383 0.747 
0.229177 -0.189644 0.752 
0.258469 -0.189139 0.75 
0.28837 -0.189139 0.75 
0.3153 -0.187374 0.743 
0.332201 -0.179556 0.712 
0.336277 -0.167451 0.664 
0.334131 -0.153581 0.609 
0.341522 -0.145763 0.578 
0.357627 -0.142989 0.567 
0.379562 -0.142737 0.566 
0.402837 -0.142989 0.567 
0.426943 -0.143494 0.569 
0.448838 -0.143241 0.568 
0.470653 -0.142989 0.567 
0.494128 -0.143241 0.568 
0.517683 -0.143494 0.569 
0.541317 -0.143746 0.57 
0.564042 -0.143746 0.57 
-0.587689 -0.179885 0.72 
-0.559761 -0.180135 0.721 
-0.532489 -0.180635 0.723 
-0.502968 -0.180385 0.722 
-0.478124 -0.181884 0.728 
-0.450951 -0.182633 0.731 
-0.429886 -0.186131 0.745 
-0.399647 -0.185881 0.744 
-0.361531 -0.181634 0.727 
-0.333462 -0.182134 0.729 
-0.304398 -0.182134 0.729 
-0.275712 -0.182384 0.73 
-0.247622 -0.183133 0.733 
-0.218399 -0.183133 0.733 
-0.189434 -0.183383 0.734 
-0.161044 -0.184382 0.738 
-0.131978 -0.184882 0.74 
-0.102614 -0.185132 0.741 
-0.0731706 -0.185382 0.742 
-0.0435886 -0.185382 0.742 
-0.0140632 -0.186131 0.745 
0.0155964 -0.185631 0.743 
0.04534 -0.186131 0.745 
0.0749409 -0.185881 0.744 
0.104603 -0.185881 0.744 
0.134625 -0.186381 0.746 
0.164587 -0.186631 0.747 
0.194368 -0.186631 0.747 
0.22565 -0.18788 0.752 
0.254951 -0.18738 0.75 
0.284852 -0.18738 0.75 
0.312235 -0.185881 0.744 
0.33117 -0.179136 0.717 
0.335672 -0.167143 0.669 
0.333994 -0.153402 0.614 
0.342914 -0.146157 0.585 
0.357627 -0.14166 0.567 
0.379562 -0.14141 0.566 
0.402837 -0.14166 0.567 
0.426943 -0.142159 0.569 
0.448838 -0.141909 0.568 
0.470653 -0.14166 0.567 
0.494128 -0.141909 0.568 
0.517683 -0.142159 0.569 
0.541317 -0.142409 0.57 
0.564042 -0.142409 0.57 
-0.585187 -0.177949 0.719 
-0.55807 -0.178444 0.721 
-0.530794 -0.178939 0.723 
-0.501275 -0.178692 0.722 
-0.476417 -0.180177 0.728 
-0.45108 -0.181662 0.734 
-0.426989 -0.183889 0.743 
-0.397367 -0.183889 0.743 
-0.360321 -0.180177 0.728 
-0.331752 -0.180424 0.729 
-0.302689 -0.180424 0.729 
-0.274376 -0.180919 0.731 
-0.245568 -0.181167 0.732 
-0.21668 -0.181414 0.733 
-0.187713 -0.181662 0.734 
-0.159313 -0.182652 0.738 
-0.130242 -0.183146 0.74 
-0.100876 -0.183394 0.741 
-0.0713342 -0.183394 0.741 
-0.0418485 -0.183641 0.742 
-0.0122995 -0.184136 0.744 
0.0173622 -0.184136 0.744 
0.0470871 -0.184384 0.745 
0.0766857 -0.184136 0.744 
0.106347 -0.184136 0.744 
0.136375 -0.184631 0.746 
0.166562 -0.185126 0.748 
0.196645 -0.185374 0.749 
0.227414 -0.186116 0.752 
0.256367 -0.185374 0.749 
0.286611 -0.185621 0.75 
0.313558 -0.183889 0.743 
0.33117 -0.177454 0.717 
0.335672 -0.165574 0.669 
0.33345 -0.151715 0.613 
0.343877 -0.145775 0.589 
0.356298 -0.14033 0.567 
0.378234 -0.140082 0.566 
0.401508 -0.14033 0.567 
0.425609 -0.140825 0.569 
0.447506 -0.140577 0.568 
0.470151 -0.140577 0.568 
0.492796 -0.140577 0.568 
0.516348 -0.140825 0.569 
0.53998 -0.141072 0.57 
0.562705 -0.141072 0.57 
-0.585187 -0.176263 0.719 
-0.55807 -0.176753 0.721 
-0.530059 -0.176998 0.722 
-0.501969 -0.177244 0.723 
-0.475762 -0.178224 0.727 
-0.45108 -0.17994 0.734 
-0.426989 -0.182147 0.743 
-0.396832 -0.181901 0.742 
-0.360321 -0.178469 0.728 
-0.331752 -0.178714 0.729 
-0.302689 -0.178714 0.729 
-0.274376 -0.179205 0.731 
-0.245568 -0.17945 0.732 
-0.21668 -0.179695 0.733 
-0.187713 -0.17994 0.734 
-0.159313 -0.180921 0.738 
-0.130242 -0.181411 0.74 
-0.10074 -0.181411 0.74 
-0.0713342 -0.181656 0.741 
-0.0419049 -0.182147 0.743 
-0.0122995 -0.182392 0.744 
0.0173389 -0.182147 0.743 
0.0470871 -0.182637 0.745 
0.0766857 -0.182392 0.744 
0.106347 -0.182392 0.744 
0.136375 -0.182882 0.746 
0.166562 -0.183372 0.748 
0.196645 -0.183617 0.749 
0.227414 -0.184353 0.752 
0.256367 -0.183617 0.749 
0.286611 -0.183863 0.75 
0.313558 -0.182147 0.743 
0.33117 -0.175773 0.717 
0.335672 -0.164005 0.669 
0.333638 -0.151012 0.616 
0.343659 -0.144884 0.591 
0.354342 -0.138755 0.566 
0.376907 -0.138755 0.566 
0.400178 -0.139 0.567 
0.423529 -0.139245 0.568 
0.446174 -0.139245 0.568 
0.468819 -0.139245 0.568 
0.492329 -0.13949 0.569 
0.515014 -0.13949 0.569 
0.538644 -0.139736 0.57 
0.561368 -0.139736 0.57 
-0.583501 -0.174577 0.719 
-0.556379 -0.175062 0.721 
-0.529098 -0.175548 0.723 
-0.500274 -0.175548 0.723 
-0.474057 -0.176519 0.727 
-0.451195 -0.178947 0.737 
-0.425247 -0.180404 0.743 
-0.394027 -0.179676 0.74 
-0.358614 -0.176762 0.728 
-0.330043 -0.177005 0.729 
-0.300979 -0.177005 0.729 
-0.273034 -0.177733 0.732 
-0.243851 -0.177733 0.732 
-0.215254 -0.178219 0.734 
-0.185991 -0.178219 0.734 
-0.158009 -0.179676 0.74 
-0.128681 -0.179918 0.741 
-0.0991386 -0.179918 0.741 
-0.0695964 -0.179918 0.741 
-0.0401624 -0.180404 0.743 
-0.0105405 -0.180404 0.743 
0.019107 -0.180647 0.744 
0.0487687 -0.180647 0.744 
0.0784305 -0.180647 0.744 
0.108092 -0.180647 0.744 
0.138124 -0.181132 0.746 
0.168541 -0.181861 0.749 
0.198402 -0.181861 0.749 
0.229177 -0.182589 0.752 
0.258124 -0.181861 0.749 
0.28837 -0.182104 0.75 
0.3153 -0.180404 0.743 
0.333134 -0.173363 0.714 
0.334758 -0.160494 0.661 
