# .PCD v.7 - Point Cloud Data file format
VERSION .7
FIELDS x y z
SIZE 4 4 4
TYPE F F F
COUNT 1 1 1
WIDTH 1843
HEIGHT 1
VIEWPOINT 0 0 0 1 0 0 0
POINTS 1843
DATA ascii
-0.4276 -0.393959 0.974 
-0.403748 -0.417823 1.033 
-0.376943 -0.4429 1.095 
-0.334834 -0.455035 1.125 
-0.300721 -0.484561 1.198 
-0.261235 -0.516919 1.278 
-0.212082 -0.543615 1.344 
-0.15344 -0.558176 1.38 
-0.0964801 -0.604286 1.494 
-0.029288 -0.659295 1.63 
0.0497229 -0.702169 1.736 
0.132143 -0.710258 1.756 
0.214844 -0.71309 1.763 
0.301567 -0.724011 1.79 
0.385429 -0.72482 1.792 
0.467123 -0.721988 1.785 
0.55803 -0.7321 1.81 
0.641685 -0.731291 1.808 
0.728767 -0.734123 1.815 
0.820983 -0.740999 1.832 
0.9133 -0.746661 1.846 
0.993387 -0.742212 1.835 
1.09538 -0.753537 1.863 
1.17777 -0.750706 1.856 
1.28267 -0.761627 1.883 
1.3719 -0.762436 1.885 
1.47137 -0.768503 1.9 
1.55172 -0.764458 1.89 
1.67279 -0.779828 1.928 
1.76265 -0.779828 1.928 
1.84291 -0.775783 1.918 
-0.603862 -0.289701 0.719 
-0.575901 -0.292521 0.726 
-0.566702 -0.305817 0.759 
-0.550225 -0.316696 0.786 
-0.534499 -0.32959 0.818 
-0.514576 -0.341677 0.848 
-0.496898 -0.357391 0.887 
-0.470415 -0.374717 0.93 
-0.441762 -0.387611 0.962 
-0.409714 -0.400101 0.993 
-0.383162 -0.429111 1.065 
-0.348554 -0.448452 1.113 
-0.318002 -0.480685 1.193 
-0.272953 -0.500026 1.241 
-0.227763 -0.529439 1.314 
-0.174628 -0.555226 1.378 
-0.115766 -0.582222 1.445 
-0.0535407 -0.643869 1.598 
0.0224496 -0.690205 1.713 
0.104503 -0.705113 1.75 
0.187772 -0.711559 1.766 
0.271462 -0.715186 1.775 
0.354993 -0.716797 1.779 
0.440129 -0.720424 1.788 
0.527859 -0.726468 1.803 
0.614952 -0.730094 1.812 
0.70134 -0.732108 1.817 
0.794683 -0.740167 1.837 
0.882702 -0.742181 1.842 
0.964352 -0.738958 1.834 
1.07159 -0.754269 1.872 
1.14894 -0.747822 1.856 
1.25142 -0.757493 1.88 
1.33905 -0.757493 1.88 
1.45324 -0.771595 1.915 
1.53444 -0.767566 1.905 
1.64454 -0.777639 1.93 
1.73719 -0.778847 1.933 
1.81689 -0.774415 1.922 
1.91441 -0.777639 1.93 
-0.588309 -0.291393 0.726 
-0.577382 -0.303434 0.756 
-0.559356 -0.313067 0.78 
-0.539762 -0.323101 0.805 
-0.520958 -0.335142 0.835 
-0.502244 -0.34919 0.87 
-0.479363 -0.36685 0.914 
-0.453486 -0.380898 0.949 
-0.423052 -0.393742 0.981 
-0.392894 -0.415014 1.034 
-0.363665 -0.439899 1.096 
-0.328266 -0.461974 1.151 
-0.286347 -0.488063 1.216 
-0.242135 -0.514554 1.282 
-0.195326 -0.551078 1.373 
-0.135156 -0.567133 1.413 
-0.0756712 -0.619311 1.543 
-0.00407975 -0.673495 1.678 
0.0773132 -0.702394 1.75 
0.160152 -0.708013 1.764 
0.241961 -0.706809 1.761 
0.32901 -0.717646 1.788 
0.414655 -0.721659 1.798 
0.496797 -0.719251 1.792 
0.587123 -0.72768 1.813 
0.67348 -0.729687 1.818 
0.762805 -0.734102 1.829 
0.854083 -0.73932 1.842 
0.94198 -0.740925 1.846 
1.03471 -0.745742 1.858 
1.12251 -0.746544 1.86 
1.22091 -0.753769 1.878 
1.31332 -0.756579 1.885 
1.42051 -0.767014 1.911 
1.51116 -0.767817 1.913 
1.59196 -0.763803 1.903 
1.70716 -0.775844 1.933 
1.79447 -0.77464 1.93 
1.8893 -0.776647 1.935 
-0.597636 -0.289865 0.725 
-0.574732 -0.295463 0.739 
-0.56222 -0.307457 0.769 
-0.543489 -0.317452 0.794 
-0.530082 -0.332246 0.831 
-0.507314 -0.343041 0.858 
-0.485777 -0.358633 0.897 
-0.46228 -0.373426 0.934 
-0.433541 -0.38662 0.967 
-0.407752 -0.405811 1.015 
-0.382815 -0.431 1.078 
-0.344601 -0.446592 1.117 
-0.30605 -0.478578 1.197 
-0.264265 -0.505365 1.264 
-0.214011 -0.53695 1.343 
-0.155472 -0.551344 1.379 
-0.0975448 -0.589726 1.475 
-0.0317424 -0.650098 1.626 
0.0468632 -0.691679 1.73 
0.129784 -0.704073 1.761 
0.212586 -0.706472 1.767 
0.300121 -0.718866 1.798 
0.383286 -0.717667 1.795 
0.467472 -0.718466 1.797 
0.556138 -0.724863 1.813 
0.640289 -0.724463 1.812 
0.728747 -0.728462 1.822 
0.825729 -0.739257 1.849 
0.911911 -0.739257 1.849 
0.996474 -0.738057 1.846 
1.09483 -0.746453 1.867 
1.17869 -0.744454 1.862 
1.28587 -0.756448 1.892 
1.3726 -0.755649 1.89 
1.47847 -0.764845 1.913 
1.5578 -0.760047 1.901 
1.68105 -0.776039 1.941 
1.77152 -0.776039 1.941 
1.86199 -0.776039 1.941 
-0.603296 -0.285553 0.717 
-0.572261 -0.286748 0.72 
-0.567133 -0.301881 0.758 
-0.54864 -0.31144 0.782 
-0.533805 -0.324582 0.815 
-0.514069 -0.33653 0.845 
-0.49603 -0.351664 0.883 
-0.474963 -0.367196 0.922 
-0.446513 -0.379542 0.953 
-0.416861 -0.393481 0.988 
-0.38845 -0.4122 1.035 
-0.360916 -0.43729 1.098 
-0.324873 -0.466363 1.171 
-0.282988 -0.488267 1.226 
-0.235994 -0.514553 1.292 
-0.188426 -0.551591 1.385 
-0.12709 -0.565928 1.421 
-0.0667671 -0.620888 1.559 
0.00635988 -0.669476 1.681 
0.0886425 -0.70054 1.759 
0.171794 -0.705319 1.771 
0.254915 -0.706912 1.775 
0.339361 -0.710497 1.784 
0.427961 -0.719657 1.807 
0.510201 -0.716869 1.8 
0.600701 -0.724834 1.82 
0.688168 -0.727622 1.827 
0.776288 -0.73041 1.834 
0.86882 -0.736384 1.849 
0.954486 -0.735985 1.848 
1.05357 -0.745145 1.871 
1.13834 -0.743552 1.867 
1.23455 -0.749128 1.881 
1.32644 -0.751518 1.887 
1.44213 -0.766253 1.924 
1.52862 -0.76466 1.92 
1.6198 -0.765457 1.922 
1.71917 -0.769838 1.933 
1.8205 -0.774617 1.945 
1.90919 -0.77382 1.943 
-0.594562 -0.287216 0.724 
-0.576699 -0.295943 0.746 
-0.559362 -0.305464 0.77 
-0.541828 -0.316175 0.797 
-0.526209 -0.329663 0.831 
-0.505074 -0.341565 0.861 
-0.483303 -0.355053 0.895 
-0.460829 -0.370524 0.934 
-0.432486 -0.384012 0.968 
-0.406575 -0.403054 1.016 
-0.381494 -0.428047 1.079 
-0.343172 -0.443518 1.118 
-0.310028 -0.475255 1.198 
-0.266071 -0.49747 1.254 
-0.220701 -0.52881 1.333 
-0.164042 -0.547059 1.379 
-0.10483 -0.574828 1.449 
-0.0415387 -0.640285 1.614 
0.0358195 -0.680749 1.716 
0.119379 -0.701774 1.769 
0.202175 -0.702964 1.772 
0.288144 -0.711295 1.793 
0.371509 -0.710899 1.792 
0.459605 -0.718039 1.81 
0.544571 -0.718833 1.812 
0.630764 -0.720816 1.817 
0.717818 -0.723197 1.823 
0.81688 -0.735891 1.855 
0.901394 -0.734304 1.851 
0.988737 -0.735098 1.853 
1.08729 -0.743429 1.874 
1.17025 -0.740652 1.867 
1.27815 -0.75295 1.898 
1.36085 -0.749776 1.89 
1.47348 -0.762471 1.922 
1.55818 -0.76009 1.916 
1.67071 -0.770801 1.943 
1.76671 -0.773182 1.949 
1.86518 -0.776355 1.957 
-0.609129 -0.28293 0.716 
-0.578972 -0.28451 0.72 
-0.56916 -0.298736 0.756 
-0.550872 -0.308219 0.78 
-0.534965 -0.320469 0.811 
-0.513716 -0.331138 0.838 
-0.49618 -0.346154 0.876 
-0.475102 -0.36117 0.914 
-0.448589 -0.374605 0.948 
-0.421039 -0.390016 0.987 
-0.390614 -0.406217 1.028 
-0.364701 -0.432298 1.094 
-0.328551 -0.455216 1.152 
-0.288455 -0.47774 1.209 
-0.244774 -0.50382 1.275 
-0.197412 -0.536618 1.358 
-0.138065 -0.552424 1.398 
-0.0786928 -0.596286 1.509 
-0.00914988 -0.652793 1.652 
0.0723271 -0.695865 1.761 
0.155372 -0.700211 1.772 
0.238369 -0.701397 1.775 
0.325263 -0.710485 1.798 
0.410206 -0.712461 1.803 
0.49534 -0.714042 1.807 
0.584376 -0.719969 1.822 
0.671872 -0.722735 1.829 
0.758364 -0.723921 1.832 
0.854347 -0.733009 1.855 
0.943345 -0.734985 1.86 
1.03281 -0.736961 1.865 
1.12214 -0.738541 1.869 
1.21508 -0.742098 1.878 
1.31856 -0.751186 1.901 
1.41975 -0.757904 1.918 
1.5123 -0.759484 1.922 
1.60355 -0.760275 1.924 
1.70819 -0.766992 1.941 
1.81719 -0.774895 1.961 
1.9086 -0.774895 1.961 
-0.59882 -0.283785 0.721 
-0.563646 -0.282998 0.719 
-0.559752 -0.30071 0.764 
-0.540607 -0.310156 0.788 
-0.525596 -0.3259 0.828 
-0.505236 -0.338102 0.859 
-0.483611 -0.351484 0.893 
-0.462775 -0.368016 0.935 
-0.433541 -0.380611 0.967 
-0.40735 -0.39911 1.014 
-0.378554 -0.419577 1.066 
-0.344292 -0.439257 1.116 
-0.313751 -0.471532 1.198 
-0.268245 -0.490425 1.246 
-0.223325 -0.521126 1.324 
-0.168693 -0.543954 1.382 
-0.108503 -0.565996 1.438 
-0.046179 -0.630153 1.601 
0.0303096 -0.671481 1.706 
0.114076 -0.697458 1.772 
0.197446 -0.700213 1.779 
0.282414 -0.70533 1.792 
0.366553 -0.706511 1.795 
0.457241 -0.717532 1.823 
0.53894 -0.713202 1.812 
0.62787 -0.718319 1.825 
0.714887 -0.720287 1.83 
0.811553 -0.730521 1.856 
0.899029 -0.731308 1.858 
0.986692 -0.732095 1.86 
1.08378 -0.73918 1.878 
1.16757 -0.736818 1.872 
1.27426 -0.748233 1.901 
1.36215 -0.747839 1.9 
1.47209 -0.75886 1.928 
1.56357 -0.759647 1.93 
1.66296 -0.763977 1.941 
1.76246 -0.767913 1.951 
1.87335 -0.776178 1.972 
-0.611354 -0.280705 0.716 
-0.580402 -0.281881 0.719 
-0.567654 -0.295603 0.754 
-0.54946 -0.305012 0.778 
-0.531232 -0.318733 0.813 
-0.512756 -0.331279 0.845 
-0.493537 -0.345392 0.881 
-0.47199 -0.36029 0.919 
-0.4455 -0.374012 0.954 
-0.417848 -0.389694 0.994 
-0.387963 -0.406944 1.038 
-0.358883 -0.430074 1.097 
-0.325706 -0.455165 1.161 
-0.284692 -0.47712 1.217 
-0.240143 -0.502603 1.282 
-0.192489 -0.536319 1.368 
-0.131926 -0.549648 1.402 
-0.0725616 -0.599046 1.528 
-0.00145776 -0.651188 1.661 
0.0806724 -0.691569 1.764 
0.164555 -0.698626 1.782 
0.248309 -0.700586 1.787 
0.334014 -0.705682 1.8 
0.420699 -0.710387 1.812 
0.505993 -0.711563 1.815 
0.596773 -0.719012 1.834 
0.683373 -0.720188 1.837 
0.771089 -0.722148 1.842 
0.864389 -0.728421 1.858 
0.954573 -0.731165 1.865 
1.04764 -0.735478 1.876 
1.1363 -0.736262 1.878 
1.22578 -0.737438 1.881 
1.33301 -0.748415 1.909 
1.43763 -0.756648 1.93 
1.52601 -0.755864 1.928 
1.62006 -0.757825 1.933 
1.71547 -0.760177 1.939 
1.83844 -0.773898 1.974 
1.93436 -0.775467 1.978 
-0.595459 -0.281545 0.721 
-0.560295 -0.280764 0.719 
-0.556457 -0.299117 0.766 
-0.539788 -0.310051 0.794 
-0.523043 -0.322547 0.826 
-0.504488 -0.335823 0.86 
-0.482223 -0.348709 0.893 
-0.461816 -0.365501 0.936 
-0.432486 -0.377996 0.968 
-0.405375 -0.395569 1.013 
-0.37513 -0.414312 1.061 
-0.342558 -0.435789 1.116 
-0.311369 -0.467029 1.196 
-0.266095 -0.486163 1.245 
-0.221268 -0.517012 1.324 
-0.166787 -0.540441 1.384 
-0.106269 -0.561528 1.438 
-0.0436642 -0.624787 1.6 
0.0330181 -0.667351 1.709 
0.11729 -0.694685 1.779 
0.200773 -0.696638 1.784 
0.285994 -0.701714 1.797 
0.370782 -0.703667 1.802 
0.46184 -0.714601 1.83 
0.542054 -0.707962 1.813 
0.632088 -0.71421 1.829 
0.719692 -0.716553 1.835 
0.817069 -0.727096 1.862 
0.905314 -0.728268 1.865 
0.995434 -0.730611 1.871 
1.08843 -0.734516 1.881 
1.17298 -0.732563 1.876 
1.28662 -0.747792 1.915 
1.37444 -0.747011 1.913 
1.47661 -0.75365 1.93 
1.57225 -0.756383 1.937 
1.6694 -0.759507 1.945 
1.77092 -0.764193 1.957 
1.88402 -0.773174 1.98 
-0.607427 -0.277702 0.714 
-0.57656 -0.278869 0.717 
-0.564643 -0.291704 0.75 
-0.548754 -0.302205 0.777 
-0.531007 -0.313095 0.805 
-0.513716 -0.32593 0.838 
-0.494481 -0.339543 0.873 
-0.470944 -0.352378 0.906 
-0.448116 -0.368325 0.947 
-0.421893 -0.38466 0.989 
-0.390234 -0.39944 1.027 
-0.3627 -0.423165 1.088 
-0.327186 -0.443779 1.141 
-0.287932 -0.466337 1.199 
-0.246175 -0.49473 1.272 
-0.199375 -0.52779 1.357 
-0.140137 -0.543347 1.397 
-0.0801243 -0.580296 1.492 
-0.0116315 -0.637859 1.64 
0.069275 -0.681809 1.753 
0.153911 -0.695033 1.787 
0.237337 -0.695422 1.788 
0.323725 -0.702034 1.805 
0.408308 -0.702812 1.807 
0.497984 -0.710591 1.827 
0.584737 -0.712535 1.832 
0.671225 -0.713702 1.835 
0.762116 -0.718758 1.848 
0.855137 -0.724592 1.863 
0.946522 -0.728093 1.872 
1.03819 -0.731204 1.88 
1.12882 -0.733149 1.885 
1.21668 -0.733149 1.885 
1.33153 -0.748318 1.924 
1.42416 -0.749873 1.928 
1.51403 -0.749873 1.928 
1.62302 -0.758819 1.951 
1.7122 -0.758041 1.949 
1.83173 -0.770098 1.98 
1.9347 -0.774377 1.991 
-0.596328 -0.278142 0.718 
-0.562078 -0.277755 0.717 
-0.559918 -0.2948 0.761 
-0.540299 -0.30371 0.784 
-0.525603 -0.316881 0.818 
-0.507141 -0.329664 0.851 
-0.487801 -0.343998 0.888 
-0.469536 -0.361817 0.934 
-0.436948 -0.371115 0.958 
-0.409904 -0.387772 1.001 
-0.378313 -0.405592 1.047 
-0.347766 -0.42806 1.105 
-0.317174 -0.458276 1.183 
-0.271633 -0.47842 1.235 
-0.226723 -0.506699 1.308 
-0.174501 -0.533429 1.377 
-0.114324 -0.552798 1.427 
-0.0531722 -0.61478 1.587 
0.0221613 -0.655068 1.691 
0.105936 -0.687221 1.774 
0.190643 -0.694581 1.793 
0.274827 -0.69613 1.797 
0.361179 -0.701166 1.81 
0.451698 -0.710851 1.835 
0.532251 -0.704266 1.818 
0.625133 -0.713563 1.842 
0.713305 -0.715887 1.848 
0.805498 -0.72131 1.862 
0.896599 -0.724797 1.871 
0.987488 -0.727509 1.878 
1.08132 -0.73177 1.889 
1.16441 -0.728671 1.881 
1.27206 -0.740292 1.911 
1.37039 -0.745328 1.924 
1.47145 -0.751139 1.939 
1.55699 -0.748815 1.933 
1.65561 -0.752689 1.943 
1.74977 -0.754238 1.947 
1.87833 -0.769734 1.987 
1.94913 -0.761211 1.965 
-0.577775 -0.275098 0.713 
-0.557525 -0.281657 0.73 
-0.552184 -0.29709 0.77 
-0.53641 -0.308665 0.8 
-0.515967 -0.319082 0.827 
-0.499357 -0.333744 0.865 
-0.47496 -0.345319 0.895 
-0.453575 -0.361524 0.937 
-0.427399 -0.376957 0.977 
-0.396713 -0.391619 1.015 
-0.367648 -0.412068 1.068 
-0.333643 -0.432517 1.121 
-0.287766 -0.456438 1.183 
-0.248947 -0.488462 1.266 
-0.202391 -0.520486 1.349 
-0.144892 -0.540549 1.401 
-0.0841356 -0.571416 1.481 
-0.0165745 -0.626976 1.625 
0.0634273 -0.672118 1.742 
0.148856 -0.691795 1.793 
0.232299 -0.691409 1.792 
0.318645 -0.697583 1.808 
0.403807 -0.699126 1.812 
0.494463 -0.708 1.835 
0.579045 -0.706843 1.832 
0.66516 -0.707614 1.834 
0.759238 -0.715717 1.855 
0.851171 -0.720347 1.867 
0.942715 -0.723819 1.876 
1.03729 -0.728835 1.889 
1.12951 -0.731536 1.896 
1.21532 -0.729992 1.892 
1.33175 -0.745812 1.933 
1.42185 -0.745812 1.933 
1.51116 -0.745426 1.932 
1.62359 -0.755843 1.959 
1.7114 -0.7543 1.955 
1.82742 -0.764717 1.982 
1.94014 -0.77282 2.003 
-0.596334 -0.274374 0.714 
-0.56542 -0.275527 0.717 
-0.560938 -0.290514 0.756 
-0.542389 -0.299736 0.78 
-0.524847 -0.31088 0.809 
-0.509419 -0.325099 0.846 
-0.489986 -0.338933 0.882 
-0.468724 -0.35392 0.921 
-0.441053 -0.366601 0.954 
-0.413215 -0.381972 0.994 
-0.382017 -0.397727 1.035 
-0.354093 -0.421937 1.098 
-0.316433 -0.440766 1.147 
-0.279249 -0.46805 1.218 
-0.235994 -0.496486 1.292 
-0.186521 -0.526844 1.371 
-0.126106 -0.541831 1.41 
-0.0669813 -0.60101 1.564 
0.00628799 -0.638669 1.662 
0.0887433 -0.676713 1.761 
0.174801 -0.692468 1.802 
0.258506 -0.691699 1.8 
0.345258 -0.697464 1.815 
0.433881 -0.703996 1.832 
0.519272 -0.703996 1.832 
0.612583 -0.713219 1.856 
0.698715 -0.712835 1.855 
0.788563 -0.715909 1.863 
0.879157 -0.718983 1.871 
0.972563 -0.723594 1.883 
1.06652 -0.727821 1.894 
1.15602 -0.72859 1.896 
1.24899 -0.73128 1.903 
1.36018 -0.743577 1.935 
1.45637 -0.746651 1.943 
1.53659 -0.741655 1.93 
1.64761 -0.751262 1.955 
1.72806 -0.746651 1.943 
1.86168 -0.764328 1.989 
1.95243 -0.763559 1.987 
-0.584421 -0.272882 0.713 
-0.555053 -0.274796 0.718 
-0.554277 -0.292018 0.763 
-0.537069 -0.302352 0.79 
-0.521143 -0.314982 0.823 
-0.501555 -0.327229 0.855 
-0.480603 -0.340624 0.89 
-0.462803 -0.358995 0.938 
-0.430252 -0.368563 0.963 
-0.402974 -0.385403 1.007 
-0.373362 -0.404156 1.056 
-0.339796 -0.423675 1.107 
-0.303038 -0.44549 1.164 
-0.264386 -0.473429 1.237 
-0.218427 -0.50022 1.307 
-0.167269 -0.531221 1.388 
-0.107008 -0.554184 1.448 
-0.0409725 -0.609296 1.592 
0.035736 -0.655223 1.712 
0.120392 -0.682779 1.784 
0.20537 -0.688903 1.8 
0.290393 -0.691582 1.807 
0.377313 -0.696557 1.82 
0.467476 -0.704594 1.841 
0.54968 -0.700002 1.829 
0.638401 -0.703829 1.839 
0.730811 -0.710335 1.856 
0.822164 -0.714545 1.867 
0.915516 -0.719521 1.88 
1.00795 -0.722965 1.889 
1.10412 -0.728323 1.903 
1.18717 -0.724879 1.894 
1.3071 -0.742867 1.941 
1.39613 -0.742101 1.939 
1.48958 -0.743632 1.943 
1.57689 -0.742101 1.939 
1.68102 -0.748225 1.955 
1.78484 -0.753583 1.969 
1.9033 -0.764299 1.997 
-0.602666 -0.271012 0.711 
-0.570327 -0.271393 0.712 
-0.552229 -0.279016 0.732 
-0.546422 -0.294263 0.772 
-0.528952 -0.304936 0.8 
-0.513789 -0.318658 0.836 
-0.492998 -0.330856 0.868 
-0.466617 -0.341147 0.895 
-0.447214 -0.359062 0.942 
-0.421717 -0.375453 0.985 
-0.38954 -0.389175 1.021 
-0.357693 -0.40709 1.068 
-0.324635 -0.429198 1.126 
-0.283445 -0.45283 1.188 
-0.244966 -0.486373 1.276 
-0.195377 -0.512293 1.344 
-0.138954 -0.536306 1.407 
-0.0782756 -0.572136 1.501 
-0.00900034 -0.619401 1.625 
0.07167 -0.665142 1.745 
0.158266 -0.688012 1.805 
0.242129 -0.68725 1.803 
0.328881 -0.692967 1.818 
0.417486 -0.699447 1.835 
0.504661 -0.701734 1.841 
0.594319 -0.706308 1.853 
0.678851 -0.704402 1.848 
0.774508 -0.713169 1.871 
0.861716 -0.713169 1.871 
0.95501 -0.717743 1.883 
1.05275 -0.724604 1.901 
1.14615 -0.727654 1.909 
1.23643 -0.728416 1.911 
1.34492 -0.739089 1.939 
1.43678 -0.739851 1.941 
1.52095 -0.736802 1.933 
1.64272 -0.751286 1.971 
1.72227 -0.74595 1.957 
1.84129 -0.757385 1.987 
1.94947 -0.763484 2.003 
-0.589678 -0.271046 0.714 
-0.557178 -0.271426 0.715 
-0.55389 -0.28699 0.756 
-0.538548 -0.297999 0.785 
-0.520503 -0.309008 0.814 
-0.502719 -0.321915 0.848 
-0.483403 -0.335961 0.885 
-0.465681 -0.354941 0.935 
-0.430677 -0.362154 0.954 
-0.405643 -0.380376 1.002 
-0.37506 -0.397458 1.047 
-0.343709 -0.418717 1.103 
-0.305018 -0.436938 1.151 
-0.266712 -0.466928 1.23 
-0.220956 -0.492742 1.298 
-0.171211 -0.525769 1.385 
-0.111584 -0.550064 1.449 
-0.0482408 -0.602451 1.587 
0.0274158 -0.641931 1.691 
0.111637 -0.674578 1.777 
0.197856 -0.686346 1.808 
0.282439 -0.687106 1.81 
0.369844 -0.6928 1.825 
0.459643 -0.700013 1.844 
0.543522 -0.697355 1.837 
0.634624 -0.703429 1.853 
0.724884 -0.707225 1.863 
0.814333 -0.709503 1.869 
0.907236 -0.714058 1.881 
1.00179 -0.718993 1.894 
1.09985 -0.725447 1.911 
1.18519 -0.723169 1.905 
1.29538 -0.735317 1.937 
1.39425 -0.739872 1.949 
1.48814 -0.741391 1.953 
1.56462 -0.734558 1.935 
1.67362 -0.742909 1.957 
1.77566 -0.747465 1.969 
1.8902 -0.756576 1.993 
1.9413 -0.740632 1.951 
-0.570423 -0.267668 0.708 
-0.548809 -0.273339 0.723 
-0.545033 -0.289218 0.765 
-0.532015 -0.302072 0.799 
-0.514534 -0.314926 0.833 
-0.49341 -0.326646 0.864 
-0.4673 -0.336854 0.891 
-0.443815 -0.355757 0.941 
-0.419506 -0.373148 0.987 
-0.386368 -0.386002 1.021 
-0.355038 -0.404527 1.07 
-0.321421 -0.426077 1.127 
-0.282073 -0.449895 1.19 
-0.242984 -0.482408 1.276 
-0.192138 -0.505092 1.336 
-0.137449 -0.534581 1.414 
-0.0755894 -0.564826 1.494 
-0.00646366 -0.613218 1.622 
0.074509 -0.660854 1.748 
0.161338 -0.683537 1.808 
0.245881 -0.684294 1.81 
0.332618 -0.689208 1.823 
0.422857 -0.697904 1.846 
0.508348 -0.697148 1.844 
0.599454 -0.703197 1.86 
0.685411 -0.702441 1.858 
0.778661 -0.70849 1.874 
0.866009 -0.70849 1.874 
0.95997 -0.713404 1.887 
1.06014 -0.721722 1.909 
1.15333 -0.724368 1.916 
1.24653 -0.726637 1.922 
1.35071 -0.734576 1.943 
1.44128 -0.734576 1.943 
1.52553 -0.731551 1.935 
1.64996 -0.747052 1.976 
1.73236 -0.742893 1.965 
1.84623 -0.751967 1.989 
1.94674 -0.754991 1.997 
-0.58692 -0.268074 0.712 
-0.555289 -0.268827 0.714 
-0.549791 -0.283135 0.752 
-0.538013 -0.295936 0.786 
-0.520519 -0.307984 0.818 
-0.501263 -0.320033 0.85 
-0.481196 -0.333587 0.886 
-0.456973 -0.353165 0.938 
-0.426029 -0.364084 0.967 
-0.397897 -0.380274 1.01 
-0.369578 -0.400606 1.064 
-0.334119 -0.418302 1.111 
-0.296312 -0.43901 1.166 
-0.256076 -0.464612 1.234 
-0.209822 -0.490968 1.304 
-0.160129 -0.527489 1.401 
-0.0994303 -0.553092 1.469 
-0.0334046 -0.596767 1.585 
0.0439455 -0.647972 1.721 
0.128923 -0.672822 1.787 
0.215304 -0.682611 1.813 
0.300635 -0.684493 1.818 
0.389824 -0.6924 1.839 
0.477868 -0.695789 1.848 
0.563393 -0.695036 1.846 
0.653657 -0.699554 1.858 
0.743048 -0.702189 1.865 
0.834872 -0.706331 1.876 
0.926737 -0.70972 1.885 
1.02536 -0.71725 1.905 
1.12527 -0.724403 1.924 
1.21621 -0.725156 1.926 
1.32022 -0.733063 1.947 
1.41387 -0.734569 1.951 
1.50635 -0.735322 1.953 
1.59574 -0.734569 1.951 
1.69532 -0.738334 1.961 
1.80222 -0.744735 1.978 
1.91644 -0.753395 2.001 
-0.595723 -0.265468 0.708 
-0.562723 -0.265468 0.708 
-0.548428 -0.274842 0.733 
-0.541624 -0.289466 0.772 
-0.52529 -0.300714 0.802 
-0.508508 -0.314213 0.838 
-0.487375 -0.326211 0.87 
-0.464286 -0.33896 0.904 
-0.43643 -0.353958 0.944 
-0.415294 -0.37458 0.999 
-0.377588 -0.383579 1.023 
-0.352803 -0.410201 1.094 
-0.310915 -0.422575 1.127 
-0.276268 -0.451821 1.205 
-0.233802 -0.479943 1.28 
-0.184753 -0.509189 1.358 
-0.128521 -0.538811 1.437 
-0.0650541 -0.569557 1.519 
0.00621989 -0.616427 1.644 
0.0888945 -0.661421 1.764 
0.175577 -0.678669 1.81 
0.260947 -0.681294 1.817 
0.348111 -0.686168 1.83 
0.439566 -0.695917 1.856 
0.525224 -0.694792 1.853 
0.616874 -0.700792 1.869 
0.704742 -0.701541 1.871 
0.794066 -0.703416 1.876 
0.883386 -0.704916 1.88 
0.980311 -0.711665 1.898 
1.08004 -0.719164 1.918 
1.17432 -0.722164 1.926 
1.26671 -0.723664 1.93 
1.37424 -0.733038 1.955 
1.46687 -0.733788 1.957 
1.54694 -0.728538 1.943 
1.667 -0.741662 1.978 
1.75563 -0.740162 1.974 
1.8673 -0.748036 1.995 
1.9367 -0.739037 1.971 
-0.578123 -0.264368 0.708 
-0.550512 -0.266982 0.715 
-0.542503 -0.280051 0.75 
-0.534614 -0.294987 0.79 
-0.519193 -0.30843 0.826 
-0.49757 -0.319258 0.855 
-0.475384 -0.331581 0.888 
-0.45503 -0.349877 0.937 
-0.423649 -0.360333 0.965 
-0.396328 -0.377136 1.01 
-0.367233 -0.396553 1.062 
-0.332991 -0.415596 1.113 
-0.295763 -0.437253 1.171 
-0.253334 -0.459284 1.23 
-0.207955 -0.487289 1.305 
-0.157839 -0.522762 1.4 
-0.0969496 -0.547407 1.466 
-0.0306296 -0.585867 1.569 
0.0465652 -0.641878 1.719 
0.1317 -0.667269 1.787 
0.218722 -0.678844 1.818 
0.304628 -0.681458 1.825 
0.394603 -0.690046 1.848 
0.480999 -0.69042 1.849 
0.568408 -0.691913 1.853 
0.661491 -0.699008 1.872 
0.748346 -0.698635 1.871 
0.840019 -0.702369 1.881 
0.931639 -0.705356 1.889 
1.03264 -0.714317 1.913 
1.13353 -0.721785 1.933 
1.22616 -0.723279 1.937 
1.32324 -0.727013 1.947 
1.41981 -0.73 1.955 
1.51557 -0.732241 1.961 
1.60697 -0.732241 1.961 
1.70703 -0.735975 1.971 
1.81168 -0.741202 1.985 
1.9253 -0.749417 2.007 
-0.594623 -0.263268 0.708 
-0.56083 -0.262897 0.707 
-0.545796 -0.271821 0.731 
-0.539725 -0.286695 0.771 
-0.521649 -0.29971 0.806 
-0.501778 -0.313096 0.842 
-0.482857 -0.326854 0.879 
-0.458476 -0.339125 0.912 
-0.43046 -0.35214 0.947 
-0.409573 -0.373335 1.004 
-0.3747 -0.385606 1.037 
-0.346822 -0.409777 1.102 
-0.306182 -0.42465 1.142 
-0.269122 -0.451795 1.215 
-0.224908 -0.478197 1.286 
-0.175999 -0.510176 1.372 
-0.118828 -0.541039 1.455 
-0.0492687 -0.57339 1.542 
0.0244074 -0.619127 1.665 
0.108692 -0.659658 1.774 
0.196125 -0.67602 1.818 
0.282253 -0.679366 1.827 
0.370427 -0.684944 1.842 
0.460246 -0.690894 1.858 
0.546848 -0.690894 1.858 
0.639587 -0.697587 1.876 
0.725478 -0.6961 1.872 
0.816205 -0.699074 1.88 
0.90864 -0.702793 1.89 
1.00886 -0.711345 1.913 
1.10664 -0.716923 1.928 
1.20085 -0.719526 1.935 
1.29504 -0.721757 1.941 
1.40693 -0.732912 1.971 
1.49956 -0.733284 1.972 
1.58259 -0.729194 1.961 
1.68339 -0.733284 1.972 
1.78701 -0.738118 1.985 
1.89846 -0.745555 2.005 
1.95417 -0.731425 1.967 
-0.5672 -0.260687 0.704 
-0.544254 -0.265501 0.717 
-0.536025 -0.279202 0.754 
-0.527124 -0.296606 0.801 
-0.507294 -0.309566 0.836 
-0.486255 -0.321415 0.868 
-0.463259 -0.334006 0.902 
-0.438962 -0.348077 0.94 
-0.418268 -0.368443 0.995 
-0.380861 -0.37733 1.019 
-0.353976 -0.400658 1.082 
-0.315607 -0.416581 1.125 
-0.279779 -0.442872 1.196 
-0.236958 -0.468422 1.265 
-0.187142 -0.492491 1.33 
-0.134278 -0.52841 1.427 
-0.0700922 -0.546554 1.476 
-0.00142529 -0.601358 1.624 
0.0805352 -0.652088 1.761 
0.167418 -0.671344 1.813 
0.253312 -0.675047 1.823 
0.341622 -0.681712 1.841 
0.43254 -0.689858 1.863 
0.517981 -0.688007 1.858 
0.608813 -0.692821 1.871 
0.699741 -0.696524 1.881 
0.786996 -0.696153 1.88 
0.875089 -0.696524 1.881 
0.975047 -0.705411 1.905 
1.07557 -0.713187 1.926 
1.16897 -0.715409 1.932 
1.26619 -0.719482 1.943 
1.36792 -0.725407 1.959 
1.46072 -0.726147 1.961 
1.55054 -0.725407 1.959 
1.66364 -0.735034 1.985 
1.76324 -0.737997 1.993 
1.86731 -0.74244 2.005 
1.95294 -0.739478 1.997 
-0.583071 -0.260331 0.706 
-0.553281 -0.261806 0.71 
-0.544975 -0.275449 0.747 
-0.533938 -0.290936 0.789 
-0.517326 -0.302736 0.821 
-0.496988 -0.314905 0.854 
-0.473778 -0.326335 0.885 
-0.455987 -0.344035 0.933 
-0.423111 -0.352885 0.957 
-0.399071 -0.372059 1.009 
-0.368789 -0.389759 1.057 
-0.335322 -0.411146 1.115 
-0.296312 -0.429952 1.166 
-0.253585 -0.450601 1.222 
-0.209822 -0.480838 1.304 
-0.1591 -0.513287 1.392 
-0.0986858 -0.537624 1.458 
-0.0323929 -0.566754 1.537 
0.0434093 -0.626859 1.7 
0.128563 -0.657096 1.782 
0.216966 -0.673689 1.827 
0.304108 -0.678114 1.839 
0.393851 -0.68512 1.858 
0.480971 -0.685858 1.86 
0.569192 -0.687701 1.865 
0.664915 -0.69692 1.89 
0.75022 -0.694339 1.883 
0.841102 -0.69692 1.89 
0.931162 -0.698395 1.894 
1.03667 -0.710195 1.926 
1.13404 -0.714988 1.939 
1.22821 -0.717201 1.945 
1.32429 -0.720151 1.953 
1.42546 -0.725313 1.967 
1.52563 -0.729369 1.978 
1.61619 -0.728632 1.976 
1.7178 -0.732688 1.987 
1.82135 -0.737113 1.999 
1.93847 -0.746331 2.024 
-0.593947 -0.257765 0.702 
-0.562026 -0.258132 0.703 
-0.540551 -0.26364 0.718 
-0.534157 -0.278328 0.758 
-0.524102 -0.295218 0.804 
-0.504697 -0.306968 0.836 
-0.481721 -0.320187 0.872 
-0.457769 -0.332304 0.905 
-0.432578 -0.34589 0.942 
-0.413427 -0.367921 1.002 
-0.376605 -0.377835 1.029 
-0.350042 -0.402437 1.096 
-0.309322 -0.41639 1.134 
-0.272524 -0.44246 1.205 
-0.228388 -0.467062 1.272 
-0.180001 -0.497171 1.354 
-0.124574 -0.529851 1.443 
-0.0594602 -0.549679 1.497 
0.0112733 -0.600718 1.636 
0.0945363 -0.648819 1.767 
0.182703 -0.670116 1.825 
0.268794 -0.672687 1.832 
0.356891 -0.677827 1.846 
0.449172 -0.687374 1.872 
0.535567 -0.686272 1.869 
0.626346 -0.690312 1.88 
0.716632 -0.692882 1.887 
0.801601 -0.690312 1.88 
0.894904 -0.694718 1.892 
0.998679 -0.705733 1.922 
1.09166 -0.707937 1.928 
1.18582 -0.710507 1.935 
1.2892 -0.717851 1.955 
1.39373 -0.724827 1.974 
1.48875 -0.726296 1.978 
1.57615 -0.724093 1.972 
1.68076 -0.729601 1.987 
1.77873 -0.731804 1.993 
1.90073 -0.743186 2.024 
1.97043 -0.734007 1.999 
-0.572407 -0.256309 0.701 
-0.547433 -0.259965 0.711 
-0.535414 -0.272397 0.745 
-0.531604 -0.289216 0.791 
-0.516626 -0.302013 0.826 
-0.494334 -0.312251 0.854 
-0.470496 -0.32322 0.884 
-0.45067 -0.340405 0.931 
-0.4204 -0.351374 0.961 
-0.39515 -0.369655 1.011 
-0.363862 -0.386474 1.057 
-0.333345 -0.409509 1.12 
-0.29294 -0.426694 1.167 
-0.25081 -0.448632 1.227 
-0.206874 -0.479345 1.311 
-0.154775 -0.508962 1.392 
-0.0940907 -0.532728 1.457 
-0.0274552 -0.558688 1.528 
0.0487204 -0.621942 1.701 
0.134476 -0.653387 1.787 
0.223496 -0.670572 1.834 
0.311507 -0.676056 1.849 
0.4007 -0.681175 1.863 
0.488582 -0.682637 1.867 
0.577145 -0.684466 1.872 
0.674337 -0.694703 1.9 
0.760488 -0.69251 1.894 
0.85056 -0.693972 1.898 
0.940016 -0.694703 1.9 
1.04644 -0.706769 1.933 
1.14124 -0.709694 1.941 
1.23679 -0.712619 1.949 
1.33581 -0.717007 1.961 
1.43449 -0.720663 1.971 
1.5403 -0.727245 1.989 
1.62972 -0.725782 1.985 
1.74306 -0.734557 2.009 
1.8367 -0.734557 2.009 
1.95629 -0.744429 2.036 
-0.589833 -0.25522 0.701 
-0.559544 -0.256312 0.704 
-0.539449 -0.262501 0.721 
-0.532939 -0.277793 0.763 
-0.52345 -0.292356 0.803 
-0.50539 -0.304006 0.835 
-0.483789 -0.315293 0.866 
-0.460834 -0.327672 0.9 
-0.43458 -0.342235 0.94 
-0.411968 -0.360803 0.991 
-0.378696 -0.373546 1.026 
-0.35248 -0.397939 1.093 
-0.311467 -0.411046 1.129 
-0.275351 -0.43726 1.201 
-0.230149 -0.45874 1.26 
-0.183528 -0.491143 1.349 
-0.127448 -0.518813 1.425 
-0.0637264 -0.54175 1.488 
0.00613666 -0.590537 1.622 
0.0885921 -0.640052 1.758 
0.177517 -0.666266 1.83 
0.263819 -0.668814 1.837 
0.352106 -0.673911 1.851 
0.444302 -0.683013 1.876 
0.531743 -0.683013 1.876 
0.620504 -0.68447 1.88 
0.714912 -0.691023 1.898 
0.795759 -0.68447 1.88 
0.890905 -0.690295 1.896 
0.996838 -0.702674 1.93 
1.0868 -0.702674 1.93 
1.17858 -0.703766 1.933 
1.28968 -0.715416 1.965 
1.3876 -0.718693 1.974 
1.48785 -0.722698 1.985 
1.58037 -0.722698 1.985 
1.67964 -0.725611 1.993 
1.78143 -0.729252 2.003 
1.89819 -0.738354 2.028 
1.98583 -0.735805 2.021 
-0.572946 -0.253406 0.699 
-0.548096 -0.257031 0.709 
-0.53744 -0.269357 0.743 
-0.533261 -0.28567 0.788 
-0.514165 -0.296546 0.818 
-0.494078 -0.307785 0.849 
-0.471637 -0.319385 0.881 
-0.450153 -0.334974 0.924 
-0.420743 -0.346212 0.955 
-0.396716 -0.365064 1.007 
-0.365062 -0.381015 1.051 
-0.335923 -0.404941 1.117 
-0.294787 -0.42053 1.16 
-0.250401 -0.444094 1.225 
-0.207032 -0.475634 1.312 
-0.154108 -0.502461 1.386 
-0.0941553 -0.528563 1.458 
-0.0272216 -0.549227 1.515 
0.0484626 -0.613394 1.692 
0.134326 -0.647109 1.785 
0.224349 -0.66741 1.841 
0.313023 -0.673573 1.858 
0.401991 -0.677561 1.869 
0.490414 -0.679374 1.874 
0.579612 -0.681549 1.88 
0.676822 -0.691337 1.907 
0.764904 -0.690612 1.905 
0.853697 -0.690612 1.905 
0.943479 -0.691337 1.907 
1.05077 -0.703663 1.941 
1.14242 -0.704388 1.943 
1.23933 -0.708013 1.953 
1.34262 -0.714539 1.971 
1.43813 -0.716351 1.976 
1.54959 -0.725414 2.001 
1.63793 -0.723239 1.995 
1.75781 -0.734478 2.026 
1.84219 -0.73049 2.015 
1.97262 -0.744266 2.053 
-0.590922 -0.253042 0.701 
-0.559841 -0.253764 0.703 
-0.54057 -0.260261 0.721 
-0.530167 -0.272173 0.754 
-0.525223 -0.288778 0.8 
-0.507452 -0.300329 0.832 
-0.485572 -0.311158 0.862 
-0.462445 -0.32307 0.895 
-0.438592 -0.336787 0.933 
-0.410532 -0.351226 0.973 
-0.384321 -0.369636 1.024 
-0.3549 -0.39346 1.09 
-0.31358 -0.405733 1.124 
-0.27275 -0.435333 1.206 
-0.226054 -0.454464 1.259 
-0.1804 -0.489839 1.357 
-0.122847 -0.513664 1.423 
-0.0594205 -0.540015 1.496 
0.0111906 -0.586219 1.624 
0.0937873 -0.632784 1.753 
0.184405 -0.664911 1.842 
0.270848 -0.666355 1.846 
0.359984 -0.67213 1.862 
0.451331 -0.678989 1.881 
0.539578 -0.679711 1.883 
0.629345 -0.681877 1.889 
0.723468 -0.687652 1.905 
0.803733 -0.680433 1.885 
0.902945 -0.689096 1.909 
1.01167 -0.702813 1.947 
1.09393 -0.697398 1.932 
1.18827 -0.699925 1.939 
1.30436 -0.714003 1.978 
1.39797 -0.714725 1.98 
1.50004 -0.719418 1.993 
1.59294 -0.719418 1.993 
1.69091 -0.721584 1.999 
1.78765 -0.723027 2.003 
1.91388 -0.735662 2.038 
1.99901 -0.732052 2.028 
-0.569406 -0.250155 0.696 
-0.546223 -0.254468 0.708 
-0.534411 -0.266689 0.742 
-0.531486 -0.283581 0.789 
-0.513521 -0.294364 0.819 
-0.492759 -0.305146 0.849 
-0.470268 -0.316648 0.881 
-0.448691 -0.331025 0.921 
-0.420302 -0.342885 0.954 
-0.394358 -0.364091 1.013 
-0.360577 -0.379905 1.057 
-0.328982 -0.401471 1.117 
-0.290305 -0.420879 1.171 
-0.2367 -0.446757 1.243 
-0.192569 -0.481262 1.339 
-0.135893 -0.502467 1.398 
-0.0743245 -0.527986 1.469 
-0.00629231 -0.567522 1.579 
0.0738696 -0.622872 1.733 
0.162855 -0.655939 1.825 
0.250772 -0.663487 1.846 
0.339004 -0.6678 1.858 
0.430874 -0.676066 1.881 
0.519651 -0.677504 1.885 
0.6088 -0.678942 1.889 
0.704963 -0.686849 1.911 
0.786141 -0.68002 1.892 
0.884956 -0.688287 1.915 
0.984389 -0.695475 1.935 
1.0768 -0.696913 1.939 
1.16477 -0.695475 1.935 
1.28026 -0.709492 1.974 
1.37783 -0.712368 1.982 
1.47688 -0.715602 1.991 
1.57757 -0.719197 2.001 
1.66917 -0.718478 1.999 
1.79496 -0.731776 2.036 
1.87593 -0.726385 2.021 
1.99938 -0.737168 2.051 
-0.578633 -0.24979 0.698 
-0.550793 -0.251937 0.704 
-0.538505 -0.263031 0.735 
-0.528258 -0.275556 0.77 
-0.513469 -0.287366 0.803 
-0.497976 -0.300607 0.84 
-0.475756 -0.3117 0.871 
-0.454643 -0.325657 0.91 
-0.427177 -0.337467 0.943 
-0.398441 -0.353571 0.988 
-0.37058 -0.371822 1.039 
-0.343058 -0.397946 1.112 
-0.299608 -0.409397 1.144 
-0.249175 -0.436237 1.219 
-0.206401 -0.468087 1.308 
-0.153218 -0.493138 1.378 
-0.0942199 -0.522125 1.459 
-0.0271498 -0.540734 1.511 
0.0479757 -0.599424 1.675 
0.1341 -0.637715 1.782 
0.225568 -0.662408 1.851 
0.314539 -0.668134 1.867 
0.403496 -0.671355 1.876 
0.492769 -0.67386 1.883 
0.583311 -0.67708 1.892 
0.679661 -0.685311 1.915 
0.769321 -0.685669 1.916 
0.858626 -0.685669 1.916 
0.9509 -0.687816 1.922 
1.0551 -0.697479 1.949 
1.14359 -0.696047 1.945 
1.24567 -0.702489 1.963 
1.35215 -0.710362 1.985 
1.44249 -0.709288 1.982 
1.56043 -0.721098 2.015 
1.64778 -0.718235 2.007 
1.77256 -0.731118 2.043 
1.84219 -0.721098 2.015 
1.98799 -0.740422 2.069 
-0.590079 -0.249418 0.7 
-0.559045 -0.250131 0.702 
-0.54057 -0.2569 0.721 
-0.527355 -0.267233 0.75 
-0.52391 -0.284336 0.798 
-0.506233 -0.295738 0.83 
-0.485009 -0.306784 0.861 
-0.462445 -0.318899 0.895 
-0.436712 -0.331013 0.929 
-0.407339 -0.345266 0.969 
-0.384599 -0.366644 1.029 
-0.355225 -0.388736 1.091 
-0.312464 -0.399069 1.12 
-0.277224 -0.425079 1.193 
-0.230906 -0.442895 1.243 
-0.185899 -0.481376 1.351 
-0.127569 -0.499548 1.402 
-0.065772 -0.528053 1.482 
0.00356085 -0.569029 1.597 
0.0846886 -0.617844 1.734 
0.175724 -0.655969 1.841 
0.263522 -0.660957 1.855 
0.352249 -0.665233 1.867 
0.443976 -0.672359 1.887 
0.533902 -0.674854 1.894 
0.623496 -0.676279 1.898 
0.71834 -0.682336 1.915 
0.800429 -0.676279 1.898 
0.902945 -0.686968 1.928 
1.00465 -0.695163 1.951 
1.09334 -0.693738 1.947 
1.18288 -0.693025 1.945 
1.30235 -0.708703 1.989 
1.39225 -0.707278 1.985 
1.49674 -0.712979 2.001 
1.59159 -0.713691 2.003 
1.68832 -0.715117 2.007 
1.80584 -0.724737 2.034 
1.89877 -0.724024 2.032 
2.01409 -0.731507 2.053 
-0.569926 -0.246202 0.694 
-0.545324 -0.249749 0.704 
-0.535807 -0.261102 0.736 
-0.527394 -0.274582 0.774 
-0.512266 -0.286289 0.807 
-0.494649 -0.298351 0.841 
-0.472779 -0.309703 0.873 
-0.452381 -0.324248 0.914 
-0.424575 -0.335955 0.947 
-0.396905 -0.3505 0.988 
-0.36861 -0.368238 1.038 
-0.342133 -0.393426 1.109 
-0.300132 -0.406552 1.146 
-0.26028 -0.428902 1.209 
-0.216747 -0.455864 1.285 
-0.16735 -0.486373 1.371 
-0.108126 -0.508368 1.433 
-0.0430061 -0.528944 1.491 
0.0291903 -0.582867 1.643 
0.112788 -0.621535 1.752 
0.205992 -0.65843 1.856 
0.294234 -0.662332 1.867 
0.382685 -0.664816 1.874 
0.47229 -0.668009 1.883 
0.564519 -0.67333 1.898 
0.658146 -0.678651 1.913 
0.751608 -0.682554 1.924 
0.837351 -0.679361 1.915 
0.933868 -0.684682 1.93 
1.04451 -0.698518 1.969 
1.12129 -0.689294 1.943 
1.22557 -0.697099 1.965 
1.33593 -0.707032 1.993 
1.42309 -0.704194 1.985 
1.54004 -0.715546 2.017 
1.62595 -0.711999 2.007 
1.73407 -0.718029 2.024 
1.81847 -0.714127 2.013 
1.96549 -0.733993 2.069 
-0.595517 -0.247243 0.7 
-0.558065 -0.245124 0.694 
-0.541625 -0.252541 0.715 
-0.528205 -0.26243 0.743 
-0.526124 -0.279738 0.792 
-0.508974 -0.29104 0.824 
-0.4877 -0.301636 0.854 
-0.466251 -0.313998 0.889 
-0.440584 -0.325654 0.922 
-0.414427 -0.339429 0.961 
-0.391559 -0.359562 1.018 
-0.356279 -0.372277 1.054 
-0.323762 -0.39241 1.111 
-0.288625 -0.416427 1.179 
-0.241401 -0.430202 1.218 
-0.198575 -0.462697 1.31 
-0.144759 -0.487068 1.379 
-0.0854444 -0.517091 1.464 
-0.0181002 -0.543934 1.54 
0.0584202 -0.59197 1.676 
0.147048 -0.637533 1.805 
0.23848 -0.657666 1.862 
0.327365 -0.661904 1.874 
0.418032 -0.667202 1.889 
0.506883 -0.668262 1.892 
0.599787 -0.67356 1.907 
0.69409 -0.678858 1.922 
0.782859 -0.678151 1.92 
0.880984 -0.684862 1.939 
0.975369 -0.687688 1.947 
1.0705 -0.690514 1.955 
1.15925 -0.689101 1.951 
1.27197 -0.70111 1.985 
1.36724 -0.702523 1.989 
1.47022 -0.707467 2.003 
1.57608 -0.713119 2.019 
1.67184 -0.713825 2.021 
1.79837 -0.726894 2.058 
1.86852 -0.717004 2.03 
2.00472 -0.732192 2.073 
-0.582971 -0.245452 0.698 
-0.552803 -0.246507 0.701 
-0.537937 -0.254946 0.725 
-0.521528 -0.263738 0.75 
-0.517814 -0.282023 0.802 
-0.500201 -0.293628 0.835 
-0.477612 -0.304881 0.867 
-0.459389 -0.320353 0.911 
-0.428536 -0.332661 0.946 
-0.399072 -0.345321 0.982 
-0.37129 -0.362903 1.032 
-0.344483 -0.386815 1.1 
-0.302275 -0.398771 1.134 
-0.265915 -0.425145 1.209 
-0.22083 -0.448002 1.274 
-0.1726 -0.478948 1.362 
-0.113363 -0.497585 1.415 
-0.0497882 -0.522552 1.486 
0.0211915 -0.568618 1.617 
0.103786 -0.611168 1.738 
0.197554 -0.653366 1.858 
0.286297 -0.658289 1.872 
0.374349 -0.659696 1.876 
0.464006 -0.662861 1.885 
0.556551 -0.668487 1.901 
0.649229 -0.672707 1.913 
0.743413 -0.677278 1.926 
0.832319 -0.676575 1.924 
0.930144 -0.682553 1.941 
1.03902 -0.694861 1.976 
1.11795 -0.686773 1.953 
1.22013 -0.693103 1.971 
1.3293 -0.702245 1.997 
1.41953 -0.700839 1.993 
1.53368 -0.710685 2.021 
1.61982 -0.707169 2.011 
1.72208 -0.710685 2.021 
1.82796 -0.715257 2.034 
1.94923 -0.725103 2.062 
2.04336 -0.7244 2.06 
-0.559947 -0.241917 0.691 
-0.54225 -0.248569 0.71 
-0.530671 -0.259071 0.74 
-0.522905 -0.276226 0.789 
-0.507078 -0.288129 0.823 
-0.485803 -0.298632 0.853 
-0.46401 -0.311586 0.89 
-0.438193 -0.323139 0.923 
-0.408 -0.338543 0.967 
-0.384697 -0.358849 1.025 
-0.349723 -0.374253 1.069 
-0.31224 -0.389657 1.113 
-0.278142 -0.416265 1.189 
-0.231526 -0.432719 1.236 
-0.187705 -0.467029 1.334 
-0.131455 -0.489085 1.397 
-0.0703296 -0.518493 1.481 
-0.00137877 -0.550002 1.571 
0.0782028 -0.598665 1.71 
0.169357 -0.642077 1.834 
0.259704 -0.65433 1.869 
0.348859 -0.658181 1.88 
0.439737 -0.663083 1.894 
0.530526 -0.666234 1.903 
0.623456 -0.670785 1.916 
0.715737 -0.673586 1.924 
0.806253 -0.674286 1.926 
0.907655 -0.683038 1.951 
1.00473 -0.687239 1.963 
1.1007 -0.69004 1.971 
1.19136 -0.68934 1.969 
1.30007 -0.698443 1.995 
1.39167 -0.697742 1.993 
1.50095 -0.705445 2.015 
1.59645 -0.706145 2.017 
1.70136 -0.710696 2.03 
1.82429 -0.721899 2.062 
1.91015 -0.718048 2.051 
2.02727 -0.72575 2.073 
-0.570683 -0.240843 0.691 
-0.545489 -0.24398 0.7 
-0.534109 -0.254088 0.729 
-0.517281 -0.262801 0.754 
-0.513535 -0.281971 0.809 
-0.493472 -0.292427 0.839 
-0.470605 -0.304626 0.874 
-0.452 -0.320311 0.919 
-0.41882 -0.33251 0.954 
-0.39005 -0.346452 0.994 
-0.35928 -0.362136 1.039 
-0.325742 -0.385488 1.106 
-0.291049 -0.409189 1.174 
-0.243575 -0.421737 1.21 
-0.20048 -0.451712 1.296 
-0.149044 -0.480641 1.379 
-0.0893789 -0.506781 1.454 
-0.0228558 -0.536059 1.538 
0.0522915 -0.57405 1.647 
0.140499 -0.624937 1.793 
0.233319 -0.65073 1.867 
0.323429 -0.657003 1.885 
0.412817 -0.659443 1.892 
0.504446 -0.663974 1.905 
0.596664 -0.667808 1.916 
0.690266 -0.671991 1.928 
0.782154 -0.673733 1.933 
0.879471 -0.67931 1.949 
0.97828 -0.684887 1.965 
1.0666 -0.682796 1.959 
1.16028 -0.68419 1.963 
1.27218 -0.695343 1.995 
1.3638 -0.694646 1.993 
1.47131 -0.701617 2.013 
1.57991 -0.708239 2.032 
1.68121 -0.711028 2.04 
1.79371 -0.717998 2.06 
1.87781 -0.713467 2.047 
2.00888 -0.726363 2.084 
-0.583463 -0.241504 0.696 
-0.551814 -0.241851 0.697 
-0.536464 -0.249832 0.72 
-0.521065 -0.258854 0.746 
-0.51765 -0.276203 0.796 
-0.501678 -0.288348 0.831 
-0.480542 -0.300146 0.865 
-0.461599 -0.314719 0.907 
-0.432119 -0.326517 0.941 
-0.4027 -0.338661 0.976 
-0.373184 -0.355317 1.024 
-0.342936 -0.374401 1.079 
-0.30512 -0.390363 1.125 
-0.271101 -0.418816 1.207 
-0.225344 -0.439288 1.266 
-0.17724 -0.468088 1.349 
-0.119195 -0.487867 1.406 
-0.0568672 -0.517014 1.49 
0.0133844 -0.549978 1.585 
0.0949694 -0.598556 1.725 
0.187979 -0.641583 1.849 
0.278758 -0.65234 1.88 
0.367359 -0.654075 1.885 
0.45691 -0.656504 1.892 
0.549419 -0.661708 1.907 
0.641986 -0.665525 1.918 
0.735961 -0.669689 1.93 
0.830626 -0.673506 1.941 
0.929638 -0.679752 1.959 
1.02772 -0.684263 1.972 
1.11964 -0.684263 1.972 
1.21647 -0.687039 1.98 
1.32396 -0.695019 2.003 
1.41591 -0.694325 2.001 
1.52803 -0.703 2.026 
1.62246 -0.703 2.026 
1.72706 -0.707164 2.038 
1.84172 -0.714798 2.06 
1.94809 -0.718615 2.071 
2.0614 -0.724513 2.088 
-0.560209 -0.238351 0.69 
-0.541823 -0.244568 0.708 
-0.529664 -0.254586 0.737 
-0.516147 -0.265294 0.768 
-0.510372 -0.281875 0.816 
-0.487967 -0.291202 0.843 
-0.467302 -0.303292 0.878 
-0.446289 -0.317455 0.919 
-0.41882 -0.329545 0.954 
-0.388088 -0.341636 0.989 
-0.356737 -0.359598 1.041 
-0.323145 -0.381015 1.103 
-0.288486 -0.404505 1.171 
-0.241496 -0.417632 1.209 
-0.19862 -0.44803 1.297 
-0.147221 -0.477392 1.382 
-0.0871797 -0.502609 1.455 
-0.0205594 -0.533698 1.545 
0.0547838 -0.568241 1.645 
0.143844 -0.621784 1.8 
0.236726 -0.64631 1.871 
0.327916 -0.654255 1.894 
0.417075 -0.655637 1.898 
0.509537 -0.660818 1.913 
0.602145 -0.664618 1.924 
0.6947 -0.667381 1.932 
0.788406 -0.67049 1.941 
0.885216 -0.675326 1.955 
0.986827 -0.682581 1.976 
1.07292 -0.678781 1.965 
1.16866 -0.681199 1.972 
1.28039 -0.691907 2.003 
1.37101 -0.690526 1.999 
1.48249 -0.699162 2.024 
1.58618 -0.703307 2.036 
1.69347 -0.708488 2.051 
1.8004 -0.712979 2.064 
1.89661 -0.712979 2.064 
2.01888 -0.722306 2.091 
-0.573073 -0.237278 0.69 
-0.547184 -0.24003 0.698 
-0.533083 -0.248627 0.723 
-0.518033 -0.257911 0.75 
-0.514636 -0.274762 0.799 
-0.498306 -0.286797 0.834 
-0.477612 -0.298146 0.867 
-0.459893 -0.31362 0.912 
-0.430199 -0.323249 0.94 
-0.400772 -0.335285 0.975 
-0.370003 -0.352135 1.024 
-0.337907 -0.371048 1.079 
-0.302541 -0.390306 1.135 
-0.266575 -0.416785 1.212 
-0.22083 -0.438105 1.274 
-0.171079 -0.46424 1.35 
-0.113042 -0.485217 1.411 
-0.0500562 -0.513759 1.494 
0.0208114 -0.546084 1.588 
0.103368 -0.595259 1.731 
0.197554 -0.638932 1.858 
0.288591 -0.648905 1.887 
0.377542 -0.650624 1.892 
0.467944 -0.653719 1.901 
0.560064 -0.657846 1.913 
0.652962 -0.661629 1.924 
0.74843 -0.666787 1.939 
0.842269 -0.669538 1.947 
0.948833 -0.680886 1.98 
1.03797 -0.678823 1.974 
1.12997 -0.678823 1.974 
1.23375 -0.685356 1.993 
1.33596 -0.690171 2.007 
1.42951 -0.690171 2.007 
1.54354 -0.699456 2.034 
1.64318 -0.701519 2.04 
1.74934 -0.705989 2.053 
1.85492 -0.709772 2.064 
1.97003 -0.71665 2.084 
2.08502 -0.72284 2.102 
-0.554849 -0.236206 0.69 
-0.539353 -0.243738 0.712 
-0.526072 -0.253323 0.74 
-0.511509 -0.263593 0.77 
-0.505886 -0.280367 0.819 
-0.484844 -0.290637 0.849 
-0.463104 -0.302276 0.883 
-0.438194 -0.313915 0.917 
-0.413565 -0.328293 0.959 
-0.38502 -0.342671 1.001 
-0.353237 -0.357733 1.045 
-0.321431 -0.377588 1.103 
-0.282649 -0.40292 1.177 
-0.235337 -0.416271 1.216 
-0.192616 -0.448792 1.311 
-0.139335 -0.475494 1.389 
-0.0789966 -0.503565 1.471 
-0.0110002 -0.530951 1.551 
0.0659159 -0.571003 1.668 
0.156495 -0.62201 1.817 
0.249548 -0.643577 1.88 
0.34166 -0.652135 1.905 
0.430452 -0.652135 1.905 
0.524424 -0.658639 1.924 
0.617613 -0.662405 1.935 
0.708535 -0.66309 1.937 
0.804593 -0.667882 1.951 
0.901956 -0.672675 1.965 
1.00012 -0.677125 1.978 
1.08734 -0.674044 1.969 
1.1887 -0.679521 1.985 
1.298 -0.688422 2.011 
1.39035 -0.687737 2.009 
1.50394 -0.69698 2.036 
1.6059 -0.700061 2.045 
1.71703 -0.706565 2.064 
1.81762 -0.708277 2.069 
1.92794 -0.713412 2.084 
2.03382 -0.716493 2.093 
-0.566312 -0.234112 0.687 
-0.543623 -0.238201 0.699 
-0.530052 -0.247062 0.725 
-0.516109 -0.256944 0.754 
-0.512222 -0.273642 0.803 
-0.493714 -0.284547 0.835 
-0.474403 -0.296815 0.871 
-0.454723 -0.311127 0.913 
-0.426163 -0.321691 0.944 
-0.395118 -0.332596 0.976 
-0.367537 -0.349635 1.026 
-0.336542 -0.368036 1.08 
-0.301043 -0.38712 1.136 
-0.257333 -0.410293 1.204 
-0.213246 -0.434828 1.276 
-0.163292 -0.461749 1.355 
-0.105013 -0.484241 1.421 
-0.0409898 -0.511843 1.502 
0.0309316 -0.54558 1.601 
0.115049 -0.594652 1.745 
0.210114 -0.636226 1.867 
0.301432 -0.645427 1.894 
0.391564 -0.648494 1.903 
0.484049 -0.653605 1.918 
0.575839 -0.656332 1.926 
0.667684 -0.658376 1.932 
0.764403 -0.664169 1.949 
0.855246 -0.664169 1.949 
0.971332 -0.68189 2.001 
1.04917 -0.672007 1.972 
1.14687 -0.675415 1.982 
1.25113 -0.68189 2.001 
1.34843 -0.683934 2.007 
1.44629 -0.685979 2.013 
1.5646 -0.696884 2.045 
1.67047 -0.701314 2.058 
1.77755 -0.705744 2.071 
1.87408 -0.705744 2.071 
1.99345 -0.713923 2.095 
-0.587178 -0.235419 0.694 
-0.551633 -0.234062 0.69 
-0.536787 -0.241864 0.713 
-0.523329 -0.251363 0.741 
-0.50726 -0.260861 0.769 
-0.501353 -0.278839 0.822 
-0.483319 -0.291051 0.858 
-0.458828 -0.301228 0.888 
-0.433891 -0.313101 0.923 
-0.407386 -0.32633 0.962 
-0.379505 -0.341595 1.007 
-0.34677 -0.356182 1.05 
-0.313997 -0.375517 1.107 
-0.279047 -0.401977 1.185 
-0.232124 -0.416902 1.229 
-0.189066 -0.450824 1.329 
-0.133243 -0.472535 1.393 
-0.0725325 -0.501708 1.479 
-0.00376854 -0.525792 1.55 
0.0744416 -0.571587 1.685 
0.165872 -0.619756 1.827 
0.260235 -0.642484 1.894 
0.351643 -0.648251 1.911 
0.441868 -0.649947 1.916 
0.535609 -0.655375 1.932 
0.627927 -0.657749 1.939 
0.721268 -0.660463 1.947 
0.819526 -0.666569 1.965 
0.912042 -0.667247 1.967 
1.01036 -0.671657 1.98 
1.09652 -0.667926 1.969 
1.20399 -0.676746 1.995 
1.31258 -0.684887 2.019 
1.40808 -0.685565 2.021 
1.52012 -0.693707 2.045 
1.62886 -0.699473 2.062 
1.74003 -0.705579 2.08 
1.82903 -0.702526 2.071 
1.94788 -0.710668 2.095 
2.05041 -0.712364 2.1 
-0.56229 -0.23164 0.686 
-0.541911 -0.236705 0.701 
-0.527399 -0.245146 0.726 
-0.514635 -0.255614 0.757 
-0.510379 -0.27216 0.806 
-0.490409 -0.28229 0.836 
-0.470343 -0.294108 0.871 
-0.448988 -0.307277 0.91 
-0.422657 -0.319433 0.946 
-0.389768 -0.328888 0.974 
-0.363816 -0.347459 1.029 
-0.333657 -0.367044 1.087 
-0.29705 -0.385278 1.141 
-0.256264 -0.404863 1.199 
-0.211909 -0.428162 1.268 
-0.162689 -0.455851 1.35 
-0.10516 -0.4805 1.423 
-0.0411808 -0.50954 1.509 
0.0307384 -0.537228 1.591 
0.114785 -0.587879 1.741 
0.209889 -0.629749 1.865 
0.302546 -0.641905 1.901 
0.39321 -0.645282 1.911 
0.486572 -0.651022 1.928 
0.577932 -0.652711 1.933 
0.670794 -0.655412 1.941 
0.76754 -0.660815 1.957 
0.857001 -0.659464 1.953 
0.974244 -0.677698 2.007 
1.07007 -0.665542 1.971 
1.17963 -0.675672 2.001 
1.28307 -0.681075 2.017 
1.37299 -0.679049 2.011 
1.48204 -0.68614 2.032 
1.60003 -0.69627 2.062 
1.70683 -0.700659 2.075 
1.81137 -0.703698 2.084 
1.91034 -0.704374 2.086 
2.01623 -0.707413 2.095 
-0.574619 -0.231246 0.688 
-0.547283 -0.233263 0.694 
-0.533485 -0.241666 0.719 
-0.520138 -0.251413 0.748 
-0.501492 -0.259816 0.773 
-0.497294 -0.278302 0.828 
-0.477612 -0.29141 0.867 
-0.453338 -0.302166 0.899 
-0.426538 -0.313258 0.932 
-0.398306 -0.325694 0.969 
-0.369905 -0.341155 1.015 
-0.33944 -0.358969 1.068 
-0.304577 -0.377455 1.123 
-0.269528 -0.403336 1.2 
-0.223386 -0.421822 1.255 
-0.177109 -0.453081 1.348 
-0.118941 -0.471567 1.403 
-0.0572488 -0.50417 1.5 
0.0130804 -0.52064 1.549 
0.0943087 -0.575762 1.713 
0.187674 -0.620465 1.846 
0.282761 -0.640968 1.907 
0.373206 -0.643657 1.915 
0.46657 -0.649371 1.932 
0.556621 -0.649371 1.932 
0.649685 -0.652396 1.941 
0.748544 -0.659791 1.963 
0.843892 -0.662816 1.972 
0.947671 -0.671219 1.997 
1.0565 -0.665505 1.98 
1.15981 -0.671891 1.999 
1.26051 -0.675924 2.011 
1.3529 -0.675252 2.009 
1.45518 -0.679285 2.021 
1.57774 -0.691721 2.058 
1.68586 -0.696763 2.073 
1.79367 -0.701133 2.086 
1.88546 -0.699116 2.08 
1.99861 -0.70483 2.097 
-0.584411 -0.231515 0.692 
-0.55056 -0.230846 0.69 
-0.535679 -0.238541 0.713 
-0.522178 -0.247909 0.741 
-0.503433 -0.255938 0.765 
-0.501407 -0.274339 0.82 
-0.480437 -0.287721 0.86 
-0.455201 -0.297424 0.889 
-0.430054 -0.309133 0.924 
-0.402483 -0.321512 0.961 
-0.372951 -0.335229 1.002 
-0.341876 -0.351288 1.05 
-0.309953 -0.371696 1.111 
-0.275597 -0.396788 1.186 
-0.230349 -0.414854 1.24 
-0.186328 -0.447976 1.339 
-0.128637 -0.465038 1.39 
-0.0679368 -0.494814 1.479 
0.00104515 -0.517229 1.546 
0.0800085 -0.566075 1.692 
0.171831 -0.612244 1.83 
0.268509 -0.639344 1.911 
0.358891 -0.641686 1.918 
0.45273 -0.648042 1.937 
0.545257 -0.650719 1.945 
0.636568 -0.651388 1.947 
0.734042 -0.65741 1.965 
0.831094 -0.661759 1.978 
0.920488 -0.659752 1.972 
1.04699 -0.670123 2.003 
1.13124 -0.66477 1.987 
1.23618 -0.671462 2.007 
1.33502 -0.674138 2.015 
1.44242 -0.680495 2.034 
1.55687 -0.689193 2.06 
1.67054 -0.696553 2.082 
1.77098 -0.697892 2.086 
1.86463 -0.696553 2.082 
1.98051 -0.703245 2.102 
2.08541 -0.705587 2.109 
-0.55483 -0.228442 0.686 
-0.538861 -0.235435 0.707 
-0.523796 -0.24376 0.732 
-0.506402 -0.252086 0.757 
-0.50348 -0.269402 0.809 
-0.48391 -0.283721 0.852 
-0.459318 -0.293378 0.881 
-0.434395 -0.304701 0.915 
-0.409729 -0.318687 0.957 
-0.378858 -0.330675 0.993 
-0.34865 -0.346659 1.041 
-0.317715 -0.366973 1.102 
-0.281336 -0.387619 1.164 
-0.236446 -0.403603 1.212 
-0.19302 -0.432908 1.3 
-0.139252 -0.455219 1.367 
-0.0805085 -0.48519 1.457 
-0.0133149 -0.512829 1.54 
0.0630587 -0.553123 1.661 
0.153334 -0.60374 1.813 
0.249645 -0.633711 1.903 
0.342078 -0.640704 1.924 
0.433776 -0.643701 1.933 
0.527126 -0.647697 1.945 
0.620959 -0.651027 1.955 
0.715724 -0.654357 1.965 
0.81019 -0.656688 1.972 
0.902105 -0.656688 1.972 
1.03764 -0.669009 2.009 
1.11608 -0.660018 1.982 
1.22736 -0.670341 2.013 
1.32513 -0.672339 2.019 
1.4361 -0.680331 2.043 
1.54407 -0.685993 2.06 
1.66238 -0.695317 2.088 
1.7656 -0.697648 2.095 
