# .PCD v.7 - Point Cloud Data file format
VERSION .7
FIELDS x y z
SIZE 4 4 4
TYPE F F F
COUNT 1 1 1
WIDTH 1824
HEIGHT 1
VIEWPOINT 0 0 0 1 0 0 0
POINTS 1824
DATA ascii
-0.494249 -0.359876 0.948 
-0.447688 -0.357978 0.943 
-0.396885 -0.351904 0.927 
-0.352151 -0.350386 0.923 
-0.270248 -0.344692 0.908 
-0.21661 -0.342414 0.902 
0.564931 -0.588785 1.551 
0.403384 -0.29648 0.781 
0.43134 -0.290786 0.766 
0.461556 -0.28737 0.757 
0.493558 -0.285472 0.752 
0.52158 -0.281675 0.742 
0.556165 -0.281675 0.742 
0.582788 -0.277879 0.732 
0.614378 -0.27674 0.729 
0.642132 -0.274083 0.722 
0.668296 -0.271046 0.714 
0.698628 -0.269907 0.711 
-0.684649 -0.373904 0.989 
-0.621938 -0.368611 0.975 
-0.572354 -0.365965 0.968 
-0.526146 -0.365209 0.966 
-0.460386 -0.356135 0.942 
-0.411615 -0.351976 0.931 
-0.365848 -0.349708 0.925 
-0.307362 -0.348574 0.922 
-0.260373 -0.343281 0.908 
-0.21685 -0.341391 0.903 
0.566049 -0.57768 1.528 
0.409666 -0.291108 0.77 
0.440348 -0.287706 0.761 
0.472067 -0.285437 0.755 
0.503226 -0.283169 0.749 
0.531671 -0.279766 0.74 
0.565398 -0.279388 0.739 
0.589291 -0.274474 0.726 
0.62313 -0.274474 0.726 
0.654254 -0.273339 0.723 
0.67939 -0.269937 0.714 
-0.881365 -0.390063 1.036 
-0.669463 -0.371614 0.987 
-0.611843 -0.36559 0.971 
-0.557832 -0.359943 0.956 
-0.510413 -0.361072 0.959 
-0.456973 -0.354295 0.941 
-0.407844 -0.349777 0.929 
-0.362189 -0.347518 0.923 
-0.315207 -0.347894 0.924 
-0.269194 -0.344129 0.914 
-0.222873 -0.338482 0.899 
0.565679 -0.574929 1.527 
0.409 -0.290288 0.771 
0.439166 -0.286523 0.761 
0.47027 -0.283888 0.754 
0.502063 -0.282005 0.749 
0.530521 -0.278617 0.74 
0.565013 -0.278617 0.74 
0.588163 -0.273346 0.726 
0.622002 -0.273346 0.726 
0.654034 -0.272593 0.724 
0.67828 -0.268827 0.714 
-0.885863 -0.386204 1.03 
-0.69506 -0.368206 0.982 
-0.648628 -0.367831 0.981 
-0.597372 -0.364457 0.972 
-0.539571 -0.356208 0.95 
-0.495813 -0.356583 0.951 
-0.446739 -0.352833 0.941 
-0.3956 -0.346459 0.924 
-0.352151 -0.346084 0.923 
-0.309799 -0.346834 0.925 
-0.264378 -0.343834 0.917 
-0.218011 -0.33821 0.902 
0.561297 -0.585305 1.561 
0.405624 -0.290965 0.776 
0.433823 -0.285716 0.762 
0.465029 -0.283091 0.755 
0.496907 -0.281217 0.75 
0.526191 -0.278217 0.742 
0.559264 -0.277467 0.74 
0.58493 -0.273342 0.729 
0.615513 -0.271843 0.725 
0.647514 -0.271093 0.723 
0.672734 -0.267718 0.714 
0.699092 -0.265093 0.707 
-0.742317 -0.368174 0.986 
-0.682022 -0.367054 0.983 
-0.632969 -0.365187 0.978 
-0.584981 -0.363693 0.974 
-0.531273 -0.358092 0.959 
-0.479471 -0.352865 0.945 
-0.431277 -0.349504 0.936 
-0.381851 -0.344276 0.922 
-0.340714 -0.346143 0.927 
-0.297507 -0.346143 0.927 
-0.249087 -0.339049 0.908 
-0.206765 -0.339049 0.908 
0.570533 -0.534711 1.432 
0.407659 -0.28864 0.773 
0.436227 -0.283785 0.76 
0.467306 -0.281171 0.753 
0.499068 -0.279304 0.748 
0.528222 -0.276317 0.74 
0.562714 -0.276317 0.74 
0.585907 -0.27109 0.726 
0.618039 -0.270343 0.724 
0.651784 -0.270343 0.724 
0.675115 -0.266235 0.713 
0.702387 -0.263995 0.707 
-0.755301 -0.369245 0.993 
-0.689895 -0.364039 0.979 
-0.644921 -0.364411 0.98 
-0.594351 -0.361436 0.972 
-0.536619 -0.353256 0.95 
-0.491821 -0.352884 0.949 
-0.443343 -0.349537 0.94 
-0.391879 -0.342844 0.922 
-0.350039 -0.343959 0.925 
-0.306261 -0.343216 0.923 
-0.262384 -0.3421 0.92 
-0.215924 -0.336522 0.905 
0.560199 -0.567068 1.525 
0.401834 -0.289298 0.778 
0.428524 -0.282976 0.761 
0.458507 -0.27963 0.752 
0.492246 -0.278886 0.75 
0.522986 -0.276655 0.744 
0.553167 -0.274424 0.738 
0.581196 -0.271449 0.73 
0.611007 -0.26959 0.725 
0.640353 -0.267731 0.72 
0.66736 -0.265128 0.713 
0.69568 -0.263268 0.708 
-0.770736 -0.368443 0.995 
-0.705904 -0.362148 0.978 
-0.66302 -0.363629 0.982 
-0.60782 -0.358075 0.967 
-0.554601 -0.352891 0.953 
-0.514999 -0.356223 0.962 
-0.457942 -0.346966 0.937 
-0.409847 -0.343263 0.927 
-0.364662 -0.341411 0.922 
-0.321338 -0.341041 0.921 
-0.279317 -0.342152 0.924 
-0.230368 -0.333635 0.901 
0.460535 -0.502489 1.357 
0.402189 -0.293643 0.793 
0.422613 -0.281794 0.761 
0.453268 -0.278832 0.753 
0.487068 -0.278091 0.751 
0.517901 -0.275869 0.745 
0.546692 -0.272907 0.737 
0.576313 -0.270685 0.731 
0.605375 -0.268463 0.725 
0.632996 -0.265871 0.718 
0.66275 -0.26439 0.714 
0.69018 -0.262168 0.708 
-0.78003 -0.367634 0.997 
-0.71569 -0.361735 0.981 
-0.670649 -0.362103 0.982 
-0.616605 -0.35731 0.969 
-0.563464 -0.353254 0.958 
-0.521519 -0.355097 0.963 
-0.463765 -0.34551 0.937 
-0.416056 -0.342191 0.928 
-0.36999 -0.33961 0.921 
-0.326352 -0.338873 0.919 
-0.284751 -0.340348 0.923 
-0.23623 -0.332604 0.902 
0.450526 -0.503331 1.365 
0.405518 -0.299417 0.812 
0.417248 -0.28098 0.762 
0.448012 -0.27803 0.754 
0.480593 -0.276556 0.75 
0.512114 -0.274712 0.745 
0.540232 -0.271393 0.736 
0.572196 -0.270287 0.733 
0.599743 -0.267337 0.725 
0.628293 -0.265125 0.719 
0.660885 -0.264756 0.718 
0.68468 -0.261068 0.708 
-0.785464 -0.366453 0.998 
-0.722574 -0.359843 0.98 
-0.676205 -0.359476 0.979 
-0.626065 -0.356906 0.972 
-0.570894 -0.353601 0.963 
-0.523823 -0.352132 0.959 
-0.468632 -0.344421 0.938 
-0.419929 -0.340382 0.927 
-0.37347 -0.337445 0.919 
-0.331355 -0.338179 0.921 
-0.287174 -0.33671 0.917 
-0.241233 -0.332304 0.905 
-0.146943 -0.285671 0.778 
0.418221 -0.327898 0.893 
0.404939 -0.285304 0.777 
0.4298 -0.277961 0.757 
0.462012 -0.276125 0.752 
0.493758 -0.274289 0.747 
0.525038 -0.272453 0.742 
0.555852 -0.270617 0.737 
0.581395 -0.266578 0.726 
0.611844 -0.265109 0.722 
0.643709 -0.264375 0.72 
0.667862 -0.260703 0.71 
0.698981 -0.259968 0.708 
-0.753807 -0.360149 0.985 
-0.700709 -0.356492 0.975 
-0.656608 -0.357224 0.977 
-0.601688 -0.351739 0.962 
-0.544901 -0.346986 0.949 
-0.502778 -0.348449 0.953 
-0.450182 -0.342233 0.936 
-0.400908 -0.33748 0.923 
-0.357499 -0.337114 0.922 
-0.311454 -0.333823 0.913 
-0.27155 -0.337114 0.922 
-0.223617 -0.329801 0.902 
0.4617 -0.49068 1.342 
0.406746 -0.298722 0.817 
0.415519 -0.278247 0.761 
0.446841 -0.275688 0.754 
0.478789 -0.273859 0.749 
0.509585 -0.271666 0.743 
0.538356 -0.26874 0.735 
0.569499 -0.267278 0.731 
0.597791 -0.264719 0.724 
0.627176 -0.26289 0.719 
0.659769 -0.262525 0.718 
0.68358 -0.258868 0.708 
-0.786251 -0.363716 0.999 
-0.724879 -0.356434 0.979 
-0.675084 -0.35425 0.973 
-0.625202 -0.351701 0.966 
-0.573886 -0.350609 0.963 
-0.523507 -0.346968 0.953 
-0.468133 -0.341143 0.937 
-0.419023 -0.336774 0.925 
-0.372251 -0.333497 0.916 
-0.329556 -0.333497 0.916 
-0.284503 -0.332405 0.913 
-0.239297 -0.328764 0.903 
-0.153577 -0.284346 0.781 
0.471607 -0.481677 1.323 
0.406779 -0.295633 0.812 
0.418591 -0.275972 0.758 
0.451526 -0.274516 0.754 
0.48396 -0.272332 0.748 
0.514663 -0.270147 0.742 
0.543326 -0.267234 0.734 
0.57203 -0.264686 0.727 
0.603415 -0.263594 0.724 
0.631881 -0.261409 0.718 
0.659787 -0.259225 0.712 
0.688107 -0.257404 0.707 
-0.780795 -0.361076 0.996 
-0.723311 -0.355638 0.981 
-0.672061 -0.352738 0.973 
-0.619624 -0.34875 0.962 
-0.571201 -0.348387 0.961 
-0.521479 -0.345125 0.952 
-0.457927 -0.338599 0.934 
-0.409512 -0.334611 0.923 
-0.363712 -0.332074 0.916 
-0.317512 -0.328449 0.906 
-0.278018 -0.331711 0.915 
-0.231768 -0.326636 0.901 
-0.143132 -0.281683 0.777 
0.416572 -0.333524 0.92 
0.403561 -0.282408 0.779 
0.425189 -0.272982 0.753 
0.460287 -0.272982 0.753 
0.493594 -0.270082 0.745 
0.525482 -0.268632 0.741 
0.555486 -0.266457 0.735 
0.580918 -0.262469 0.724 
0.612117 -0.261381 0.721 
0.643036 -0.260294 0.718 
0.666138 -0.256306 0.707 
0.702058 -0.257393 0.71 
-0.753026 -0.353753 0.98 
-0.705183 -0.35267 0.977 
-0.656944 -0.351226 0.973 
-0.600278 -0.344729 0.955 
-0.550799 -0.342563 0.949 
-0.494249 -0.342202 0.948 
-0.44484 -0.338231 0.937 
-0.394316 -0.332455 0.921 
-0.352151 -0.333177 0.923 
-0.304362 -0.329568 0.913 
-0.262955 -0.332816 0.922 
-0.170002 -0.283002 0.784 
0.443669 -0.489839 1.357 
0.414754 -0.31549 0.874 
0.40953 -0.278671 0.772 
0.435126 -0.272173 0.754 
0.468399 -0.27109 0.751 
0.498041 -0.268202 0.743 
0.529805 -0.266759 0.739 
0.559668 -0.264593 0.733 
0.586542 -0.261344 0.724 
0.617718 -0.260261 0.721 
0.648614 -0.259178 0.718 
0.670681 -0.254846 0.706 
-0.87452 -0.35834 0.997 
-0.740095 -0.350433 0.975 
-0.686813 -0.34648 0.964 
-0.644544 -0.347917 0.968 
-0.593852 -0.344682 0.959 
-0.542854 -0.340729 0.948 
-0.495721 -0.340729 0.948 
-0.446296 -0.336775 0.937 
-0.395747 -0.331025 0.921 
-0.353202 -0.331384 0.922 
-0.30511 -0.32743 0.911 
-0.26267 -0.331025 0.921 
-0.17122 -0.281784 0.784 
0.437185 -0.485215 1.35 
0.439166 -0.378468 1.053 
0.402303 -0.282503 0.786 
0.419393 -0.269923 0.751 
0.456212 -0.271002 0.754 
0.48484 -0.267407 0.744 
0.517423 -0.266329 0.741 
0.546747 -0.263813 0.734 
0.573044 -0.260219 0.724 
0.605114 -0.2595 0.722 
0.634343 -0.257703 0.717 
0.65938 -0.254468 0.708 
0.691403 -0.254109 0.707 
-0.76452 -0.352497 0.985 
-0.717879 -0.352139 0.984 
-0.662453 -0.347129 0.97 
-0.606424 -0.341045 0.953 
-0.560235 -0.339972 0.95 
-0.515955 -0.339972 0.95 
-0.464724 -0.334962 0.936 
-0.414349 -0.329594 0.921 
-0.367388 -0.326015 0.911 
-0.32138 -0.323868 0.905 
-0.279019 -0.325299 0.909 
-0.179517 -0.280208 0.783 
-0.141925 -0.278061 0.777 
0.435025 -0.383273 1.071 
0.415756 -0.30848 0.862 
0.410789 -0.272335 0.761 
0.440982 -0.269114 0.752 
0.472868 -0.267325 0.747 
0.502928 -0.26482 0.74 
0.533062 -0.262673 0.734 
0.562637 -0.260526 0.728 
0.594111 -0.259452 0.725 
0.622707 -0.257305 0.719 
0.651657 -0.255516 0.714 
0.676303 -0.252295 0.705 
-0.870607 -0.358093 1.005 
-0.732484 -0.348829 0.979 
-0.669313 -0.339921 0.954 
-0.627466 -0.341346 0.958 
-0.577462 -0.341702 0.959 
-0.527208 -0.338139 0.949 
-0.480939 -0.336714 0.945 
-0.429495 -0.331013 0.929 
-0.379543 -0.325312 0.913 
-0.339571 -0.327806 0.92 
-0.291088 -0.323174 0.907 
-0.177084 -0.278992 0.783 
-0.139331 -0.276498 0.776 
0.437969 -0.378403 1.062 
0.414754 -0.311416 0.874 
0.408848 -0.272222 0.764 
0.437477 -0.267946 0.752 
0.469386 -0.266165 0.747 
0.500154 -0.264027 0.741 
0.530363 -0.261889 0.735 
0.560012 -0.259751 0.729 
0.590732 -0.258326 0.725 
0.620217 -0.256544 0.72 
0.647421 -0.25405 0.713 
0.672062 -0.250843 0.704 
-0.872678 -0.355467 1.002 
-0.736294 -0.346953 0.978 
-0.663384 -0.338439 0.954 
-0.618918 -0.338439 0.954 
-0.544072 -0.335246 0.945 
-0.502142 -0.336665 0.949 
-0.451636 -0.332053 0.936 
-0.40147 -0.326732 0.921 
-0.356596 -0.324958 0.916 
-0.309407 -0.321765 0.907 
-0.208822 -0.279549 0.788 
-0.162866 -0.276356 0.779 
-0.123737 -0.272809 0.769 
0.437034 -0.370367 1.044 
0.415644 -0.304737 0.859 
0.411525 -0.268906 0.758 
0.44214 -0.266068 0.75 
0.473917 -0.264294 0.745 
0.504545 -0.262166 0.739 
0.534614 -0.260037 0.733 
0.564123 -0.257909 0.727 
0.596364 -0.257199 0.725 
0.624072 -0.254716 0.718 
0.651128 -0.252233 0.711 
0.677531 -0.249749 0.704 
-0.869369 -0.356383 1.009 
-0.726313 -0.347199 0.983 
-0.654541 -0.340842 0.965 
-0.598823 -0.334837 0.948 
-0.534017 -0.334837 0.948 
-0.49138 -0.335897 0.951 
-0.438592 -0.329539 0.933 
-0.388329 -0.323888 0.917 
-0.346718 -0.324948 0.92 
-0.300534 -0.321416 0.91 
-0.189979 -0.275852 0.781 
-0.15338 -0.275499 0.78 
0.447672 -0.476825 1.35 
0.436061 -0.365213 1.034 
0.414121 -0.298457 0.845 
0.413334 -0.267375 0.757 
0.44447 -0.264903 0.75 
0.475592 -0.262784 0.744 
0.506155 -0.260664 0.738 
0.536159 -0.258545 0.732 
0.565603 -0.256426 0.726 
0.598617 -0.256073 0.725 
0.625431 -0.253247 0.717 
0.652418 -0.250775 0.71 
0.678753 -0.248302 0.703 
-0.776091 -0.348134 0.99 
-0.721731 -0.345672 0.983 
-0.648696 -0.338639 0.963 
-0.592524 -0.332309 0.945 
-0.531631 -0.333716 0.949 
-0.488425 -0.334419 0.951 
-0.434759 -0.327386 0.931 
-0.385059 -0.322112 0.916 
-0.343859 -0.323518 0.92 
-0.296292 -0.320002 0.91 
-0.1861 -0.274287 0.78 
-0.149744 -0.274287 0.78 
0.457871 -0.472266 1.343 
0.431733 -0.350947 0.998 
0.414611 -0.297496 0.846 
0.412158 -0.266199 0.757 
0.445041 -0.263386 0.749 
0.476108 -0.261276 0.743 
0.507302 -0.259518 0.738 
0.537296 -0.257408 0.732 
0.566731 -0.255298 0.726 
0.598916 -0.254595 0.724 
0.626545 -0.252133 0.717 
0.652601 -0.24932 0.709 
0.678878 -0.246858 0.702 
-0.754528 -0.342394 0.978 
-0.674596 -0.332942 0.951 
-0.630932 -0.333292 0.952 
-0.561967 -0.330141 0.943 
-0.524056 -0.333992 0.954 
-0.475569 -0.331191 0.946 
-0.420529 -0.322789 0.922 
-0.373459 -0.319288 0.912 
-0.331313 -0.319638 0.913 
-0.220399 -0.276576 0.79 
-0.179579 -0.272375 0.778 
-0.142948 -0.271675 0.776 
0.467606 -0.469479 1.341 
0.433012 -0.340644 0.973 
0.404654 -0.277627 0.793 
0.420603 -0.262222 0.749 
0.457842 -0.262222 0.749 
0.488148 -0.259772 0.742 
0.518506 -0.257671 0.736 
0.549055 -0.255921 0.731 
0.576746 -0.25312 0.723 
0.607068 -0.251719 0.719 
0.636126 -0.249969 0.714 
0.660968 -0.246818 0.705 
0.690876 -0.245768 0.702 
-0.745411 -0.340875 0.978 
-0.66503 -0.331116 0.95 
-0.619444 -0.330419 0.948 
-0.551417 -0.32763 0.94 
-0.514083 -0.331813 0.952 
-0.464283 -0.327979 0.941 
-0.409253 -0.319265 0.916 
-0.365358 -0.31822 0.913 
-0.321388 -0.316825 0.909 
-0.212225 -0.274303 0.787 
-0.173536 -0.271166 0.778 
-0.136038 -0.268727 0.771 
0.461012 -0.467047 1.34 
0.4307 -0.343315 0.985 
0.414942 -0.29417 0.844 
0.41349 -0.262453 0.753 
0.445609 -0.26071 0.748 
0.47662 -0.258619 0.742 
0.50776 -0.256876 0.737 
0.538434 -0.255133 0.732 
0.567077 -0.252694 0.725 
0.599212 -0.251997 0.723 
0.625908 -0.249208 0.715 
0.653702 -0.247117 0.709 
0.679 -0.244329 0.701 
-0.779917 -0.343172 0.989 
-0.724138 -0.339355 0.978 
-0.651281 -0.332416 0.958 
-0.597763 -0.327558 0.944 
-0.537955 -0.326864 0.942 
-0.499292 -0.330334 0.952 
-0.443929 -0.322353 0.929 
-0.396315 -0.318883 0.919 
-0.351172 -0.316801 0.913 
-0.253269 -0.275162 0.793 
-0.213177 -0.272734 0.786 
-0.17452 -0.269611 0.777 
-0.137236 -0.267529 0.771 
0.439091 -0.466006 1.343 
0.437034 -0.362257 1.044 
0.420563 -0.311596 0.898 
0.405409 -0.264406 0.762 
0.432825 -0.259548 0.748 
0.464564 -0.257813 0.743 
0.495164 -0.255731 0.737 
0.526642 -0.254343 0.733 
0.555452 -0.251914 0.726 
0.585232 -0.250179 0.721 
0.615405 -0.248791 0.717 
0.64249 -0.246362 0.71 
0.66702 -0.243239 0.701 
-2.84117 -1.05358 3.05 
-0.743892 -0.337836 0.978 
-0.667982 -0.328164 0.95 
-0.621733 -0.327127 0.947 
-0.556073 -0.324019 0.938 
-0.522731 -0.330582 0.957 
-0.47163 -0.326091 0.944 
-0.414946 -0.316419 0.916 
-0.371032 -0.315383 0.913 
-0.262794 -0.273585 0.792 
-0.223514 -0.272203 0.788 
-0.18394 -0.268058 0.776 
-0.147961 -0.268403 0.777 
-0.100063 -0.257004 0.744 
0.465514 -0.461156 1.335 
0.43043 -0.336454 0.974 
0.414942 -0.291548 0.844 
0.414109 -0.259768 0.752 
0.446771 -0.258386 0.748 
0.477129 -0.255968 0.741 
0.508905 -0.254586 0.737 
0.538834 -0.252513 0.731 
0.56742 -0.250095 0.724 
0.599505 -0.249404 0.722 
0.626142 -0.246641 0.714 
0.65388 -0.244568 0.708 
0.678149 -0.241459 0.699 
-0.779873 -0.339411 0.987 
-0.724947 -0.335285 0.975 
-0.6617 -0.329439 0.958 
-0.60803 -0.324624 0.944 
-0.540618 -0.322905 0.939 
-0.500026 -0.324968 0.945 
-0.447294 -0.318778 0.927 
-0.400163 -0.315684 0.918 
-0.355039 -0.31362 0.912 
-0.254181 -0.272354 0.792 
-0.214796 -0.269259 0.783 
-0.176706 -0.266852 0.776 
-0.13945 -0.264789 0.77 
0.0523316 -0.286454 0.833 
0.464817 -0.458394 1.333 
0.431232 -0.333221 0.969 
0.414774 -0.289205 0.841 
0.412941 -0.258599 0.752 
0.445609 -0.257224 0.748 
0.475977 -0.254816 0.741 
0.507071 -0.253097 0.736 
0.537698 -0.251378 0.731 
0.566295 -0.24897 0.724 
0.598383 -0.248283 0.722 
0.625033 -0.245532 0.714 
0.65278 -0.243468 0.708 
0.677063 -0.240373 0.699 
-0.779083 -0.337536 0.986 
-0.72346 -0.333085 0.973 
-0.66626 -0.327266 0.956 
-0.613247 -0.322815 0.943 
-0.542957 -0.321104 0.938 
-0.501365 -0.322473 0.942 
-0.45066 -0.317681 0.928 
-0.402137 -0.313573 0.916 
-0.35748 -0.311861 0.911 
-0.254181 -0.271124 0.792 
-0.214248 -0.267358 0.781 
-0.176479 -0.265304 0.775 
-0.139088 -0.262908 0.768 
-0.100332 -0.255377 0.746 
0.455143 -0.457008 1.335 
0.430041 -0.337878 0.987 
0.412808 -0.289267 0.845 
0.408723 -0.258458 0.755 
0.438622 -0.255377 0.746 
0.470221 -0.253665 0.741 
0.500672 -0.251611 0.735 
0.532747 -0.250584 0.732 
0.559896 -0.247503 0.723 
0.591953 -0.246819 0.721 
0.619486 -0.244422 0.714 
0.648195 -0.242711 0.709 
0.671633 -0.239287 0.699 
-2.7859 -1.03118 3.026 
-0.730267 -0.331233 0.972 
-0.670868 -0.324417 0.952 
-0.62123 -0.321691 0.944 
-0.57295 -0.319306 0.937 
-0.51961 -0.325099 0.954 
-0.460336 -0.317943 0.933 
-0.407913 -0.311127 0.913 
-0.365358 -0.311127 0.913 
-0.267716 -0.269893 0.792 
-0.229344 -0.26819 0.787 
-0.190703 -0.265463 0.779 
-0.152808 -0.262737 0.771 
-0.113991 -0.256262 0.752 
0.5666 -0.652583 1.915 
0.434368 -0.370081 1.086 
0.430485 -0.325099 0.954 
0.405578 -0.269212 0.79 
0.42056 -0.255922 0.751 
0.451318 -0.253536 0.744 
0.483383 -0.252173 0.74 
0.513676 -0.250128 0.734 
0.544155 -0.248425 0.729 
0.572583 -0.246039 0.722 
0.602877 -0.244676 0.718 
0.629253 -0.24195 0.71 
0.656749 -0.239905 0.704 
0.683686 -0.237861 0.698 
-0.759863 -0.332097 0.979 
-0.703288 -0.327009 0.964 
-0.648562 -0.323617 0.954 
-0.595864 -0.319207 0.941 
-0.53919 -0.316832 0.934 
-0.497248 -0.31785 0.937 
-0.445846 -0.31344 0.924 
-0.399291 -0.310726 0.916 
-0.354649 -0.30903 0.911 
-0.255993 -0.267984 0.79 
-0.216397 -0.264592 0.78 
-0.178656 -0.262557 0.774 
-0.14129 -0.260182 0.767 
-0.103063 -0.254076 0.749 
0.583939 -0.655714 1.933 
0.434921 -0.366019 1.079 
0.430609 -0.322599 0.951 
0.406483 -0.266967 0.787 
0.42233 -0.254416 0.75 
0.45302 -0.252041 0.743 
0.48437 -0.250345 0.738 
0.515956 -0.248988 0.734 
0.544922 -0.246614 0.727 
0.574826 -0.244917 0.722 
0.604265 -0.243221 0.717 
0.62968 -0.240168 0.708 
0.657064 -0.238133 0.702 
0.685854 -0.236776 0.698 
-0.754528 -0.330238 0.978 
-0.694445 -0.323485 0.958 
-0.646401 -0.321797 0.953 
-0.594402 -0.317745 0.941 
-0.544411 -0.315043 0.933 
-0.504145 -0.317069 0.939 
-0.454005 -0.31268 0.926 
-0.403215 -0.307952 0.912 
-0.360706 -0.307952 0.912 
-0.260903 -0.266757 0.79 
-0.221812 -0.264056 0.782 
-0.183466 -0.261354 0.774 
-0.146247 -0.259328 0.768 
-0.107862 -0.25325 0.75 
0.574702 -0.662841 1.963 
0.444406 -0.390343 1.156 
0.431348 -0.33429 0.99 
0.414451 -0.284653 0.843 
0.408811 -0.254263 0.753 
0.439782 -0.2519 0.746 
0.471372 -0.250211 0.741 
0.500448 -0.24751 0.733 
0.532426 -0.246497 0.73 
0.560244 -0.243796 0.722 
0.591428 -0.242783 0.719 
0.618857 -0.240419 0.712 
0.647465 -0.238731 0.707 
0.671756 -0.235692 0.698 
-2.76355 -1.01405 3.017 
-0.716754 -0.324686 0.966 
-0.668252 -0.323005 0.961 
-0.609835 -0.315947 0.94 
-0.562409 -0.31393 0.934 
-0.523886 -0.319644 0.951 
-0.470483 -0.313594 0.933 
-0.413587 -0.306872 0.913 
-0.289364 -0.266874 0.794 
-0.249813 -0.264185 0.786 
-0.211007 -0.261496 0.778 
-0.173621 -0.259816 0.773 
-0.13599 -0.256791 0.764 
-0.0988026 -0.252757 0.752 
0.586901 -0.659791 1.963 
0.445854 -0.394597 1.174 
0.431044 -0.336113 1 
0.414904 -0.286369 0.852 
0.411225 -0.252421 0.751 
0.444447 -0.251413 0.748 
0.474185 -0.248724 0.74 
0.503865 -0.246371 0.733 
0.535094 -0.245027 0.729 
0.564389 -0.24301 0.723 
0.593953 -0.241329 0.718 
0.620428 -0.238641 0.71 
0.649839 -0.237296 0.706 
0.674043 -0.234271 0.697 
-0.756018 -0.32653 0.976 
-0.698878 -0.321177 0.96 
-0.650726 -0.319505 0.955 
-0.597961 -0.315155 0.942 
-0.543244 -0.311475 0.931 
-0.502535 -0.313148 0.936 
-0.453514 -0.309468 0.925 
-0.401358 -0.304784 0.911 
-0.293434 -0.265975 0.795 
-0.253799 -0.263299 0.787 
-0.214633 -0.260288 0.778 
-0.176766 -0.257946 0.771 
-0.139551 -0.255604 0.764 
-0.102444 -0.251924 0.753 
0.582718 -0.669454 2.001 
0.47344 -0.438608 1.311 
0.43817 -0.347608 1.039 
0.422724 -0.296085 0.885 
0.406377 -0.252593 0.755 
0.436304 -0.249582 0.746 
0.46855 -0.248243 0.742 
0.497032 -0.245232 0.733 
0.529023 -0.244229 0.73 
0.556107 -0.241218 0.721 
0.586441 -0.239879 0.717 
0.614674 -0.237872 0.711 
0.644169 -0.236534 0.707 
0.668503 -0.233523 0.698 
-0.759788 -0.324681 0.975 
-0.704086 -0.320019 0.961 
-0.657921 -0.319353 0.959 
-0.601072 -0.313026 0.94 
-0.55133 -0.309696 0.93 
-0.516722 -0.315024 0.946 
-0.462692 -0.309363 0.929 
-0.411265 -0.303369 0.911 
-0.304632 -0.263741 0.792 
-0.268054 -0.264074 0.793 
-0.227595 -0.260078 0.781 
-0.189234 -0.257414 0.773 
-0.151817 -0.255083 0.766 
-0.114598 -0.251753 0.756 
0.567604 -0.678 2.036 
0.459621 -0.4409 1.324 
0.43665 -0.357982 1.075 
0.42426 -0.304701 0.915 
0.407188 -0.261743 0.786 
0.42469 -0.249089 0.748 
0.456483 -0.247424 0.743 
0.487149 -0.245425 0.737 
0.51867 -0.244093 0.733 
0.546047 -0.241096 0.724 
0.574988 -0.239098 0.718 
0.604217 -0.237433 0.713 
0.630298 -0.234769 0.705 
0.659396 -0.233437 0.701 
0.687133 -0.231772 0.696 
-0.729515 -0.320515 0.967 
-0.678073 -0.317531 0.958 
-0.627469 -0.314548 0.949 
-0.577091 -0.311234 0.939 
-0.529348 -0.308914 0.932 
-0.485386 -0.308582 0.931 
-0.436769 -0.304936 0.92 
-0.330496 -0.264499 0.798 
-0.291463 -0.262842 0.793 
-0.251934 -0.26019 0.785 
-0.21315 -0.257539 0.777 
-0.175112 -0.254887 0.769 
-0.138182 -0.252898 0.763 
0.0456954 -0.275106 0.83 
0.582263 -0.669865 2.021 
0.469965 -0.433208 1.307 
0.435974 -0.341396 1.03 
0.421062 -0.289358 0.873 
0.405741 -0.250578 0.756 
0.435145 -0.247264 0.746 
0.467397 -0.245938 0.742 
0.495893 -0.242955 0.733 
0.527889 -0.24196 0.73 
0.554217 -0.238646 0.72 
0.584511 -0.23732 0.716 
0.612706 -0.235331 0.71 
0.641252 -0.233674 0.705 
0.667419 -0.231354 0.698 
-2.0247 -0.753489 2.284 
-0.716775 -0.317363 0.962 
-0.669745 -0.317033 0.961 
-0.612596 -0.310765 0.942 
-0.562652 -0.307466 0.932 
-0.524782 -0.310765 0.942 
-0.47526 -0.307136 0.931 
-0.425372 -0.302517 0.917 
-0.316014 -0.263589 0.799 
-0.277028 -0.26194 0.794 
-0.236391 -0.257981 0.782 
-0.19713 -0.254352 0.771 
-0.160357 -0.253032 0.767 
-0.123307 -0.250393 0.759 
0.0635955 -0.273156 0.828 
0.43713 -0.441075 1.337 
0.446152 -0.385982 1.17 
0.435705 -0.329899 1 
0.415898 -0.276455 0.838 
0.413621 -0.247094 0.749 
0.446736 -0.246104 0.746 
0.476343 -0.243465 0.738 
0.506589 -0.241486 0.732 
0.537015 -0.239836 0.727 
0.566189 -0.237857 0.721 
0.593972 -0.235548 0.714 
0.621102 -0.233238 0.707 
0.64943 -0.231589 0.702 
0.675348 -0.22928 0.695 
-0.751469 -0.320465 0.976 
-0.6907 -0.314883 0.959 
-0.639135 -0.312256 0.951 
-0.59043 -0.309958 0.944 
-0.53659 -0.304376 0.927 
-0.492227 -0.306346 0.933 
-0.442968 -0.302406 0.921 
-0.327605 -0.261691 0.797 
-0.287906 -0.259393 0.79 
-0.248541 -0.256766 0.782 
-0.210736 -0.255124 0.777 
-0.172274 -0.251841 0.767 
-0.135456 -0.249871 0.761 
0.0493849 -0.271541 0.827 
0.576527 -0.667854 2.034 
0.465547 -0.428819 1.306 
0.439206 -0.349688 1.065 
0.423254 -0.291899 0.889 
0.405839 -0.247572 0.754 
0.43572 -0.244617 0.745 
0.467918 -0.243304 0.741 
0.497032 -0.240677 0.733 
0.528298 -0.239364 0.729 
0.555336 -0.236408 0.72 
0.584806 -0.234767 0.715 
0.612945 -0.232797 0.709 
0.640525 -0.230827 0.703 
0.667545 -0.228857 0.697 
-2.01937 -0.747045 2.286 
-0.686946 -0.31372 0.96 
-0.630418 -0.310125 0.949 
-0.580626 -0.307184 0.94 
-0.53053 -0.303589 0.929 
-0.477731 -0.304896 0.933 
-0.343401 -0.263067 0.805 
-0.30094 -0.258819 0.792 
-0.263358 -0.258165 0.79 
-0.221316 -0.25359 0.776 
-0.182521 -0.249995 0.765 
-0.147057 -0.250322 0.766 
-0.110336 -0.248035 0.759 
0.533332 -0.666001 2.038 
0.446177 -0.435613 1.333 
0.439168 -0.358817 1.098 
0.423796 -0.298687 0.914 
0.404939 -0.253917 0.777 
0.425873 -0.243786 0.746 
0.458174 -0.242479 0.742 
0.486782 -0.239538 0.733 
0.518105 -0.238231 0.729 
0.54754 -0.23627 0.723 
0.574808 -0.233656 0.715 
0.603031 -0.231695 0.709 
0.629797 -0.229408 0.702 
0.66063 -0.228754 0.7 
0.688306 -0.22712 0.695 
-0.685388 -0.312879 0.962 
-0.626808 -0.308325 0.948 
-0.575861 -0.304748 0.937 
-0.524225 -0.306049 0.941 
-0.476281 -0.303447 0.933 
-0.345902 -0.261816 0.805 
-0.303401 -0.257588 0.792 
-0.265813 -0.256938 0.79 
-0.224933 -0.252384 0.776 
-0.186087 -0.248807 0.765 
-0.150627 -0.249132 0.766 
-0.114173 -0.247506 0.761 
0.0606541 -0.267671 0.823 
0.599237 -0.662184 2.036 
0.448232 -0.387033 1.19 
0.435974 -0.334995 1.03 
0.413467 -0.273525 0.841 
0.414231 -0.243278 0.748 
0.446694 -0.241977 0.744 
0.475549 -0.23905 0.735 
0.506339 -0.237424 0.73 
0.537404 -0.236123 0.726 
0.564948 -0.233521 0.718 
0.594248 -0.231895 0.713 
0.62132 -0.229618 0.706 
0.649594 -0.227992 0.701 
0.675455 -0.225715 0.694 
-0.69666 -0.310413 0.959 
-0.639939 -0.3075 0.95 
-0.588762 -0.303939 0.939 
-0.537449 -0.299731 0.926 
-0.496187 -0.302645 0.935 
-0.351651 -0.259271 0.801 
-0.312746 -0.257976 0.797 
-0.273523 -0.256034 0.791 
-0.233064 -0.25215 0.779 
-0.191091 -0.247942 0.766 
-0.155387 -0.247942 0.766 
-0.118903 -0.246324 0.761 
0.0476929 -0.265421 0.82 
0.5686 -0.663876 2.051 
0.460515 -0.423702 1.309 
0.441858 -0.353463 1.092 
0.426073 -0.298437 0.922 
0.405102 -0.245029 0.757 
0.433395 -0.240497 0.743 
0.465507 -0.239203 0.739 
0.495893 -0.23726 0.733 
0.52572 -0.235318 0.727 
0.554217 -0.233053 0.72 
0.582878 -0.23111 0.714 
0.61098 -0.229168 0.708 
0.637613 -0.226903 0.701 
0.665506 -0.225284 0.696 
-2.06119 -0.745088 2.313 
-0.697422 -0.308601 0.958 
-0.650044 -0.307312 0.954 
-0.594787 -0.301836 0.937 
-0.542879 -0.297326 0.923 
-0.492754 -0.30087 0.934 
-0.359912 -0.257704 0.8 
-0.321414 -0.256738 0.797 
-0.280699 -0.253517 0.787 
-0.241846 -0.251262 0.78 
-0.199682 -0.247074 0.767 
-0.163291 -0.246108 0.764 
-0.126845 -0.244497 0.759 
-0.089901 -0.240309 0.746 
0.0704529 -0.263503 0.818 
0.614595 -0.658757 2.045 
0.442868 -0.371094 1.152 
0.43502 -0.322775 1.002 
0.414847 -0.265113 0.823 
0.418952 -0.239665 0.744 
0.45241 -0.239021 0.742 
0.480432 -0.235799 0.732 
0.510333 -0.233867 0.726 
0.541923 -0.2329 0.723 
0.569253 -0.230323 0.715 
0.599209 -0.229035 0.711 
0.625233 -0.226458 0.703 
0.654257 -0.225169 0.699 
0.680942 -0.223236 0.693 
-0.724249 -0.308395 0.962 
-0.681528 -0.309357 0.965 
-0.622697 -0.302624 0.944 
-0.570727 -0.298457 0.931 
-0.494734 -0.299739 0.935 
-0.368613 -0.256461 0.8 
-0.330496 -0.25582 0.798 
-0.288156 -0.251332 0.784 
-0.250329 -0.25005 0.78 
-0.212602 -0.248447 0.775 
-0.173518 -0.244279 0.762 
-0.137458 -0.243318 0.759 
-0.101677 -0.242356 0.756 
0.056611 -0.262873 0.82 
0.585031 -0.66167 2.064 
0.460078 -0.408415 1.274 
0.444988 -0.340773 1.063 
0.410691 -0.268643 0.838 
0.409582 -0.239791 0.748 
0.441476 -0.238188 0.743 
0.470981 -0.235624 0.735 
0.503178 -0.234662 0.732 
0.532158 -0.232418 0.725 
0.560486 -0.230174 0.718 
0.587335 -0.227609 0.71 
0.617806 -0.226648 0.707 
0.644317 -0.224404 0.7 
0.672109 -0.222801 0.695 
-0.737766 -0.308176 0.966 
-0.689872 -0.3069 0.962 
-0.634975 -0.302115 0.947 
-0.581477 -0.297329 0.932 
-0.519769 -0.297648 0.933 
-0.390645 -0.257452 0.807 
-0.349969 -0.255218 0.8 
-0.306248 -0.252985 0.793 
-0.26657 -0.250433 0.785 
-0.226758 -0.246924 0.774 
-0.188464 -0.244053 0.765 
-0.152408 -0.243415 0.763 
-0.116232 -0.242138 0.759 
-0.0795761 -0.23831 0.747 
0.533205 -0.657825 2.062 
0.447239 -0.424301 1.33 
0.443933 -0.358263 1.123 
0.432002 -0.307538 0.964 
0.4169 -0.260642 0.817 
0.420697 -0.237034 0.743 
0.452877 -0.235758 0.739 
0.480728 -0.232568 0.729 
0.511177 -0.230973 0.724 
0.542665 -0.230016 0.721 
0.570676 -0.227782 0.714 
0.59888 -0.225868 0.708 
0.626525 -0.223954 0.702 
0.655489 -0.222678 0.698 
0.683095 -0.221083 0.693 
-0.690025 -0.303501 0.956 
-0.640064 -0.300961 0.948 
-0.585192 -0.295564 0.931 
-0.535396 -0.292072 0.92 
-0.393918 -0.25588 0.806 
-0.352813 -0.253341 0.798 
-0.307093 -0.251436 0.792 
-0.267107 -0.248579 0.783 
-0.22796 -0.245721 0.774 
-0.189653 -0.242864 0.765 
-0.153392 -0.241912 0.762 
-0.117411 -0.240959 0.759 
-0.0807367 -0.23715 0.747 
0.528165 -0.660336 2.08 
0.619704 -0.654622 2.062 
0.444487 -0.355566 1.12 
0.430936 -0.303183 0.955 
0.416634 -0.25842 0.814 
0.421852 -0.23588 0.743 
0.452797 -0.233975 0.737 
0.4812 -0.231118 0.728 
0.511594 -0.22953 0.723 
0.543785 -0.228895 0.721 
0.571785 -0.226673 0.714 
0.59998 -0.224768 0.708 
0.626722 -0.222546 0.701 
0.655633 -0.221276 0.697 
0.684172 -0.220006 0.693 
-0.686169 -0.303595 0.961 
-0.629363 -0.297908 0.943 
-0.575477 -0.292854 0.927 
-0.527101 -0.290011 0.918 
-0.397937 -0.253996 0.804 
-0.357324 -0.251785 0.797 
-0.314432 -0.251153 0.795 
-0.272841 -0.247046 0.782 
-0.234578 -0.245151 0.776 
-0.196107 -0.242307 0.767 
-0.158893 -0.240096 0.76 
-0.123145 -0.239464 0.758 
-0.0841058 -0.235673 0.746 
0.0679111 -0.258419 0.818 
0.610712 -0.659 2.086 
0.463822 -0.400581 1.268 
0.434636 -0.31402 0.994 
0.414795 -0.261578 0.828 
0.411412 -0.235357 0.745 
0.443143 -0.233778 0.74 
0.472471 -0.23125 0.732 
0.504513 -0.230303 0.729 
0.532583 -0.227775 0.721 
0.561477 -0.22588 0.715 
0.590644 -0.2243 0.71 
0.620223 -0.223036 0.706 
0.645729 -0.220509 0.698 
0.672433 -0.218614 0.692 
-0.713031 -0.299587 0.953 
-0.675627 -0.302731 0.963 
-0.613057 -0.294243 0.936 
-0.561521 -0.290156 0.923 
-0.410429 -0.252747 0.804 
-0.371562 -0.251804 0.801 
-0.332559 -0.250547 0.797 
-0.286205 -0.245831 0.782 
-0.248159 -0.244259 0.777 
-0.209761 -0.241744 0.769 
-0.170926 -0.239229 0.761 
-0.134744 -0.237972 0.757 
-0.0988026 -0.2364 0.752 
0.055202 -0.257148 0.818 
0.564255 -0.654502 2.082 
0.456527 -0.415272 1.321 
0.45046 -0.348627 1.109 
0.428433 -0.29047 0.924 
0.404355 -0.241744 0.769 
0.424742 -0.233257 0.742 
0.454994 -0.231056 0.735 
0.483927 -0.228541 0.727 
0.514252 -0.226969 0.722 
0.544869 -0.225712 0.718 
0.573502 -0.223826 0.712 
0.601576 -0.22194 0.706 
0.628192 -0.219739 0.699 
0.656991 -0.218482 0.695 
0.688394 -0.218167 0.694 
-0.689371 -0.297481 0.951 
-0.64301 -0.296542 0.948 
-0.586822 -0.290599 0.929 
-0.53767 -0.287471 0.919 
-0.395439 -0.251498 0.804 
-0.353957 -0.248683 0.795 
-0.313681 -0.247119 0.79 
-0.272654 -0.243365 0.778 
-0.235176 -0.242114 0.774 
-0.197041 -0.239611 0.766 
-0.159864 -0.237422 0.759 
-0.123994 -0.236483 0.756 
-0.0852648 -0.233355 0.746 
0.0641767 -0.25619 0.819 
0.578094 -0.655959 2.097 
0.460515 -0.409466 1.309 
0.430647 -0.315936 1.01 
0.412801 -0.261821 0.837 
0.408347 -0.234606 0.75 
0.437985 -0.231791 0.741 
0.467422 -0.229289 0.733 
0.49885 -0.228037 0.729 
0.526251 -0.225222 0.72 
0.555923 -0.223658 0.715 
0.58348 -0.221468 0.708 
0.614739 -0.220843 0.706 
0.63939 -0.218027 0.697 
0.668021 -0.216776 0.693 
-0.71449 -0.296003 0.951 
-0.677915 -0.299427 0.962 
-0.608845 -0.290712 0.934 
-0.558048 -0.286977 0.922 
-0.414909 -0.249937 0.803 
-0.378891 -0.250871 0.806 
-0.337935 -0.248381 0.798 
-0.295087 -0.243712 0.783 
-0.254298 -0.239666 0.77 
-0.218124 -0.239355 0.769 
-0.180385 -0.236865 0.761 
-0.143962 -0.235309 0.756 
-0.10815 -0.234063 0.752 
-0.0725154 -0.232196 0.746 
0.47813 -0.658615 2.116 
0.576207 -0.654257 2.102 
0.460233 -0.408989 1.314 
0.444151 -0.330241 1.061 
0.429403 -0.287288 0.923 
0.405409 -0.237176 0.762 
0.428775 -0.23064 0.741 
0.458311 -0.22815 0.733 
0.488445 -0.226282 0.727 
0.518817 -0.223792 0.719 
0.550794 -0.22317 0.717 
0.57688 -0.220368 0.708 
0.608157 -0.219746 0.706 
0.632892 -0.216944 0.697 
0.661561 -0.215699 0.693 
-5.55197 -2.02482 6.538 
-0.682472 -0.297313 0.96 
-0.610296 -0.289261 0.934 
-0.55948 -0.285544 0.922 
-0.435606 -0.250548 0.809 
-0.393699 -0.24869 0.803 
-0.349811 -0.245903 0.794 
-0.308863 -0.242806 0.784 
-0.269194 -0.240018 0.775 
-0.231868 -0.238779 0.771 
-0.194153 -0.236612 0.764 
-0.152386 -0.234444 0.757 
-0.116019 -0.232276 0.75 
-0.0783106 -0.231037 0.746 
0.0756289 -0.253645 0.819 
0.553872 -0.651611 2.104 
0.449675 -0.410354 1.325 
0.446471 -0.348414 1.125 
0.427921 -0.286783 0.926 
0.405781 -0.239709 0.774 
0.423019 -0.229488 0.741 
0.452617 -0.227011 0.733 
0.48147 -0.224533 0.725 
0.510998 -0.222675 0.719 
0.542239 -0.221746 0.716 
0.570788 -0.219888 0.71 
0.600479 -0.218649 0.706 
0.626209 -0.216171 0.698 
0.654968 -0.214932 0.694 
0.685335 -0.214313 0.692 
-0.688617 -0.293356 0.952 
-0.62444 -0.289658 0.94 
-0.570743 -0.284728 0.924 
-0.451099 -0.250216 0.812 
-0.407187 -0.248059 0.805 
-0.361691 -0.244361 0.793 
-0.322272 -0.242512 0.787 
-0.282324 -0.239739 0.778 
-0.244796 -0.238506 0.774 
-0.206293 -0.235733 0.765 
-0.169298 -0.233884 0.759 
-0.133215 -0.232651 0.755 
-0.0972448 -0.230802 0.749 
-0.0570628 -0.228337 0.741 
0.0667216 -0.252373 0.819 
0.522917 -0.650499 2.111 
0.61984 -0.648958 2.106 
0.477282 -0.395353 1.283 
0.427265 -0.28781 0.934 
0.405022 -0.236657 0.768 
0.424747 -0.228029 0.74 
0.454274 -0.225564 0.732 
0.48439 -0.223715 0.726 
0.512518 -0.22125 0.718 
0.543703 -0.220325 0.715 
0.57138 -0.218168 0.708 
0.602673 -0.217552 0.706 
0.627478 -0.214779 0.697 
0.656177 -0.213546 0.693 
0.687485 -0.213238 0.692 
-0.686379 -0.292184 0.953 
-0.589532 -0.285439 0.931 
-0.45797 -0.249261 0.813 
-0.414392 -0.245888 0.802 
-0.377011 -0.245888 0.802 
-0.332898 -0.241902 0.789 
-0.290321 -0.239143 0.78 
-0.251035 -0.236384 0.771 
-0.213424 -0.234544 0.765 
-0.176373 -0.232705 0.759 
-0.139881 -0.230865 0.753 
-0.104366 -0.229945 0.75 
-0.0689457 -0.228412 0.745 
-0.0272029 -0.227799 0.743 
0.0679941 -0.2511 0.819 
0.509315 -0.646606 2.109 
0.608768 -0.647832 2.113 
0.475289 -0.39336 1.283 
0.428345 -0.290038 0.946 
0.405549 -0.23577 0.769 
0.424747 -0.226879 0.74 
0.454274 -0.224427 0.732 
0.48439 -0.222587 0.726 
0.512518 -0.220134 0.718 
0.542943 -0.218908 0.714 
0.57138 -0.217068 0.708 
0.602673 -0.216455 0.706 
0.626577 -0.213389 0.696 
0.655231 -0.212163 0.692 
0.686491 -0.211856 0.691 
-0.682598 -0.291618 0.956 
-0.589532 -0.283992 0.931 
-0.446366 -0.246472 0.808 
-0.406681 -0.245252 0.804 
-0.362008 -0.241287 0.791 
-0.321851 -0.238846 0.783 
-0.282804 -0.236711 0.776 
-0.245363 -0.235491 0.772 
-0.20721 -0.233051 0.764 
-0.170477 -0.231525 0.759 
-0.134032 -0.229695 0.753 
-0.0982771 -0.22817 0.748 
-0.0629887 -0.226645 0.743 
-0.0283191 -0.22634 0.742 
0.0500571 -0.249218 0.817 
0.440504 -0.643329 2.109 
0.542893 -0.64821 2.125 
0.64194 -0.64821 2.125 
0.432477 -0.310531 1.018 
0.416254 -0.257454 0.844 
0.408487 -0.22756 0.746 
0.437911 -0.224814 0.737 
0.467777 -0.222679 0.73 
0.496304 -0.220239 0.722 
0.524818 -0.218104 0.715 
0.555803 -0.217188 0.712 
0.584026 -0.215358 0.706 
0.612563 -0.213833 0.701 
0.638794 -0.211698 0.694 
0.667273 -0.210478 0.69 
-0.702619 -0.286188 0.943 
-0.667745 -0.290133 0.956 
-0.453622 -0.246431 0.812 
-0.410654 -0.243396 0.802 
-0.367388 -0.240361 0.792 
-0.327134 -0.237933 0.784 
-0.287997 -0.235809 0.777 
-0.250161 -0.234291 0.772 
-0.211681 -0.23156 0.763 
-0.174963 -0.230043 0.758 
-0.138527 -0.228222 0.752 
-0.103063 -0.227311 0.749 
-0.0676972 -0.225794 0.744 
-0.032886 -0.224883 0.741 
0.0202622 -0.227008 0.748 
0.0653693 -0.248252 0.818 
0.48392 -0.645515 2.127 
0.585527 -0.648247 2.136 
0.46686 -0.395746 1.304 
0.438134 -0.304093 1.002 
0.413596 -0.246734 0.813 
0.411543 -0.224276 0.739 
0.443574 -0.223062 0.735 
0.473282 -0.220938 0.728 
0.500944 -0.218207 0.719 
0.53074 -0.216689 0.714 
0.56086 -0.215475 0.71 
0.589771 -0.213958 0.705 
0.618215 -0.21244 0.7 
0.643404 -0.210012 0.692 
0.673706 -0.209406 0.69 
-0.710697 -0.285024 0.944 
-0.674466 -0.288346 0.955 
-0.453763 -0.244565 0.81 
-0.411386 -0.241848 0.801 
-0.370783 -0.239734 0.794 
-0.32957 -0.236715 0.784 
-0.290412 -0.234602 0.777 
-0.25256 -0.233092 0.772 
-0.214332 -0.230677 0.764 
-0.177084 -0.228563 0.757 
-0.140864 -0.227053 0.752 
-0.105391 -0.226148 0.749 
-0.0700091 -0.224638 0.744 
-0.0351411 -0.22343 0.74 
0.00278836 -0.222524 0.737 
0.055202 -0.246981 0.818 
0.447058 -0.636776 2.109 
0.553633 -0.646438 2.141 
0.65129 -0.644324 2.134 
0.447265 -0.340278 1.127 
0.427542 -0.277476 0.919 
0.40876 -0.236111 0.782 
0.420159 -0.222826 0.738 
0.44963 -0.220411 0.73 
0.481006 -0.219203 0.726 
0.509172 -0.216788 0.718 
0.538103 -0.214976 0.712 
0.566475 -0.213164 0.706 
0.597684 -0.212561 0.704 
0.623333 -0.210145 0.696 
0.651063 -0.208635 0.691 
0.680304 -0.20773 0.688 
-0.698223 -0.283257 0.943 
-0.519883 -0.24601 0.819 
-0.442756 -0.242105 0.806 
-0.403178 -0.240904 0.802 
-0.359411 -0.236699 0.788 
-0.319815 -0.234596 0.781 
-0.28051 -0.232193 0.773 
-0.242898 -0.230691 0.768 
-0.205753 -0.229189 0.763 
-0.169074 -0.227687 0.758 
-0.132509 -0.225585 0.751 
-0.0967254 -0.223782 0.745 
-0.0616679 -0.222581 0.741 
-0.0270564 -0.22198 0.739 
0.00741859 -0.222881 0.742 
0.0602119 -0.24541 0.817 
0.454041 -0.6341 2.111 
0.575467 -0.645214 2.148 
0.458131 -0.392896 1.308 
0.45076 -0.334622 1.114 
0.428059 -0.271843 0.905 
0.407659 -0.232193 0.773 
0.423025 -0.221379 0.737 
0.452412 -0.218976 0.729 
0.48439 -0.218075 0.726 
0.511804 -0.215372 0.717 
0.540661 -0.213569 0.711 
0.568959 -0.211767 0.705 
0.600966 -0.211467 0.704 
0.624777 -0.208463 0.694 
0.653337 -0.207261 0.69 
-1.6851 -0.597352 1.999 
-0.695299 -0.28239 0.945 
-0.519883 -0.244738 0.819 
-0.458919 -0.241451 0.808 
-0.41813 -0.239658 0.802 
-0.374771 -0.23667 0.792 
-0.334016 -0.23398 0.783 
-0.29524 -0.232187 0.777 
-0.257357 -0.230693 0.772 
-0.219367 -0.228601 0.765 
-0.181549 -0.225912 0.756 
-0.145731 -0.225015 0.753 
-0.110046 -0.22382 0.749 
-0.0745325 -0.222027 0.743 
-0.03974 -0.221131 0.74 
-0.00518451 -0.218441 0.731 
0.0373138 -0.228302 0.764 
0.0905953 -0.240554 0.805 
0.519216 -0.642474 2.15 
0.607616 -0.630222 2.109 
0.469606 -0.380404 1.273 
0.438571 -0.299722 1.003 
0.416081 -0.251312 0.841 
0.407258 -0.223521 0.748 
0.43503 -0.219935 0.736 
0.464234 -0.217545 0.728 
0.492691 -0.215154 0.72 
0.521135 -0.213062 0.713 
0.552813 -0.212465 0.711 
0.581008 -0.210672 0.705 
0.609514 -0.209178 0.7 
0.634803 -0.206787 0.692 
0.663201 -0.205592 0.688 
-0.735353 -0.284489 0.957 
-0.686416 -0.282705 0.951 
-0.52179 -0.243168 0.818 
-0.477159 -0.239898 0.807 
-0.439544 -0.239898 0.807 
-0.397945 -0.23752 0.799 
-0.354383 -0.233358 0.785 
-0.31577 -0.231872 0.78 
-0.276548 -0.229494 0.772 
-0.238384 -0.227413 0.765 
-0.202197 -0.226818 0.763 
-0.165541 -0.225332 0.758 
-0.128665 -0.222656 0.749 
-0.0930026 -0.220873 0.743 
-0.0580569 -0.219684 0.739 
-0.0235161 -0.218792 0.736 
0.0120299 -0.220575 0.742 
0.0613308 -0.242276 0.815 
0.0980996 -0.239304 0.805 
0.542268 -0.642701 2.162 
0.632035 -0.631702 2.125 
0.45333 -0.35197 1.184 
0.437462 -0.292218 0.983 
0.418594 -0.247627 0.833 
0.408052 -0.220278 0.741 
0.439007 -0.218495 0.735 
0.468114 -0.216116 0.727 
0.495095 -0.213144 0.717 
0.526673 -0.211955 0.713 
0.558336 -0.21136 0.711 
0.585653 -0.209279 0.704 
0.613195 -0.207496 0.698 
0.639253 -0.205415 0.691 
0.668546 -0.204523 0.688 
-0.736121 -0.283298 0.958 
-0.685694 -0.280932 0.95 
-0.53842 -0.243672 0.824 
-0.491517 -0.239531 0.81 
-0.450962 -0.238053 0.805 
-0.410359 -0.236279 0.799 
-0.367047 -0.232434 0.786 
-0.32873 -0.231251 0.782 
-0.28929 -0.228886 0.774 
-0.251905 -0.227703 0.77 
-0.213771 -0.225337 0.762 
-0.176616 -0.223267 0.755 
-0.140489 -0.221788 0.75 
-0.105109 -0.220901 0.747 
-0.069915 -0.219718 0.743 
-0.0350461 -0.21824 0.738 
-0.000643311 -0.216761 0.733 
0.034894 -0.225633 0.763 
0.0769329 -0.238349 0.806 
0.162754 -0.235687 0.797 
0.574618 -0.641708 2.17 
0.450652 -0.385616 1.304 
0.445119 -0.332978 1.126 
0.429251 -0.280341 0.948 
0.417504 -0.24722 0.836 
0.407501 -0.218831 0.74 
0.438409 -0.217057 0.734 
0.468114 -0.214987 0.727 
0.495095 -0.21203 0.717 
0.525935 -0.210551 0.712 
0.557551 -0.20996 0.71 
0.585653 -0.208185 0.704 
0.613195 -0.206411 0.698 
0.639253 -0.204341 0.691 
0.667574 -0.203158 0.687 
-1.64869 -0.58068 1.974 
-0.696034 -0.278868 0.948 
-0.550609 -0.242685 0.825 
-0.504085 -0.238861 0.812 
-0.462218 -0.236802 0.805 
-0.423114 -0.23592 0.802 
-0.37948 -0.232096 0.789 
-0.339664 -0.230036 0.782 
-0.300889 -0.228271 0.776 
-0.263013 -0.226801 0.771 
-0.224721 -0.224447 0.763 
-0.187917 -0.222976 0.758 
-0.15158 -0.221506 0.753 
-0.115709 -0.220035 0.748 
-0.0800883 -0.217976 0.741 
-0.0453656 -0.217093 0.738 
-0.0108186 -0.214152 0.728 
0.0238439 -0.220917 0.751 
0.06473 -0.238273 0.81 
0.101472 -0.23592 0.802 
0.495372 -0.631865 2.148 
0.596045 -0.632453 2.15 
0.46601 -0.381237 1.296 
0.447918 -0.314756 1.07 
0.425247 -0.266219 0.905 
0.409451 -0.229742 0.781 
0.420735 -0.216211 0.735 
0.45128 -0.214446 0.729 
0.483262 -0.213563 0.726 
0.509266 -0.210327 0.715 
0.538798 -0.208857 0.71 
0.566253 -0.206797 0.703 
0.597316 -0.206209 0.701 
0.6228 -0.203856 0.693 
0.65132 -0.202679 0.689 
0.678474 -0.201208 0.684 
-1.65203 -0.578784 1.978 
-0.693088 -0.277395 0.948 
-0.550609 -0.241404 0.825 
-0.504085 -0.2376 0.812 
-0.461644 -0.235259 0.804 
-0.422059 -0.234088 0.8 
-0.37948 -0.23087 0.789 
-0.339664 -0.228821 0.782 
-0.300889 -0.227066 0.776 
-0.262672 -0.22531 0.77 
-0.224426 -0.222969 0.762 
-0.187917 -0.221799 0.758 
-0.150976 -0.219458 0.75 
-0.115555 -0.21858 0.747 
-0.0800883 -0.216824 0.741 
-0.0453041 -0.215654 0.737 
-0.0108186 -0.21302 0.728 
0.0238122 -0.219458 0.75 
0.0633931 -0.236722 0.809 
0.100101 -0.234381 0.801 
0.155776 -0.23204 0.793 
0.553303 -0.637598 2.179 
0.644048 -0.627064 2.143 
0.446242 -0.315434 1.078 
0.426114 -0.268909 0.919 
0.40807 -0.224432 0.767 
0.425865 -0.214776 0.734 
0.455689 -0.212728 0.727 
0.486881 -0.211557 0.723 
0.5141 -0.208924 0.714 
0.543547 -0.207461 0.709 
0.571714 -0.205705 0.703 
0.602761 -0.20512 0.701 
0.627277 -0.202486 0.692 
0.654766 -0.201023 0.687 
-1.94833 -0.638579 2.194 
-0.73689 -0.279124 0.959 
-0.682778 -0.275922 0.948 
-0.535859 -0.239831 0.824 
-0.488397 -0.235465 0.809 
-0.446789 -0.233428 0.802 
-0.405834 -0.23139 0.795 
-0.363213 -0.227898 0.783 
-0.325465 -0.227024 0.78 
-0.285773 -0.224405 0.771 
-0.247568 -0.222367 0.764 
-0.211126 -0.221494 0.761 
-0.173809 -0.219166 0.753 
-0.137974 -0.218002 0.749 
-0.102375 -0.216546 0.744 
-0.0674242 -0.215673 0.741 
-0.0326197 -0.213927 0.735 
0.00163884 -0.213927 0.735 
0.0375091 -0.223532 0.768 
0.0768375 -0.234301 0.805 
0.113364 -0.232263 0.798 
0.15844 -0.231099 0.794 
0.561359 -0.635668 2.184 
0.653743 -0.626645 2.153 
0.447499 -0.31114 1.069 
0.425669 -0.261078 0.897 
0.406916 -0.220039 0.756 
0.429286 -0.213636 0.734 
0.459078 -0.211598 0.727 
0.489573 -0.210143 0.722 
0.517428 -0.207815 0.714 
0.54608 -0.206068 0.708 
0.575809 -0.204904 0.704 
0.606029 -0.204031 0.701 
0.629591 -0.20112 0.691 
0.65701 -0.199665 0.686 
-1.95656 -0.640092 2.211 
-0.73689 -0.277634 0.959 
-0.56334 -0.238261 0.823 
-0.521152 -0.236524 0.817 
-0.475385 -0.232761 0.804 
-0.436821 -0.232182 0.802 
-0.395953 -0.230155 0.795 
-0.353029 -0.226391 0.782 
-0.315365 -0.225523 0.779 
-0.27619 -0.223207 0.771 
-0.236826 -0.220022 0.76 
-0.201667 -0.220312 0.761 
-0.164231 -0.217706 0.752 
-0.128493 -0.216548 0.748 
-0.0930026 -0.215101 0.743 
-0.0577427 -0.212785 0.735 
-0.0233883 -0.211916 0.732 
0.0108331 -0.213943 0.739 
0.0488317 -0.230734 0.797 
0.0863038 -0.231603 0.8 
0.123438 -0.231313 0.799 
0.159674 -0.229866 0.794 
0.568926 -0.633143 2.187 
0.661967 -0.624748 2.158 
0.45032 -0.306873 1.06 
0.418003 -0.242314 0.837 
0.407547 -0.213653 0.738 
0.437753 -0.211627 0.731 
0.469243 -0.210469 0.727 
0.496209 -0.207574 0.717 
0.524457 -0.205547 0.71 
0.555195 -0.204679 0.707 
0.583989 -0.203231 0.702 
0.613195 -0.202073 0.698 
0.638328 -0.199757 0.69 
0.664659 -0.19802 0.684 
-1.96223 -0.647598 2.249 
-0.694561 -0.272976 0.948 
-0.553843 -0.237846 0.826 
-0.505361 -0.233239 0.81 
-0.461833 -0.23036 0.8 
-0.423484 -0.229784 0.798 
-0.381932 -0.227192 0.789 
-0.342094 -0.225177 0.782 
-0.302909 -0.223161 0.775 
-0.264721 -0.221433 0.769 
-0.226496 -0.21913 0.761 
-0.189771 -0.21769 0.756 
-0.152285 -0.214522 0.745 
-0.117718 -0.21481 0.746 
-0.0823908 -0.213371 0.741 
-0.0474005 -0.211355 0.734 
-0.0130808 -0.209627 0.728 
0.0213671 -0.21481 0.746 
0.0606535 -0.232087 0.806 
0.0973684 -0.230072 0.799 
0.135621 -0.231799 0.805 
0.492565 -0.623411 2.165 
0.594025 -0.623987 2.167 
0.464571 -0.372031 1.292 
0.434792 -0.281327 0.977 
0.411897 -0.226904 0.788 
0.418452 -0.211067 0.733 
0.450147 -0.209915 0.729 
0.48147 -0.208763 0.725 
0.506734 -0.205308 0.713 
0.537695 -0.204444 0.71 
0.564357 -0.202141 0.702 
0.593675 -0.200989 0.698 
0.620826 -0.199261 0.692 
0.649305 -0.198109 0.688 
0.675431 -0.196382 0.682 
-0.742184 -0.275513 0.962 
-0.555126 -0.236563 0.826 
-0.506619 -0.231981 0.81 
-0.462497 -0.22883 0.799 
-0.424724 -0.228544 0.798 
-0.384129 -0.226539 0.791 
-0.34287 -0.223675 0.781 
-0.304113 -0.221957 0.775 
-0.265915 -0.220238 0.769 
-0.227379 -0.217661 0.76 
-0.190693 -0.216229 0.755 
-0.153442 -0.213365 0.745 
-0.118718 -0.213365 0.745 
-0.0836548 -0.212506 0.742 
-0.0484748 -0.209928 0.733 
-0.0142314 -0.208783 0.729 
0.0201539 -0.213078 0.744 
0.061829 -0.230549 0.805 
0.0984863 -0.228544 0.798 
0.136702 -0.230262 0.804 
0.484034 -0.622052 2.172 
0.585272 -0.622052 2.172 
0.46328 -0.370596 1.294 
0.434604 -0.280668 0.98 
0.413085 -0.227685 0.795 
0.416174 -0.209928 0.733 
0.447882 -0.208783 0.729 
0.479217 -0.207637 0.725 
0.504518 -0.2042 0.713 
0.535488 -0.203341 0.71 
0.562976 -0.201336 0.703 
0.591506 -0.199904 0.698 
0.618676 -0.198186 0.692 
0.648108 -0.197327 0.689 
0.673312 -0.195322 0.682 
-0.602949 -0.236419 0.83 
-0.558903 -0.23471 0.824 
-0.512916 -0.231292 0.812 
-0.468048 -0.227874 0.8 
-0.429144 -0.227019 0.797 
-0.391012 -0.22645 0.795 
-0.348169 -0.222747 0.782 
-0.309328 -0.221038 0.776 
-0.270695 -0.219044 0.769 
-0.232103 -0.21648 0.76 
-0.195644 -0.215341 0.756 
-0.158285 -0.212492 0.746 
-0.123348 -0.212207 0.745 
-0.0881472 -0.211068 0.741 
-0.0530302 -0.208789 0.733 
-0.0187361 -0.207365 0.728 
0.0154675 -0.211068 0.741 
0.0567556 -0.229013 0.804 
0.0936442 -0.227589 0.799 
0.131705 -0.229013 0.804 
0.466989 -0.62295 2.187 
0.568146 -0.622095 2.184 
0.669943 -0.622095 2.184 
0.44832 -0.303927 1.067 
0.412028 -0.229298 0.805 
0.409899 -0.209074 0.734 
0.441086 -0.20765 0.729 
0.47311 -0.206795 0.726 
0.49857 -0.203377 0.714 
0.52887 -0.202238 0.71 
0.557214 -0.200529 0.704 
0.586675 -0.19939 0.7 
0.613994 -0.19768 0.694 
0.642617 -0.196541 0.69 
0.667932 -0.194547 0.683 
-0.614698 -0.233713 0.825 
-0.576245 -0.233713 0.825 
-0.534532 -0.232297 0.82 
-0.486627 -0.227764 0.804 
-0.445801 -0.226064 0.798 
-0.403997 -0.223515 0.789 
-0.364429 -0.221815 0.783 
-0.325839 -0.220398 0.778 
-0.287343 -0.218699 0.772 
-0.248104 -0.215866 0.762 
-0.212029 -0.215299 0.76 
-0.174282 -0.212466 0.75 
-0.138767 -0.211616 0.747 
-0.102975 -0.209633 0.74 
-0.0682053 -0.208784 0.737 
-0.0336239 -0.207367 0.732 
0.000495534 -0.20765 0.733 
0.0359849 -0.215583 0.761 
0.0793389 -0.228047 0.805 
0.115989 -0.226347 0.799 
0.152272 -0.224931 0.794 
0.524529 -0.615303 2.172 
0.634122 -0.623518 2.201 
0.457973 -0.340229 1.201 
0.440403 -0.273657 0.966 
0.409134 -0.217849 0.769 
0.424146 -0.20765 0.733 
0.453934 -0.205667 0.726 
0.483742 -0.203968 0.72 
0.512272 -0.201985 0.713 
0.540915 -0.200285 0.707 
0.56981 -0.198868 0.702 
0.596522 -0.196885 0.695 
0.625297 -0.195752 0.691 
0.650844 -0.193769 0.684 
-1.95556 -0.621507 2.206 
-0.601496 -0.233276 0.828 
-0.558824 -0.231586 0.822 
-0.514178 -0.228769 0.812 
-0.468704 -0.225106 0.799 
-0.429303 -0.223979 0.795 
-0.393234 -0.224543 0.797 
-0.348937 -0.220035 0.781 
-0.310134 -0.218344 0.775 
-0.271889 -0.216654 0.769 
-0.232977 -0.213837 0.759 
-0.196558 -0.21271 0.755 
-0.159016 -0.209611 0.744 
-0.124338 -0.209611 0.744 
-0.0891779 -0.208484 0.74 
-0.0540951 -0.20623 0.732 
-0.0198672 -0.205103 0.728 
0.0142776 -0.208202 0.739 
0.0566144 -0.225951 0.802 
0.0936442 -0.225106 0.799 
0.131705 -0.226515 0.804 
0.46444 -0.617281 2.191 
0.564753 -0.615309 2.184 
0.678225 -0.622916 2.211 
0.447081 -0.300893 1.068 
0.428359 -0.251026 0.891 
0.406558 -0.211583 0.751 
0.430391 -0.20623 0.732 
0.460068 -0.204258 0.725 
0.489092 -0.202286 0.718 
0.516736 -0.200032 0.71 
0.546731 -0.198905 0.706 
0.575533 -0.197496 0.701 
0.603001 -0.195806 0.695 
0.630824 -0.194397 0.69 
0.656259 -0.192425 0.683 
-1.95011 -0.615278 2.196 
-0.607928 -0.23199 0.828 
-0.563834 -0.229749 0.82 
-0.521127 -0.227787 0.813 
-0.474911 -0.223865 0.799 
-0.435479 -0.222744 0.795 
-0.398423 -0.222744 0.795 
-0.355459 -0.219102 0.782 
-0.31697 -0.217701 0.777 
-0.277863 -0.215459 0.769 
-0.238873 -0.212657 0.759 
-0.203227 -0.212377 0.758 
