# .PCD v.7 - Point Cloud Data file format
VERSION .7
FIELDS x y z
SIZE 4 4 4
TYPE F F F
COUNT 1 1 1
WIDTH 1796
HEIGHT 1
VIEWPOINT 0 0 0 1 0 0 0
POINTS 1796
DATA ascii
0.341874 -0.00329989 0.637 
0.371565 -0.00329989 0.637 
0.399996 -0.00328953 0.635 
0.429594 -0.00328953 0.635 
0.457022 -0.00327399 0.632 
0.48571 -0.00326881 0.631 
0.515121 -0.00326881 0.631 
0.545395 -0.00327399 0.632 
0.573033 -0.00326363 0.63 
0.60431 -0.00327399 0.632 
-0.457602 -0.00209622 0.578 
-0.560484 -0.00277441 0.765 
-0.523455 -0.00276716 0.763 
-0.487813 -0.00282156 0.778 
-0.449809 -0.00281068 0.775 
-0.412085 -0.0027998 0.772 
-0.37805 -0.00281431 0.776 
-0.34144 -0.00281068 0.775 
-0.305317 -0.00281068 0.775 
-0.2685 -0.00280343 0.773 
-0.225252 -0.00271639 0.749 
-0.193899 -0.00276716 0.763 
-0.155405 -0.0027998 0.772 
-0.119113 -0.00279255 0.77 
-0.0807367 -0.00270913 0.747 
-0.024617 -0.00233921 0.645 
0.00541287 -0.0023247 0.641 
0.035235 -0.00232108 0.64 
0.0647606 -0.0023102 0.637 
0.0950445 -0.0023247 0.641 
0.125506 -0.00233558 0.644 
0.155282 -0.00233196 0.643 
0.185252 -0.00233196 0.643 
0.215557 -0.00233558 0.644 
0.244049 -0.00232108 0.64 
0.273024 -0.00231382 0.638 
0.302761 -0.00231382 0.638 
0.331977 -0.0023102 0.637 
0.361668 -0.0023102 0.637 
0.39013 -0.00230294 0.635 
0.419067 -0.00229932 0.634 
0.44791 -0.00229569 0.633 
0.475906 -0.00228844 0.631 
0.505317 -0.00228844 0.631 
0.53727 -0.00229932 0.634 
0.562351 -0.00228118 0.629 
0.595432 -0.00229569 0.633 
0.625923 -0.00229932 0.634 
-0.450602 -0.00122307 0.59 
-0.536041 -0.00157341 0.759 
-0.486323 -0.00153195 0.739 
-0.464862 -0.00160451 0.774 
-0.42657 -0.00159622 0.77 
-0.393217 -0.00160658 0.775 
-0.356808 -0.00161073 0.777 
-0.317703 -0.00159622 0.77 
-0.28218 -0.00159829 0.771 
-0.244007 -0.00158378 0.764 
-0.207852 -0.00157963 0.762 
-0.166532 -0.00159207 0.768 
-0.130565 -0.00159 0.767 
-0.0945678 -0.00158585 0.765 
-0.0345845 -0.00133502 0.644 
-0.000563446 -0.00133087 0.642 
0.0292689 -0.00132672 0.64 
0.0590995 -0.00132672 0.64 
0.0896248 -0.00133709 0.645 
0.119503 -0.00133502 0.644 
0.149288 -0.00133294 0.643 
0.179258 -0.00133294 0.643 
0.208903 -0.00133087 0.642 
0.238083 -0.00132672 0.64 
0.268332 -0.0013288 0.641 
0.297279 -0.00132465 0.639 
0.325016 -0.00131636 0.635 
0.35573 -0.00132051 0.637 
0.384211 -0.00131636 0.635 
0.412505 -0.00131221 0.633 
0.442707 -0.00131429 0.634 
0.469279 -0.00130599 0.63 
0.500226 -0.00131014 0.632 
0.530522 -0.00131221 0.633 
0.556488 -0.00130392 0.629 
0.589531 -0.00131221 0.633 
0.618057 -0.00131014 0.632 
-0.457032 -0.00030277 0.583 
-0.554007 -0.00039521 0.761 
-0.517855 -0.000394691 0.76 
-0.489601 -0.00040352 0.777 
-0.451634 -0.000401962 0.774 
-0.41341 -0.000399884 0.77 
-0.379971 -0.000402481 0.775 
-0.342961 -0.000401442 0.773 
-0.307328 -0.000401962 0.774 
-0.270201 -0.000400404 0.771 
-0.227276 -0.000388459 0.748 
-0.19627 -0.000396249 0.763 
-0.155405 -0.000400923 0.772 
-0.117916 -0.000399884 0.77 
-0.0722237 -0.000385862 0.743 
-0.0145505 -0.000333929 0.643 
0.0153719 -0.000332891 0.641 
0.0453197 -0.00033341 0.642 
0.0751263 -0.000332891 0.641 
0.105495 -0.000334449 0.644 
0.135722 -0.000334968 0.645 
0.164758 -0.000332891 0.641 
0.193724 -0.000331333 0.638 
0.224162 -0.000332371 0.64 
0.253199 -0.000331333 0.638 
0.281606 -0.000329775 0.635 
0.311694 -0.000330294 0.636 
0.340801 -0.000329775 0.635 
0.368649 -0.000328217 0.632 
0.399366 -0.000329255 0.634 
0.428917 -0.000329255 0.634 
0.456299 -0.000327697 0.631 
0.48571 -0.000327697 0.631 
0.515121 -0.000327697 0.631 
0.543669 -0.000327178 0.63 
0.571214 -0.00032614 0.628 
0.601442 -0.000326659 0.629 
-0.458584 0.000586474 0.567 
-0.579387 0.000794378 0.768 
-0.535097 0.000781966 0.756 
-0.489281 0.000765416 0.74 
-0.475095 0.000801618 0.775 
-0.436707 0.000797481 0.771 
-0.40077 0.000797481 0.771 
-0.3672 0.000802653 0.776 
-0.32847 0.000796447 0.77 
-0.29372 0.00079955 0.773 
-0.255357 0.000792309 0.766 
-0.214492 0.000773691 0.748 
-0.17775 0.000770588 0.745 
-0.140464 0.000795412 0.769 
-0.104348 0.000793343 0.767 
-0.0365856 0.000666119 0.644 
-0.00355583 0.00066405 0.642 
0.0262448 0.000660947 0.639 
0.0561164 0.000661982 0.64 
0.0867528 0.000668188 0.646 
0.116501 0.000666119 0.644 
0.148591 0.000661982 0.64 
0.178979 0.00066405 0.642 
0.208578 0.000663016 0.641 
0.237711 0.000660947 0.639 
0.267495 0.000660947 0.639 
0.296814 0.000659913 0.638 
0.324504 0.000655775 0.634 
0.354055 0.000655775 0.634 
0.384211 0.00065681 0.635 
0.412505 0.000654741 0.633 
0.442009 0.000654741 0.633 
0.468534 0.000650604 0.629 
0.500226 0.000653707 0.632 
0.528846 0.000652672 0.631 
0.554718 0.000648535 0.627 
0.587668 0.000652672 0.631 
0.614145 0.000649569 0.628 
-0.457269 0.00150364 0.581 
-0.558565 0.00197725 0.764 
-0.520216 0.0019669 0.76 
-0.492447 0.00199795 0.772 
-0.457055 0.00200054 0.773 
-0.419392 0.00199278 0.77 
-0.385992 0.00200572 0.775 
-0.347612 0.00199278 0.77 
-0.311722 0.00199278 0.77 
-0.275474 0.00199019 0.769 
-0.235268 0.00195396 0.755 
-0.202462 0.00197725 0.764 
-0.163165 0.00199019 0.769 
-0.12699 0.00198501 0.767 
-0.0827244 0.00192549 0.744 
-0.023505 0.00166151 0.642 
0.00638878 0.00165375 0.639 
0.0361161 0.00165116 0.638 
0.0655439 0.00164339 0.635 
0.0960404 0.00165892 0.641 
0.125918 0.00165892 0.641 
0.156301 0.00165375 0.639 
0.186085 0.00165375 0.639 
0.216883 0.00166151 0.642 
0.245269 0.00165116 0.638 
0.273282 0.00164081 0.634 
0.303311 0.00164339 0.635 
0.332384 0.00164081 0.634 
0.360793 0.00163563 0.632 
0.392103 0.00164339 0.635 
0.421037 0.00164081 0.634 
0.449166 0.00163563 0.632 
0.477109 0.00163045 0.63 
0.506474 0.00163045 0.63 
0.536689 0.00163304 0.631 
0.563409 0.00162528 0.628 
0.594567 0.00163045 0.63 
0.620961 0.00162269 0.627 
-0.455329 0.00243946 0.589 
-0.545475 0.00314355 0.759 
-0.502033 0.00309385 0.747 
-0.485354 0.00321396 0.776 
-0.446869 0.00319739 0.772 
-0.409289 0.00318497 0.769 
-0.375388 0.00320153 0.773 
-0.33848 0.00319325 0.771 
-0.303328 0.00320153 0.773 
-0.26557 0.00318082 0.768 
-0.222892 0.00308557 0.745 
-0.190693 0.00312698 0.755 
-0.157395 0.00318911 0.77 
-0.121032 0.00317668 0.767 
-0.0811299 0.00306486 0.74 
-0.0205127 0.00265897 0.642 
0.00936718 0.00264655 0.639 
0.0390899 0.0026424 0.638 
0.0685036 0.00262998 0.635 
0.0990281 0.00265483 0.641 
0.128704 0.00265069 0.64 
0.15928 0.00264655 0.639 
0.188768 0.0026424 0.638 
0.219533 0.00265483 0.641 
0.247854 0.00263826 0.637 
0.275366 0.00261755 0.632 
0.305788 0.00262584 0.634 
0.33481 0.0026217 0.633 
0.362012 0.00260513 0.629 
0.395063 0.00262998 0.635 
0.423992 0.00262584 0.634 
0.451397 0.00261341 0.631 
0.480046 0.00260927 0.63 
0.508602 0.00260513 0.629 
0.53792 0.00260513 0.629 
0.565434 0.00259685 0.627 
0.595607 0.00260099 0.628 
0.621893 0.00258856 0.625 
-0.577441 0.00436835 0.767 
-0.531804 0.00428862 0.753 
-0.48945 0.00422597 0.742 
-0.473869 0.00440253 0.773 
-0.435574 0.00437974 0.769 
-0.40025 0.00438544 0.77 
-0.36578 0.00440253 0.773 
-0.327191 0.00436835 0.767 
-0.292581 0.00438544 0.77 
-0.255357 0.00436266 0.766 
-0.21276 0.00424875 0.746 
-0.176795 0.00422027 0.741 
-0.147249 0.00436835 0.767 
-0.111644 0.00437405 0.768 
-0.0664518 0.00423166 0.743 
-0.00852982 0.00365074 0.641 
0.0212475 0.00363365 0.638 
0.0510648 0.00363935 0.639 
0.0813548 0.00366213 0.643 
0.111152 0.00365643 0.642 
0.140417 0.00363935 0.639 
0.169934 0.00363365 0.638 
0.199046 0.00362226 0.636 
0.229409 0.00363365 0.638 
0.25874 0.00362795 0.637 
0.287073 0.00361087 0.634 
0.316624 0.00361087 0.634 
0.345082 0.00359948 0.632 
0.37454 0.00359948 0.632 
0.403359 0.00359378 0.631 
0.433456 0.00359948 0.632 
0.460716 0.00358239 0.629 
0.490813 0.00358809 0.63 
0.519352 0.00358239 0.629 
0.546053 0.00356531 0.626 
0.575231 0.00356531 0.626 
0.602478 0.00355391 0.624 
-0.456582 0.00413196 0.57 
-0.548095 0.00551653 0.761 
-0.502033 0.00541504 0.747 
-0.484728 0.00561802 0.775 
-0.445711 0.00558177 0.77 
-0.409289 0.00557452 0.769 
-0.374902 0.00559627 0.772 
-0.338041 0.00558177 0.77 
-0.302151 0.00558177 0.77 
-0.26557 0.00556727 0.768 
-0.222593 0.0053933 0.744 
-0.19044 0.00546579 0.754 
-0.15818 0.00556727 0.768 
-0.122064 0.00555277 0.766 
-0.0794398 0.00532805 0.735 
-0.0135304 0.00465389 0.642 
0.0162912 0.0046249 0.638 
0.0461729 0.00463939 0.64 
0.0758847 0.00463214 0.639 
0.107991 0.00464664 0.641 
0.137653 0.00463939 0.64 
0.166961 0.0046249 0.638 
0.195773 0.00460315 0.635 
0.226435 0.0046249 0.638 
0.254968 0.00460315 0.635 
0.283221 0.0045814 0.632 
0.314163 0.00460315 0.635 
0.342137 0.0045814 0.632 
0.36983 0.00455965 0.629 
0.400418 0.00457415 0.631 
0.429829 0.00457415 0.631 
0.457056 0.0045524 0.628 
0.487102 0.00455965 0.629 
0.515599 0.0045524 0.628 
0.543135 0.00453791 0.626 
0.571399 0.00453066 0.625 
0.598608 0.00451616 0.623 
-0.457627 0.00499995 0.568 
-0.546913 0.00669888 0.761 
-0.501361 0.00656684 0.746 
-0.484103 0.00681331 0.774 
-0.445711 0.0067781 0.77 
-0.409289 0.0067693 0.769 
-0.374902 0.00679571 0.772 
-0.337602 0.0067693 0.769 
-0.301759 0.0067693 0.769 
-0.265224 0.00675169 0.767 
-0.222593 0.00654923 0.744 
-0.190188 0.00662846 0.753 
-0.157768 0.00674289 0.766 
-0.121905 0.00673409 0.765 
-0.0805817 0.00647001 0.735 
-0.0174657 0.00563375 0.64 
0.0123263 0.00561614 0.638 
0.0421296 0.00562494 0.639 
0.0716885 0.00560734 0.637 
0.103845 0.00563375 0.64 
0.133676 0.00563375 0.64 
0.16274 0.00560734 0.637 
0.191827 0.00558973 0.635 
0.223168 0.00563375 0.64 
0.251022 0.00558973 0.635 
0.278852 0.00555452 0.631 
0.309728 0.00558093 0.634 
0.338209 0.00556332 0.632 
0.364758 0.00551931 0.627 
0.397124 0.00556332 0.632 
0.425907 0.00555452 0.631 
0.453153 0.00552811 0.628 
0.482425 0.00552811 0.628 
0.510881 0.00551931 0.627 
0.538383 0.00550171 0.625 
0.566606 0.0054929 0.624 
0.594737 0.0054841 0.623 
-0.459465 0.00587208 0.567 
-0.550721 0.00790194 0.763 
-0.50503 0.00774659 0.748 
-0.485251 0.00799514 0.772 
-0.448104 0.00797443 0.77 
-0.411143 0.00795372 0.768 
-0.377301 0.00799514 0.772 
-0.33955 0.00795372 0.768 
-0.303753 0.00795372 0.768 
-0.267607 0.00794336 0.767 
-0.223748 0.00770517 0.744 
-0.191866 0.00781909 0.755 
-0.15875 0.00792265 0.765 
-0.122932 0.00791229 0.764 
-0.0791155 0.00758089 0.732 
-0.0204168 0.00661774 0.639 
0.0093232 0.00658667 0.636 
0.0390899 0.00660739 0.638 
0.0686115 0.00658667 0.636 
0.0985646 0.00660739 0.638 
0.128503 0.00661774 0.639 
0.157544 0.00658667 0.636 
0.186894 0.00657632 0.635 
0.218196 0.0066281 0.64 
0.246089 0.00657632 0.635 
0.27395 0.00653489 0.631 
0.304803 0.00656596 0.634 
0.332245 0.00652454 0.63 
0.359887 0.00649347 0.627 
0.392835 0.0065556 0.633 
0.42234 0.0065556 0.633 
0.448989 0.00651418 0.629 
0.477546 0.00650382 0.628 
0.50601 0.00649347 0.627 
0.533528 0.00647275 0.625 
0.562659 0.00647275 0.625 
0.589897 0.00645204 0.623 
0.616948 0.00643133 0.621 
-0.558375 0.00913503 0.767 
-0.512404 0.00895638 0.752 
-0.488779 0.00917076 0.77 
-0.452301 0.00915885 0.769 
-0.415916 0.00914694 0.768 
-0.382099 0.00919458 0.772 
-0.343874 0.00913503 0.767 
-0.308526 0.00914694 0.768 
-0.272019 0.00912312 0.766 
-0.229907 0.00892065 0.749 
-0.197599 0.00903975 0.759 
-0.162222 0.00903975 0.759 
-0.12768 0.0090993 0.764 
-0.0907446 0.00896829 0.753 
-0.0263736 0.00761054 0.639 
0.00339971 0.00758672 0.637 
0.0330905 0.00758672 0.637 
0.0625841 0.0075629 0.635 
0.092472 0.00758672 0.637 
0.12293 0.00763436 0.641 
0.151377 0.0075629 0.635 
0.180689 0.00755099 0.634 
0.210903 0.00757481 0.636 
0.240169 0.0075629 0.635 
0.268917 0.00753908 0.633 
0.298422 0.00753908 0.633 
0.325854 0.00749144 0.629 
0.355172 0.00749144 0.629 
0.385712 0.00751526 0.631 
0.415123 0.00751526 0.631 
0.44383 0.00750335 0.63 
0.470941 0.00746762 0.627 
0.500166 0.00746762 0.627 
0.52939 0.00746762 0.627 
0.555942 0.00743189 0.624 
0.583152 0.00740807 0.622 
0.611159 0.00739616 0.621 
-0.567616 0.0102998 0.765 
-0.520138 0.0100709 0.748 
-0.492409 0.010219 0.759 
-0.463054 0.0103536 0.769 
-0.426655 0.0103402 0.768 
-0.390349 0.0103267 0.767 
-0.354599 0.0103267 0.767 
-0.318018 0.0102998 0.765 
-0.281622 0.0102728 0.763 
-0.247349 0.0103267 0.767 
-0.206488 0.0101921 0.757 
-0.168716 0.010044 0.746 
-0.136997 0.0102728 0.763 
-0.1013 0.0102594 0.762 
-0.0323304 0.00860334 0.639 
-0.00254243 0.00858988 0.638 
0.0271097 0.00856295 0.636 
0.0566646 0.00854949 0.635 
0.0866697 0.00858988 0.638 
0.117137 0.00864373 0.642 
0.145457 0.00854949 0.635 
0.174779 0.00853602 0.634 
0.20433 0.00853602 0.634 
0.23425 0.00854949 0.635 
0.263016 0.00852256 0.633 
0.292059 0.0085091 0.632 
0.319481 0.00845524 0.628 
0.349863 0.00848217 0.63 
0.379228 0.00848217 0.63 
0.407295 0.00845524 0.628 
0.437262 0.0084687 0.629 
0.464354 0.00842831 0.626 
0.494321 0.00844178 0.627 
0.52438 0.00845524 0.628 
0.550125 0.00840139 0.624 
0.576425 0.00836099 0.621 
0.604395 0.00834753 0.62 
-0.451544 0.00865004 0.576 
-0.543832 0.0114133 0.76 
-0.496367 0.0111429 0.742 
-0.478586 0.0115484 0.769 
-0.44044 0.0114883 0.765 
-0.405312 0.0115034 0.766 
-0.370823 0.0115784 0.771 
-0.33228 0.0114883 0.765 
-0.296623 0.0114883 0.765 
-0.26199 0.0115334 0.768 
-0.217969 0.011173 0.744 
-0.178131 0.0110678 0.737 
-0.148461 0.0114283 0.761 
-0.112842 0.0114133 0.76 
-0.0381673 0.00956611 0.637 
-0.00847659 0.00956611 0.637 
0.0211809 0.00955109 0.636 
0.0509049 0.00956611 0.637 
0.0807222 0.00958112 0.638 
0.110806 0.00961116 0.64 
0.139757 0.00955109 0.636 
0.168869 0.00952105 0.634 
0.198107 0.00950604 0.633 
0.227971 0.00952105 0.634 
0.257115 0.00950604 0.633 
0.28662 0.00950604 0.633 
0.314626 0.00946098 0.63 
0.34399 0.00946098 0.63 
0.37217 0.00943095 0.628 
0.401441 0.00943095 0.628 
0.431 0.00941593 0.627 
0.458757 0.0093859 0.625 
0.48945 0.00941593 0.627 
0.519502 0.00943095 0.628 
0.544404 0.00935586 0.623 
0.573442 0.00935586 0.623 
0.599579 0.00931081 0.62 
-0.45344 0.00952839 0.575 
-0.557183 0.01271 0.767 
-0.506477 0.0123455 0.745 
-0.486949 0.0127432 0.769 
-0.449933 0.01271 0.767 
-0.413643 0.0126935 0.766 
-0.379208 0.0127763 0.771 
-0.341491 0.01271 0.767 
-0.306139 0.0127266 0.768 
-0.269287 0.0126769 0.765 
-0.229049 0.0124283 0.75 
-0.195126 0.0124946 0.754 
-0.160618 0.0125443 0.757 
-0.125666 0.0125775 0.759 
-0.0754968 0.0120969 0.73 
-0.0163684 0.0105392 0.636 
0.0132549 0.0105227 0.635 
0.0429199 0.0105392 0.636 
0.0727922 0.0105724 0.638 
0.102369 0.0105558 0.637 
0.132267 0.0105724 0.638 
0.160989 0.0105061 0.634 
0.190239 0.0104895 0.633 
0.221076 0.0105061 0.634 
0.250231 0.0104895 0.633 
0.279294 0.0104729 0.632 
0.308751 0.0104729 0.632 
0.336068 0.0104067 0.628 
0.364176 0.0103735 0.626 
0.394611 0.0104067 0.628 
0.423882 0.0104067 0.628 
0.45171 0.0103735 0.626 
0.480888 0.0103735 0.626 
0.510066 0.0103735 0.626 
0.535799 0.0103072 0.622 
0.56479 0.0103072 0.622 
0.592827 0.0102907 0.621 
-0.455609 0.0103493 0.571 
-0.565525 0.0139017 0.767 
-0.513888 0.0134848 0.744 
-0.491448 0.0138292 0.763 
-0.458274 0.0139017 0.767 
-0.422524 0.0139017 0.767 
-0.385583 0.0139017 0.767 
-0.350289 0.0139198 0.768 
-0.314492 0.0139198 0.768 
-0.275792 0.0137748 0.76 
-0.241001 0.0138111 0.762 
-0.204135 0.0137205 0.757 
-0.167067 0.0135755 0.749 
-0.133215 0.0136842 0.755 
-0.0846861 0.0132492 0.731 
-0.0232854 0.0115274 0.636 
0.00633879 0.0114911 0.634 
0.0358897 0.0114911 0.634 
0.0655439 0.0115092 0.635 
0.0951414 0.0115092 0.635 
0.125918 0.011618 0.641 
0.15385 0.011473 0.633 
0.183065 0.0114549 0.632 
0.212523 0.0114549 0.632 
0.242746 0.0114911 0.634 
0.271009 0.0114367 0.631 
0.300896 0.0114549 0.632 
0.32774 0.0113642 0.627 
0.357534 0.0113824 0.628 
0.386189 0.0113642 0.627 
0.414751 0.0113461 0.626 
0.44322 0.011328 0.625 
0.472352 0.011328 0.625 
0.501483 0.011328 0.625 
0.530615 0.011328 0.625 
0.556164 0.0112555 0.621 
0.584166 0.0112374 0.62 
0.611087 0.0112011 0.618 
-0.57237 0.015054 0.765 
-0.526189 0.0147588 0.75 
-0.491887 0.0147785 0.751 
-0.465399 0.015054 0.765 
-0.430304 0.0150737 0.766 
-0.39151 0.0149556 0.76 
-0.35796 0.0150343 0.764 
-0.320662 0.0149556 0.76 
-0.285614 0.0149753 0.761 
-0.252115 0.0150934 0.767 
-0.21157 0.0147588 0.75 
-0.173315 0.0144834 0.736 
-0.142788 0.0148769 0.756 
-0.107408 0.0148572 0.755 
-0.0262498 0.0125155 0.636 
0.00337836 0.0124565 0.633 
0.0328827 0.0124565 0.633 
0.0624855 0.0124761 0.634 
0.0920365 0.0124761 0.634 
0.122738 0.0125942 0.64 
0.155817 0.0124565 0.633 
0.185029 0.0124368 0.632 
0.214487 0.0124368 0.632 
0.24433 0.0124565 0.633 
0.272969 0.0124171 0.631 
0.302381 0.0124171 0.631 
0.329163 0.0123187 0.626 
0.358913 0.0123384 0.627 
0.387519 0.0123187 0.626 
0.416031 0.012299 0.625 
0.44445 0.0122794 0.624 
0.473535 0.0122794 0.624 
0.503425 0.012299 0.625 
0.530853 0.0122597 0.623 
0.558093 0.0122203 0.621 
0.586093 0.0122006 0.62 
0.613008 0.0121613 0.618 
-0.57237 0.0162426 0.765 
-0.526189 0.0159241 0.75 
-0.492542 0.0159666 0.752 
-0.464791 0.0162214 0.764 
-0.430304 0.0162638 0.766 
-0.39151 0.0161364 0.76 
-0.357023 0.0161789 0.762 
-0.32024 0.0161152 0.759 
-0.283249 0.0161577 0.761 
-0.249081 0.0162426 0.765 
-0.209797 0.0159666 0.752 
-0.171493 0.0156693 0.738 
-0.140067 0.016009 0.754 
-0.105062 0.0160303 0.755 
-0.032128 0.0134824 0.635 
-0.0025225 0.0134399 0.633 
0.0269392 0.0134187 0.632 
0.0566646 0.0134824 0.635 
0.0862621 0.0134824 0.635 
0.11586 0.0134824 0.635 
0.155817 0.0134399 0.633 
0.185029 0.0134187 0.632 
0.214147 0.0133975 0.631 
0.24433 0.0134399 0.633 
0.272969 0.0133975 0.631 
0.301901 0.0133762 0.63 
0.329163 0.0132913 0.626 
0.358341 0.0132913 0.626 
0.3869 0.0132701 0.625 
0.416031 0.0132701 0.625 
0.44445 0.0132489 0.624 
0.473535 0.0132489 0.624 
0.50262 0.0132489 0.624 
0.53 0.0132064 0.622 
0.557195 0.0131639 0.62 
0.585148 0.0131427 0.619 
0.613999 0.0131427 0.619 
-0.571622 0.0174084 0.764 
-0.526189 0.0170894 0.75 
-0.492542 0.0171349 0.752 
-0.464183 0.0173856 0.763 
-0.429742 0.0174312 0.765 
-0.390995 0.0172944 0.759 
-0.356555 0.01734 0.761 
-0.32024 0.0172944 0.759 
-0.285238 0.0173172 0.76 
-0.251458 0.0174312 0.765 
-0.211852 0.0171121 0.751 
-0.17308 0.0167476 0.735 
-0.141051 0.0171577 0.753 
-0.106235 0.0172033 0.755 
-0.0311414 0.014469 0.635 
-0.00153416 0.0143779 0.631 
0.0278769 0.0143779 0.631 
0.0575604 0.0144462 0.634 
0.0889409 0.0144234 0.633 
0.130104 0.0146285 0.642 
0.161718 0.0144234 0.633 
0.19092 0.0144006 0.632 
0.219681 0.0143551 0.63 
0.249441 0.0143779 0.631 
0.279735 0.0144234 0.633 
0.306797 0.0143095 0.628 
0.335533 0.0142867 0.627 
0.364176 0.0142639 0.626 
0.392726 0.0142411 0.625 
0.421857 0.0142411 0.625 
0.449546 0.0141956 0.623 
0.479352 0.0142183 0.624 
0.509252 0.0142411 0.625 
0.534076 0.0141272 0.62 
0.563882 0.01415 0.621 
0.590918 0.0141044 0.619 
-0.454811 0.0138735 0.57 
-0.56405 0.0186197 0.765 
-0.510435 0.0179869 0.739 
-0.49016 0.0185224 0.761 
-0.455287 0.0185467 0.762 
-0.421423 0.0186197 0.765 
-0.383749 0.0185224 0.761 
-0.350566 0.0186441 0.766 
-0.31363 0.018571 0.763 
-0.275515 0.0184007 0.756 
-0.241549 0.018498 0.76 
-0.200184 0.018279 0.751 
-0.165399 0.0183033 0.752 
-0.130348 0.0183033 0.752 
-0.0867197 0.0177435 0.729 
-0.0232121 0.0154312 0.634 
0.00632879 0.0154069 0.633 
0.0357199 0.0153582 0.631 
0.0653374 0.0154069 0.633 
0.0966558 0.0153826 0.632 
0.137131 0.0154069 0.633 
0.166109 0.0153582 0.631 
0.19552 0.0153582 0.631 
0.224575 0.0153339 0.63 
0.254342 0.0153582 0.631 
0.285103 0.0154312 0.634 
0.310683 0.0152365 0.626 
0.34149 0.0153095 0.629 
0.36845 0.0152122 0.625 
0.398217 0.0152365 0.626 
0.426713 0.0152122 0.625 
0.454385 0.0151635 0.623 
0.484199 0.0151878 0.624 
0.514107 0.0152122 0.625 
0.538892 0.0150905 0.62 
0.569622 0.0151392 0.622 
0.594764 0.0150418 0.618 
-0.456001 0.0151216 0.584 
-0.552824 0.0197047 0.761 
-0.501038 0.0190833 0.737 
-0.482517 0.0197306 0.762 
-0.445826 0.0196788 0.76 
-0.411483 0.0197306 0.762 
-0.376459 0.0197565 0.763 
-0.342682 0.0198601 0.767 
-0.306532 0.0198342 0.766 
-0.268 0.019627 0.758 
-0.229049 0.0194199 0.75 
-0.192797 0.0192904 0.745 
-0.160406 0.0195752 0.756 
-0.124838 0.0195235 0.754 
-0.0867197 0.0188761 0.729 
-0.0231755 0.0163904 0.633 
0.0063188 0.0163645 0.632 
0.0356633 0.0163127 0.63 
0.0653374 0.0163904 0.633 
0.0943923 0.0163127 0.63 
0.132632 0.0164422 0.635 
0.162445 0.0163645 0.632 
0.191295 0.0163127 0.63 
0.22066 0.0163127 0.63 
0.250024 0.0163127 0.63 
0.281162 0.0164163 0.634 
0.306793 0.0162091 0.626 
0.336507 0.016235 0.627 
0.364565 0.0161832 0.625 
0.393067 0.0161573 0.624 
0.422152 0.0161573 0.624 
0.44979 0.0161056 0.622 
0.479552 0.0161314 0.623 
0.50859 0.0161314 0.623 
0.534176 0.0160279 0.619 
0.564847 0.0160797 0.621 
0.589967 0.0159761 0.617 
-0.457691 0.0160564 0.585 
-0.553279 0.0208596 0.76 
-0.501502 0.0202009 0.736 
-0.483066 0.0208871 0.761 
-0.445831 0.0208047 0.758 
-0.412666 0.0209145 0.762 
-0.376655 0.0208871 0.761 
-0.343426 0.0210243 0.766 
-0.306919 0.0209694 0.764 
-0.268823 0.0207773 0.757 
-0.231688 0.0206126 0.751 
-0.195374 0.0204753 0.746 
-0.16254 0.0207224 0.755 
-0.127012 0.0206675 0.753 
-0.0899615 0.0202283 0.737 
-0.0251028 0.0173464 0.632 
0.00434806 0.017319 0.631 
0.0337057 0.0172915 0.63 
0.0632704 0.0173464 0.632 
0.0922879 0.0172641 0.629 
0.12631 0.0176483 0.643 
0.153364 0.017319 0.631 
0.182196 0.0172641 0.629 
0.211514 0.0172641 0.629 
0.241215 0.0172915 0.63 
0.271009 0.017319 0.631 
0.298039 0.0171817 0.626 
0.326695 0.0171543 0.625 
0.356395 0.0171817 0.626 
0.383726 0.0170994 0.623 
0.412764 0.0170994 0.623 
0.442511 0.0171268 0.624 
0.469329 0.0170445 0.621 
0.499076 0.0170719 0.622 
0.527219 0.0170445 0.621 
0.553477 0.0169622 0.618 
0.58134 0.0169347 0.617 
0.610098 0.0169347 0.617 
-0.56539 0.0220984 0.762 
-0.515965 0.0215184 0.742 
-0.492409 0.0220114 0.759 
-0.457634 0.0220404 0.76 
-0.424433 0.0221564 0.764 
-0.38526 0.0219534 0.757 
-0.351825 0.0220694 0.761 
-0.314692 0.0219534 0.757 
-0.278301 0.0218664 0.754 
-0.245091 0.0220404 0.76 
-0.206909 0.0217504 0.75 
-0.1692 0.0214024 0.738 
-0.131692 0.0218374 0.753 
-0.0964659 0.0218084 0.752 
-0.0280485 0.0183283 0.632 
0.00140249 0.0182413 0.629 
0.0307692 0.0182703 0.63 
0.0602291 0.0182993 0.631 
0.0892141 0.0182123 0.628 
0.121554 0.0185313 0.639 
0.149206 0.0182703 0.63 
0.178004 0.0182123 0.628 
0.207605 0.0182413 0.629 
0.236923 0.0182413 0.629 
0.266664 0.0182703 0.63 
0.294619 0.0181833 0.627 
0.32281 0.0181253 0.625 
0.352505 0.0181543 0.626 
0.380464 0.0180963 0.624 
0.409548 0.0180963 0.624 
0.439336 0.0181253 0.625 
0.465469 0.0180093 0.621 
0.494414 0.0180093 0.621 
0.522517 0.0179803 0.62 
0.549636 0.0179223 0.618 
0.577505 0.0178933 0.617 
0.605281 0.0178643 0.616 
-0.56906 0.0231906 0.759 
-0.527355 0.0229157 0.75 
-0.495023 0.0230379 0.754 
-0.463538 0.0232212 0.76 
-0.429241 0.0232823 0.762 
-0.390624 0.023099 0.756 
-0.355857 0.0231295 0.757 
-0.320573 0.0231295 0.757 
-0.284912 0.023099 0.756 
-0.251326 0.0232517 0.761 
-0.212168 0.0228545 0.748 
-0.173274 0.0223351 0.731 
-0.137541 0.0230073 0.753 
-0.102852 0.023099 0.756 
-0.0320268 0.0193408 0.633 
-0.00250258 0.019188 0.628 
0.0268113 0.0192186 0.629 
0.0563077 0.0192797 0.631 
0.0853112 0.019188 0.628 
0.114947 0.0192491 0.63 
0.14506 0.0192186 0.629 
0.174101 0.019188 0.628 
0.203696 0.0192186 0.629 
0.232643 0.019188 0.628 
0.262332 0.0192186 0.629 
0.291649 0.0192186 0.629 
0.317906 0.0190353 0.623 
0.348058 0.0190964 0.625 
0.375982 0.0190353 0.623 
0.40567 0.0190658 0.624 
0.435452 0.0190964 0.625 
0.46161 0.0189742 0.621 
0.489765 0.0189436 0.62 
0.518663 0.0189436 0.62 
0.545796 0.0188825 0.618 
0.57553 0.018913 0.619 
0.601453 0.0188214 0.616 
-0.574956 0.0243699 0.759 
-0.536735 0.0242414 0.755 
-0.498887 0.024113 0.751 
-0.468825 0.0243699 0.759 
-0.434018 0.024402 0.76 
-0.394669 0.0243057 0.757 
-0.35891 0.0242736 0.756 
-0.324529 0.0243378 0.758 
-0.288817 0.0243057 0.757 
-0.253024 0.0243699 0.759 
-0.214205 0.0239846 0.747 
-0.175305 0.0234387 0.73 
-0.142221 0.0241772 0.753 
-0.107408 0.0242414 0.755 
-0.0695389 0.0233424 0.727 
-0.00640541 0.0201637 0.628 
0.0228659 0.0201637 0.628 
0.0543469 0.0202601 0.631 
0.0833598 0.0201637 0.628 
0.11281 0.0201959 0.629 
0.142878 0.0201637 0.628 
0.172149 0.0201637 0.628 
0.201741 0.0201959 0.629 
0.230325 0.0201316 0.627 
0.259963 0.0201637 0.628 
0.289695 0.0201959 0.629 
0.31597 0.0200032 0.623 
0.346116 0.0200674 0.625 
0.374046 0.0200032 0.623 
0.403731 0.0200353 0.624 
0.432816 0.0200353 0.624 
0.45894 0.0199069 0.62 
0.487052 0.0198748 0.619 
0.515903 0.0198748 0.619 
0.543875 0.0198427 0.618 
0.573607 0.0198748 0.619 
0.599539 0.0197785 0.616 
-0.574956 0.0255491 0.759 
-0.536735 0.0254145 0.755 
-0.499552 0.0253135 0.752 
-0.468825 0.0255491 0.759 
-0.433447 0.0255491 0.759 
-0.397021 0.0254818 0.757 
-0.361259 0.0254481 0.756 
-0.326453 0.0254818 0.757 
-0.291554 0.0255155 0.758 
-0.255209 0.0254145 0.755 
-0.216527 0.0251452 0.747 
-0.177573 0.0245729 0.73 
-0.145537 0.0253135 0.752 
-0.11078 0.0253808 0.754 
-0.0728272 0.0244383 0.726 
-0.0103082 0.0211395 0.628 
0.0189328 0.0211058 0.627 
0.0484647 0.0212404 0.631 
0.077629 0.0211731 0.629 
0.106947 0.0211731 0.629 
0.136265 0.0211731 0.629 
0.165056 0.0211058 0.627 
0.194281 0.0211058 0.627 
0.22448 0.0211058 0.627 
0.253704 0.0211058 0.627 
0.283831 0.0211731 0.629 
0.310162 0.0209711 0.623 
0.340834 0.0210721 0.626 
0.368239 0.0209711 0.623 
0.397277 0.0209711 0.623 
0.426315 0.0209711 0.623 
0.45243 0.0208365 0.619 
0.482059 0.0208702 0.62 
0.507661 0.0207355 0.616 
0.537243 0.0207692 0.617 
0.567837 0.0208365 0.619 
0.592833 0.0207019 0.615 
-0.453896 0.0203896 0.579 
-0.545396 0.0265523 0.754 
-0.496718 0.025848 0.734 
-0.476368 0.0266227 0.756 
-0.439964 0.0265523 0.754 
-0.406967 0.0266931 0.758 
-0.371637 0.0266931 0.758 
-0.33675 0.0267284 0.759 
-0.300975 0.0266931 0.758 
-0.264243 0.0265523 0.754 
-0.227883 0.0264114 0.75 
-0.189324 0.0259184 0.736 
-0.15626 0.0265171 0.753 
-0.120841 0.0264466 0.751 
-0.0794854 0.025531 0.725 
-0.015211 0.0221504 0.629 
0.014062 0.02208 0.627 
0.0434938 0.0221856 0.63 
0.0725114 0.02208 0.627 
0.102061 0.0221504 0.629 
0.134097 0.0221152 0.628 
0.163108 0.02208 0.627 
0.192026 0.0220447 0.626 
0.221204 0.0220447 0.626 
0.249982 0.0220095 0.625 
0.281429 0.0221152 0.628 
0.308226 0.0219391 0.623 
0.338889 0.0220447 0.626 
0.366303 0.0219391 0.623 
0.395341 0.0219391 0.623 
0.423698 0.0219039 0.622 
0.450506 0.0217982 0.619 
0.480132 0.0218334 0.62 
0.504926 0.0216574 0.615 
0.535326 0.0217278 0.617 
0.564085 0.0217278 0.617 
0.589961 0.0216222 0.614 
-0.453112 0.0212524 0.578 
-0.545396 0.0277238 0.754 
-0.497394 0.0270251 0.735 
-0.476368 0.0277973 0.756 
-0.43938 0.027687 0.753 
-0.405893 0.0277973 0.756 
-0.371637 0.0278708 0.758 
-0.336306 0.0278708 0.758 
-0.300181 0.0277973 0.756 
-0.263893 0.027687 0.753 
-0.227883 0.0275767 0.75 
-0.189067 0.0270251 0.735 
-0.15881 0.0277238 0.754 
-0.123174 0.0276134 0.751 
-0.0773391 0.0266942 0.726 
-0.0181428 0.0231276 0.629 
0.0111396 0.0230541 0.627 
0.0405574 0.0231644 0.63 
0.0693669 0.0229806 0.625 
0.0989712 0.0230909 0.628 
0.133883 0.0230541 0.627 
0.162848 0.0230173 0.626 
0.191719 0.0229806 0.625 
0.22085 0.0229806 0.625 
0.249582 0.0229438 0.624 
0.280006 0.0230541 0.627 
0.307258 0.022907 0.623 
0.337376 0.0229806 0.625 
0.364748 0.0228703 0.622 
0.39374 0.0228703 0.622 
0.422052 0.0228335 0.621 
0.448818 0.0227232 0.618 
0.479169 0.0227967 0.62 
0.50397 0.0226129 0.615 
0.533502 0.0226496 0.616 
0.562213 0.0226496 0.616 
0.589007 0.0225761 0.614 
-0.45401 0.0221505 0.578 
-0.547739 0.0288952 0.754 
-0.499678 0.0281671 0.735 
-0.478084 0.0289336 0.755 
-0.441133 0.0288186 0.752 
-0.407163 0.0288952 0.754 
-0.373992 0.0290485 0.758 
-0.338215 0.0290102 0.757 
-0.30213 0.0289336 0.755 
-0.265525 0.0287803 0.751 
-0.230214 0.0287419 0.75 
-0.191872 0.0282437 0.737 
-0.16094 0.0288569 0.753 
-0.125508 0.0287803 0.751 
-0.0829789 0.0278222 0.726 
-0.0220168 0.0240666 0.628 
0.0101492 0.0239899 0.626 
0.0395157 0.0241049 0.629 
0.0682864 0.0239133 0.624 
0.0978394 0.0240283 0.627 
0.127469 0.0241049 0.629 
0.158957 0.0239899 0.626 
0.187534 0.0239133 0.624 
0.216619 0.0239133 0.624 
0.244916 0.0238366 0.622 
0.275669 0.0239899 0.626 
0.303387 0.023875 0.623 
0.332958 0.0239133 0.624 
0.360303 0.0237983 0.621 
0.389248 0.0237983 0.621 
0.416846 0.0237217 0.619 
0.444257 0.023645 0.617 
0.474549 0.0237217 0.619 
0.500961 0.0236067 0.616 
0.529673 0.0236067 0.616 
0.557479 0.0235684 0.615 
0.584238 0.0234917 0.613 
-0.455227 0.0229288 0.575 
-0.553158 0.0301066 0.755 
-0.503789 0.0293489 0.736 
-0.481603 0.0301066 0.755 
-0.445821 0.0300667 0.754 
-0.410677 0.0300667 0.754 
-0.376031 0.0301066 0.755 
-0.341292 0.0301465 0.756 
-0.305244 0.0300667 0.754 
-0.268667 0.0299072 0.75 
-0.233398 0.0298673 0.749 
-0.196897 0.0296281 0.743 
-0.163794 0.0299072 0.75 
-0.129008 0.0299471 0.751 
-0.0925019 0.0294686 0.739 
-0.0268953 0.0250423 0.628 
0.00237218 0.0250024 0.627 
0.0315464 0.0249625 0.626 
0.0607245 0.0249625 0.626 
0.0896153 0.0248828 0.624 
0.119461 0.0250423 0.628 
0.148022 0.0249227 0.625 
0.177153 0.0249227 0.625 
0.206615 0.0249625 0.626 
0.234663 0.0248429 0.623 
0.264971 0.0249625 0.626 
0.292739 0.0248429 0.623 
0.320744 0.0247632 0.621 
0.349689 0.0247632 0.621 
0.378025 0.0247233 0.62 
0.407579 0.0247632 0.621 
0.436524 0.0247632 0.621 
0.462471 0.0246037 0.617 
0.489637 0.0245239 0.615 
0.518303 0.0245239 0.615 
0.546968 0.0245239 0.615 
0.571889 0.0243644 0.611 
0.602334 0.0244441 0.613 
-0.567985 0.031321 0.756 
-0.526651 0.031031 0.749 
-0.494366 0.0311967 0.753 
-0.459879 0.0312382 0.754 
-0.425861 0.031321 0.756 
-0.387007 0.031031 0.749 
-0.355857 0.0313625 0.757 
-0.318455 0.0311553 0.752 
-0.284158 0.0312382 0.754 
-0.247363 0.031031 0.749 
-0.210466 0.030741 0.742 
-0.172326 0.0301196 0.727 
-0.14301 0.0311139 0.751 
-0.107718 0.031031 0.749 
-0.0659684 0.0300367 0.725 
-0.00931768 0.0259766 0.627 
0.0198117 0.0258523 0.624 
0.04921 0.026018 0.628 
0.0779814 0.0258523 0.624 
0.107238 0.0258937 0.625 
0.136151 0.0258523 0.624 
0.165236 0.0258523 0.624 
0.194009 0.0258108 0.623 
0.223405 0.0258523 0.624 
0.251681 0.0257694 0.622 
0.281124 0.0258108 0.623 
0.309166 0.025728 0.621 
0.338111 0.025728 0.621 
0.367056 0.025728 0.621 
0.397277 0.0258108 0.623 
0.424946 0.025728 0.621 
0.450237 0.0255208 0.616 
0.478949 0.0255208 0.616 
0.505188 0.0253966 0.613 
0.535502 0.0254794 0.615 
0.564167 0.0254794 0.615 
0.589941 0.0253551 0.612 
-0.574272 0.0324526 0.755 
-0.537653 0.0323667 0.753 
-0.495882 0.0319368 0.743 
-0.468079 0.0324096 0.754 
-0.432935 0.0324096 0.754 
-0.396736 0.0323237 0.752 
-0.36409 0.0325386 0.757 
-0.327068 0.0323667 0.753 
-0.292358 0.0324096 0.754 
-0.254826 0.0321088 0.747 
-0.218536 0.0318938 0.742 
-0.179736 0.0311631 0.725 
-0.150976 0.0322377 0.75 
-0.116019 0.0322377 0.75 
-0.0716005 0.0311631 0.725 
-0.0171109 0.0269507 0.627 
0.0120365 0.0267788 0.623 
0.0414043 0.0269937 0.628 
0.0700004 0.0267358 0.622 
0.0994694 0.0268648 0.625 
0.128601 0.0268648 0.625 
0.157732 0.0268648 0.625 
0.186266 0.0267788 0.623 
0.214958 0.0267358 0.622 
0.243166 0.0266498 0.62 
0.27338 0.0267788 0.623 
0.302419 0.0267788 0.623 
0.330925 0.0267358 0.622 
0.35818 0.0266069 0.619 
0.387657 0.0266498 0.62 
0.415212 0.0265639 0.618 
0.44258 0.0264779 0.616 
0.471292 0.0264779 0.616 
0.498381 0.0263919 0.614 
0.527858 0.0264349 0.615 
0.554713 0.026349 0.613 
0.582334 0.026306 0.612 
-0.58211 0.0335366 0.753 
-0.547013 0.0335366 0.753 
-0.499424 0.0328685 0.738 
-0.474478 0.0335366 0.753 
-0.438213 0.0334475 0.751 
-0.403746 0.033492 0.752 
-0.371146 0.0337147 0.757 
-0.334531 0.0335811 0.754 
-0.298196 0.0334475 0.751 
-0.26214 0.0333139 0.748 
-0.22606 0.0331357 0.744 
-0.188553 0.0326458 0.733 
-0.158179 0.0334475 0.751 
-0.122682 0.0333139 0.748 
-0.0782509 0.032245 0.724 
-0.0229192 0.0278803 0.626 
0.00623881 0.0277913 0.624 
0.0354369 0.0278803 0.626 
0.0643052 0.0277467 0.623 
0.0933435 0.0277467 0.623 
0.122775 0.0278358 0.625 
0.151906 0.0278358 0.625 
0.180748 0.0277913 0.624 
0.209496 0.0277467 0.623 
0.237386 0.0276131 0.62 
0.268002 0.0277913 0.624 
0.296135 0.0277022 0.622 
0.324081 0.0276131 0.62 
0.35241 0.0275686 0.619 
0.381878 0.0276131 0.62 
0.409451 0.027524 0.618 
0.437547 0.0274795 0.617 
0.464794 0.0273904 0.615 
0.492657 0.0273459 0.614 
0.520427 0.0273014 0.613 
0.548103 0.0272568 0.612 
0.574744 0.0271677 0.61 
0.605154 0.0272568 0.612 
-0.554768 0.0347526 0.754 
-0.504932 0.033923 0.736 
-0.482137 0.0347526 0.754 
-0.445807 0.0346604 0.752 
-0.407876 0.0346143 0.751 
-0.372375 0.0345682 0.75 
-0.338767 0.0347065 0.753 
-0.303266 0.0346604 0.752 
-0.264111 0.03443 0.747 
-0.227758 0.0341995 0.742 
-0.190209 0.0338769 0.735 
-0.159133 0.0345682 0.75 
-0.123679 0.03443 0.747 
-0.0829789 0.033462 0.726 
-0.0267668 0.0288069 0.625 
0.00236462 0.0288069 0.625 
0.0314961 0.0288069 0.625 
0.0605305 0.0287608 0.624 
0.0893281 0.0286686 0.622 
0.1187 0.0287608 0.624 
0.147548 0.0287147 0.623 
0.176303 0.0286686 0.622 
0.205625 0.0287147 0.623 
0.233533 0.0285764 0.62 
0.263278 0.0286686 0.622 
0.292269 0.0286686 0.622 
0.319711 0.0285303 0.619 
0.348563 0.0285303 0.619 
0.377415 0.0285303 0.619 
0.406267 0.0285303 0.619 
0.435118 0.0285303 0.619 
0.460223 0.0282999 0.614 
0.488045 0.0282538 0.613 
0.515774 0.0282077 0.612 
0.5443 0.0282077 0.612 
0.570017 0.0280694 0.609 
0.600368 0.0281616 0.611 
-0.557111 0.0359241 0.754 
-0.511583 0.0352094 0.739 
-0.487468 0.0359717 0.755 
-0.45048 0.0358288 0.752 
-0.412543 0.0357811 0.751 
-0.374523 0.0354953 0.745 
-0.342991 0.0358288 0.752 
-0.306711 0.0356858 0.749 
-0.265627 0.0356382 0.748 
-0.228294 0.035257 0.74 
-0.191872 0.0351141 0.737 
-0.160085 0.0356858 0.749 
-0.124672 0.0355429 0.746 
-0.0883344 0.0349235 0.733 
-0.0316221 0.0297779 0.625 
-0.00249461 0.0298255 0.626 
0.0266408 0.0297779 0.625 
0.055683 0.0297303 0.624 
0.0844961 0.029635 0.622 
0.11367 0.0296826 0.623 
0.142479 0.029635 0.622 
0.171195 0.0295873 0.621 
0.200463 0.029635 0.622 
0.229085 0.0295873 0.621 
0.25803 0.0295873 0.621 
0.286975 0.0295873 0.621 
0.314394 0.0294444 0.618 
0.343755 0.029492 0.619 
0.372004 0.0294444 0.618 
0.402755 0.0295873 0.621 
0.431005 0.0295397 0.62 
0.455453 0.0292538 0.614 
0.482495 0.0291585 0.612 
0.510185 0.0291109 0.611 
0.539546 0.0291585 0.612 
0.565287 0.0290156 0.609 
0.594647 0.0290632 0.61 
-0.568485 0.0369971 0.752 
-0.533434 0.0369971 0.752 
-0.493081 0.0366036 0.744 
-0.4621 0.0368987 0.75 
-0.427712 0.0369479 0.751 
-0.391139 0.0368003 0.748 
-0.359132 0.0370955 0.754 
-0.32141 0.0368003 0.748 
-0.287312 0.0368987 0.75 
-0.243072 0.0365544 0.743 
-0.206132 0.0365544 0.743 
-0.169192 0.0360624 0.733 
-0.138343 0.0369479 0.751 
-0.102926 0.0368003 0.748 
-0.0657864 0.0355704 0.723 
-0.0122206 0.0307982 0.626 
0.0169032 0.0306998 0.624 
0.0460618 0.0307489 0.625 
0.0744713 0.0304538 0.619 
0.103824 0.0306014 0.622 
0.132602 0.0305522 0.621 
0.161807 0.0306014 0.622 
0.190185 0.030503 0.62 
0.21873 0.0304538 0.619 
0.247582 0.0304538 0.619 
0.276434 0.0304538 0.619 
0.305779 0.030503 0.62 
0.333598 0.0304046 0.618 
0.361816 0.0303554 0.617 
0.392474 0.030503 0.62 
0.420693 0.0304538 0.619 
0.446639 0.030257 0.615 
0.473759 0.0301586 0.613 
0.500692 0.0300602 0.611 
0.530903 0.0301586 0.613 
0.558563 0.0301094 0.612 
0.58517 0.030011 0.61 
-0.452245 0.0288779 0.569 
-0.543226 0.0381147 0.751 
-0.500101 0.0375057 0.739 
-0.473848 0.0381655 0.752 
-0.43763 0.038064 0.75 
-0.403209 0.0381147 0.751 
-0.368695 0.0381655 0.752 
-0.332757 0.038064 0.75 
-0.297005 0.0379625 0.748 
-0.255644 0.037861 0.746 
-0.215001 0.037049 0.73 
-0.176504 0.0365922 0.721 
-0.14651 0.0381147 0.751 
-0.111061 0.0379625 0.748 
-0.0730384 0.0363892 0.717 
-0.0189984 0.03172 0.625 
0.0100844 0.0315677 0.622 
0.0392644 0.03172 0.625 
0.0678487 0.0314662 0.62 
0.0967471 0.0314662 0.62 
0.126051 0.0315677 0.622 
0.155042 0.0315677 0.622 
0.184034 0.0315677 0.622 
0.212341 0.0314662 0.62 
0.24085 0.0314155 0.619 
0.270137 0.0314662 0.62 
0.299518 0.031517 0.621 
0.327405 0.0314155 0.619 
0.35453 0.0312632 0.616 
0.384487 0.0313647 0.618 
0.412623 0.031314 0.617 
0.439951 0.0312125 0.615 
0.46633 0.0310602 0.612 
0.494856 0.0310602 0.612 
0.523381 0.0310602 0.612 
0.550103 0.0309587 0.61 
0.576639 0.0308572 0.608 
0.606968 0.0309587 0.61 
-0.557542 0.0393862 0.753 
-0.514812 0.0388108 0.742 
-0.487347 0.0393862 0.753 
-0.450448 0.0392293 0.75 
-0.414382 0.0391246 0.748 
-0.376981 0.0388631 0.743 
-0.346035 0.0392816 0.751 
-0.30896 0.03902 0.746 
-0.272889 0.0393339 0.752 
-0.232893 0.0387062 0.74 
-0.19867 0.0387585 0.741 
-0.162195 0.0391246 0.748 
-0.12648 0.0388631 0.743 
-0.0912301 0.0386016 0.738 
-0.0325931 0.032691 0.625 
-0.00345613 0.0326387 0.624 
0.0256287 0.0326387 0.624 
0.0544505 0.0324818 0.621 
0.0832612 0.0324295 0.62 
0.112521 0.0325341 0.622 
0.14083 0.0323772 0.619 
0.17023 0.0324818 0.621 
0.198534 0.0323772 0.619 
0.227386 0.0323772 0.619 
0.256651 0.0324295 0.62 
0.28555 0.0324295 0.62 
0.312927 0.0322726 0.617 
0.341132 0.0322203 0.616 
0.370444 0.0322726 0.617 
0.399849 0.0323249 0.618 
0.428655 0.0323249 0.618 
0.453759 0.0320634 0.613 
0.480757 0.0319588 0.611 
0.509236 0.0319588 0.611 
0.537715 0.0319588 0.611 
0.563414 0.0318018 0.608 
0.592726 0.0318542 0.609 
-0.575897 0.0404484 0.751 
-0.540172 0.0403945 0.75 
-0.499152 0.0399098 0.741 
-0.470257 0.0403945 0.75 
-0.434719 0.0403407 0.749 
-0.400342 0.0403945 0.75 
-0.366845 0.0405561 0.753 
-0.329545 0.0402868 0.748 
-0.293893 0.0401791 0.746 
-0.260163 0.0403407 0.749 
-0.217207 0.0391019 0.726 
-0.183368 0.0391019 0.726 
-0.149811 0.0403945 0.75 
-0.114088 0.0401252 0.745 
-0.0748464 0.0384017 0.713 
-0.0150659 0.0335544 0.623 
0.0139723 0.0335544 0.623 
0.0430796 0.0336082 0.624 
0.0715862 0.0333389 0.619 
0.1006 0.0333928 0.62 
0.129707 0.0334467 0.621 
0.158397 0.0333928 0.62 
0.187597 0.0334467 0.621 
0.215845 0.0333389 0.619 
0.244302 0.0332851 0.618 
0.272665 0.0332312 0.617 
0.301912 0.0332851 0.618 
0.330182 0.0332312 0.617 
0.357777 0.0331235 0.615 
0.387071 0.0331774 0.616 
0.416458 0.0332312 0.617 
0.443051 0.0330696 0.614 
0.470134 0.0329619 0.612 
0.497844 0.0329081 0.611 
0.526323 0.0329081 0.611 
0.553894 0.0328542 0.61 
0.580417 0.0327465 0.608 
-0.459317 0.03153 0.569 
-0.561052 0.041726 0.753 
-0.521065 0.0413381 0.746 
-0.488901 0.0415598 0.75 
-0.453338 0.0415044 0.749 
-0.416751 0.0413381 0.746 
-0.380956 0.0412273 0.744 
-0.348605 0.0415044 0.749 
-0.312437 0.0413381 0.746 
-0.278783 0.0415044 0.749 
-0.239467 0.0409502 0.739 
-0.2053 0.0410056 0.74 
-0.1685 0.0404515 0.73 
-0.13779 0.0414489 0.748 
-0.102238 0.0411719 0.743 
-0.0364189 0.0345777 0.624 
-0.00732235 0.0345223 0.623 
0.0217159 0.0345223 0.623 
0.0505097 0.0343561 0.62 
0.0791519 0.0342452 0.618 
0.108306 0.0343561 0.62 
0.136762 0.0342452 0.618 
0.166103 0.0343561 0.62 
0.194687 0.0343007 0.619 
0.223178 0.0342452 0.618 
0.252391 0.0343007 0.619 
0.280788 0.0342452 0.618 
0.308591 0.0341344 0.616 
0.336208 0.0340236 0.614 
0.366015 0.0341344 0.616 
0.394086 0.034079 0.615 
0.424126 0.0341898 0.617 
0.449949 0.0339682 0.613 
0.47696 0.0338574 0.611 
0.504611 0.0338019 0.61 
0.533044 0.0338019 0.61 
0.560556 0.0337465 0.609 
0.587974 0.0336911 0.608 
-0.452245 0.0324141 0.569 
-0.554894 0.042782 0.751 
-0.51366 0.0422693 0.742 
-0.484886 0.042782 0.751 
-0.448084 0.0426111 0.748 
-0.412115 0.0424972 0.746 
-0.375826 0.0423263 0.743 
-0.343491 0.0426111 0.748 
-0.306976 0.0423832 0.744 
-0.275226 0.042839 0.752 
-0.233921 0.0419275 0.736 
-0.200701 0.0421554 0.74 
-0.166209 0.0421554 0.74 
-0.13243 0.0423832 0.744 
-0.097226 0.0421554 0.74 
-0.0316221 0.0356042 0.625 
-0.00247468 0.0353763 0.621 
0.0294594 0.0354903 0.623 
0.058122 0.0352624 0.619 
0.0869738 0.0352624 0.619 
0.116013 0.0353194 0.62 
0.144444 0.0352054 0.618 
0.17437 0.0354333 0.622 
0.202054 0.0352054 0.618 
0.230486 0.0351485 0.617 
0.260084 0.0352624 0.619 
0.28987 0.0353763 0.621 
0.315734 0.0350345 0.615 
0.34384 0.0349776 0.614 
0.373065 0.0350345 0.615 
0.40173 0.0350345 0.615 
0.429696 0.0349776 0.614 
0.456822 0.0348636 0.612 
0.483761 0.0347497 0.61 
0.512193 0.0347497 0.61 
0.538853 0.0346358 0.608 
0.565326 0.0345218 0.606 
0.594552 0.0345788 0.607 
-0.574759 0.0437732 0.748 
-0.539894 0.0437732 0.748 
-0.500303 0.0433636 0.741 
-0.470794 0.0438318 0.749 
-0.435301 0.0437732 0.748 
-0.400971 0.0438318 0.749 
-0.36606 0.0438318 0.749 
-0.330707 0.0437732 0.748 
-0.294261 0.0435392 0.744 
-0.261327 0.0438318 0.749 
-0.217132 0.0422517 0.722 
-0.18261 0.0423102 0.723 
-0.15406 0.0437732 0.748 
-0.117921 0.0433051 0.74 
-0.0794999 0.0418421 0.715 
-0.0189072 0.0363997 0.622 
0.0139275 0.0363412 0.621 
0.0429415 0.0363997 0.622 
0.0714705 0.0361656 0.618 
0.100276 0.0361656 0.618 
0.129499 0.0362826 0.62 
0.157886 0.0361656 0.618 
0.187295 0.0362826 0.62 
0.215845 0.0362241 0.619 
0.244302 0.0361656 0.618 
0.272223 0.0360486 0.616 
0.301423 0.0361071 0.617 
0.329112 0.03599 0.615 
0.357195 0.0359315 0.614 
0.385186 0.035873 0.613 
0.414433 0.0359315 0.614 
0.441608 0.0358145 0.612 
0.469365 0.035756 0.611 
0.496215 0.0356389 0.609 
0.5246 0.0356389 0.609 
0.552078 0.0355804 0.608 
0.578508 0.0354633 0.606 
-0.459534 0.0340019 0.566 
-0.563478 0.0450555 0.75 
-0.52711 0.0449354 0.748 
-0.49093 0.0448152 0.746 
-0.457381 0.0449354 0.748 
-0.421952 0.0448753 0.747 
-0.386098 0.0447552 0.745 
-0.350686 0.0448152 0.746 
-0.315491 0.0447552 0.745 
-0.280766 0.0447552 0.745 
-0.243399 0.0442746 0.737 
-0.208197 0.0440944 0.734 
-0.171377 0.0434335 0.723 
-0.142058 0.0448152 0.746 
-0.106424 0.0444548 0.74 
-0.0382964 0.0374261 0.623 
-0.00921365 0.0372459 0.62 
0.0197482 0.0373661 0.622 
0.0484264 0.0371258 0.618 
0.0771066 0.0370657 0.617 
0.106037 0.0371258 0.618 
0.134842 0.0371258 0.618 
0.163647 0.0371258 0.618 
0.192452 0.0371258 0.618 
0.220899 0.0370657 0.617 
0.249658 0.0370657 0.617 
0.277514 0.0369455 0.615 
0.306179 0.0369455 0.615 
0.333756 0.0368254 0.613 
0.362919 0.0368855 0.614 
0.390262 0.0367653 0.612 
0.419472 0.0368254 0.613 
0.446582 0.0367052 0.611 
0.474284 0.0366452 0.61 
0.501068 0.036525 0.608 
0.529407 0.036525 0.608 
0.557746 0.036525 0.608 
0.585121 0.036465 0.607 
-0.455781 0.0350662 0.569 
-0.556908 0.0461592 0.749 
-0.519906 0.0459743 0.746 
-0.485785 0.0460359 0.747 
-0.449204 0.0459743 0.746 
-0.413322 0.045851 0.744 
-0.378644 0.045851 0.744 
-0.340956 0.0459127 0.745 
-0.304587 0.0456662 0.741 
-0.274057 0.0463441 0.752 
-0.232332 0.0450499 0.731 
-0.200701 0.0456045 0.74 
-0.165535 0.0454196 0.737 
-0.13243 0.045851 0.744 
-0.0955569 0.045358 0.736 
-0.0307491 0.0386406 0.627 
-0.00150255 0.0380859 0.618 
0.0274793 0.0383324 0.622 
0.056017 0.0380243 0.617 
0.0849129 0.0380859 0.618 
0.113534 0.0380243 0.617 
0.142293 0.0380243 0.617 
0.173125 0.0382708 0.621 
0.200443 0.0379627 0.616 
0.229155 0.0379627 0.616 
0.257867 0.0379627 0.616 
0.287509 0.0380859 0.618 
0.314267 0.0378394 0.614 
0.34121 0.0376545 0.611 
0.37211 0.0379011 0.615 
0.398168 0.0376545 0.611 
0.426647 0.0376545 0.611 
0.455126 0.0376545 0.611 
0.482022 0.0375313 0.609 
0.509569 0.0374697 0.608 
0.536139 0.0373464 0.606 
0.563454 0.0372848 0.605 
0.592631 0.0373464 0.606 
-0.583653 0.0471333 0.746 
-0.550353 0.0472597 0.748 
-0.512732 0.047007 0.744 
-0.479982 0.0471965 0.747 
-0.442843 0.0471965 0.747 
-0.406386 0.047007 0.744 
-0.367084 0.047007 0.744 
-0.333747 0.0471965 0.747 
-0.296528 0.0468174 0.741 
-0.264465 0.0472597 0.748 
-0.220698 0.0454274 0.719 
-0.186238 0.0457433 0.724 
-0.156915 0.0470702 0.745 
-0.121042 0.0466279 0.738 
-0.0778408 0.0448588 0.71 
-0.02084 0.0392988 0.622 
0.00808606 0.0389829 0.617 
0.0370238 0.0391725 0.62 
0.0654968 0.0389198 0.616 
0.0942088 0.0389198 0.616 
0.123519 0.0391093 0.619 
0.152125 0.0390461 0.618 
0.180637 0.0389829 0.617 
0.208717 0.0388566 0.615 
0.237382 0.0388566 0.615 
0.266048 0.0388566 0.615 
0.295192 0.0389198 0.616 
0.322853 0.0387934 0.614 
0.350327 0.038667 0.612 
0.378852 0.038667 0.612 
0.406712 0.0386038 0.611 
0.433766 0.0384775 0.609 
0.462911 0.0385407 0.61 
0.489732 0.0384143 0.608 
0.518071 0.0384143 0.608 
0.544613 0.0382879 0.606 
0.570968 0.0381616 0.604 
0.599121 0.0381616 0.604 
-0.567843 0.0480334 0.742 
-0.534695 0.0481629 0.744 
-0.500017 0.0481629 0.744 
-0.46659 0.0482924 0.746 
-0.427193 0.0481629 0.744 
-0.393043 0.0482276 0.745 
-0.353213 0.0481629 0.744 
-0.317679 0.0480334 0.742 
-0.282331 0.047904 0.74 
-0.24717 0.0477745 0.738 
-0.210176 0.0471919 0.729 
-0.173297 0.0464151 0.717 
-0.144755 0.0480334 0.742 
-0.109576 0.0477745 0.738 
-0.0680085 0.0460266 0.711 
-0.0110683 0.0398768 0.616 
0.0177295 0.040071 0.619 
0.0464308 0.0399415 0.617 
0.0750675 0.0398768 0.616 
0.103948 0.0399415 0.617 
0.132922 0.0400063 0.618 
0.161203 0.0398768 0.616 
0.189915 0.0398768 0.616 
0.218272 0.0398121 0.615 
0.246938 0.0398121 0.615 
0.275155 0.0397473 0.614 
0.311405 0.0397473 0.614 
0.337809 0.0394884 0.61 
0.368042 0.0396826 0.613 
0.394673 0.0394884 0.61 
0.423358 0.0394237 0.609 
0.452486 0.0394884 0.61 
0.479341 0.0393589 0.608 
0.50601 0.0392295 0.606 
0.533374 0.0391647 0.605 
0.560645 0.0391 0.604 
0.589773 0.0391647 0.605 
-0.452245 0.0377183 0.569 
-0.548882 0.0494514 0.746 
-0.512732 0.0493188 0.744 
-0.478697 0.0493851 0.745 
-0.4405 0.0493851 0.745 
-0.404141 0.0491863 0.742 
-0.369058 0.04912 0.741 
-0.335423 0.0492525 0.743 
-0.299172 0.0489874 0.739 
-0.267593 0.0495177 0.747 
-0.224985 0.0478605 0.722 
-0.193108 0.0485897 0.733 
-0.160027 0.0489211 0.738 
-0.126309 0.0491863 0.742 
-0.0909829 0.0487885 0.736 
-0.0217713 0.0411653 0.621 
0.00712744 0.0409002 0.617 
0.0359442 0.0409665 0.618 
0.064435 0.0407676 0.615 
0.0931003 0.0407676 0.615 
0.12236 0.0409665 0.618 
0.150676 0.0408339 0.616 
0.179096 0.0407676 0.615 
0.206748 0.0405687 0.612 
0.235658 0.040635 0.613 
0.264661 0.0407013 0.614 
0.292802 0.040635 0.613 
0.321374 0.040635 0.613 
0.348805 0.0405024 0.611 
0.377284 0.0405024 0.611 
0.40377 0.0403036 0.608 
0.431399 0.0402373 0.607 
0.461206 0.0403699 0.609 
0.48718 0.040171 0.606 
0.515425 0.040171 0.606 
0.541877 0.0400384 0.604 
0.569086 0.0399721 0.603 
0.596202 0.0399058 0.602 
-0.555091 0.0505426 0.745 
-0.521065 0.0506105 0.746 
-0.48499 0.0504748 0.744 
-0.449707 0.0504069 0.743 
-0.415075 0.0504069 0.743 
-0.379932 0.0503391 0.742 
-0.345347 0.0503391 0.742 
-0.309924 0.0502034 0.74 
-0.276177 0.0503391 0.742 
-0.238011 0.0495928 0.731 
-0.205055 0.0498642 0.735 
-0.166907 0.0493893 0.728 
-0.136445 0.0506783 0.747 
-0.100403 0.0500677 0.738 
-0.030651 0.0424015 0.625 
-0.00149769 0.0417909 0.616 
0.0273468 0.0419945 0.619 
0.0559262 0.0417909 0.616 
0.0847755 0.0418588 0.617 
0.113166 0.0417231 0.615 
0.141831 0.0417231 0.615 
0.171328 0.0419266 0.618 
0.198191 0.0415196 0.612 
0.226716 0.0415196 0.612 
0.255242 0.0415196 0.612 
0.283767 0.0415196 0.612 
0.312293 0.0415196 0.612 
0.339704 0.0413839 0.61 
0.370032 0.0413839 0.61 
0.396505 0.0411804 0.607 
0.424797 0.0411804 0.607 
0.454582 0.041316 0.609 
0.481382 0.0411804 0.607 
0.507995 0.0410447 0.605 
0.534422 0.040909 0.603 
0.562528 0.040909 0.603 
0.589654 0.0408411 0.602 
-0.563231 0.0514919 0.742 
-0.530784 0.0517001 0.745 
-0.495393 0.0516307 0.744 
-0.454324 0.0515613 0.743 
-0.420257 0.0516307 0.744 
-0.385061 0.0515613 0.743 
-0.349486 0.0514225 0.741 
-0.314098 0.0512837 0.739 
-0.279275 0.0512143 0.738 
-0.243217 0.0508673 0.733 
-0.208482 0.0507286 0.731 
-0.166907 0.0505204 0.728 
-0.136445 0.0518389 0.747 
-0.100403 0.0512143 0.738 
-0.0226996 0.0430256 0.62 
0.00615883 0.042748 0.616 
0.0349274 0.0428174 0.617 
0.0634795 0.0426786 0.615 
0.0921448 0.0426786 0.615 
0.121007 0.042748 0.616 
0.149475 0.0426786 0.615 
0.177562 0.0425398 0.613 
0.205125 0.0423316 0.61 
0.233557 0.0423316 0.61 
0.262848 0.0424704 0.612 
0.290422 0.0423316 0.61 
0.324123 0.042401 0.611 
0.352025 0.0423316 0.61 
0.37921 0.0421928 0.608 
0.406879 0.0421234 0.607 
0.433737 0.0419846 0.605 
0.463463 0.0421234 0.607 
