# .PCD v.7 - Point Cloud Data file format
VERSION .7
FIELDS x y z
SIZE 4 4 4
TYPE F F F
COUNT 1 1 1
WIDTH 1792
HEIGHT 1
VIEWPOINT 0 0 0 1 0 0 0
POINTS 1792
DATA ascii
-0.442191 -0.0544445 0.725 
-0.422481 -0.0563219 0.75 
-0.399408 -0.0580491 0.773 
-0.37184 -0.0594008 0.791 
-0.3409 -0.0604521 0.805 
-0.316945 -0.0631556 0.841 
-0.286333 -0.0651081 0.867 
-0.253327 -0.0678115 0.903 
-0.216429 -0.0708904 0.944 
-0.180649 -0.0742697 0.989 
-0.141898 -0.0783249 1.043 
-0.0972182 -0.0816291 1.087 
-0.0490368 -0.0859847 1.145 
0.00472167 -0.0937196 1.248 
0.0661669 -0.0986008 1.313 
0.142229 -0.105059 1.399 
0.221523 -0.112193 1.494 
0.304996 -0.117525 1.565 
0.401849 -0.124959 1.664 
0.803227 -0.208241 2.773 
0.911628 -0.203585 2.711 
1.06747 -0.209367 2.788 
1.20257 -0.210268 2.8 
1.34689 -0.212446 2.829 
1.51848 -0.218153 2.905 
1.63908 -0.216201 2.879 
1.77327 -0.216201 2.879 
1.92469 -0.218153 2.905 
2.00903 -0.212746 2.833 
2.20532 -0.21913 2.918 
2.37663 -0.222434 2.962 
2.423 -0.214323 2.854 
2.67245 -0.224086 2.984 
2.83792 -0.226189 3.012 
3.02973 -0.230094 3.064 
-0.505578 -0.0480966 0.654 
-0.488897 -0.0494939 0.673 
-0.467758 -0.0511853 0.696 
-0.447201 -0.0525826 0.715 
-0.429503 -0.0545683 0.742 
-0.406628 -0.0561862 0.764 
-0.383644 -0.0580983 0.79 
-0.351212 -0.0588337 0.8 
-0.323733 -0.0606723 0.825 
-0.296345 -0.0630256 0.857 
-0.267061 -0.066335 0.902 
-0.231005 -0.0681 0.926 
-0.194539 -0.0705269 0.959 
-0.157183 -0.0739834 1.006 
-0.116652 -0.0782488 1.064 
-0.0695793 -0.0811905 1.104 
-0.0196645 -0.0881035 1.198 
0.0407664 -0.0944281 1.284 
0.105629 -0.0991348 1.348 
0.181457 -0.106783 1.452 
0.263033 -0.11274 1.533 
0.350196 -0.118035 1.605 
0.459695 -0.127669 1.736 
0.865348 -0.203344 2.765 
1.00142 -0.204815 2.785 
1.1296 -0.204521 2.781 
1.27371 -0.206874 2.813 
1.44628 -0.212978 2.896 
1.59328 -0.214596 2.918 
1.70084 -0.211066 2.87 
1.86785 -0.21489 2.922 
1.93752 -0.207757 2.825 
2.08091 -0.208933 2.841 
2.31773 -0.218788 2.975 
2.39447 -0.213272 2.9 
2.52615 -0.212978 2.896 
2.79345 -0.223568 3.04 
2.85984 -0.217832 2.962 
-0.519158 -0.0458566 0.637 
-0.501514 -0.0473684 0.658 
-0.48444 -0.0487362 0.677 
-0.461511 -0.0502479 0.698 
-0.443727 -0.0519757 0.722 
-0.423705 -0.0537034 0.746 
-0.400925 -0.0553591 0.769 
-0.376001 -0.0570149 0.792 
-0.344652 -0.0579507 0.805 
-0.320102 -0.0603983 0.839 
-0.289704 -0.06227 0.865 
-0.260342 -0.0650056 0.903 
-0.225504 -0.0671652 0.933 
-0.188259 -0.0694689 0.965 
-0.151298 -0.0733562 1.019 
-0.10859 -0.0767397 1.066 
-0.0616108 -0.0802671 1.115 
-0.00673502 -0.087538 1.216 
0.0529413 -0.0927931 1.289 
0.120475 -0.0989121 1.374 
0.198618 -0.106471 1.479 
0.28058 -0.111654 1.551 
0.366296 -0.115901 1.61 
0.479167 -0.125836 1.748 
0.879844 -0.196528 2.73 
1.03771 -0.202504 2.813 
1.16716 -0.202216 2.809 
1.30733 -0.203655 2.829 
1.47328 -0.208479 2.896 
1.6177 -0.209702 2.913 
1.72278 -0.206031 2.862 
1.89768 -0.210638 2.926 
1.96941 -0.203943 2.833 
2.14152 -0.207831 2.887 
2.3494 -0.214526 2.98 
2.41816 -0.208479 2.896 
2.61486 -0.213518 2.966 
2.85706 -0.22158 3.078 
2.92254 -0.215821 2.998 
-0.514831 -0.0450078 0.639 
-0.497363 -0.0466278 0.662 
-0.47809 -0.0483183 0.686 
-0.459122 -0.049727 0.706 
-0.437685 -0.0510652 0.725 
-0.418377 -0.0528965 0.751 
-0.396135 -0.0546574 0.776 
-0.368779 -0.0559956 0.795 
-0.338818 -0.057193 0.812 
-0.311719 -0.0592356 0.841 
-0.281917 -0.0612783 0.87 
-0.251076 -0.0637435 0.905 
-0.217203 -0.0662791 0.941 
-0.181448 -0.0693783 0.985 
-0.141592 -0.0724774 1.029 
-0.0980882 -0.0759287 1.078 
-0.0501944 -0.0796617 1.131 
0.0105977 -0.0883956 1.255 
0.0721217 -0.0922696 1.31 
0.141518 -0.0980452 1.392 
0.220634 -0.104807 1.488 
0.302268 -0.109244 1.551 
0.399676 -0.11657 1.655 
0.804385 -0.195597 2.777 
0.914319 -0.191512 2.719 
1.08164 -0.198978 2.825 
1.21159 -0.198696 2.821 
1.36641 -0.202148 2.87 
1.52527 -0.205529 2.918 
1.64876 -0.203979 2.896 
1.77573 -0.203063 2.883 
1.92137 -0.204261 2.9 
2.07498 -0.206092 2.926 
2.23177 -0.207994 2.953 
2.39829 -0.21053 2.989 
2.45526 -0.203697 2.892 
2.71813 -0.21377 3.035 
2.82944 -0.211516 3.003 
3.11279 -0.221729 3.148 
-0.50943 -0.0444972 0.646 
-0.492384 -0.0458059 0.665 
-0.476653 -0.0473213 0.687 
-0.457575 -0.0486989 0.707 
-0.436033 -0.0500077 0.726 
-0.416598 -0.0517986 0.752 
-0.392825 -0.0536584 0.779 
-0.364754 -0.0548982 0.797 
-0.335826 -0.0562759 0.817 
-0.307221 -0.0580668 0.843 
-0.277781 -0.0602021 0.874 
-0.246265 -0.062544 0.908 
-0.213152 -0.0653682 0.949 
-0.176929 -0.0684678 0.994 
-0.135328 -0.0709475 1.03 
-0.0918974 -0.0746671 1.084 
-0.0369036 -0.0795577 1.155 
0.0264471 -0.0872724 1.267 
0.0898214 -0.0916807 1.331 
0.160645 -0.0969846 1.408 
0.242021 -0.103735 1.506 
0.321131 -0.106697 1.549 
0.436498 -0.118407 1.719 
0.843433 -0.192316 2.792 
0.964154 -0.190456 2.765 
1.10845 -0.193143 2.804 
1.24489 -0.194038 2.817 
1.42114 -0.200375 2.909 
1.57064 -0.202166 2.935 
1.68475 -0.19948 2.896 
1.85241 -0.203061 2.948 
1.93177 -0.197138 2.862 
2.12073 -0.202442 2.939 
2.28537 -0.204921 2.975 
2.42078 -0.204646 2.971 
2.48345 -0.198584 2.883 
2.77764 -0.210707 3.059 
2.82285 -0.203681 2.957 
-0.51901 -0.0425509 0.632 
-0.501513 -0.0440321 0.654 
-0.481624 -0.0455133 0.676 
-0.464098 -0.0469272 0.697 
-0.445234 -0.0484084 0.719 
-0.423747 -0.0498223 0.74 
-0.401074 -0.0516401 0.767 
-0.375717 -0.053458 0.794 
-0.345534 -0.0545352 0.81 
-0.318039 -0.056353 0.837 
-0.289027 -0.0583729 0.867 
-0.258079 -0.0605947 0.9 
-0.224054 -0.0628165 0.933 
-0.186566 -0.0649036 0.964 
-0.14898 -0.06827 1.014 
-0.106432 -0.0714344 1.061 
-0.0602007 -0.075474 1.121 
0.00468383 -0.0833513 1.238 
0.0650582 -0.0869197 1.291 
0.134156 -0.0931138 1.383 
0.212836 -0.0997792 1.482 
0.294468 -0.104223 1.548 
0.383436 -0.109003 1.619 
0.789162 -0.18643 2.769 
0.903966 -0.183535 2.726 
1.07452 -0.191277 2.841 
1.20694 -0.191277 2.841 
1.35539 -0.193566 2.875 
1.50701 -0.195855 2.909 
1.6426 -0.195855 2.909 
1.7574 -0.193566 2.875 
1.93088 -0.197606 2.935 
2.09938 -0.200636 2.98 
2.22777 -0.199693 2.966 
2.40989 -0.203396 3.021 
2.49666 -0.199087 2.957 
2.71289 -0.205012 3.045 
2.86326 -0.205618 3.054 
3.07843 -0.2106 3.128 
-0.505282 -0.0428187 0.651 
-0.485039 -0.0442 0.672 
-0.467895 -0.0455812 0.693 
-0.447537 -0.0468309 0.712 
-0.427735 -0.0483437 0.735 
-0.407396 -0.0500538 0.761 
-0.380964 -0.0517639 0.787 
-0.352593 -0.0530136 0.806 
-0.322842 -0.0543291 0.826 
-0.293293 -0.0560392 0.852 
-0.266379 -0.0588675 0.895 
-0.230185 -0.0603145 0.917 
-0.195824 -0.0630112 0.958 
-0.158746 -0.0661684 1.006 
-0.117304 -0.0693913 1.055 
-0.0714237 -0.0727458 1.106 
-0.0102455 -0.0779419 1.185 
0.0485563 -0.0841246 1.279 
0.114683 -0.0891892 1.356 
0.192711 -0.0966216 1.469 
0.289096 -0.10162 1.545 
0.376068 -0.10583 1.609 
0.783726 -0.181864 2.765 
0.902372 -0.179825 2.734 
1.07011 -0.186863 2.841 
1.20803 -0.187718 2.854 
1.3528 -0.189363 2.879 
1.50249 -0.191336 2.909 
1.64033 -0.191599 2.913 
1.75538 -0.189363 2.879 
1.93485 -0.193901 2.948 
2.10108 -0.196598 2.989 
2.22691 -0.195414 2.971 
2.41634 -0.199623 3.035 
2.51482 -0.196269 2.984 
2.71261 -0.20061 3.05 
2.87255 -0.20186 3.069 
3.06375 -0.205083 3.118 
-0.503019 -0.0418715 0.652 
-0.48295 -0.0431559 0.672 
-0.467086 -0.0446329 0.695 
-0.446575 -0.0458531 0.714 
-0.425451 -0.0472017 0.735 
-0.405563 -0.0489357 0.762 
-0.37948 -0.0506696 0.789 
-0.350523 -0.0518256 0.807 
-0.321827 -0.0533027 0.83 
-0.29201 -0.0549724 0.856 
-0.263009 -0.0573485 0.893 
-0.228079 -0.0590825 0.92 
-0.193049 -0.061587 0.959 
-0.155929 -0.0647338 1.008 
-0.114134 -0.0678164 1.056 
-0.0682943 -0.0713485 1.111 
-0.0174019 -0.0752017 1.171 
0.0464963 -0.082009 1.277 
0.112078 -0.0866971 1.35 
0.189521 -0.0938897 1.462 
0.298311 -0.0990916 1.543 
0.394225 -0.105514 1.643 
0.797766 -0.177825 2.769 
0.918797 -0.176284 2.745 
1.08487 -0.182706 2.845 
1.22133 -0.183284 2.854 
1.37619 -0.186238 2.9 
1.51396 -0.186559 2.905 
1.65902 -0.187651 2.922 
1.77678 -0.185724 2.892 
1.93405 -0.187908 2.926 
2.14119 -0.19433 3.026 
2.25735 -0.192211 2.993 
2.43449 -0.195229 3.04 
2.54483 -0.192853 3.003 
2.74739 -0.197348 3.073 
2.85111 -0.194651 3.031 
3.16911 -0.206146 3.21 
-0.497703 -0.0409212 0.653 
-0.479889 -0.0424878 0.678 
-0.462172 -0.0438038 0.699 
-0.443112 -0.0451825 0.721 
-0.420297 -0.0463731 0.74 
-0.399054 -0.0482531 0.77 
-0.374483 -0.0497571 0.794 
-0.345975 -0.0510104 0.814 
-0.31636 -0.0523891 0.836 
-0.28768 -0.0543318 0.867 
-0.25554 -0.0561491 0.896 
-0.222127 -0.0583424 0.931 
-0.185261 -0.0604731 0.965 
-0.146678 -0.0632304 1.009 
-0.104586 -0.0663637 1.059 
-0.0585633 -0.0703744 1.123 
-0.00655225 -0.0741343 1.183 
0.0564607 -0.0800876 1.278 
0.1242 -0.0857276 1.368 
0.204038 -0.0930596 1.485 
0.312029 -0.0957542 1.528 
0.425889 -0.106408 1.698 
0.839095 -0.174965 2.792 
0.972009 -0.175466 2.8 
1.12181 -0.178537 2.849 
1.25284 -0.178286 2.845 
1.42489 -0.183362 2.926 
1.56128 -0.183362 2.926 
1.70288 -0.183926 2.935 
1.86475 -0.186433 2.975 
1.95022 -0.181482 2.896 
2.21985 -0.1932 3.083 
2.28765 -0.186997 2.984 
2.4308 -0.18731 2.989 
2.5856 -0.188438 3.007 
2.79011 -0.192887 3.078 
2.8316 -0.186182 2.971 
-0.512856 -0.0393566 0.644 
-0.492964 -0.0405177 0.663 
-0.475959 -0.0419233 0.686 
-0.456281 -0.0430845 0.705 
-0.434832 -0.0442456 0.724 
-0.41549 -0.0458345 0.75 
-0.392709 -0.0473012 0.774 
-0.367691 -0.0487679 0.798 
-0.34085 -0.0502958 0.823 
-0.309841 -0.051518 0.843 
-0.280176 -0.0533514 0.873 
-0.24799 -0.0552459 0.904 
-0.214052 -0.057446 0.94 
-0.17875 -0.0603183 0.987 
-0.135704 -0.0616627 1.009 
-0.094299 -0.0655739 1.073 
-0.0464324 -0.0687518 1.125 
0.0083378 -0.0739464 1.21 
0.0688023 -0.078591 1.286 
0.138054 -0.0842744 1.379 
0.259773 -0.0925246 1.514 
0.339505 -0.0950914 1.556 
0.455193 -0.105053 1.719 
0.879394 -0.170871 2.796 
1.02597 -0.173621 2.841 
1.17714 -0.176432 2.887 
1.29853 -0.17466 2.858 
1.46581 -0.178816 2.926 
1.59288 -0.177777 2.909 
1.7463 -0.17961 2.939 
1.91789 -0.18291 2.993 
2.03883 -0.18126 2.966 
2.19396 -0.182666 2.989 
2.35514 -0.184377 3.017 
2.49907 -0.184622 3.021 
2.67308 -0.186944 3.059 
2.86077 -0.189938 3.108 
3.21077 -0.198127 3.242 
-0.496941 -0.0388325 0.652 
-0.480862 -0.0400237 0.672 
-0.464098 -0.0415126 0.697 
-0.444615 -0.0427634 0.718 
-0.421456 -0.0438355 0.736 
-0.402406 -0.0455627 0.765 
-0.378255 -0.0469921 0.789 
-0.351001 -0.0483024 0.811 
-0.320923 -0.0494936 0.831 
-0.291019 -0.0510421 0.857 
-0.260449 -0.052948 0.889 
-0.22665 -0.0547943 0.92 
-0.191559 -0.0571171 0.959 
-0.15421 -0.059976 1.007 
-0.112174 -0.0627157 1.053 
-0.0665682 -0.0661701 1.111 
-0.0154894 -0.0693267 1.164 
0.0421619 -0.0754017 1.266 
0.107484 -0.0801069 1.345 
0.179411 -0.0844547 1.418 
0.292756 -0.0916614 1.539 
0.386041 -0.0970812 1.63 
0.791442 -0.165395 2.777 
0.923531 -0.165872 2.785 
1.08095 -0.17022 2.858 
1.22861 -0.172245 2.892 
1.3733 -0.173495 2.913 
1.49561 -0.171947 2.887 
1.6522 -0.17427 2.926 
1.78613 -0.174032 2.922 
1.9572 -0.177188 2.975 
2.13179 -0.180226 3.026 
2.25856 -0.179094 3.007 
2.44818 -0.182787 3.069 
2.58278 -0.182191 3.059 
2.75566 -0.184216 3.093 
2.88576 -0.183323 3.078 
-0.50943 -0.0374715 0.646 
-0.491192 -0.0383996 0.662 
-0.469086 -0.0400237 0.69 
-0.448323 -0.0410678 0.708 
-0.427641 -0.0422859 0.729 
-0.408243 -0.0438521 0.756 
-0.38534 -0.0453022 0.781 
-0.360107 -0.0467523 0.806 
-0.330142 -0.0478544 0.825 
-0.299467 -0.0491305 0.847 
-0.270425 -0.0511027 0.881 
-0.23613 -0.0526109 0.907 
-0.202404 -0.0549311 0.947 
-0.166787 -0.0578893 0.998 
-0.124729 -0.0600356 1.035 
-0.0803298 -0.0630518 1.087 
-0.0309197 -0.0657201 1.133 
0.0238024 -0.0714626 1.232 
0.0865007 -0.076103 1.312 
0.156994 -0.0809175 1.395 
0.27261 -0.0881682 1.52 
0.361987 -0.0929246 1.602 
0.469365 -0.0998852 1.722 
0.902223 -0.163169 2.813 
1.0484 -0.165547 2.854 
1.20585 -0.16897 2.913 
1.33564 -0.168216 2.9 
1.4774 -0.16897 2.913 
1.60875 -0.168506 2.905 
1.76997 -0.171 2.948 
1.94555 -0.174422 3.007 
2.08917 -0.174712 3.012 
2.21254 -0.173378 2.989 
2.39592 -0.176626 3.045 
2.57785 -0.179411 3.093 
2.71762 -0.179121 3.088 
2.89398 -0.181151 3.123 
-0.508426 -0.0364678 0.646 
-0.490163 -0.037371 0.662 
-0.462595 -0.0394033 0.698 
-0.442384 -0.0405323 0.718 
-0.417998 -0.0417742 0.74 
-0.396981 -0.043242 0.766 
-0.373069 -0.0446533 0.791 
-0.347251 -0.046121 0.817 
-0.31636 -0.0471936 0.836 
-0.285689 -0.0486049 0.861 
-0.254684 -0.0504114 0.893 
-0.220696 -0.0522178 0.925 
-0.184877 -0.054363 0.963 
-0.146678 -0.0569598 1.009 
-0.104191 -0.0595565 1.055 
-0.0583547 -0.0631694 1.119 
-0.00646363 -0.0658791 1.167 
0.0520788 -0.0715807 1.268 
0.119335 -0.0768307 1.361 
0.207379 -0.0815162 1.444 
0.297345 -0.0868227 1.538 
0.395905 -0.0931453 1.65 
0.804385 -0.156766 2.777 
0.951308 -0.159702 2.829 
1.09734 -0.161791 2.866 
1.25111 -0.164444 2.913 
1.39307 -0.165178 2.926 
1.51586 -0.16371 2.9 
1.68633 -0.16721 2.962 
1.8133 -0.166194 2.944 
1.97106 -0.167944 2.975 
2.16575 -0.172403 3.054 
2.28694 -0.170823 3.026 
2.45446 -0.172686 3.059 
2.61742 -0.174041 3.083 
2.77007 -0.174605 3.093 
2.91153 -0.171613 3.04 
-0.502953 -0.0355739 0.648 
-0.484952 -0.0367268 0.669 
-0.45454 -0.0386482 0.704 
-0.431457 -0.0397462 0.724 
-0.408334 -0.0413931 0.754 
-0.383635 -0.0428204 0.78 
-0.3593 -0.0443027 0.807 
-0.330056 -0.0454556 0.828 
-0.298855 -0.0466084 0.849 
-0.268445 -0.0482554 0.879 
-0.234979 -0.0498474 0.908 
-0.200508 -0.0518786 0.945 
-0.165236 -0.0547882 0.998 
-0.123477 -0.0569841 1.038 
-0.0784962 -0.0595643 1.085 
-0.0291594 -0.0621994 1.133 
0.0254661 -0.0669756 1.22 
0.0887416 -0.0721909 1.315 
0.158819 -0.076418 1.392 
0.25657 -0.0828411 1.509 
0.339687 -0.0860801 1.568 
0.44989 -0.0938207 1.709 
0.889134 -0.155965 2.841 
1.02767 -0.156898 2.858 
1.18159 -0.159698 2.909 
1.32307 -0.160412 2.922 
1.47475 -0.162114 2.953 
1.59546 -0.160412 2.922 
1.76069 -0.163102 2.971 
1.94648 -0.167164 3.045 
2.03422 -0.162827 2.966 
2.20982 -0.165627 3.017 
2.35045 -0.165627 3.017 
2.58272 -0.171721 3.128 
2.71543 -0.170897 3.113 
2.84675 -0.170074 3.098 
3.21763 -0.18034 3.285 
-0.499933 -0.0345671 0.648 
-0.484952 -0.0356874 0.669 
-0.458914 -0.0372877 0.699 
-0.437922 -0.0383012 0.718 
-0.414325 -0.0400083 0.75 
-0.387696 -0.0413952 0.776 
-0.36421 -0.0428888 0.804 
-0.336489 -0.0441691 0.828 
-0.304731 -0.0451827 0.847 
-0.268445 -0.0468897 0.879 
-0.234721 -0.0483833 0.907 
-0.200084 -0.0503037 0.943 
-0.165071 -0.0531843 0.997 
-0.123358 -0.0553181 1.037 
-0.0784239 -0.0578253 1.084 
-0.0291594 -0.0604391 1.133 
0.0252991 -0.0646533 1.212 
0.0887416 -0.0701478 1.315 
0.158591 -0.0741486 1.39 
0.241379 -0.0801232 1.502 
0.318643 -0.0819902 1.537 
0.429388 -0.0902053 1.691 
0.857791 -0.150698 2.825 
1.00383 -0.152885 2.866 
1.14932 -0.154485 2.896 
1.3016 -0.156566 2.935 
1.44918 -0.157739 2.957 
1.58218 -0.157259 2.948 
1.7435 -0.159446 2.989 
1.90612 -0.16142 3.026 
1.99169 -0.157046 2.944 
2.22581 -0.164194 3.078 
2.31847 -0.160673 3.012 
2.51683 -0.164461 3.083 
2.69073 -0.166328 3.118 
2.77785 -0.162914 3.054 
3.01047 -0.166061 3.113 
-0.509069 -0.0330424 0.638 
-0.490817 -0.0339747 0.656 
-0.47357 -0.0349587 0.675 
-0.454339 -0.036357 0.702 
-0.43303 -0.0373411 0.721 
-0.411377 -0.0388948 0.751 
-0.385069 -0.0402931 0.778 
-0.360911 -0.0416915 0.805 
-0.333433 -0.0429862 0.83 
-0.301138 -0.0439185 0.848 
-0.263282 -0.0455758 0.88 
-0.230347 -0.0472331 0.912 
-0.195253 -0.0490975 0.948 
-0.159512 -0.0518424 1.001 
-0.11759 -0.0540177 1.043 
-0.0720839 -0.0564518 1.09 
-0.022411 -0.0594557 1.148 
0.033048 -0.0631846 1.22 
0.0979457 -0.0688298 1.329 
0.166869 -0.0718336 1.387 
0.251214 -0.0779449 1.505 
0.333747 -0.0809488 1.563 
0.442238 -0.0880441 1.7 
0.882785 -0.147552 2.849 
1.02306 -0.148639 2.87 
1.17417 -0.150866 2.913 
1.32568 -0.152679 2.948 
1.4745 -0.15387 2.971 
1.59832 -0.152472 2.944 
1.76443 -0.155009 2.993 
1.94592 -0.158428 3.059 
2.01613 -0.152938 2.953 
2.21358 -0.157185 3.035 
2.34107 -0.156252 3.017 
2.58534 -0.162778 3.143 
2.72749 -0.162519 3.138 
2.82339 -0.159671 3.083 
3.13964 -0.167336 3.231 
-0.507881 -0.0321014 0.639 
-0.490068 -0.0329052 0.655 
-0.47357 -0.03391 0.675 
-0.45457 -0.0351157 0.699 
-0.434063 -0.0361204 0.719 
-0.412608 -0.0376275 0.749 
-0.386197 -0.0388332 0.773 
-0.363757 -0.0403403 0.803 
-0.336895 -0.0416465 0.829 
-0.304371 -0.0425005 0.846 
-0.262212 -0.0442588 0.881 
-0.229181 -0.0458664 0.913 
-0.193576 -0.0475744 0.947 
-0.158115 -0.0503375 1.002 
-0.115859 -0.0523469 1.042 
-0.0705196 -0.0548588 1.092 
-0.0206813 -0.0578228 1.151 
0.0348289 -0.0610882 1.216 
0.100236 -0.0669157 1.332 
0.168902 -0.0696285 1.386 
0.252878 -0.0754057 1.501 
0.337466 -0.0788218 1.569 
0.445664 -0.0855536 1.703 
0.892505 -0.143979 2.866 
1.03074 -0.144632 2.879 
1.18072 -0.146592 2.918 
1.33658 -0.148802 2.962 
1.48111 -0.149455 2.975 
1.6078 -0.14835 2.953 
1.77736 -0.151063 3.007 
1.95705 -0.154177 3.069 
2.03577 -0.149455 2.975 
2.21172 -0.152017 3.026 
2.34887 -0.151766 3.021 
2.60671 -0.1589 3.163 
2.74107 -0.158146 3.148 
2.84652 -0.155885 3.103 
3.03935 -0.158397 3.153 
-0.507662 -0.0309139 0.635 
-0.490863 -0.0317415 0.652 
-0.474598 -0.0327152 0.672 
-0.459107 -0.0338836 0.696 
-0.438314 -0.0348086 0.715 
-0.417449 -0.0358796 0.737 
-0.39187 -0.0371454 0.763 
-0.369382 -0.0385085 0.791 
-0.344704 -0.0399203 0.82 
-0.314332 -0.0409427 0.841 
-0.281349 -0.0418676 0.86 
-0.241299 -0.043815 0.9 
-0.207102 -0.0455189 0.935 
-0.17349 -0.0482938 0.992 
-0.131358 -0.0498517 1.024 
-0.087549 -0.0521885 1.072 
-0.0392305 -0.0544766 1.119 
0.0136773 -0.057641 1.184 
0.0756107 -0.0632883 1.3 
0.144062 -0.0669395 1.375 
0.222835 -0.0716618 1.472 
0.304513 -0.0748749 1.538 
0.409466 -0.0814958 1.674 
0.822383 -0.136751 2.809 
0.985892 -0.141425 2.905 
1.12438 -0.141814 2.913 
1.28309 -0.144395 2.966 
1.42133 -0.144395 2.966 
1.56221 -0.144638 2.971 
1.72129 -0.146391 3.007 
1.84721 -0.145271 2.984 
2.01758 -0.147559 3.031 
2.20302 -0.150577 3.093 
2.28951 -0.146878 3.017 
2.47524 -0.149604 3.073 
2.66108 -0.152038 3.123 
2.7707 -0.150091 3.083 
2.97111 -0.153012 3.143 
3.24259 -0.159146 3.269 
-0.502629 -0.0303986 0.645 
-0.485753 -0.0312469 0.663 
-0.467885 -0.0321424 0.682 
-0.449525 -0.0331321 0.703 
-0.427429 -0.0339805 0.721 
-0.410756 -0.0354415 0.752 
-0.385198 -0.0363369 0.771 
-0.363304 -0.037798 0.802 
-0.336489 -0.0390233 0.828 
-0.304731 -0.0399188 0.847 
-0.263282 -0.0414741 0.88 
-0.229589 -0.0428408 0.909 
-0.194429 -0.0444904 0.944 
-0.159193 -0.0470825 0.999 
-0.117139 -0.0489677 1.039 
-0.0718855 -0.0512299 1.087 
-0.0224695 -0.0542462 1.151 
0.0326688 -0.0568383 1.206 
0.0977247 -0.0624939 1.326 
0.16723 -0.0655102 1.39 
0.249711 -0.0705059 1.496 
0.332252 -0.0733337 1.556 
0.440677 -0.0798376 1.694 
0.883599 -0.135074 2.866 
1.02783 -0.136487 2.896 
1.17486 -0.137901 2.926 
1.3332 -0.140211 2.975 
1.48572 -0.14153 3.003 
1.61053 -0.140211 2.975 
1.77918 -0.142614 3.026 
1.94434 -0.144405 3.064 
2.05514 -0.14219 3.017 
2.22269 -0.143934 3.054 
2.33639 -0.14219 3.017 
2.59277 -0.148835 3.158 
2.72695 -0.148128 3.143 
2.84145 -0.146479 3.108 
3.05934 -0.150061 3.184 
-0.519775 -0.0285761 0.627 
-0.495379 -0.0294421 0.646 
-0.481114 -0.0304447 0.668 
-0.462777 -0.0313107 0.687 
-0.443923 -0.0322678 0.708 
-0.42253 -0.0331793 0.728 
-0.405679 -0.0346377 0.76 
-0.379999 -0.0355492 0.78 
-0.355098 -0.0367342 0.806 
-0.328561 -0.0380103 0.834 
-0.296635 -0.0389219 0.854 
-0.257028 -0.040198 0.882 
-0.224241 -0.0417476 0.916 
-0.188681 -0.0433883 0.952 
-0.152342 -0.0458038 1.005 
-0.109593 -0.0475813 1.044 
-0.0646086 -0.0504526 1.107 
-0.0136222 -0.0528225 1.159 
0.042386 -0.0554204 1.216 
0.10941 -0.0612085 1.343 
0.177772 -0.0632594 1.388 
0.261857 -0.0683183 1.499 
0.348766 -0.0718277 1.576 
0.457052 -0.0777526 1.706 
0.922299 -0.132991 2.918 
1.05504 -0.13258 2.909 
1.19759 -0.133355 2.926 
1.35631 -0.135588 2.975 
1.52312 -0.138141 3.031 
1.64353 -0.136409 2.993 
1.81401 -0.138779 3.045 
1.98677 -0.140966 3.093 
2.10407 -0.139189 3.054 
2.2295 -0.138141 3.031 
2.37077 -0.138141 3.031 
2.63885 -0.145114 3.184 
2.78201 -0.14484 3.178 
2.9495 -0.145797 3.199 
3.1606 -0.148714 3.263 
-0.511982 -0.027602 0.627 
-0.49313 -0.0284824 0.647 
-0.47839 -0.0294949 0.67 
-0.460509 -0.0303754 0.69 
-0.441385 -0.0312998 0.711 
-0.420303 -0.0322243 0.732 
-0.400956 -0.0334569 0.76 
-0.377076 -0.0345135 0.784 
-0.352261 -0.0357021 0.811 
-0.324153 -0.0368026 0.836 
-0.292351 -0.0377271 0.857 
-0.252917 -0.0388276 0.882 
-0.221653 -0.0406326 0.923 
-0.185212 -0.0421293 0.957 
-0.148246 -0.0444185 1.009 
-0.105128 -0.0461353 1.048 
-0.0598247 -0.0490408 1.114 
-0.00824131 -0.0511539 1.162 
0.0482514 -0.0537512 1.221 
0.116101 -0.059342 1.348 
0.185701 -0.0615872 1.399 
0.269203 -0.0660774 1.501 
0.361535 -0.0704356 1.6 
0.466094 -0.0752781 1.71 
0.947202 -0.129381 2.939 
1.08124 -0.129029 2.931 
1.21578 -0.128809 2.926 
1.3748 -0.130966 2.975 
1.55366 -0.134444 3.054 
1.6699 -0.132375 3.007 
1.83594 -0.134268 3.05 
2.03194 -0.137922 3.133 
2.13973 -0.135501 3.078 
2.24833 -0.133432 3.031 
2.40459 -0.134268 3.05 
2.65864 -0.140167 3.184 
2.81146 -0.140387 3.189 
2.99908 -0.142236 3.231 
3.21889 -0.145362 3.302 
-0.505877 -0.0269251 0.634 
-0.488347 -0.0276046 0.65 
-0.473554 -0.0285389 0.672 
-0.457368 -0.0295157 0.695 
-0.437814 -0.0304075 0.716 
-0.416868 -0.0313418 0.738 
-0.39439 -0.0323186 0.761 
-0.371654 -0.0334653 0.788 
-0.347251 -0.0346968 0.817 
-0.319009 -0.035801 0.843 
-0.285025 -0.0364805 0.859 
-0.246902 -0.0375847 0.885 
-0.216574 -0.0395807 0.932 
-0.181493 -0.0414918 0.977 
-0.140825 -0.0429782 1.012 
-0.097542 -0.0447619 1.054 
-0.0513086 -0.0474374 1.117 
0.000789609 -0.0496033 1.168 
0.0584459 -0.0524912 1.236 
0.12723 -0.057545 1.355 
0.201206 -0.060815 1.432 
0.283295 -0.0642975 1.514 
0.386819 -0.0702855 1.655 
0.483583 -0.0732583 1.725 
0.968423 -0.125197 2.948 
1.10583 -0.125197 2.948 
1.24155 -0.125028 2.944 
1.3975 -0.126726 2.984 
1.57264 -0.129699 3.054 
1.69926 -0.12851 3.026 
1.84882 -0.129105 3.04 
2.07432 -0.134541 3.168 
2.1764 -0.13178 3.103 
2.26717 -0.128722 3.031 
2.44182 -0.130506 3.073 
2.66497 -0.134541 3.168 
2.80375 -0.134116 3.158 
3.00888 -0.136749 3.22 
3.23353 -0.139977 3.296 
-0.503323 -0.0260628 0.637 
-0.486272 -0.0267584 0.654 
-0.471121 -0.0276585 0.676 
-0.453269 -0.0285177 0.697 
-0.43346 -0.0293769 0.718 
-0.413093 -0.030768 0.752 
-0.385583 -0.0313817 0.767 
-0.363972 -0.0326501 0.798 
-0.337833 -0.0337548 0.825 
-0.309177 -0.0348595 0.852 
-0.271996 -0.0351868 0.86 
-0.237177 -0.0366189 0.895 
-0.203978 -0.0382145 0.934 
-0.17058 -0.0406285 0.993 
-0.127425 -0.0416514 1.018 
-0.0842965 -0.0439017 1.073 
-0.0359131 -0.0459884 1.124 
0.0172978 -0.0482796 1.18 
0.0812931 -0.0529439 1.294 
0.152878 -0.0571581 1.397 
0.229696 -0.0602268 1.472 
0.312695 -0.0631317 1.543 
0.417767 -0.0685734 1.676 
0.852429 -0.117262 2.866 
1.01285 -0.120454 2.944 
1.15866 -0.121354 2.966 
1.3109 -0.122663 2.998 
1.455 -0.123031 3.007 
1.58773 -0.122458 2.993 
1.75435 -0.124381 3.04 
1.88732 -0.123809 3.026 
2.09673 -0.127982 3.128 
2.23177 -0.127368 3.113 
2.29594 -0.123031 3.007 
2.51792 -0.127164 3.108 
2.6842 -0.128186 3.133 
2.82572 -0.127982 3.128 
2.99051 -0.1288 3.148 
-0.520196 -0.0245614 0.624 
-0.497847 -0.0253486 0.644 
-0.481633 -0.0260965 0.663 
-0.464327 -0.0268837 0.683 
-0.445156 -0.027671 0.703 
-0.425295 -0.0285369 0.725 
-0.404499 -0.0299145 0.76 
-0.378787 -0.0307018 0.78 
-0.35209 -0.0315677 0.802 
-0.327265 -0.0328273 0.834 
-0.296691 -0.0337719 0.858 
-0.263581 -0.0346773 0.881 
-0.228579 -0.0356219 0.905 
-0.194223 -0.0371177 0.943 
-0.158237 -0.0390857 0.993 
-0.116463 -0.0406602 1.033 
-0.0718855 -0.0427857 1.087 
-0.0223134 -0.0449899 1.143 
0.0322624 -0.0468792 1.191 
0.0972825 -0.0519568 1.32 
0.169876 -0.0555781 1.412 
0.247041 -0.0582546 1.48 
0.330758 -0.0609706 1.549 
0.438856 -0.0664024 1.687 
0.899631 -0.114856 2.918 
1.04309 -0.115683 2.939 
1.1857 -0.116234 2.953 
1.34351 -0.118005 2.998 
1.5253 -0.121351 3.083 
1.61811 -0.117651 2.989 
1.79565 -0.120209 3.054 
1.95957 -0.121548 3.088 
2.11713 -0.122335 3.108 
2.25108 -0.121744 3.093 
2.36194 -0.120052 3.05 
2.56814 -0.123122 3.128 
2.72695 -0.123712 3.143 
2.9347 -0.12635 3.21 
3.07856 -0.126113 3.204 
-0.514233 -0.0236297 0.625 
-0.492368 -0.0244237 0.646 
-0.47839 -0.0253311 0.67 
-0.459175 -0.0260116 0.688 
-0.440764 -0.0268434 0.71 
-0.419154 -0.0275995 0.73 
-0.400429 -0.0286959 0.759 
-0.375633 -0.0295277 0.781 
-0.349654 -0.0304351 0.805 
-0.324153 -0.0316071 0.836 
-0.293715 -0.0325523 0.861 
-0.258885 -0.0332329 0.879 
-0.227424 -0.0351232 0.929 
-0.188681 -0.0359928 0.952 
-0.151281 -0.0377319 0.998 
-0.109278 -0.0393577 1.041 
-0.0642584 -0.0416261 1.101 
-0.0134929 -0.0434031 1.148 
0.0416889 -0.0452179 1.196 
0.110833 -0.0504731 1.335 
0.183558 -0.0535355 1.416 
0.261719 -0.0561442 1.485 
0.352106 -0.059736 1.58 
0.457547 -0.0641972 1.698 
0.933362 -0.111646 2.953 
1.071 -0.111646 2.953 
1.2066 -0.111457 2.948 
1.3709 -0.113687 3.007 
1.56181 -0.117506 3.108 
1.66165 -0.114406 3.026 
1.83069 -0.116183 3.073 
2.01568 -0.11864 3.138 
2.15161 -0.118073 3.123 
2.26407 -0.116372 3.078 
2.40362 -0.116183 3.073 
2.59244 -0.118262 3.128 
2.78726 -0.120379 3.184 
3.0039 -0.123177 3.258 
3.15575 -0.123177 3.258 
-0.507227 -0.0229125 0.632 
-0.489865 -0.0234925 0.648 
-0.475977 -0.0243264 0.671 
-0.457293 -0.0250152 0.69 
-0.438687 -0.0258128 0.712 
-0.41689 -0.0266104 0.734 
-0.395712 -0.0275167 0.759 
-0.372678 -0.0284593 0.785 
-0.346387 -0.0294382 0.812 
-0.320319 -0.030562 0.843 
-0.287027 -0.0312146 0.861 
-0.25263 -0.0319397 0.881 
-0.220412 -0.0339336 0.936 
-0.18264 -0.0350575 0.967 
-0.142831 -0.0363989 1.004 
-0.100339 -0.0380303 1.049 
-0.0543871 -0.0402056 1.109 
-0.0028106 -0.0419095 1.156 
0.053324 -0.0437584 1.207 
0.124109 -0.0487252 1.344 
0.198703 -0.0518431 1.43 
0.27816 -0.0543446 1.499 
0.377979 -0.0590213 1.628 
0.479787 -0.0623929 1.721 
0.971363 -0.10771 2.971 
1.10797 -0.107529 2.966 
1.24454 -0.107384 2.962 
1.41247 -0.109704 3.026 
1.58791 -0.112133 3.093 
1.71304 -0.110901 3.059 
1.86715 -0.111589 3.078 
2.08965 -0.115976 3.199 
2.19257 -0.113583 3.133 
2.28336 -0.110901 3.059 
2.4648 -0.112677 3.108 
2.63906 -0.113946 3.143 
2.82189 -0.115432 3.184 
3.0244 -0.117535 3.242 
3.20686 -0.118695 3.274 
-0.503907 -0.0219999 0.634 
-0.485579 -0.0225204 0.649 
-0.47357 -0.0234226 0.675 
-0.454553 -0.0240819 0.694 
-0.435589 -0.0248454 0.716 
-0.414516 -0.0257476 0.742 
-0.388636 -0.0263375 0.759 
-0.367222 -0.0273785 0.789 
-0.340022 -0.0284889 0.821 
-0.312781 -0.0295299 0.851 
-0.276646 -0.0299116 0.862 
-0.244149 -0.0308832 0.89 
-0.208332 -0.03241 0.934 
-0.173267 -0.0340756 0.982 
-0.129434 -0.0350125 1.009 
-0.0868956 -0.036921 1.064 
-0.0392655 -0.0388642 1.12 
0.0134694 -0.0404604 1.166 
0.0722954 -0.0431324 1.243 
0.144481 -0.0478516 1.379 
0.22011 -0.0504541 1.454 
0.303523 -0.0531954 1.533 
0.404574 -0.0573942 1.654 
0.849025 -0.100631 2.9 
1.00829 -0.103094 2.971 
1.15179 -0.103545 2.984 
1.30515 -0.104691 3.017 
1.44769 -0.104829 3.021 
1.5885 -0.104829 3.021 
1.7648 -0.106981 3.083 
1.93636 -0.108542 3.128 
2.11543 -0.110277 3.178 
2.24932 -0.109583 3.158 
2.3358 -0.106807 3.078 
2.53163 -0.109063 3.143 
2.68238 -0.109236 3.148 
2.84708 -0.10993 3.168 
2.99475 -0.10993 3.168 
3.28128 -0.114788 3.308 
-0.502729 -0.0210481 0.635 
-0.484308 -0.0215452 0.65 
-0.472171 -0.0224071 0.676 
-0.453048 -0.0230368 0.695 
-0.432759 -0.0236998 0.715 
-0.413399 -0.0245284 0.74 
-0.388636 -0.0251582 0.759 
-0.367222 -0.0261526 0.789 
-0.340882 -0.0271802 0.82 
-0.313365 -0.0281414 0.849 
-0.278308 -0.0286055 0.863 
-0.244423 -0.0295336 0.891 
-0.206881 -0.0309589 0.934 
-0.171217 -0.0324505 0.979 
-0.127993 -0.033478 1.01 
-0.0850022 -0.0351685 1.061 
-0.0375254 -0.0371241 1.12 
0.0152547 -0.0385826 1.164 
0.0742864 -0.0412343 1.244 
0.146943 -0.0458085 1.382 
0.222369 -0.0481951 1.454 
0.307102 -0.0510125 1.539 
0.40739 -0.0548575 1.655 
0.856179 -0.0964233 2.909 
1.01427 -0.098611 2.975 
1.15836 -0.099075 2.989 
1.31591 -0.100467 3.031 
1.45719 -0.100467 3.031 
1.59108 -0.100003 3.017 
1.77246 -0.102357 3.088 
1.95673 -0.104511 3.153 
2.12037 -0.10534 3.178 
2.26136 -0.105008 3.168 
2.371 -0.103351 3.118 
2.54861 -0.104677 3.158 
2.68727 -0.104345 3.148 
2.86641 -0.105539 3.184 
3.01482 -0.105539 3.184 
3.30231 -0.110179 3.324 
-0.500148 -0.0201562 0.638 
-0.482945 -0.0206933 0.655 
-0.468301 -0.02142 0.678 
-0.448938 -0.0220202 0.697 
-0.4284 -0.0226521 0.717 
-0.410956 -0.0235683 0.746 
-0.385261 -0.0241369 0.764 
-0.362008 -0.02499 0.791 
-0.334863 -0.0260325 0.824 
-0.30689 -0.0269487 0.853 
-0.271829 -0.0274226 0.868 
-0.238301 -0.028244 0.894 
-0.20048 -0.0296341 0.938 
-0.163444 -0.0308978 0.978 
-0.116012 -0.0325091 1.029 
-0.071092 -0.0339623 1.075 
-0.0220791 -0.0357315 1.131 
0.031829 -0.0371216 1.175 
0.0955137 -0.0409443 1.296 
0.170719 -0.0448303 1.419 
0.245372 -0.0464415 1.47 
0.33396 -0.0494112 1.564 
0.436515 -0.0530128 1.678 
0.904872 -0.0927251 2.935 
1.04948 -0.0934201 2.957 
1.19654 -0.0941467 2.98 
1.36681 -0.0963582 3.05 
1.53272 -0.0978747 3.098 
1.63056 -0.0951577 3.012 
1.80976 -0.0972428 3.078 
2.01034 -0.100086 3.168 
2.14437 -0.0994543 3.148 
2.29838 -0.0997703 3.158 
2.44945 -0.0999282 3.163 
2.58046 -0.0992964 3.143 
2.75298 -0.100244 3.173 
2.98316 -0.103088 3.263 
3.12468 -0.10274 3.252 
-0.512441 -0.0187445 0.624 
-0.492885 -0.0194654 0.648 
-0.477676 -0.0200962 0.669 
-0.45784 -0.0206069 0.686 
-0.438902 -0.0212377 0.707 
-0.416858 -0.0218084 0.726 
-0.398846 -0.0227096 0.756 
-0.375152 -0.0234306 0.78 
-0.345902 -0.0241815 0.805 
-0.321023 -0.0251728 0.838 
-0.290712 -0.0259539 0.864 
-0.255078 -0.0264345 0.88 
-0.222127 -0.0279665 0.931 
-0.184301 -0.0288376 0.96 
-0.139016 -0.0300091 0.999 
-0.0970792 -0.0315111 1.049 
-0.0508033 -0.0332233 1.106 
0.000778116 -0.0345751 1.151 
0.0570746 -0.0362573 1.207 
0.125821 -0.0402525 1.34 
0.200925 -0.042956 1.43 
0.278992 -0.0447884 1.491 
0.377236 -0.0484832 1.614 
0.485265 -0.0519978 1.731 
0.980249 -0.0896369 2.984 
1.11108 -0.0889761 2.962 
1.27613 -0.0908986 3.026 
1.43919 -0.0923104 3.073 
1.57779 -0.0920401 3.064 
1.73969 -0.0930614 3.098 
1.9145 -0.0945634 3.148 
2.11885 -0.0972068 3.236 
2.21146 -0.0947135 3.153 
2.32103 -0.0932116 3.103 
2.50142 -0.0945634 3.148 
2.64814 -0.0945634 3.148 
2.83571 -0.0959452 3.194 
3.02944 -0.097387 3.242 
3.261 -0.0998503 3.324 
-0.501544 -0.0181168 0.636 
-0.483772 -0.0185726 0.652 
-0.470071 -0.0192562 0.676 
-0.450889 -0.0197974 0.695 
-0.429935 -0.0203387 0.714 
-0.410544 -0.0210508 0.739 
-0.387296 -0.0216775 0.761 
-0.363544 -0.0224751 0.789 
-0.339193 -0.0233296 0.819 
-0.310943 -0.0240987 0.846 
-0.278572 -0.0247254 0.868 
-0.245521 -0.0254945 0.895 
-0.210556 -0.02652 0.931 
-0.173805 -0.027574 0.968 
-0.130092 -0.0285425 1.002 
-0.0874668 -0.0299383 1.051 
-0.0407128 -0.0316759 1.112 
0.0115478 -0.0329008 1.155 
0.0694585 -0.0349517 1.227 
0.140068 -0.0386548 1.357 
0.216803 -0.0412185 1.447 
0.298588 -0.043298 1.52 
0.396171 -0.0464314 1.63 
0.853547 -0.083491 2.931 
1.01449 -0.085542 3.003 
1.15792 -0.0857983 3.012 
1.31857 -0.0871372 3.059 
1.45685 -0.0868808 3.05 
1.5838 -0.0860547 3.021 
1.77999 -0.0888178 3.118 
1.97225 -0.0909827 3.194 
2.13175 -0.0914385 3.21 
2.27355 -0.0911251 3.199 
2.39539 -0.0900997 3.163 
2.56372 -0.0908403 3.189 
2.68174 -0.0898148 3.153 
2.87984 -0.0914385 3.21 
3.04456 -0.0918942 3.226 
3.32665 -0.0956828 3.359 
-0.495846 -0.0173441 0.644 
-0.479573 -0.0178558 0.663 
-0.461528 -0.0183675 0.682 
-0.442972 -0.0189331 0.703 
-0.420708 -0.0194179 0.721 
-0.401061 -0.0201181 0.747 
-0.375633 -0.0210338 0.781 
-0.347483 -0.0215455 0.8 
-0.32299 -0.0224342 0.833 
-0.29508 -0.023296 0.865 
-0.25918 -0.0237 0.88 
-0.2256 -0.024508 0.91 
-0.189361 -0.0255314 0.948 
-0.139724 -0.0267433 0.993 
-0.0984268 -0.0281707 1.046 
-0.0523792 -0.0297058 1.103 
-0.00100402 -0.03081 1.144 
0.0549706 -0.0323721 1.202 
0.123093 -0.0359001 1.333 
0.198425 -0.0384587 1.428 
0.275747 -0.0400207 1.486 
0.374032 -0.0433872 1.611 
0.48146 -0.0465113 1.727 
0.978556 -0.080607 2.993 
1.10797 -0.0798798 2.966 
1.2853 -0.0823845 3.059 
1.44141 -0.0831655 3.088 
1.56789 -0.0822498 3.054 
1.73488 -0.0834348 3.098 
1.92477 -0.0854547 3.173 
2.12427 -0.0875823 3.252 
2.23176 -0.0858856 3.189 
2.3386 -0.0843774 3.133 
2.50842 -0.0851854 3.163 
2.66425 -0.0854547 3.173 
2.83518 -0.0861549 3.199 
3.01881 -0.0871514 3.236 
3.26171 -0.089683 3.33 
-0.499769 -0.0161151 0.635 
-0.482759 -0.0165466 0.652 
-0.469021 -0.0171556 0.676 
-0.449809 -0.0176378 0.695 
-0.428826 -0.01812 0.714 
-0.408842 -0.0187291 0.738 
-0.385606 -0.0192874 0.76 
-0.357544 -0.0200995 0.792 
-0.333178 -0.0208862 0.823 
-0.304848 -0.0215968 0.851 
-0.273285 -0.0222566 0.877 
-0.238237 -0.022815 0.899 
-0.20376 -0.0236778 0.933 
-0.165426 -0.0244392 0.963 
-0.121217 -0.0258603 1.019 
-0.0763982 -0.0267993 1.056 
-0.0288248 -0.0284235 1.12 
0.0241928 -0.0294133 1.159 
0.0842877 -0.0316973 1.249 
0.157222 -0.0349711 1.378 
0.235111 -0.0371282 1.463 
0.322375 -0.039463 1.555 
0.420754 -0.0420516 1.657 
0.886632 -0.0744849 2.935 
1.04366 -0.0759568 2.993 
1.20174 -0.0771496 3.04 
1.35404 -0.0777587 3.064 
1.49197 -0.0775049 3.054 
1.63432 -0.0775049 3.054 
1.81972 -0.0793829 3.128 
2.01327 -0.0813116 3.204 
2.17341 -0.0817177 3.22 
2.34658 -0.0825298 3.252 
2.48203 -0.0819968 3.231 
2.61552 -0.0814639 3.21 
2.74705 -0.0809309 3.189 
2.95289 -0.0825298 3.252 
3.1522 -0.0837987 3.302 
-0.516596 -0.0148188 0.622 
-0.495846 -0.015343 0.644 
-0.478849 -0.0157718 0.662 
-0.460468 -0.0162483 0.682 
-0.44188 -0.0167486 0.703 
-0.419006 -0.0171536 0.72 
-0.398112 -0.0178207 0.748 
-0.373898 -0.0187022 0.785 
-0.344184 -0.0190834 0.801 
-0.319874 -0.0198934 0.835 
-0.291048 -0.0206082 0.865 
-0.256238 -0.0210608 0.884 
-0.221845 -0.0217279 0.912 
-0.186612 -0.0226094 0.949 
-0.14823 -0.0235386 0.988 
-0.106937 -0.0246345 1.034 
-0.0618661 -0.0259449 1.089 
-0.0115155 -0.0268978 1.129 
0.0431101 -0.0282082 1.184 
0.107844 -0.030948 1.299 
0.184076 -0.0338308 1.42 
0.259427 -0.0350696 1.472 
0.355226 -0.0379762 1.594 
0.454852 -0.0402157 1.688 
0.936206 -0.0705681 2.962 
1.07245 -0.070449 2.957 
1.25203 -0.0728791 3.059 
1.40327 -0.0733317 3.078 
1.54925 -0.0734509 3.083 
1.69295 -0.0734509 3.083 
1.88133 -0.0752377 3.158 
2.09597 -0.0777393 3.263 
2.24048 -0.0774772 3.252 
2.37293 -0.0768578 3.226 
2.52721 -0.0769769 3.231 
2.6604 -0.0764766 3.21 
2.82403 -0.0768578 3.226 
2.98914 -0.077239 3.242 
3.19837 -0.0786684 3.302 
-0.508247 -0.0139415 0.626 
-0.494375 -0.0143869 0.646 
-0.475924 -0.0148769 0.668 
-0.454776 -0.015211 0.683 
-0.437184 -0.0157232 0.706 
-0.414012 -0.0161018 0.723 
-0.396093 -0.0167699 0.753 
-0.370899 -0.0175717 0.789 
-0.340053 -0.0178835 0.803 
-0.316192 -0.0186852 0.839 
-0.286003 -0.0192865 0.866 
-0.252729 -0.0198433 0.891 
-0.217599 -0.0204446 0.918 
-0.181286 -0.0212018 0.952 
-0.141515 -0.0219145 0.984 
-0.101288 -0.0232062 1.042 
-0.0554524 -0.0244088 1.096 
-0.00452297 -0.0252774 1.135 
0.050852 -0.0265691 1.193 
0.11672 -0.0291302 1.308 
0.193309 -0.0316914 1.423 
0.269853 -0.0329385 1.479 
0.368339 -0.0358114 1.608 
0.469753 -0.0379494 1.704 
0.964605 -0.0666565 2.993 
1.08751 -0.0656543 2.948 
1.29206 -0.0689949 3.098 
1.4295 -0.0686609 3.083 
1.55636 -0.0679259 3.05 
1.72525 -0.0689949 3.098 
1.9306 -0.0712443 3.199 
2.13237 -0.0730482 3.28 
2.28525 -0.0730482 3.28 
2.3861 -0.0714893 3.21 
2.54836 -0.0718456 3.226 
2.70709 -0.0720683 3.236 
2.83496 -0.0714893 3.21 
2.99387 -0.071712 3.22 
3.21816 -0.0734046 3.296 
-0.504357 -0.0129689 0.626 
-0.491119 -0.013404 0.647 
-0.472479 -0.0138598 0.669 
-0.452511 -0.0142119 0.686 
-0.433409 -0.014647 0.707 
-0.410652 -0.0150199 0.725 
-0.392973 -0.0156621 0.756 
-0.371182 -0.0163044 0.787 
-0.34045 -0.0165944 0.801 
-0.314888 -0.0173817 0.839 
-0.284657 -0.017941 0.866 
-0.252191 -0.0185211 0.894 
-0.216173 -0.0190183 0.918 
-0.179618 -0.019702 0.951 
-0.139844 -0.0203649 0.983 
-0.0996693 -0.0215872 1.042 
-0.0537986 -0.0227267 1.097 
-0.00276684 -0.0235761 1.138 
0.0527497 -0.0247362 1.194 
0.11848 -0.0270358 1.305 
0.195932 -0.0295426 1.426 
0.272335 -0.0306613 1.48 
0.370837 -0.0333131 1.608 
0.472401 -0.035302 1.704 
0.983017 -0.0625864 3.021 
1.10671 -0.0616335 2.975 
1.30315 -0.0644924 3.113 
1.43196 -0.0637673 3.078 
1.5611 -0.0631872 3.05 
1.73565 -0.0643888 3.108 
1.94223 -0.066502 3.21 
2.13747 -0.0679522 3.28 
2.30152 -0.0682836 3.296 
2.39854 -0.0667091 3.22 
2.56603 -0.0671649 3.242 
2.73055 -0.0674964 3.258 
2.85852 -0.066937 3.231 
2.99888 -0.0667091 3.22 
3.18026 -0.0673721 3.252 
-0.506137 -0.0120155 0.627 
-0.492125 -0.0123988 0.647 
-0.471773 -0.0128012 0.668 
-0.451851 -0.013127 0.685 
-0.433409 -0.0135486 0.707 
-0.41009 -0.0139127 0.726 
-0.391798 -0.0144876 0.756 
-0.369295 -0.015005 0.783 
-0.340025 -0.0153308 0.8 
-0.316738 -0.0160398 0.837 
-0.287016 -0.0165764 0.865 
-0.254684 -0.017113 0.893 
-0.21831 -0.0175346 0.915 
-0.181997 -0.0181669 0.948 
-0.142317 -0.018761 0.979 
-0.102611 -0.0199108 1.039 
-0.0569988 -0.0209456 1.093 
-0.00627531 -0.0217122 1.133 
0.0487931 -0.0227662 1.188 
0.112759 -0.0246442 1.286 
0.191098 -0.0272696 1.423 
0.266469 -0.0282278 1.473 
0.364248 -0.0306807 1.601 
0.462446 -0.0323287 1.687 
0.978323 -0.0578928 3.021 
1.09876 -0.0568388 2.966 
1.30733 -0.0598475 3.123 
1.42964 -0.0588893 3.073 
1.5611 -0.0584485 3.05 
1.74123 -0.0597516 3.118 
1.94526 -0.0616105 3.215 
2.13747 -0.0628561 3.28 
2.31339 -0.0634885 3.313 
2.40673 -0.0619171 3.231 
2.57395 -0.0623195 3.252 
2.74396 -0.0627411 3.274 
2.8771 -0.0623195 3.252 
3.00446 -0.0618213 3.226 
3.13332 -0.0613997 3.204 
-0.504017 -0.0110589 0.628 
-0.489109 -0.0113935 0.647 
-0.469697 -0.0117633 0.668 
-0.451036 -0.0120979 0.687 
-0.431823 -0.0124677 0.708 
-0.409519 -0.0128375 0.729 
-0.389449 -0.013313 0.756 
-0.367514 -0.0138589 0.787 
-0.337557 -0.0141406 0.803 
-0.313585 -0.0147746 0.839 
-0.283312 -0.0152501 0.866 
-0.252205 -0.0158312 0.899 
-0.214747 -0.0161658 0.918 
-0.177578 -0.0166941 0.948 
-0.138457 -0.017328 0.984 
-0.0980504 -0.0183494 1.042 
-0.0519518 -0.0192651 1.094 
-0.000999633 -0.0200575 1.139 
0.0545591 -0.0210085 1.193 
0.119399 -0.0227694 1.293 
0.198703 -0.025182 1.43 
0.274634 -0.0260625 1.48 
0.372407 -0.0282461 1.604 
0.47226 -0.029831 1.694 
0.997192 -0.0537098 3.05 
1.1218 -0.0528821 3.003 
1.31429 -0.0550834 3.128 
1.43441 -0.0541148 3.073 
1.56789 -0.0537802 3.054 
1.75448 -0.0551714 3.133 
1.95996 -0.0568972 3.231 
2.13146 -0.0574607 3.263 
2.32624 -0.0585349 3.324 
2.41996 -0.0570909 3.242 
2.58773 -0.0574607 3.263 
2.76333 -0.0579538 3.291 
2.8919 -0.0574607 3.263 
3.0244 -0.0570909 3.242 
3.09324 -0.0556117 3.158 
-0.502865 -0.0100993 0.629 
-0.487099 -0.0103883 0.647 
-0.47036 -0.0106934 0.666 
-0.451191 -0.0109824 0.684 
-0.433409 -0.0113517 0.707 
-0.409525 -0.0116407 0.725 
-0.391798 -0.0121384 0.756 
-0.366394 -0.0125559 0.782 
-0.337539 -0.0128449 0.8 
-0.314513 -0.013455 0.838 
-0.284328 -0.0138885 0.865 
-0.253602 -0.0144344 0.899 
-0.215938 -0.0147234 0.917 
-0.178673 -0.0151891 0.946 
-0.139702 -0.0157671 0.982 
-0.0995736 -0.0167144 1.041 
-0.0534554 -0.0175011 1.09 
-0.00276927 -0.0182879 1.139 
0.0525288 -0.0190907 1.189 
0.116301 -0.0205679 1.281 
0.198981 -0.0229923 1.432 
0.274634 -0.023763 1.48 
0.371478 -0.0256898 1.6 
0.470309 -0.0270866 1.687 
0.9985 -0.0490353 3.054 
1.12516 -0.048361 3.012 
1.31639 -0.0503037 3.133 
1.43441 -0.0493404 3.073 
1.56789 -0.0490353 3.054 
1.76008 -0.0504643 3.143 
1.95996 -0.0518772 3.231 
2.12819 -0.0523108 3.258 
2.33044 -0.0534668 3.33 
2.42743 -0.0522144 3.252 
2.60121 -0.052664 3.28 
2.7776 -0.0531136 3.308 
2.90165 -0.0525677 3.274 
3.05426 -0.0525677 3.274 
3.05406 -0.0500629 3.118 
-0.500542 -0.00915103 0.631 
-0.482018 -0.00944107 0.651 
-0.465551 -0.00973112 0.671 
-0.44722 -0.0100212 0.691 
-0.426424 -0.0102967 0.71 
-0.407143 -0.0106883 0.737 
-0.382908 -0.0109783 0.757 
-0.360635 -0.0114279 0.788 
-0.332949 -0.011747 0.81 
-0.306857 -0.012211 0.842 
-0.278099 -0.0126896 0.875 
-0.24518 -0.0131102 0.904 
-0.206863 -0.0133567 0.921 
-0.168563 -0.0137338 0.947 
-0.130861 -0.0144444 0.996 
-0.0884216 -0.015126 1.043 
-0.0420588 -0.0159817 1.102 
0.00971952 -0.0166923 1.151 
0.0665061 -0.0175189 1.208 
0.133384 -0.0190272 1.312 
0.214258 -0.020956 1.445 
0.293498 -0.0218406 1.506 
0.38905 -0.0233634 1.611 
0.490645 -0.0246976 1.703 
1.04008 -0.044856 3.093 
1.20148 -0.0455086 3.138 
1.3413 -0.0452911 3.123 
1.46306 -0.0445659 3.073 
1.61675 -0.044856 3.093 
1.79792 -0.0457986 3.158 
1.99008 -0.0468573 3.231 
2.14399 -0.0469298 3.236 
2.33737 -0.0478 3.296 
2.45774 -0.0471619 3.252 
2.65826 -0.0480465 3.313 
2.82711 -0.0482931 3.33 
2.94203 -0.0476404 3.285 
3.18653 -0.0490472 3.382 
3.1029 -0.0455086 3.138 
-0.495641 -0.00817066 0.631 
-0.479892 -0.00848143 0.655 
-0.461711 -0.0087145 0.673 
-0.445689 -0.00902527 0.697 
-0.421061 -0.0092454 0.714 
-0.401902 -0.00958207 0.74 
-0.376844 -0.0098281 0.759 
-0.348138 -0.0102684 0.793 
-0.322949 -0.0106568 0.823 
-0.296345 -0.0110971 0.857 
-0.265675 -0.0114985 0.888 
-0.230599 -0.0118222 0.913 
-0.191752 -0.0120553 0.931 
-0.152022 -0.0123531 0.954 
-0.115448 -0.0132595 1.024 
-0.070629 -0.0138293 1.068 
-0.0220791 -0.014645 1.131 
0.0315852 -0.0150982 1.166 
0.0913865 -0.0160564 1.24 
0.167591 -0.0180376 1.393 
0.2422 -0.0187886 1.451 
0.331612 -0.0201094 1.553 
0.42741 -0.0212748 1.643 
0.931386 -0.0391182 3.021 
1.09598 -0.0399857 3.088 
1.26486 -0.0406332 3.138 
1.37785 -0.0396749 3.064 
1.51371 -0.0394937 3.05 
1.70093 -0.0405684 3.133 
1.87349 -0.0411511 3.178 
2.07569 -0.0422517 3.263 
2.2585 -0.0428344 3.308 
2.34851 -0.041695 3.22 
2.56222 -0.0427567 3.302 
2.73916 -0.0431193 3.33 
2.90915 -0.0433394 3.347 
3.01387 -0.0426143 3.291 
3.11433 -0.0419021 3.236 
-0.507748 -0.00709913 0.623 
-0.489018 -0.00728145 0.639 
-0.472889 -0.00749795 0.658 
-0.458349 -0.00777144 0.682 
-0.439695 -0.00801073 0.703 
-0.41338 -0.00818166 0.718 
-0.39568 -0.0085463 0.75 
-0.367937 -0.00871723 0.765 
-0.339175 -0.00909326 0.798 
-0.315603 -0.00950349 0.834 
-0.286353 -0.00983394 0.863 
-0.255282 -0.0102556 0.9 
-0.217362 -0.0104493 0.917 
-0.179381 -0.0107342 0.942 
-0.141083 -0.0111786 0.981 
-0.100997 -0.0118395 1.039 
-0.0545923 -0.0122953 1.079 
-0.00454688 -0.0130018 1.141 
0.0504684 -0.0134918 1.184 
0.112794 -0.0144034 1.264 
0.193716 -0.0162494 1.426 
0.267846 -0.016728 1.468 
0.361925 -0.0180042 1.58 
0.459829 -0.019007 1.668 
0.990629 -0.0348575 3.059 
1.18603 -0.0355868 3.123 
1.33799 -0.0357577 3.138 
1.45824 -0.035131 3.083 
1.60714 -0.0352449 3.093 
1.7966 -0.0361565 3.173 
1.99291 -0.0370568 3.252 
2.14119 -0.0369998 3.247 
2.33136 -0.0376265 3.302 
2.46043 -0.0372505 3.269 
2.66156 -0.0379456 3.33 
2.84553 -0.038333 3.364 
2.96216 -0.0378202 3.319 
3.23143 -0.0392104 3.441 
2.98745 -0.0344815 3.026 
-0.495641 -0.00620992 0.631 
-0.479159 -0.00643627 0.654 
-0.461711 -0.00662326 0.673 
-0.44377 -0.00682992 0.694 
-0.421501 -0.00699723 0.711 
-0.403655 -0.00727279 0.739 
-0.378703 -0.00745977 0.758 
-0.352958 -0.0077747 0.79 
-0.326141 -0.00802073 0.815 
-0.300174 -0.00835534 0.849 
-0.269056 -0.00867026 0.881 
-0.236791 -0.00900487 0.915 
-0.196052 -0.00909344 0.924 
-0.156792 -0.0093198 0.947 
-0.121217 -0.0100284 1.019 
-0.0760364 -0.0103433 1.051 
-0.0288763 -0.011042 1.122 
0.0242345 -0.0114259 1.161 
0.0828705 -0.0120852 1.228 
0.155853 -0.0134433 1.366 
0.231093 -0.0141519 1.438 
0.317399 -0.0150672 1.531 
0.413898 -0.0160415 1.63 
0.926272 -0.0298686 3.035 
1.09869 -0.0307347 3.123 
1.28436 -0.0308823 3.138 
1.41011 -0.0304394 3.093 
1.53468 -0.0300556 3.054 
1.74237 -0.0312267 3.173 
1.8998 -0.0313842 3.189 
2.10689 -0.0322798 3.28 
2.27493 -0.0324963 3.302 
2.36484 -0.0316401 3.215 
2.59135 -0.0326045 3.313 
2.76897 -0.0328801 3.341 
2.9352 -0.0329982 3.353 
3.10163 -0.0331064 3.364 
3.01035 -0.0304394 3.093 
-0.497792 -0.00522126 0.63 
-0.481067 -0.00536215 0.647 
-0.463124 -0.00554448 0.669 
-0.444855 -0.00571023 0.689 
-0.424722 -0.00587599 0.709 
-0.406591 -0.00609976 0.736 
-0.382402 -0.00626551 0.756 
-0.355738 -0.00653072 0.788 
-0.32832 -0.00672134 0.811 
-0.301982 -0.00698654 0.843 
-0.272232 -0.00727661 0.878 
-0.240529 -0.00756668 0.913 
-0.199708 -0.00763298 0.921 
-0.160696 -0.0078236 0.944 
-0.124854 -0.00837059 1.01 
-0.0803191 -0.00864409 1.043 
-0.033802 -0.00921594 1.112 
0.018742 -0.0095806 1.156 
0.0764557 -0.0100861 1.217 
0.147954 -0.011205 1.352 
0.222986 -0.0118431 1.429 
0.307629 -0.0125807 1.518 
0.402313 -0.0133764 1.614 
0.912126 -0.0251532 3.035 
1.08587 -0.025924 3.128 
1.2758 -0.0261312 3.153 
1.39795 -0.0256753 3.098 
1.52542 -0.0253936 3.064 
1.72758 -0.0262969 3.173 
1.88493 -0.0264295 3.189 
2.0916 -0.0271837 3.28 
2.23696 -0.0270925 3.269 
2.3462 -0.0266036 3.21 
2.56269 -0.0273163 3.296 
2.75835 -0.027739 3.347 
2.9248 -0.0278384 3.359 
3.08595 -0.0278799 3.364 
3.08892 -0.0264295 3.189 
-0.497001 -0.00423571 0.629 
-0.480324 -0.00435019 0.646 
-0.462424 -0.00451854 0.671 
-0.443357 -0.00464649 0.69 
-0.422518 -0.00477443 0.709 
-0.404853 -0.00496298 0.737 
-0.380555 -0.00509767 0.757 
-0.356509 -0.00529969 0.787 
-0.328767 -0.00544784 0.809 
-0.302572 -0.00566332 0.841 
-0.274334 -0.00589902 0.876 
-0.242566 -0.00612797 0.91 
-0.20279 -0.00620878 0.922 
-0.163802 -0.00636366 0.945 
-0.126979 -0.00674751 1.002 
-0.0833198 -0.0070034 1.04 
-0.0370229 -0.00744111 1.105 
0.0151106 -0.00776434 1.153 
0.0720769 -0.00812798 1.207 
0.141626 -0.00896974 1.332 
0.241422 -0.00964987 1.433 
0.334025 -0.010458 1.553 
0.430224 -0.0110708 1.644 
0.958925 -0.0206331 3.064 
1.13015 -0.0211651 3.143 
1.30386 -0.0211314 3.138 
1.44088 -0.0209967 3.118 
1.56129 -0.0206668 3.069 
1.79152 -0.021724 3.226 
1.92864 -0.0215759 3.204 
2.13052 -0.0221213 3.285 
2.29128 -0.0221954 3.296 
2.40856 -0.0218654 3.247 
2.66634 -0.0227745 3.382 
2.80894 -0.0226533 3.364 
2.96133 -0.0226196 3.359 
3.19401 -0.0231718 3.441 
2.99164 -0.0206331 3.064 
-0.492087 -0.00328435 0.634 
-0.472339 -0.00338278 0.653 
-0.460174 -0.00352264 0.68 
-0.439821 -0.00361589 0.698 
-0.41604 -0.0036936 0.713 
-0.39784 -0.00383865 0.741 
-0.373598 -0.00394743 0.762 
-0.348489 -0.00409766 0.791 
-0.321864 -0.00423235 0.817 
-0.296635 -0.00442403 0.854 
-0.26525 -0.00456908 0.882 
-0.234305 -0.00477629 0.922 
-0.193198 -0.00482292 0.931 
-0.153987 -0.0049576 0.957 
-0.116811 -0.00529433 1.022 
-0.0712054 -0.00544974 1.052 
-0.0236256 -0.00580718 1.121 
0.0297992 -0.00604548 1.167 
0.08845 -0.00635112 1.226 
0.174476 -0.00714372 1.379 
0.270126 -0.00760477 1.468 
0.360921 -0.00810726 1.565 
0.461589 -0.0086253 1.665 
1.01615 -0.0161006 3.108 
1.21796 -0.0165461 3.194 
1.35204 -0.0163078 3.148 
1.47972 -0.0161006 3.108 
1.6272 -0.0161265 3.113 
1.83322 -0.0166808 3.22 
2.01656 -0.0169605 3.274 
2.16585 -0.0169346 3.269 
2.34162 -0.0171055 3.302 
2.48722 -0.0170486 3.291 
2.70881 -0.0174889 3.376 
2.88145 -0.0175821 3.394 
3.0495 -0.0176391 3.405 
3.31844 -0.0182452 3.522 
-0.499667 -0.00226668 0.625 
-0.483589 -0.00233921 0.645 
-0.465187 -0.00241537 0.666 
-0.44653 -0.00248428 0.685 
-0.428523 -0.00256769 0.708 
-0.406695 -0.00264023 0.728 
-0.386076 -0.00273452 0.754 
-0.360706 -0.00281068 0.775 
-0.334634 -0.00289772 0.799 
-0.309676 -0.0030174 0.832 
-0.280664 -0.0031262 0.862 
-0.250808 -0.00326039 0.899 
-0.21425 -0.0033438 0.922 
-0.175177 -0.00341996 0.943 
-0.137207 -0.00357591 0.986 
-0.0954134 -0.00373911 1.031 
-0.0492875 -0.00389143 1.073 
0.00077406 -0.00415255 1.145 
0.0560343 -0.00429762 1.185 
0.117559 -0.00454061 1.252 
0.21971 -0.00510637 1.408 
0.305805 -0.00547267 1.509 
0.39982 -0.0058172 1.604 
0.497365 -0.00609645 1.681 
1.08328 -0.0114712 3.163 
1.25963 -0.0116018 3.199 
1.39508 -0.0114893 3.168 
1.533 -0.0114168 3.148 
1.69894 -0.0115474 3.184 
1.87172 -0.0116997 3.226 
2.07661 -0.0120152 3.313 
2.17581 -0.0117178 3.231 
