# .PCD v.7 - Point Cloud Data file format
VERSION .7
FIELDS x y z
SIZE 4 4 4
TYPE F F F
COUNT 1 1 1
WIDTH 1838
HEIGHT 1
VIEWPOINT 0 0 0 1 0 0 0
POINTS 1838
DATA ascii
-0.138632 -0.752231 1.382 
-0.0756133 -0.766383 1.408 
0.0163342 -0.769649 1.414 
0.0962998 -0.776725 1.427 
0.159594 -0.751143 1.38 
0.242261 -0.797408 1.465 
0.312453 -0.802307 1.474 
0.385294 -0.811016 1.49 
0.455659 -0.812649 1.493 
0.527359 -0.815915 1.499 
0.596829 -0.815371 1.498 
0.670657 -0.820269 1.507 
0.743848 -0.823535 1.513 
0.814369 -0.823535 1.513 
0.88957 -0.82789 1.521 
0.966779 -0.833333 1.531 
1.04221 -0.836599 1.537 
1.11385 -0.836599 1.537 
1.19629 -0.844219 1.551 
1.2743 -0.848029 1.558 
1.34001 -0.843674 1.55 
1.43594 -0.857826 1.576 
1.50461 -0.855105 1.571 
-1.11229 -0.67627 1.246 
-1.04237 -0.668671 1.232 
-0.996936 -0.676812 1.247 
-0.947847 -0.683325 1.259 
-0.894815 -0.687667 1.267 
-0.8351 -0.687125 1.266 
-0.776704 -0.687667 1.267 
-0.723313 -0.693095 1.277 
-0.666391 -0.695809 1.282 
-0.607583 -0.696894 1.284 
-0.548588 -0.69798 1.286 
-0.494347 -0.706121 1.301 
-0.436374 -0.710463 1.309 
-0.377082 -0.713719 1.315 
-0.321553 -0.726746 1.339 
-0.262625 -0.736515 1.357 
-0.202607 -0.748456 1.379 
-0.139435 -0.754426 1.39 
-0.076204 -0.770166 1.419 
0.016519 -0.776136 1.43 
0.0829973 -0.774508 1.427 
0.148986 -0.771794 1.422 
0.217386 -0.779393 1.436 
0.291644 -0.799474 1.473 
0.362991 -0.805445 1.484 
0.435073 -0.810872 1.494 
0.505722 -0.8125 1.497 
0.577036 -0.814671 1.501 
0.649153 -0.817385 1.506 
0.723169 -0.821727 1.514 
0.796359 -0.824441 1.519 
0.870014 -0.827155 1.524 
0.946605 -0.83204 1.533 
1.01806 -0.83204 1.533 
1.09449 -0.835839 1.54 
1.17308 -0.840724 1.549 
1.25011 -0.84398 1.555 
1.32173 -0.843437 1.554 
1.4157 -0.856463 1.578 
1.48736 -0.855378 1.576 
1.54993 -0.849408 1.565 
-1.06906 -0.67271 1.243 
-1.01031 -0.672169 1.242 
-0.966985 -0.682452 1.261 
-0.910371 -0.684075 1.264 
-0.849434 -0.682452 1.261 
-0.800691 -0.691111 1.277 
-0.74117 -0.691111 1.277 
-0.685919 -0.69544 1.285 
-0.62164 -0.69057 1.276 
-0.566571 -0.695982 1.286 
-0.511357 -0.702476 1.298 
-0.452246 -0.704641 1.302 
-0.395469 -0.711676 1.315 
-0.336718 -0.717088 1.325 
-0.282015 -0.735489 1.359 
-0.22189 -0.746313 1.379 
-0.159214 -0.75389 1.393 
-0.0964522 -0.771208 1.425 
-0.0196013 -0.797186 1.473 
0.0544408 -0.776079 1.434 
0.123766 -0.777703 1.437 
0.182033 -0.725206 1.34 
0.271231 -0.797727 1.474 
0.341779 -0.802057 1.482 
0.415291 -0.810716 1.498 
0.485761 -0.811798 1.5 
0.555677 -0.811798 1.5 
0.627677 -0.814504 1.505 
0.701535 -0.818834 1.513 
0.77767 -0.824787 1.524 
0.848704 -0.824787 1.524 
0.923962 -0.828575 1.531 
0.998573 -0.831281 1.536 
1.07713 -0.836693 1.546 
1.14845 -0.836152 1.545 
1.22757 -0.841023 1.554 
1.30084 -0.841564 1.555 
1.38039 -0.845894 1.563 
1.46068 -0.850223 1.571 
1.53878 -0.852929 1.576 
-1.09712 -0.676175 1.253 
-1.01883 -0.663224 1.229 
-0.989707 -0.682651 1.265 
-0.930009 -0.682111 1.264 
-0.873161 -0.68373 1.267 
-0.821816 -0.690206 1.279 
-0.75803 -0.686429 1.272 
-0.704235 -0.691825 1.282 
-0.644984 -0.692365 1.283 
-0.587919 -0.695603 1.289 
-0.533571 -0.703158 1.303 
-0.475378 -0.706935 1.31 
-0.4159 -0.709633 1.315 
-0.357035 -0.71449 1.324 
-0.30246 -0.731759 1.356 
-0.242962 -0.743091 1.377 
-0.179818 -0.747409 1.385 
-0.117593 -0.762519 1.413 
-0.0529046 -0.779787 1.445 
0.0327442 -0.787882 1.46 
0.100243 -0.783565 1.452 
0.164393 -0.727981 1.349 
0.247319 -0.792199 1.468 
0.317463 -0.796516 1.476 
0.391494 -0.807309 1.496 
0.463998 -0.812166 1.505 
0.533791 -0.811626 1.504 
0.602688 -0.810007 1.501 
0.678924 -0.817562 1.515 
0.751518 -0.819721 1.519 
0.825026 -0.822419 1.524 
0.900176 -0.826197 1.531 
0.975343 -0.829435 1.537 
1.05243 -0.833752 1.545 
1.12081 -0.831053 1.54 
1.20653 -0.840767 1.558 
1.28407 -0.844005 1.564 
1.35003 -0.839688 1.556 
1.44267 -0.85156 1.578 
1.51718 -0.8521 1.579 
-1.11765 -0.67369 1.252 
-1.03052 -0.655395 1.218 
-1.00253 -0.674767 1.254 
-0.949353 -0.678533 1.261 
-0.901877 -0.687143 1.277 
-0.837738 -0.683376 1.27 
-0.782834 -0.687143 1.277 
-0.726712 -0.690371 1.283 
-0.666911 -0.690371 1.283 
-0.611368 -0.695214 1.292 
-0.549868 -0.6936 1.289 
-0.493967 -0.699519 1.3 
-0.436041 -0.703824 1.308 
-0.377655 -0.708666 1.317 
-0.320592 -0.718352 1.335 
-0.261657 -0.7275 1.352 
-0.202607 -0.742028 1.379 
-0.141241 -0.757633 1.408 
-0.0764189 -0.765704 1.423 
0.0216075 -0.793147 1.474 
0.0888407 -0.780232 1.45 
0.166242 -0.724809 1.347 
0.249939 -0.790994 1.47 
0.320406 -0.795837 1.479 
0.394081 -0.805523 1.497 
0.466646 -0.810366 1.506 
0.536484 -0.809828 1.505 
0.605424 -0.808213 1.502 
0.682627 -0.816823 1.518 
0.754374 -0.817899 1.52 
0.829565 -0.822204 1.528 
0.904323 -0.825432 1.534 
0.979004 -0.828123 1.539 
1.05688 -0.832965 1.548 
1.12466 -0.829737 1.542 
1.2105 -0.839423 1.56 
1.28815 -0.842651 1.566 
1.35505 -0.838884 1.559 
1.44603 -0.849646 1.579 
1.52252 -0.851261 1.582 
-1.11837 -0.673355 1.255 
-1.01934 -0.647601 1.207 
-1.00378 -0.674964 1.258 
-0.948896 -0.677647 1.263 
-0.900598 -0.685695 1.278 
-0.837739 -0.683012 1.273 
-0.781462 -0.685695 1.278 
-0.724718 -0.688378 1.283 
-0.664917 -0.688378 1.283 
-0.610776 -0.694816 1.295 
-0.54914 -0.693207 1.292 
-0.491569 -0.696962 1.299 
-0.434008 -0.701791 1.308 
-0.375894 -0.707157 1.318 
-0.318995 -0.717351 1.337 
-0.259365 -0.724862 1.351 
-0.200465 -0.739886 1.379 
-0.138954 -0.754909 1.407 
-0.0742601 -0.76403 1.424 
-0.00358133 -0.79032 1.473 
0.0889632 -0.779053 1.452 
0.154807 -0.769932 1.435 
0.235111 -0.784955 1.463 
0.307034 -0.794612 1.481 
0.380126 -0.803197 1.497 
0.453208 -0.809099 1.508 
0.522455 -0.807489 1.505 
0.593784 -0.809099 1.508 
0.666275 -0.811782 1.513 
0.742153 -0.817684 1.524 
0.813187 -0.817684 1.524 
0.890023 -0.823049 1.534 
0.967164 -0.827878 1.543 
1.0411 -0.829487 1.546 
1.11172 -0.828414 1.544 
1.19596 -0.836999 1.56 
1.27517 -0.841291 1.568 
1.34138 -0.836999 1.56 
1.43222 -0.84773 1.58 
1.50873 -0.849339 1.583 
-1.14014 -0.67622 1.264 
-1.05813 -0.661775 1.237 
-1.01341 -0.670335 1.253 
-0.960346 -0.67408 1.26 
-0.913781 -0.683175 1.277 
-0.852253 -0.68157 1.274 
-0.799095 -0.68692 1.284 
-0.741551 -0.689059 1.288 
-0.678871 -0.686385 1.283 
-0.62293 -0.690664 1.291 
-0.5645 -0.692804 1.295 
-0.506086 -0.695479 1.3 
-0.446863 -0.697619 1.304 
-0.38934 -0.703504 1.315 
-0.330542 -0.708854 1.325 
-0.275884 -0.727578 1.36 
-0.214056 -0.732928 1.37 
-0.153818 -0.750583 1.403 
-0.0894321 -0.759142 1.419 
-0.0195747 -0.786962 1.471 
0.0509957 -0.782682 1.463 
0.11772 -0.773052 1.445 
0.177471 -0.715274 1.337 
0.276746 -0.791241 1.479 
0.34802 -0.796591 1.489 
0.419946 -0.801406 1.498 
0.491076 -0.803546 1.502 
0.562953 -0.806221 1.507 
0.635295 -0.808896 1.512 
0.709971 -0.813711 1.521 
0.787026 -0.820131 1.533 
0.859039 -0.820666 1.534 
0.933573 -0.82334 1.539 
1.00727 -0.824945 1.542 
1.08754 -0.831365 1.554 
1.15624 -0.82869 1.549 
1.2435 -0.838855 1.568 
1.31239 -0.83618 1.563 
1.38524 -0.83618 1.563 
1.47395 -0.845275 1.58 
1.55543 -0.849555 1.588 
-1.10021 -0.672656 1.261 
-1.01969 -0.659853 1.237 
-0.986144 -0.67639 1.268 
-0.927773 -0.676923 1.269 
-0.872047 -0.67959 1.274 
-0.819044 -0.684925 1.284 
-0.758605 -0.684391 1.283 
-0.702617 -0.688125 1.29 
-0.641494 -0.687058 1.288 
-0.583265 -0.689192 1.292 
-0.529927 -0.69826 1.309 
-0.469989 -0.699861 1.312 
-0.412264 -0.705728 1.323 
-0.350864 -0.706262 1.324 
-0.296358 -0.723865 1.357 
-0.232936 -0.723332 1.356 
-0.171953 -0.742002 1.391 
-0.108581 -0.752137 1.41 
-0.0438332 -0.769207 1.442 
0.0240274 -0.790544 1.482 
0.091973 -0.780942 1.464 
0.159116 -0.775608 1.454 
0.252052 -0.783609 1.469 
0.325104 -0.794811 1.49 
0.396672 -0.799079 1.498 
0.46992 -0.804946 1.509 
0.541329 -0.806547 1.512 
0.609376 -0.803346 1.506 
0.686339 -0.811348 1.521 
0.759225 -0.813481 1.525 
0.836839 -0.819882 1.537 
0.910253 -0.821483 1.54 
0.985221 -0.82415 1.545 
1.06339 -0.828951 1.554 
1.12998 -0.824683 1.546 
1.21759 -0.835352 1.566 
1.29635 -0.839086 1.573 
1.36183 -0.834285 1.564 
1.45216 -0.84442 1.583 
1.53076 -0.847087 1.588 
-1.12247 -0.672292 1.264 
-0.994235 -0.630806 1.186 
-1.00387 -0.67442 1.268 
-0.944027 -0.673888 1.267 
-0.892655 -0.679738 1.278 
-0.834391 -0.680802 1.28 
-0.776546 -0.682398 1.283 
-0.721214 -0.686653 1.291 
-0.660016 -0.685589 1.289 
-0.605055 -0.69144 1.3 
-0.545299 -0.692503 1.302 
-0.485357 -0.693567 1.304 
-0.427508 -0.698354 1.313 
-0.368819 -0.703141 1.322 
-0.311615 -0.713247 1.341 
-0.250226 -0.716438 1.347 
-0.191338 -0.731331 1.375 
-0.130025 -0.747287 1.405 
-0.0651807 -0.754733 1.419 
0.000990391 -0.779199 1.465 
0.0688962 -0.774944 1.457 
0.135681 -0.768562 1.445 
0.190787 -0.71431 1.343 
0.309107 -0.793028 1.491 
0.380634 -0.797283 1.499 
0.45471 -0.804729 1.513 
0.525232 -0.804729 1.513 
0.596147 -0.805261 1.514 
0.667596 -0.806325 1.516 
0.744101 -0.812708 1.528 
0.817455 -0.814835 1.532 
0.893504 -0.81909 1.54 
0.970925 -0.823877 1.549 
1.04312 -0.823877 1.549 
1.11604 -0.824409 1.55 
1.19979 -0.832387 1.565 
1.28087 -0.837706 1.575 
1.34912 -0.834515 1.569 
1.43403 -0.841429 1.582 
1.51254 -0.844088 1.587 
-1.15006 -0.676162 1.275 
-1.01578 -0.633206 1.194 
-1.01285 -0.669268 1.262 
-0.959319 -0.67298 1.269 
-0.909392 -0.679874 1.282 
-0.8503 -0.680404 1.283 
-0.792348 -0.681995 1.286 
-0.736963 -0.686238 1.294 
-0.674035 -0.683586 1.289 
-0.618241 -0.688359 1.298 
-0.5586 -0.68942 1.3 
-0.496474 -0.687299 1.296 
-0.439769 -0.693132 1.307 
-0.384356 -0.703208 1.326 
-0.325227 -0.709042 1.337 
-0.266055 -0.717527 1.353 
-0.205392 -0.726012 1.369 
-0.144375 -0.740331 1.396 
-0.0803861 -0.750407 1.415 
-0.0148406 -0.77162 1.455 
0.0536328 -0.781166 1.473 
0.119965 -0.766317 1.445 
0.186892 -0.713284 1.345 
0.312676 -0.793894 1.497 
0.383218 -0.795485 1.5 
0.457363 -0.802909 1.514 
0.52828 -0.803439 1.515 
0.598894 -0.803439 1.515 
0.669951 -0.80397 1.516 
0.746475 -0.810334 1.528 
0.821976 -0.814576 1.536 
0.897642 -0.818289 1.543 
0.974589 -0.822531 1.551 
1.04688 -0.822531 1.551 
1.11917 -0.822531 1.551 
1.20453 -0.831547 1.568 
1.28576 -0.83685 1.578 
1.35242 -0.832607 1.57 
1.4374 -0.839501 1.583 
1.51596 -0.842153 1.588 
-1.15277 -0.675767 1.278 
-1.00898 -0.62712 1.186 
-1.01561 -0.667836 1.263 
-0.962805 -0.672066 1.271 
-0.910673 -0.677354 1.281 
-0.852294 -0.678411 1.283 
-0.794963 -0.680526 1.287 
-0.739545 -0.684756 1.295 
-0.676562 -0.682112 1.29 
-0.620735 -0.686871 1.299 
-0.561051 -0.687929 1.301 
-0.498488 -0.685285 1.296 
-0.442137 -0.69163 1.308 
-0.386708 -0.701677 1.327 
-0.328039 -0.708551 1.34 
-0.268157 -0.715425 1.353 
-0.206609 -0.720713 1.363 
-0.146019 -0.735518 1.391 
-0.0824095 -0.746622 1.412 
-0.0169954 -0.7646 1.446 
0.0513094 -0.778349 1.472 
0.118127 -0.766716 1.45 
0.180757 -0.711724 1.346 
0.313094 -0.792625 1.499 
0.383218 -0.793154 1.5 
0.457665 -0.801086 1.515 
0.529326 -0.802672 1.518 
0.600476 -0.803201 1.519 
0.670835 -0.802672 1.518 
0.746475 -0.80796 1.528 
0.822511 -0.812718 1.537 
0.898224 -0.81642 1.544 
0.976474 -0.821708 1.554 
1.04688 -0.820121 1.551 
1.12062 -0.821179 1.553 
1.20529 -0.829639 1.569 
1.28739 -0.835456 1.58 
1.355 -0.831754 1.573 
1.4374 -0.837042 1.583 
1.51691 -0.840214 1.589 
-1.15457 -0.674836 1.28 
-1.00302 -0.621587 1.179 
-1.01642 -0.666401 1.264 
-0.96432 -0.671146 1.273 
-0.910673 -0.675363 1.281 
-0.852294 -0.676418 1.283 
-0.795581 -0.679054 1.288 
-0.739545 -0.682744 1.295 
-0.677611 -0.681163 1.292 
-0.621213 -0.68538 1.3 
-0.561914 -0.686962 1.303 
-0.498488 -0.683271 1.296 
-0.442475 -0.690125 1.309 
-0.387874 -0.701724 1.331 
-0.328773 -0.708051 1.343 
-0.267761 -0.712268 1.351 
-0.206458 -0.718068 1.362 
-0.145704 -0.731775 1.388 
-0.0822928 -0.743374 1.41 
-0.0169014 -0.758136 1.438 
0.05117 -0.773953 1.468 
0.11829 -0.765517 1.452 
0.181026 -0.710687 1.348 
0.313094 -0.790296 1.499 
0.383474 -0.791351 1.501 
0.457967 -0.799259 1.516 
0.529326 -0.800313 1.518 
0.601266 -0.801895 1.521 
0.671277 -0.800841 1.519 
0.747452 -0.80664 1.53 
0.823582 -0.811385 1.539 
0.900551 -0.81613 1.548 
0.97773 -0.820348 1.556 
1.04688 -0.817712 1.551 
1.12206 -0.81982 1.555 
1.20529 -0.827201 1.569 
1.28983 -0.834582 1.583 
1.35586 -0.829838 1.574 
1.43831 -0.83511 1.584 
1.51691 -0.837746 1.589 
-1.15638 -0.673899 1.282 
-0.997917 -0.616602 1.173 
-1.01686 -0.666014 1.267 
-0.964611 -0.670745 1.276 
-0.908683 -0.673373 1.281 
-0.849638 -0.673899 1.282 
-0.79358 -0.677053 1.288 
-0.738672 -0.681784 1.297 
-0.677172 -0.680732 1.295 
-0.620146 -0.684412 1.302 
-0.559889 -0.684938 1.303 
-0.497241 -0.682309 1.298 
-0.441115 -0.689143 1.311 
-0.386095 -0.700182 1.332 
-0.32693 -0.70649 1.344 
-0.265465 -0.709644 1.35 
-0.204342 -0.715952 1.362 
-0.14303 -0.726991 1.383 
-0.0800453 -0.740658 1.409 
-0.014606 -0.752748 1.432 
0.0533051 -0.769569 1.464 
0.120712 -0.764313 1.454 
0.185352 -0.709118 1.349 
0.292498 -0.782711 1.489 
0.36579 -0.791121 1.505 
0.436807 -0.792698 1.508 
0.508104 -0.794275 1.511 
0.582361 -0.799532 1.521 
0.653685 -0.800058 1.522 
0.730339 -0.806366 1.534 
0.801317 -0.80584 1.533 
0.880171 -0.812674 1.546 
0.957774 -0.817404 1.555 
1.02562 -0.813725 1.548 
1.10273 -0.817404 1.555 
1.18504 -0.824238 1.568 
1.27176 -0.833174 1.585 
1.3397 -0.829495 1.578 
1.41325 -0.829495 1.578 
1.49999 -0.836854 1.592 
1.57815 -0.838957 1.596 
-1.06707 -0.64675 1.234 
-1.02137 -0.659328 1.258 
-0.970383 -0.664569 1.268 
-0.919906 -0.670859 1.28 
-0.862261 -0.672431 1.283 
-0.805587 -0.675052 1.288 
-0.749605 -0.67872 1.295 
-0.689777 -0.679244 1.296 
-0.631798 -0.681865 1.301 
-0.572914 -0.683961 1.305 
-0.510518 -0.681865 1.301 
-0.454373 -0.688678 1.314 
-0.397316 -0.696016 1.328 
-0.338953 -0.703353 1.342 
-0.278256 -0.70807 1.351 
-0.216082 -0.710691 1.356 
-0.154344 -0.717504 1.369 
-0.0923865 -0.732179 1.397 
-0.0277795 -0.745806 1.423 
0.0396034 -0.766246 1.462 
0.110471 -0.769391 1.468 
0.178407 -0.767295 1.464 
0.298921 -0.785114 1.498 
0.404463 -0.786687 1.501 
0.478534 -0.7935 1.514 
0.553454 -0.799789 1.526 
0.621716 -0.796121 1.519 
0.695252 -0.799265 1.525 
0.772866 -0.806079 1.538 
0.851142 -0.812368 1.55 
0.922792 -0.811844 1.549 
0.998846 -0.814988 1.555 
1.07546 -0.818133 1.561 
1.14454 -0.815513 1.556 
1.23427 -0.827043 1.578 
1.3128 -0.830188 1.584 
1.38137 -0.827043 1.578 
1.46876 -0.834905 1.593 
1.54397 -0.835429 1.594 
-1.11962 -0.659986 1.263 
-0.986374 -0.617137 1.181 
-0.99716 -0.66469 1.272 
-0.944507 -0.669393 1.281 
-0.882727 -0.667825 1.278 
-0.825092 -0.669393 1.281 
-0.773151 -0.676186 1.294 
-0.717796 -0.680889 1.303 
-0.656054 -0.679844 1.301 
-0.59816 -0.682979 1.307 
-0.538473 -0.684547 1.31 
-0.481423 -0.690295 1.321 
-0.422711 -0.694998 1.33 
-0.358821 -0.69134 1.323 
-0.3003 -0.698656 1.337 
-0.239584 -0.703359 1.346 
-0.179737 -0.714855 1.368 
-0.118432 -0.730009 1.397 
-0.0536612 -0.734712 1.406 
0.0122106 -0.755614 1.446 
0.0803248 -0.762407 1.459 
0.149854 -0.770246 1.474 
0.256238 -0.773381 1.48 
0.342634 -0.786967 1.506 
0.459176 -0.794283 1.52 
0.529326 -0.793238 1.518 
0.604824 -0.799509 1.53 
0.673928 -0.796896 1.525 
0.748917 -0.801076 1.533 
0.826792 -0.807347 1.545 
0.904623 -0.812572 1.555 
0.980872 -0.815708 1.561 
1.04823 -0.811527 1.553 
1.12783 -0.816753 1.563 
1.2099 -0.823024 1.575 
1.29472 -0.830339 1.589 
1.36017 -0.825114 1.579 
1.44194 -0.829817 1.588 
1.51978 -0.831907 1.592 
-1.13891 -0.660108 1.267 
-0.991961 -0.607487 1.166 
-1.01772 -0.663234 1.273 
-0.965163 -0.667923 1.282 
-0.904702 -0.667402 1.281 
-0.844994 -0.667402 1.281 
-0.790191 -0.67157 1.289 
-0.736907 -0.677822 1.301 
-0.676267 -0.677822 1.301 
-0.618939 -0.681469 1.308 
-0.55712 -0.680427 1.306 
-0.495107 -0.678864 1.303 
-0.440374 -0.688242 1.321 
-0.38339 -0.696578 1.337 
-0.322513 -0.699704 1.343 
-0.261077 -0.70283 1.349 
-0.199963 -0.709082 1.361 
-0.138632 -0.720023 1.382 
-0.0755059 -0.732527 1.406 
-0.0101137 -0.742947 1.426 
0.0575776 -0.759098 1.457 
0.126006 -0.762224 1.463 
0.227044 -0.758056 1.455 
0.317107 -0.785148 1.507 
0.441189 -0.789316 1.515 
0.511803 -0.789316 1.515 
0.587415 -0.796089 1.528 
0.660791 -0.798694 1.533 
0.735111 -0.80182 1.539 
0.806844 -0.80182 1.539 
0.888282 -0.810677 1.556 
0.963278 -0.812761 1.56 
1.03001 -0.808073 1.551 
1.11083 -0.814324 1.563 
1.19353 -0.821097 1.576 
1.27744 -0.827871 1.589 
1.34555 -0.824223 1.582 
1.42377 -0.826829 1.587 
1.50624 -0.831518 1.596 
1.58954 -0.836206 1.605 
-0.986526 -0.605676 1.166 
-1.01536 -0.662295 1.275 
-0.963428 -0.66749 1.285 
-0.901425 -0.665931 1.282 
-0.840357 -0.664893 1.28 
-0.789235 -0.672165 1.294 
-0.733428 -0.67632 1.302 
-0.674291 -0.677879 1.305 
-0.615345 -0.679956 1.309 
-0.554332 -0.679956 1.309 
-0.492566 -0.678918 1.307 
-0.43726 -0.687748 1.324 
-0.378385 -0.692943 1.334 
-0.317629 -0.696059 1.34 
-0.256885 -0.700734 1.349 
-0.195733 -0.706968 1.361 
-0.134533 -0.718915 1.384 
-0.0710358 -0.729304 1.404 
-0.00569456 -0.74229 1.429 
0.0621477 -0.757354 1.458 
0.130552 -0.759951 1.463 
0.243749 -0.765665 1.474 
0.333054 -0.781768 1.505 
0.435905 -0.785924 1.513 
0.507095 -0.786963 1.515 
0.582667 -0.793715 1.528 
0.658595 -0.799429 1.539 
0.730803 -0.799949 1.54 
0.802583 -0.799949 1.54 
0.884582 -0.809299 1.558 
0.95843 -0.810338 1.56 
1.02652 -0.806702 1.553 
1.10668 -0.812416 1.564 
1.18863 -0.818649 1.576 
1.2725 -0.825402 1.589 
1.34233 -0.822805 1.584 
1.42063 -0.825402 1.589 
1.50598 -0.831635 1.601 
1.58554 -0.834232 1.606 
-1.00378 -0.603346 1.165 
-1.02495 -0.652546 1.26 
-0.976188 -0.659279 1.273 
-0.924775 -0.664975 1.284 
-0.864254 -0.664458 1.283 
-0.808842 -0.668083 1.29 
-0.755679 -0.674298 1.302 
-0.69606 -0.675333 1.304 
-0.636742 -0.676887 1.307 
-0.579347 -0.68103 1.315 
-0.515297 -0.677405 1.308 
-0.460235 -0.686209 1.325 
-0.401484 -0.691388 1.335 
-0.34053 -0.693977 1.34 
-0.279732 -0.698121 1.348 
-0.218993 -0.704853 1.361 
-0.155214 -0.7033 1.358 
-0.0937447 -0.717283 1.385 
-0.0298007 -0.732302 1.414 
0.0370766 -0.751982 1.452 
0.10526 -0.755607 1.459 
0.231038 -0.759232 1.466 
0.312757 -0.787198 1.52 
0.396937 -0.776323 1.499 
0.471165 -0.783573 1.513 
0.546699 -0.790824 1.527 
0.622324 -0.79652 1.538 
0.693559 -0.796003 1.537 
0.766195 -0.797038 1.539 
0.846095 -0.804807 1.554 
0.920892 -0.806878 1.558 
0.997337 -0.809986 1.564 
1.07024 -0.809986 1.564 
1.14679 -0.812575 1.569 
1.23236 -0.820861 1.585 
1.31613 -0.827076 1.597 
1.38186 -0.821897 1.587 
1.46225 -0.825522 1.594 
1.5404 -0.827594 1.598 
-1.11481 -0.645941 1.251 
-0.999923 -0.617026 1.195 
-1.00902 -0.659366 1.277 
-0.961391 -0.667628 1.293 
-0.892064 -0.660915 1.28 
-0.833703 -0.661948 1.282 
-0.783608 -0.670209 1.298 
-0.728122 -0.674856 1.307 
-0.667202 -0.674856 1.307 
-0.608138 -0.676922 1.311 
-0.547449 -0.677438 1.312 
-0.487779 -0.679503 1.316 
-0.4313 -0.687248 1.331 
-0.369262 -0.687248 1.331 
-0.308147 -0.689314 1.335 
-0.248133 -0.69551 1.347 
-0.187688 -0.704288 1.364 
-0.126386 -0.717196 1.389 
-0.0622216 -0.723909 1.402 
0.00320187 -0.741464 1.436 
0.0709645 -0.750242 1.453 
0.139835 -0.756438 1.465 
0.26046 -0.769863 1.491 
0.333054 -0.777092 1.505 
0.401327 -0.773477 1.498 
0.475238 -0.78019 1.511 
0.554694 -0.793098 1.536 
0.628734 -0.796196 1.542 
0.699244 -0.794647 1.539 
0.771478 -0.795164 1.54 
0.851472 -0.802909 1.555 
0.926327 -0.804974 1.559 
1.0022 -0.807556 1.564 
1.07647 -0.808588 1.566 
1.15313 -0.81117 1.571 
1.24041 -0.820464 1.589 
1.32109 -0.824595 1.597 
1.39028 -0.821497 1.591 
1.47088 -0.825111 1.598 
1.54923 -0.827177 1.602 
-1.10543 -0.641939 1.247 
-1.02821 -0.637305 1.238 
-1.00186 -0.657897 1.278 
-0.95483 -0.666648 1.295 
-0.883418 -0.658412 1.279 
-0.827668 -0.6615 1.285 
-0.777931 -0.670252 1.302 
-0.721652 -0.67437 1.31 
-0.659584 -0.67334 1.308 
-0.601821 -0.676944 1.315 
-0.540117 -0.676429 1.314 
-0.482151 -0.681062 1.323 
-0.423982 -0.686725 1.334 
-0.361262 -0.685695 1.332 
-0.300973 -0.689814 1.34 
-0.239584 -0.692902 1.346 
-0.179605 -0.703713 1.367 
-0.118008 -0.716582 1.392 
-0.0535849 -0.72276 1.404 
0.0121937 -0.743351 1.444 
0.0797192 -0.745411 1.448 
0.149753 -0.75828 1.473 
0.280863 -0.772694 1.501 
0.350591 -0.772179 1.5 
0.421628 -0.774239 1.504 
0.494673 -0.778872 1.513 
0.574533 -0.791741 1.538 
0.649581 -0.79586 1.546 
0.72024 -0.794315 1.543 
0.79216 -0.794315 1.543 
0.870799 -0.800493 1.555 
0.948738 -0.805126 1.564 
1.01968 -0.803581 1.561 
1.09943 -0.808729 1.571 
1.17863 -0.812848 1.579 
1.26254 -0.81954 1.592 
1.33422 -0.817995 1.589 
1.41538 -0.822114 1.597 
1.49821 -0.826747 1.606 
1.57796 -0.829321 1.611 
-0.993618 -0.588678 1.147 
-1.02918 -0.645647 1.258 
-0.989065 -0.657964 1.282 
-0.935109 -0.66207 1.29 
-0.870912 -0.658991 1.284 
-0.814223 -0.661557 1.289 
-0.763503 -0.669769 1.305 
-0.704831 -0.671821 1.309 
-0.641784 -0.671821 1.309 
-0.586983 -0.679007 1.323 
-0.522538 -0.675414 1.316 
-0.465054 -0.68106 1.327 
-0.406848 -0.687218 1.339 
-0.344437 -0.687218 1.339 
-0.283289 -0.690298 1.345 
-0.223551 -0.699536 1.363 
-0.159434 -0.69697 1.358 
-0.0982608 -0.712367 1.388 
-0.0341461 -0.724684 1.412 
0.0326096 -0.74624 1.454 
0.100105 -0.744187 1.45 
0.172778 -0.76677 1.494 
0.27816 -0.769336 1.499 
0.348029 -0.769336 1.499 
0.418734 -0.770875 1.502 
0.491996 -0.776008 1.512 
0.574003 -0.791918 1.543 
0.648016 -0.794484 1.548 
0.718308 -0.792431 1.544 
0.78925 -0.791405 1.542 
0.868383 -0.798077 1.555 
0.946913 -0.803209 1.565 
1.01986 -0.803209 1.565 
1.09909 -0.807828 1.574 
1.17692 -0.810907 1.58 
1.26086 -0.81758 1.593 
1.33343 -0.816553 1.591 
1.41555 -0.821172 1.6 
1.49758 -0.825278 1.608 
1.57741 -0.827844 1.613 
-0.991019 -0.585361 1.144 
-1.03114 -0.643692 1.258 
-0.991829 -0.656484 1.283 
-0.938566 -0.661089 1.292 
-0.873587 -0.657507 1.285 
-0.816226 -0.659554 1.289 
-0.764944 -0.667229 1.304 
-0.707404 -0.670299 1.31 
-0.645852 -0.669788 1.309 
-0.591094 -0.676951 1.323 
-0.528228 -0.675416 1.32 
-0.469177 -0.678998 1.327 
-0.411009 -0.685138 1.339 
-0.348858 -0.68565 1.34 
-0.287469 -0.688208 1.345 
-0.22695 -0.69486 1.358 
-0.164015 -0.696395 1.361 
-0.102796 -0.711745 1.391 
-0.0384518 -0.720956 1.409 
0.0280722 -0.743469 1.453 
0.0954673 -0.740911 1.448 
0.167573 -0.76189 1.489 
0.2626 -0.762402 1.49 
0.339843 -0.769565 1.504 
0.407764 -0.765472 1.496 
0.480366 -0.770077 1.505 
0.565511 -0.791056 1.546 
0.638396 -0.792079 1.548 
0.710548 -0.792079 1.548 
0.779667 -0.789009 1.542 
0.860376 -0.797196 1.558 
0.938984 -0.802312 1.568 
1.01271 -0.802824 1.569 
1.08931 -0.805383 1.574 
1.16858 -0.809476 1.582 
1.25331 -0.81664 1.596 
1.32937 -0.817663 1.598 
1.40648 -0.819198 1.601 
1.48573 -0.821756 1.606 
1.56739 -0.825338 1.613 
-0.991096 -0.581543 1.14 
-1.03423 -0.641227 1.257 
-0.997369 -0.655511 1.285 
-0.94404 -0.660102 1.294 
-0.878946 -0.656531 1.287 
-0.820231 -0.657551 1.289 
-0.767227 -0.663673 1.301 
-0.710932 -0.667754 1.309 
-0.650416 -0.668264 1.31 
-0.595205 -0.674896 1.323 
-0.533539 -0.674896 1.323 
-0.474014 -0.677956 1.329 
-0.415169 -0.683058 1.339 
-0.353812 -0.685098 1.343 
-0.292515 -0.688159 1.349 
-0.230149 -0.689689 1.352 
-0.168739 -0.696321 1.365 
-0.107041 -0.709074 1.39 
-0.0428301 -0.718766 1.409 
0.0234599 -0.738151 1.447 
0.0909678 -0.738661 1.448 
0.16229 -0.756516 1.483 
0.236236 -0.749884 1.47 
0.315119 -0.77539 1.52 
0.380126 -0.763658 1.497 
0.452907 -0.768759 1.507 
0.528356 -0.776411 1.522 
0.607172 -0.786613 1.542 
0.687412 -0.796306 1.561 
0.755301 -0.791204 1.551 
0.833997 -0.797326 1.563 
0.91149 -0.801407 1.571 
0.985968 -0.802427 1.573 
1.0539 -0.798346 1.565 
1.14268 -0.809569 1.587 
1.22662 -0.8162 1.6 
1.30201 -0.816711 1.601 
1.3732 -0.81467 1.597 
1.44854 -0.81518 1.598 
1.53827 -0.823342 1.614 
-1.12197 -0.63368 1.246 
-1.00429 -0.603674 1.187 
-1.01854 -0.650463 1.279 
-0.977674 -0.663177 1.304 
-0.903534 -0.653515 1.285 
-0.84561 -0.65504 1.288 
-0.791675 -0.660126 1.298 
-0.735118 -0.663686 1.305 
-0.678425 -0.667755 1.313 
-0.621926 -0.67284 1.323 
-0.55772 -0.669789 1.317 
-0.498972 -0.673349 1.324 
-0.440893 -0.678943 1.335 
-0.379803 -0.680977 1.339 
-0.321184 -0.689114 1.355 
-0.255552 -0.682503 1.342 
-0.197747 -0.699286 1.375 
-0.134046 -0.70132 1.379 
-0.0702263 -0.705897 1.388 
-0.00563478 -0.71912 1.414 
0.0621051 -0.740989 1.457 
0.128678 -0.73336 1.442 
0.198878 -0.744549 1.464 
0.270583 -0.754212 1.483 
0.343371 -0.762349 1.499 
0.412412 -0.760823 1.496 
0.485687 -0.766417 1.507 
0.571053 -0.787269 1.548 
0.643206 -0.787269 1.548 
0.715821 -0.787777 1.549 
0.786494 -0.786252 1.546 
0.866884 -0.79388 1.561 
0.946866 -0.799983 1.573 
1.02018 -0.799983 1.573 
1.09837 -0.803543 1.58 
1.17795 -0.807612 1.588 
1.25906 -0.812189 1.597 
1.336 -0.813715 1.6 
1.41587 -0.816766 1.606 
1.49536 -0.819309 1.611 
1.57728 -0.822869 1.618 
-0.987589 -0.576986 1.138 
-1.03655 -0.642392 1.267 
-0.992922 -0.652532 1.287 
-0.935109 -0.654053 1.29 
-0.877695 -0.656081 1.294 
-0.815486 -0.65456 1.291 
-0.761163 -0.65963 1.301 
-0.706446 -0.665207 1.312 
-0.645785 -0.665715 1.313 
-0.591264 -0.67332 1.328 
-0.529366 -0.67332 1.328 
-0.468875 -0.675348 1.332 
-0.408928 -0.678897 1.339 
-0.34807 -0.681939 1.345 
-0.287713 -0.687516 1.356 
-0.225503 -0.690558 1.362 
-0.162971 -0.694615 1.37 
-0.100562 -0.704755 1.39 
-0.036134 -0.711853 1.404 
0.0299122 -0.726557 1.433 
0.097852 -0.735176 1.45 
0.169887 -0.75495 1.489 
0.235272 -0.742274 1.464 
0.312009 -0.763062 1.505 
0.38038 -0.759513 1.498 
0.452006 -0.762555 1.504 
0.530439 -0.774723 1.528 
0.606385 -0.780808 1.54 
0.687412 -0.791455 1.561 
0.759684 -0.790948 1.56 
0.835597 -0.79399 1.566 
0.91149 -0.796525 1.571 
0.987222 -0.798553 1.575 
1.05929 -0.797539 1.573 
1.147 -0.807679 1.593 
1.22969 -0.813257 1.604 
1.30526 -0.813764 1.605 
1.37663 -0.811736 1.601 
1.45398 -0.813257 1.604 
1.54494 -0.821876 1.621 
-1.11347 -0.628292 1.243 
-1.03867 -0.62627 1.239 
-1.01258 -0.646489 1.279 
-0.96936 -0.657609 1.301 
-0.897545 -0.649522 1.285 
-0.839606 -0.651038 1.288 
-0.783809 -0.654576 1.295 
-0.730711 -0.661147 1.308 
-0.670769 -0.662158 1.31 
-0.619949 -0.673278 1.332 
-0.552838 -0.667213 1.32 
-0.495407 -0.672773 1.331 
-0.435973 -0.676817 1.339 
-0.374957 -0.679344 1.344 
-0.31696 -0.689453 1.364 
-0.248368 -0.675806 1.337 
-0.191755 -0.69653 1.378 
-0.127804 -0.698046 1.381 
-0.0639864 -0.704112 1.393 
0.000950505 -0.710683 1.406 
0.0682342 -0.729385 1.443 
0.135868 -0.731407 1.447 
0.206264 -0.742021 1.468 
0.275624 -0.744549 1.473 
0.349656 -0.756174 1.496 
0.418264 -0.754153 1.492 
0.494346 -0.764262 1.512 
0.574906 -0.777909 1.539 
0.649581 -0.781448 1.546 
0.725375 -0.785491 1.554 
0.79832 -0.785997 1.555 
0.876959 -0.791557 1.566 
0.955411 -0.796106 1.575 
1.02948 -0.796612 1.576 
1.11063 -0.802172 1.587 
1.19132 -0.806721 1.596 
1.26888 -0.808743 1.6 
1.34178 -0.807732 1.598 
1.42601 -0.813292 1.609 
1.50567 -0.815819 1.614 
1.5858 -0.818347 1.619 
-0.985496 -0.579497 1.15 
-1.02526 -0.642486 1.275 
-0.985531 -0.655588 1.301 
-0.910673 -0.645509 1.281 
-0.856944 -0.650045 1.29 
-0.804847 -0.656595 1.303 
-0.746969 -0.659115 1.308 
-0.6881 -0.661131 1.312 
-0.633637 -0.668185 1.326 
-0.571832 -0.668185 1.326 
-0.511181 -0.669697 1.329 
-0.452278 -0.674232 1.338 
-0.389331 -0.673224 1.336 
-0.333669 -0.68683 1.363 
-0.267364 -0.679775 1.349 
-0.209338 -0.6959 1.381 
-0.144444 -0.693381 1.376 
-0.0809504 -0.698924 1.387 
-0.016443 -0.704971 1.399 
0.0503334 -0.727647 1.444 
0.117557 -0.727143 1.443 
0.189683 -0.746291 1.481 
0.256092 -0.738733 1.466 
0.330398 -0.752338 1.493 
0.399184 -0.750827 1.49 
0.472407 -0.756874 1.502 
0.557222 -0.777534 1.543 
0.629957 -0.778542 1.545 
0.708331 -0.785596 1.559 
0.780996 -0.785596 1.559 
0.85859 -0.790132 1.568 
0.936428 -0.794163 1.576 
1.01437 -0.79769 1.583 
1.08953 -0.798698 1.585 
1.17295 -0.805249 1.598 
1.24899 -0.806257 1.6 
1.33763 -0.814823 1.617 
1.40601 -0.810792 1.609 
1.48837 -0.814823 1.617 
1.56858 -0.817343 1.622 
-0.983297 -0.566156 1.127 
-1.04195 -0.634979 1.264 
-0.996254 -0.643519 1.281 
-0.943857 -0.648543 1.291 
-0.888475 -0.652059 1.298 
-0.827337 -0.651557 1.297 
-0.762744 -0.64804 1.29 
-0.715144 -0.659595 1.313 
-0.652451 -0.658087 1.31 
-0.602678 -0.670646 1.335 
-0.539643 -0.669642 1.333 
-0.478944 -0.671651 1.337 
-0.418808 -0.675168 1.344 
-0.357489 -0.677679 1.349 
-0.298979 -0.687727 1.369 
-0.232421 -0.679689 1.353 
-0.173113 -0.694759 1.383 
-0.108729 -0.695262 1.384 
-0.0447955 -0.704304 1.402 
0.0206694 -0.708323 1.41 
0.0883505 -0.724399 1.442 
0.159446 -0.742483 1.478 
0.226019 -0.734948 1.463 
0.297226 -0.742483 1.478 
0.369832 -0.750019 1.493 
0.440598 -0.752028 1.497 
0.51992 -0.766094 1.525 
0.592938 -0.768606 1.53 
0.674672 -0.780663 1.554 
0.753835 -0.787696 1.568 
0.825338 -0.786188 1.565 
0.902875 -0.790207 1.573 
0.980537 -0.793724 1.58 
1.05752 -0.796236 1.585 
1.14496 -0.80578 1.604 
1.22124 -0.806785 1.606 
1.29771 -0.80779 1.608 
1.36754 -0.804776 1.602 
1.45031 -0.809297 1.611 
1.5396 -0.816832 1.626 
1.6144 -0.81633 1.625 
-1.00204 -0.590948 1.18 
-1.0205 -0.638023 1.274 
-0.97998 -0.650543 1.299 
-0.905985 -0.641028 1.28 
-0.852274 -0.645535 1.289 
-0.80387 -0.655051 1.308 
-0.745176 -0.657054 1.312 
-0.683502 -0.656553 1.311 
-0.633315 -0.668072 1.334 
-0.570281 -0.66707 1.332 
-0.508577 -0.667571 1.333 
-0.449795 -0.672579 1.343 
-0.386332 -0.671076 1.34 
-0.331367 -0.686601 1.371 
-0.264148 -0.678088 1.354 
-0.205492 -0.693112 1.384 
-0.140474 -0.690608 1.379 
-0.076751 -0.695616 1.389 
-0.0120785 -0.699622 1.397 
0.0546306 -0.720656 1.439 
0.122041 -0.722659 1.443 
0.193629 -0.739186 1.476 
0.261003 -0.735179 1.468 
0.333915 -0.745195 1.488 
0.402458 -0.743693 1.485 
0.480886 -0.758216 1.514 
0.559831 -0.769735 1.537 
0.632704 -0.771237 1.54 
0.715005 -0.782755 1.563 
0.788361 -0.783256 1.564 
0.866766 -0.788264 1.574 
0.943117 -0.790768 1.579 
1.02315 -0.795776 1.589 
1.10067 -0.79828 1.594 
1.18234 -0.803288 1.604 
1.25475 -0.801786 1.601 
1.34432 -0.8108 1.619 
1.41277 -0.806794 1.611 
1.49801 -0.812303 1.622 
1.57362 -0.812303 1.622 
-0.979804 -0.561656 1.125 
-1.03998 -0.631051 1.264 
-0.99504 -0.640038 1.282 
-0.940392 -0.643533 1.289 
-0.888507 -0.649524 1.301 
-0.82914 -0.650522 1.303 
-0.76074 -0.644032 1.29 
-0.714191 -0.656513 1.315 
-0.649919 -0.653518 1.309 
-0.601503 -0.667497 1.337 
-0.539185 -0.667497 1.337 
-0.478294 -0.669494 1.341 
-0.41858 -0.673987 1.35 
-0.356183 -0.674985 1.352 
-0.297503 -0.68497 1.372 
-0.230072 -0.680976 1.364 
-0.169059 -0.691461 1.385 
-0.104655 -0.692459 1.387 
-0.0403525 -0.69845 1.399 
0.0249264 -0.700447 1.403 
0.0925738 -0.717921 1.438 
0.163706 -0.736393 1.475 
0.230407 -0.729903 1.462 
0.301819 -0.737891 1.478 
0.372716 -0.741885 1.486 
0.453508 -0.753367 1.509 
0.533216 -0.766847 1.536 
0.602447 -0.763852 1.53 
0.68521 -0.776832 1.556 
0.766015 -0.78532 1.573 
0.842 -0.787816 1.578 
0.915551 -0.787816 1.578 
0.995997 -0.793307 1.589 
1.07275 -0.795304 1.593 
1.15781 -0.802793 1.608 
1.23045 -0.801295 1.605 
1.31502 -0.807287 1.617 
1.38265 -0.802793 1.608 
1.46939 -0.809283 1.621 
1.55543 -0.814775 1.632 
-0.992772 -0.555429 1.116 
-1.04395 -0.618636 1.243 
-1.01219 -0.63506 1.276 
-0.969888 -0.646507 1.299 
-0.898841 -0.639041 1.284 
-0.842261 -0.64153 1.289 
-0.789462 -0.647502 1.301 
-0.736665 -0.65447 1.315 
-0.671777 -0.650986 1.308 
-0.626688 -0.667908 1.342 
-0.562035 -0.665419 1.337 
-0.500465 -0.666415 1.339 
-0.440671 -0.670396 1.347 
-0.380131 -0.674378 1.355 
-0.321886 -0.684829 1.376 
-0.25363 -0.67388 1.354 
-0.1946 -0.688313 1.383 
-0.130326 -0.689309 1.385 
-0.0662932 -0.694783 1.396 
-0.00122606 -0.695281 1.397 
0.0655349 -0.713198 1.433 
0.13399 -0.722157 1.451 
0.204678 -0.733106 1.473 
0.272407 -0.730617 1.468 
0.344546 -0.738581 1.484 
0.412043 -0.735594 1.478 
0.511112 -0.759982 1.527 
0.580379 -0.757493 1.522 
0.662447 -0.770433 1.548 
0.742192 -0.778396 1.564 
0.820302 -0.783373 1.574 
0.897073 -0.786359 1.58 
0.97379 -0.788848 1.585 
1.0556 -0.79482 1.597 
1.13782 -0.800295 1.608 
1.21277 -0.800295 1.608 
1.29252 -0.803281 1.614 
1.36436 -0.80129 1.61 
1.44298 -0.803281 1.614 
1.53326 -0.811244 1.63 
1.61615 -0.814728 1.637 
-0.980415 -0.566594 1.142 
-1.03157 -0.631589 1.273 
-0.989034 -0.642504 1.295 
-0.915765 -0.633574 1.277 
-0.868313 -0.642504 1.295 
-0.819183 -0.651435 1.313 
-0.753366 -0.647466 1.305 
-0.699969 -0.654411 1.319 
-0.636553 -0.652427 1.315 
-0.586197 -0.66483 1.34 
-0.524912 -0.666319 1.343 
-0.463692 -0.668303 1.347 
-0.402098 -0.670288 1.351 
-0.341889 -0.675746 1.362 
-0.280245 -0.680211 1.371 
-0.21792 -0.685172 1.381 
-0.15344 -0.684676 1.38 
-0.0895702 -0.688149 1.387 
-0.0251014 -0.693111 1.397 
0.0404428 -0.700553 1.412 
0.108665 -0.716429 1.444 
0.178651 -0.727344 1.466 
0.246813 -0.726848 1.465 
0.318539 -0.734787 1.481 
0.388615 -0.736771 1.485 
0.477585 -0.757113 1.526 
0.553611 -0.760586 1.533 
0.623841 -0.759098 1.53 
0.711511 -0.776959 1.566 
0.786006 -0.778447 1.569 
0.867351 -0.785889 1.584 
0.941776 -0.786385 1.585 
1.02527 -0.793827 1.6 
1.10328 -0.796308 1.605 
1.18249 -0.799285 1.611 
1.2529 -0.796308 1.605 
1.34673 -0.807719 1.628 
1.41038 -0.800773 1.614 
1.4985 -0.807719 1.628 
1.57148 -0.806231 1.625 
-0.977147 -0.550972 1.114 
-1.03872 -0.619719 1.253 
-1.00222 -0.633568 1.281 
-0.95061 -0.639008 1.292 
-0.896592 -0.64346 1.301 
-0.836595 -0.643954 1.302 
-0.768161 -0.637524 1.289 
-0.72456 -0.652362 1.319 
-0.660065 -0.649395 1.313 
-0.610724 -0.662254 1.339 
-0.549132 -0.663243 1.341 
-0.486991 -0.663738 1.342 
-0.429816 -0.672146 1.359 
-0.366743 -0.67264 1.36 
-0.307368 -0.681543 1.378 
-0.241198 -0.676102 1.367 
-0.179559 -0.684016 1.383 
-0.115762 -0.687973 1.391 
-0.0511472 -0.69094 1.397 
0.0140073 -0.692918 1.401 
0.0805537 -0.703799 1.423 
0.15008 -0.719132 1.454 
0.219949 -0.726056 1.468 
0.288962 -0.72754 1.471 
0.360929 -0.734464 1.485 
0.428407 -0.731496 1.479 
0.532903 -0.762655 1.542 
0.598501 -0.754742 1.526 
0.681915 -0.76859 1.554 
0.763571 -0.777988 1.573 
0.842209 -0.782934 1.583 
0.918308 -0.784912 1.587 
1.00041 -0.791341 1.6 
1.07633 -0.792331 1.602 
1.15962 -0.798266 1.614 
1.22873 -0.794309 1.606 
1.31819 -0.803212 1.624 
1.38531 -0.798266 1.614 
1.47049 -0.803706 1.625 
1.55765 -0.809641 1.637 
-0.989031 -0.545296 1.106 
-1.01631 -0.591149 1.199 
-1.01932 -0.628619 1.275 
-0.978714 -0.640945 1.3 
-0.906821 -0.633057 1.284 
-0.85225 -0.637001 1.292 
-0.801838 -0.64489 1.308 
-0.744837 -0.648341 1.315 
-0.682505 -0.647355 1.313 
-0.632189 -0.658695 1.336 
-0.57333 -0.662639 1.344 
-0.512206 -0.664611 1.348 
-0.450375 -0.66609 1.351 
-0.390272 -0.67102 1.361 
-0.329717 -0.676937 1.373 
-0.265915 -0.67743 1.374 
-0.202607 -0.679895 1.379 
-0.139535 -0.685811 1.391 
-0.0752911 -0.691235 1.402 
-0.00997184 -0.693207 1.406 
0.0566687 -0.707012 1.434 
0.124714 -0.713914 1.448 
0.193666 -0.719338 1.459 
0.263822 -0.725254 1.471 
0.33442 -0.729692 1.48 
0.401767 -0.726733 1.474 
0.498067 -0.758288 1.538 
0.56679 -0.754343 1.53 
0.639355 -0.755822 1.533 
0.727037 -0.773079 1.568 
0.805225 -0.778009 1.578 
0.884345 -0.782939 1.588 
0.960776 -0.784911 1.592 
1.04408 -0.791814 1.606 
1.12451 -0.795758 1.614 
1.19974 -0.795758 1.614 
1.27734 -0.797237 1.617 
1.36024 -0.801675 1.626 
1.42896 -0.79773 1.618 
1.51739 -0.804633 1.632 
1.59737 -0.806605 1.636 
-0.972836 -0.548984 1.117 
-1.03343 -0.623198 1.268 
-0.998144 -0.638434 1.299 
-0.923161 -0.628604 1.279 
-0.875024 -0.636959 1.296 
-0.825932 -0.645806 1.314 
-0.756538 -0.638925 1.3 
-0.709864 -0.651704 1.326 
-0.640728 -0.644332 1.311 
-0.593327 -0.659568 1.342 
-0.531567 -0.660551 1.344 
-0.472063 -0.664974 1.353 
-0.41172 -0.669397 1.362 
-0.348748 -0.67038 1.364 
-0.288099 -0.677261 1.378 
-0.224032 -0.677752 1.379 
-0.160684 -0.681684 1.387 
-0.096312 -0.68365 1.391 
-0.0316808 -0.688074 1.4 
0.0337175 -0.691022 1.406 
0.101158 -0.704292 1.433 
0.169357 -0.71019 1.445 
0.239985 -0.72002 1.465 
0.312477 -0.729849 1.485 
0.381951 -0.730341 1.486 
0.468172 -0.753932 1.534 
0.542486 -0.757864 1.542 
0.607586 -0.749509 1.525 
0.692463 -0.764745 1.556 
0.773346 -0.7731 1.573 
0.854738 -0.780472 1.588 
0.931679 -0.782929 1.593 
1.0154 -0.790302 1.608 
1.09035 -0.790302 1.608 
1.17327 -0.795708 1.619 
1.24179 -0.791285 1.61 
1.33319 -0.801114 1.63 
1.40225 -0.797182 1.622 
1.48696 -0.802097 1.632 
1.56782 -0.804555 1.637 
-0.980382 -0.54088 1.104 
-1.03458 -0.611429 1.248 
-1.0077 -0.631027 1.288 
-0.95061 -0.632986 1.292 
-0.899349 -0.639355 1.305 
-0.84045 -0.640825 1.308 
-0.768757 -0.632006 1.29 
-0.727307 -0.648664 1.324 
-0.663584 -0.646704 1.32 
-0.612093 -0.657483 1.342 
-0.549542 -0.657483 1.342 
-0.487716 -0.658462 1.344 
-0.431714 -0.668751 1.365 
-0.370248 -0.67267 1.373 
-0.307368 -0.67512 1.378 
-0.243139 -0.67512 1.378 
-0.17839 -0.67316 1.374 
-0.116345 -0.684919 1.398 
-0.0514035 -0.687858 1.404 
0.0140373 -0.687858 1.404 
0.0805537 -0.697167 1.423 
0.148635 -0.705495 1.44 
0.219499 -0.717744 1.465 
0.289748 -0.722643 1.475 
0.362873 -0.731462 1.493 
0.430435 -0.728032 1.486 
0.520546 -0.758408 1.548 
0.585041 -0.748609 1.528 
0.664852 -0.758408 1.548 
0.746526 -0.768206 1.568 
0.827452 -0.775555 1.583 
0.906929 -0.780454 1.593 
0.986723 -0.784864 1.602 
1.06404 -0.786823 1.606 
1.14741 -0.792703 1.618 
1.21753 -0.789273 1.611 
1.30386 -0.796132 1.625 
1.37875 -0.795642 1.624 
1.45534 -0.796132 1.625 
1.54898 -0.805441 1.644 
1.64242 -0.81377 1.661 
-0.970149 -0.550886 1.128 
-1.01932 -0.622677 1.275 
-0.982478 -0.637328 1.305 
-0.915296 -0.632932 1.296 
-0.85291 -0.631467 1.293 
-0.801838 -0.638793 1.308 
-0.748802 -0.64563 1.322 
-0.689262 -0.647584 1.326 
-0.632662 -0.652956 1.337 
-0.573757 -0.656863 1.345 
-0.513346 -0.659793 1.351 
-0.454042 -0.665165 1.362 
-0.39228 -0.668095 1.368 
-0.330678 -0.672491 1.377 
-0.266883 -0.673467 1.379 
-0.202607 -0.673467 1.379 
-0.140237 -0.682747 1.398 
-0.0759355 -0.69056 1.414 
-0.0100357 -0.691049 1.415 
0.0565502 -0.698863 1.431 
0.124455 -0.7057 1.445 
0.192073 -0.706677 1.447 
0.264001 -0.718886 1.472 
0.33442 -0.722793 1.48 
0.403403 -0.722793 1.48 
0.494409 -0.756491 1.549 
0.562219 -0.75063 1.537 
0.63221 -0.748677 1.533 
0.718352 -0.764305 1.565 
0.79787 -0.770654 1.578 
0.8786 -0.777003 1.591 
0.955751 -0.779445 1.596 
1.04176 -0.788235 1.614 
1.11906 -0.7897 1.617 
1.19591 -0.790677 1.619 
1.27373 -0.792142 1.622 
1.35931 -0.798003 1.634 
1.4302 -0.795072 1.628 
1.51441 -0.799468 1.637 
1.5946 -0.801421 1.641 
-0.972761 -0.539883 1.109 
-1.02949 -0.617288 1.268 
-1.00099 -0.636761 1.308 
-0.922062 -0.62459 1.283 
-0.868981 -0.629458 1.293 
-0.8231 -0.640655 1.316 
-0.758287 -0.637734 1.31 
-0.708937 -0.648444 1.332 
-0.640539 -0.642116 1.319 
-0.590913 -0.65526 1.346 
-0.528961 -0.656233 1.348 
-0.472009 -0.664509 1.365 
-0.409582 -0.666457 1.369 
-0.34653 -0.667917 1.372 
-0.284641 -0.672785 1.382 
-0.219907 -0.671812 1.38 
-0.157501 -0.680088 1.397 
-0.0924526 -0.680575 1.398 
-0.0273109 -0.681061 1.399 
0.0382219 -0.686903 1.411 
0.105832 -0.699074 1.436 
0.173245 -0.701021 1.44 
0.244537 -0.713191 1.465 
0.317732 -0.724388 1.488 
0.387088 -0.724388 1.488 
0.472089 -0.749216 1.539 
0.546296 -0.752624 1.546 
0.614355 -0.747756 1.536 
0.694434 -0.757005 1.555 
0.774804 -0.764794 1.571 
0.856665 -0.772584 1.587 
0.9365 -0.777452 1.597 
1.02233 -0.786214 1.615 
1.09489 -0.784267 1.611 
1.17797 -0.789622 1.622 
1.25125 -0.788162 1.619 
1.339 -0.795464 1.634 
1.41516 -0.795464 1.634 
1.49589 -0.797898 1.639 
1.57612 -0.799845 1.643 
-0.977649 -0.533308 1.099 
-1.02793 -0.605127 1.247 
-1.01103 -0.630846 1.3 
-0.940933 -0.624538 1.287 
-0.891897 -0.632302 1.303 
-0.839457 -0.638611 1.316 
-0.767475 -0.629876 1.298 
-0.72168 -0.642978 1.325 
-0.659922 -0.642978 1.325 
-0.608546 -0.654139 1.348 
-0.544096 -0.652198 1.344 
-0.485751 -0.658021 1.356 
-0.428468 -0.667241 1.375 
-0.365704 -0.669668 1.38 
-0.301163 -0.669182 1.379 
-0.237059 -0.669668 1.38 
-0.172236 -0.667727 1.376 
-0.110065 -0.679858 1.401 
-0.0448275 -0.680829 1.403 
0.0205961 -0.681799 1.405 
0.0869413 -0.688593 1.419 
0.153944 -0.692475 1.427 
0.225864 -0.709459 1.462 
0.298031 -0.719165 1.482 
0.372061 -0.72887 1.502 
0.442953 -0.730326 1.505 
0.530489 -0.755075 1.556 
0.592938 -0.742458 1.53 
0.671199 -0.750222 1.546 
0.753835 -0.760898 1.568 
0.834303 -0.767691 1.582 
0.91665 -0.77497 1.597 
0.999775 -0.781764 1.611 
1.07353 -0.780794 1.609 
1.15709 -0.786617 1.621 
1.23037 -0.785161 1.618 
1.31547 -0.790984 1.63 
1.39315 -0.791955 1.632 
1.47102 -0.792925 1.634 
1.56327 -0.801175 1.651 
1.65414 -0.807969 1.665 
-1.00718 -0.579004 1.197 
-1.01497 -0.617701 1.277 
-0.973403 -0.62931 1.301 
-0.916271 -0.631729 1.306 
-0.852123 -0.62931 1.301 
-0.796958 -0.633664 1.31 
-0.749943 -0.645756 1.335 
-0.694415 -0.652045 1.348 
-0.627836 -0.648175 1.34 
-0.566222 -0.649142 1.342 
-0.507049 -0.653496 1.351 
-0.452296 -0.665589 1.376 
-0.387878 -0.665105 1.375 
-0.325673 -0.668975 1.383 
-0.260833 -0.668007 1.381 
-0.195468 -0.664621 1.374 
-0.134295 -0.679133 1.404 
-0.0697372 -0.68784 1.422 
-0.00342816 -0.682035 1.41 
0.0632643 -0.692677 1.432 
0.130737 -0.696546 1.44 
0.198542 -0.698965 1.445 
0.270495 -0.711058 1.47 
0.343163 -0.719765 1.488 
0.412519 -0.719765 1.488 
0.503572 -0.752173 1.555 
0.571606 -0.746369 1.543 
0.641857 -0.744434 1.539 
0.723791 -0.755076 1.561 
0.803694 -0.761848 1.575 
0.884345 -0.768136 1.588 
0.971036 -0.778294 1.609 
1.05123 -0.782164 1.617 
1.1273 -0.782647 1.618 
1.20494 -0.784098 1.621 
1.28919 -0.789419 1.632 
1.36693 -0.790387 1.634 
1.44309 -0.790387 1.634 
1.52948 -0.795707 1.645 
1.61787 -0.801512 1.657 
-0.971063 -0.535679 1.111 
-1.02691 -0.60752 1.26 
-1.0066 -0.631628 1.31 
-0.928935 -0.620539 1.287 
-0.875024 -0.624878 1.296 
-0.831589 -0.637896 1.323 
-0.764104 -0.633075 1.313 
-0.712541 -0.641754 1.331 
-0.647081 -0.638379 1.324 
-0.597306 -0.651397 1.351 
-0.534732 -0.651879 1.352 
-0.476948 -0.659111 1.367 
-0.41565 -0.662969 1.375 
-0.353351 -0.666344 1.382 
-0.289771 -0.668272 1.386 
-0.224682 -0.666826 1.383 
-0.16219 -0.675023 1.4 
-0.0969352 -0.675023 1.4 
-0.0316129 -0.673576 1.397 
0.0338374 -0.680326 1.411 
0.101228 -0.691416 1.434 
0.16795 -0.690934 1.433 
0.239166 -0.703952 1.46 
0.312477 -0.716006 1.485 
0.385035 -0.722274 1.498 
0.464877 -0.738186 1.531 
0.543243 -0.747829 1.551 
0.610376 -0.741561 1.538 
0.688715 -0.748793 1.553 
0.768452 -0.756025 1.568 
0.847441 -0.761329 1.579 
0.933871 -0.771937 1.601 
1.02109 -0.78158 1.621 
1.09124 -0.777723 1.613 
1.17293 -0.782062 1.622 
1.25161 -0.783991 1.626 
1.33311 -0.787366 1.633 
1.41958 -0.793152 1.645 
1.49898 -0.794598 1.648 
1.57962 -0.796527 1.652 
-0.979279 -0.527224 1.097 
-0.995073 -0.570479 1.187 
-1.01496 -0.616136 1.282 
-0.96638 -0.623345 1.297 
-0.91361 -0.628632 1.308 
-0.853295 -0.629112 1.309 
-0.794704 -0.631035 1.313 
-0.748029 -0.643531 1.339 
-0.692786 -0.650259 1.353 
-0.624603 -0.644972 1.342 
-0.561633 -0.644492 1.341 
-0.503223 -0.649778 1.352 
-0.448997 -0.662755 1.379 
-0.384721 -0.662755 1.379 
-0.321608 -0.665158 1.384 
-0.257656 -0.6666 1.387 
-0.191338 -0.660832 1.375 
-0.130025 -0.675251 1.405 
-0.0654104 -0.684382 1.424 
0.000948477 -0.674289 1.403 
0.0675249 -0.686305 1.428 
0.134742 -0.689669 1.435 
0.203173 -0.694955 1.446 
0.274127 -0.704087 1.465 
0.348721 -0.717063 1.492 
0.419385 -0.718986 1.496 
0.508077 -0.746861 1.554 
0.576027 -0.741094 1.542 
0.646219 -0.739171 1.538 
0.727708 -0.749264 1.559 
0.806021 -0.75455 1.57 
0.887599 -0.76176 1.585 
0.980888 -0.777139 1.617 
1.05887 -0.779061 1.621 
1.13303 -0.7781 1.619 
1.21073 -0.779542 1.622 
1.29743 -0.78627 1.636 
1.37453 -0.786751 1.637 
1.45437 -0.788673 1.641 
1.54112 -0.79396 1.652 
1.62988 -0.799727 1.664 
-0.968493 -0.533664 1.114 
-1.02413 -0.603126 1.259 
-1.00686 -0.628995 1.313 
-0.931257 -0.619414 1.293 
-0.873011 -0.620851 1.296 
-0.832041 -0.635702 1.327 
-0.766707 -0.632827 1.321 
-0.710473 -0.637618 1.331 
-0.646486 -0.635702 1.327 
-0.595208 -0.647199 1.351 
-0.534601 -0.650073 1.357 
-0.475171 -0.655343 1.368 
-0.414717 -0.660612 1.379 
-0.351966 -0.663487 1.385 
-0.288448 -0.665882 1.39 
-0.223338 -0.664924 1.388 
-0.160472 -0.672589 1.404 
-0.0950985 -0.673068 1.405 
-0.0294845 -0.670193 1.399 
0.0360808 -0.6769 1.413 
0.104105 -0.691272 1.443 
0.170533 -0.687918 1.436 
0.240938 -0.697978 1.457 
0.313937 -0.709476 1.481 
0.386845 -0.716661 1.496 
0.467561 -0.733907 1.532 
0.544597 -0.741572 1.548 
0.614359 -0.738698 1.542 
0.692018 -0.744925 1.555 
0.769413 -0.749716 1.565 
0.847203 -0.754027 1.574 
0.938113 -0.768399 1.604 
1.02614 -0.778459 1.625 
1.09645 -0.774627 1.617 
1.17255 -0.775106 1.618 
1.25722 -0.780854 1.63 
1.33646 -0.78277 1.634 
1.42819 -0.791393 1.652 
1.50792 -0.792831 1.655 
1.5841 -0.792351 1.654 
-0.977574 -0.523815 1.097 
-0.983868 -0.562493 1.178 
-1.01571 -0.615017 1.288 
-0.960124 -0.617882 1.294 
-0.909545 -0.624567 1.308 
-0.854418 -0.628865 1.317 
-0.791828 -0.62791 1.315 
-0.742202 -0.637937 1.336 
-0.688073 -0.645577 1.352 
-0.620895 -0.64128 1.343 
-0.557466 -0.640325 1.341 
-0.499391 -0.646055 1.353 
-0.444389 -0.657992 1.378 
-0.382092 -0.661335 1.385 
-0.317766 -0.661812 1.386 
-0.254625 -0.665632 1.394 
-0.170524 -0.667065 1.397 
-0.106013 -0.670885 1.405 
-0.0405544 -0.671362 1.406 
0.0250507 -0.673272 1.41 
0.0921232 -0.6833 1.431 
0.158601 -0.682345 1.429 
0.230092 -0.697147 1.46 
0.300798 -0.703355 1.473 
0.376478 -0.716725 1.501 
0.450604 -0.72341 1.515 
0.53326 -0.740122 1.55 
0.600818 -0.734392 1.538 
0.679501 -0.742032 1.554 
0.754352 -0.744419 1.559 
0.830731 -0.747762 1.566 
0.921613 -0.762564 1.597 
1.01102 -0.774024 1.621 
1.08657 -0.774024 1.621 
1.15998 -0.772592 1.618 
1.24074 -0.775934 1.625 
1.32539 -0.781187 1.636 
1.41364 -0.787872 1.65 
1.49506 -0.790259 1.655 
1.57505 -0.791692 1.658 
-0.983495 -0.521635 1.096 
-0.987961 -0.557807 1.172 
-1.0102 -0.604925 1.271 
-0.971907 -0.618252 1.299 
-0.917674 -0.622535 1.308 
-0.859983 -0.624915 1.313 
-0.800609 -0.626343 1.316 
-0.752751 -0.637765 1.34 
-0.702142 -0.648712 1.363 
-0.626899 -0.636814 1.338 
-0.566644 -0.639193 1.343 
-0.507424 -0.643477 1.352 
-0.451967 -0.654424 1.375 
-0.390981 -0.659659 1.386 
-0.311305 -0.659659 1.386 
-0.249017 -0.665846 1.399 
-0.181839 -0.658707 1.384 
-0.119365 -0.67013 1.408 
-0.0541955 -0.675841 1.42 
0.0118475 -0.66775 1.403 
0.0779575 -0.673937 1.416 
0.145279 -0.680124 1.429 
0.215147 -0.690595 1.451 
0.284923 -0.695831 1.462 
0.361761 -0.712965 1.498 
0.434176 -0.717248 1.507 
0.517137 -0.735334 1.545 
0.587243 -0.732954 1.54 
0.660307 -0.734382 1.543 
0.738396 -0.740569 1.556 
0.814569 -0.743901 1.563 
0.899912 -0.754372 1.585 
0.994064 -0.770078 1.618 
1.07675 -0.775313 1.629 
1.14914 -0.772934 1.624 
1.22559 -0.77341 1.625 
1.31575 -0.781977 1.643 
1.39656 -0.784356 1.648 
1.47964 -0.787688 1.655 
1.56242 -0.790544 1.661 
1.6428 -0.791971 1.664 
-0.990034 -0.554088 1.168 
-1.00856 -0.59963 1.264 
-0.976694 -0.616708 1.3 
-0.921739 -0.620503 1.308 
-0.862089 -0.621452 1.31 
-0.804698 -0.624298 1.316 
-0.755786 -0.634735 1.338 
-0.707932 -0.648018 1.366 
-0.62917 -0.632837 1.334 
-0.572092 -0.63853 1.346 
-0.51276 -0.642799 1.355 
-0.455576 -0.651338 1.373 
-0.395288 -0.657505 1.386 
-0.310044 -0.659403 1.39 
-0.24755 -0.66557 1.403 
-0.180857 -0.660826 1.393 
-0.117094 -0.667468 1.407 
-0.0519893 -0.673635 1.42 
0.0140773 -0.667942 1.408 
0.0802707 -0.672686 1.418 
0.147706 -0.678853 1.431 
0.217702 -0.68929 1.453 
0.286998 -0.693085 1.461 
0.363116 -0.70874 1.494 
0.436517 -0.714907 1.507 
0.518865 -0.731985 1.543 
0.589636 -0.730562 1.54 
0.663563 -0.732934 1.545 
0.740337 -0.737678 1.555 
0.814907 -0.739575 1.559 
0.901806 -0.751435 1.584 
0.995962 -0.76709 1.617 
1.08127 -0.774206 1.632 
1.15308 -0.771359 1.626 
1.22887 -0.771359 1.626 
1.3191 -0.779898 1.644 
1.40252 -0.783693 1.652 
1.48579 -0.787014 1.659 
1.56594 -0.788437 1.662 
1.64539 -0.789386 1.664 
-0.988451 -0.550382 1.164 
-1.0074 -0.598139 1.265 
-0.973925 -0.614215 1.299 
-0.919706 -0.618471 1.308 
-0.863336 -0.621781 1.315 
-0.802043 -0.621781 1.315 
-0.75258 -0.63171 1.336 
