# .PCD v.7 - Point Cloud Data file format
VERSION .7
FIELDS x y z
SIZE 4 4 4
TYPE F F F
COUNT 1 1 1
WIDTH 1846
HEIGHT 1
VIEWPOINT 0 0 0 1 0 0 0
POINTS 1846
DATA ascii
0.535884 -0.494954 2.177 
0.645259 -0.501093 2.204 
0.750364 -0.502684 2.211 
0.858437 -0.50564 2.224 
0.977672 -0.513825 2.26 
1.08684 -0.515644 2.268 
1.19256 -0.515644 2.268 
1.31315 -0.521555 2.294 
1.42503 -0.523374 2.302 
1.55096 -0.52974 2.33 
1.6439 -0.524738 2.308 
1.77879 -0.532923 2.344 
1.89207 -0.53406 2.349 
2.00156 -0.53406 2.349 
2.13711 -0.540653 2.378 
2.28671 -0.549974 2.419 
2.40839 -0.552021 2.428 
-0.480067 -0.140223 0.621 
-0.462019 -0.14361 0.636 
-0.436454 -0.144965 0.642 
-0.41548 -0.149255 0.661 
-0.398056 -0.154449 0.684 
-0.381699 -0.160997 0.713 
-0.36215 -0.16732 0.741 
-0.341318 -0.174319 0.772 
-0.318387 -0.181771 0.805 
-0.296735 -0.194642 0.862 
-0.264891 -0.200964 0.89 
-0.242736 -0.218351 0.967 
-0.210542 -0.232577 1.03 
-0.171212 -0.244996 1.085 
-0.128312 -0.260576 1.154 
-0.0798189 -0.279092 1.236 
-0.0233944 -0.293995 1.302 
0.0404714 -0.319059 1.413 
0.116641 -0.349994 1.55 
0.198636 -0.368058 1.63 
0.298871 -0.400573 1.774 
0.474219 -0.494282 2.189 
0.577565 -0.495411 2.194 
0.681997 -0.496991 2.201 
0.788151 -0.499249 2.211 
0.898461 -0.503314 2.229 
1.01045 -0.507378 2.247 
1.12958 -0.513926 2.276 
1.23132 -0.51212 2.268 
1.35118 -0.517539 2.292 
1.46628 -0.520475 2.305 
1.58669 -0.524765 2.324 
1.70741 -0.528603 2.341 
1.8142 -0.527926 2.338 
1.95114 -0.535603 2.372 
2.04953 -0.532442 2.358 
2.17226 -0.535603 2.372 
2.31939 -0.544184 2.41 
-0.485694 -0.135446 0.604 
-0.471819 -0.140828 0.628 
-0.453118 -0.144192 0.643 
-0.427096 -0.145537 0.649 
-0.408464 -0.149798 0.668 
-0.389755 -0.154732 0.69 
-0.373141 -0.161459 0.72 
-0.354674 -0.168635 0.752 
-0.331524 -0.174914 0.78 
-0.310162 -0.184557 0.823 
-0.281269 -0.194648 0.868 
-0.254405 -0.205636 0.917 
-0.227359 -0.220885 0.985 
-0.192501 -0.23434 1.045 
-0.153425 -0.250037 1.115 
-0.108279 -0.266856 1.19 
-0.0562302 -0.284123 1.267 
0.00301234 -0.30296 1.351 
0.0702808 -0.322694 1.439 
0.153198 -0.359919 1.605 
0.244486 -0.385932 1.721 
0.345079 -0.410151 1.829 
0.518432 -0.490881 2.189 
0.629532 -0.498057 2.221 
0.730743 -0.496487 2.214 
0.835821 -0.497608 2.219 
0.95872 -0.507923 2.265 
1.06664 -0.509045 2.27 
1.17141 -0.508596 2.268 
1.28726 -0.512633 2.286 
1.4054 -0.516893 2.305 
1.53449 -0.524294 2.338 
1.63363 -0.521154 2.324 
1.76069 -0.52676 2.349 
1.86381 -0.524966 2.341 
2.00916 -0.534609 2.384 
2.10694 -0.531245 2.369 
2.28101 -0.546494 2.437 
2.36807 -0.540439 2.41 
-0.481406 -0.137848 0.619 
-0.464983 -0.141634 0.636 
-0.44013 -0.143193 0.643 
-0.41909 -0.146311 0.657 
-0.401476 -0.15121 0.679 
-0.383988 -0.157 0.705 
-0.364576 -0.163013 0.732 
-0.344452 -0.169916 0.763 
-0.321033 -0.176597 0.793 
-0.299475 -0.186173 0.836 
-0.268902 -0.197085 0.885 
-0.244373 -0.21156 0.95 
-0.214626 -0.226926 1.019 
-0.176479 -0.23962 1.076 
-0.134075 -0.254318 1.142 
-0.0865092 -0.272133 1.222 
-0.0313651 -0.288836 1.297 
0.0315331 -0.313109 1.406 
0.103833 -0.334933 1.504 
0.187581 -0.361211 1.622 
0.285737 -0.392166 1.761 
0.469552 -0.489706 2.199 
0.573869 -0.491265 2.206 
0.678225 -0.492379 2.211 
0.787641 -0.496387 2.229 
0.894735 -0.498169 2.237 
1.00704 -0.502177 2.255 
1.12497 -0.507967 2.281 
1.22967 -0.507299 2.278 
1.34699 -0.511531 2.297 
1.46418 -0.515094 2.313 
1.59306 -0.521997 2.344 
1.70449 -0.522665 2.347 
1.81775 -0.523779 2.352 
1.95852 -0.532241 2.39 
2.05693 -0.528901 2.375 
2.17584 -0.530905 2.384 
2.32917 -0.540704 2.428 
-0.485956 -0.133127 0.602 
-0.47463 -0.137992 0.624 
-0.457684 -0.141752 0.641 
-0.431144 -0.142857 0.646 
-0.411587 -0.146617 0.663 
-0.39389 -0.151703 0.686 
-0.377215 -0.158116 0.715 
-0.358799 -0.164971 0.746 
-0.337493 -0.171827 0.777 
-0.315517 -0.180673 0.817 
-0.284328 -0.191287 0.865 
-0.255858 -0.200575 0.907 
-0.230538 -0.216497 0.979 
-0.196616 -0.230208 1.041 
-0.157769 -0.245246 1.109 
-0.111913 -0.258735 1.17 
-0.061253 -0.276206 1.249 
-0.00325067 -0.295666 1.337 
0.0631318 -0.316011 1.429 
0.145081 -0.353384 1.598 
0.233991 -0.376604 1.703 
0.334898 -0.402477 1.82 
0.517383 -0.48629 2.199 
0.629746 -0.49403 2.234 
0.730588 -0.491818 2.224 
0.833124 -0.491155 2.221 
0.958575 -0.502654 2.273 
1.06593 -0.503318 2.276 
1.17304 -0.50376 2.278 
1.28708 -0.506856 2.292 
1.40547 -0.511058 2.311 
1.53806 -0.519461 2.349 
1.64404 -0.518355 2.344 
1.76826 -0.522778 2.364 
1.86891 -0.520125 2.352 
2.01976 -0.53096 2.401 
2.11658 -0.527201 2.384 
2.28937 -0.541796 2.45 
2.37609 -0.535604 2.422 
-0.480809 -0.135486 0.617 
-0.465239 -0.139438 0.635 
-0.442502 -0.141634 0.645 
-0.41807 -0.144269 0.657 
-0.400421 -0.1491 0.679 
-0.382893 -0.154809 0.705 
-0.363935 -0.160958 0.733 
-0.343266 -0.167545 0.763 
-0.319801 -0.174133 0.793 
-0.297819 -0.183356 0.835 
-0.26783 -0.194555 0.886 
-0.24213 -0.20795 0.947 
-0.213043 -0.22376 1.019 
-0.175132 -0.236716 1.078 
-0.1323 -0.250769 1.142 
-0.0841951 -0.267019 1.216 
-0.0293047 -0.284366 1.295 
0.0337895 -0.309399 1.409 
0.105887 -0.329382 1.5 
0.190453 -0.35683 1.625 
0.289456 -0.388012 1.767 
0.475549 -0.485508 2.211 
0.579913 -0.486606 2.216 
0.686285 -0.488802 2.226 
0.792879 -0.490559 2.234 
0.903029 -0.493853 2.249 
1.01368 -0.496707 2.262 
1.13099 -0.501978 2.286 
1.23754 -0.501978 2.286 
1.3535 -0.505491 2.302 
1.47158 -0.509224 2.319 
1.60828 -0.518447 2.361 
1.72269 -0.519764 2.367 
1.8307 -0.519105 2.364 
1.97865 -0.529206 2.41 
2.07623 -0.525473 2.393 
2.19783 -0.527889 2.404 
2.34159 -0.535135 2.437 
-0.483817 -0.131693 0.604 
-0.472261 -0.136489 0.626 
-0.455824 -0.140414 0.644 
-0.427044 -0.142158 0.652 
-0.406388 -0.145647 0.668 
-0.387611 -0.150443 0.69 
-0.370389 -0.156766 0.719 
-0.352806 -0.16418 0.753 
-0.329523 -0.170285 0.781 
-0.308508 -0.179224 0.822 
-0.273332 -0.187509 0.86 
-0.248706 -0.199937 0.917 
-0.221238 -0.214764 0.985 
-0.188143 -0.230462 1.057 
-0.147284 -0.244416 1.121 
-0.101392 -0.260769 1.196 
-0.048547 -0.277339 1.272 
0.0115773 -0.298925 1.371 
0.0796091 -0.315277 1.446 
0.167421 -0.353651 1.622 
0.260553 -0.379161 1.739 
0.360466 -0.400092 1.835 
0.540818 -0.482073 2.211 
0.653483 -0.489268 2.244 
0.761793 -0.491667 2.255 
0.86267 -0.489268 2.244 
0.984506 -0.49799 2.284 
1.08428 -0.494937 2.27 
1.19847 -0.498426 2.286 
1.32043 -0.504313 2.313 
1.44059 -0.508673 2.333 
1.56594 -0.514124 2.358 
1.67371 -0.51347 2.355 
1.79863 -0.517831 2.375 
1.93023 -0.5235 2.401 
2.03534 -0.521755 2.393 
2.14687 -0.521755 2.393 
2.32919 -0.538108 2.468 
2.41947 -0.532657 2.443 
-0.478521 -0.134001 0.619 
-0.462745 -0.137898 0.637 
-0.437179 -0.140496 0.649 
-0.413199 -0.142661 0.659 
-0.395832 -0.14764 0.682 
-0.37899 -0.153701 0.71 
-0.359538 -0.159763 0.738 
-0.339678 -0.166906 0.771 
-0.315954 -0.173617 0.802 
-0.28736 -0.186606 0.862 
-0.256395 -0.194616 0.899 
-0.232148 -0.210635 0.973 
-0.200235 -0.225789 1.043 
-0.15947 -0.237479 1.097 
-0.114264 -0.250468 1.157 
-0.0643518 -0.267137 1.234 
-0.00732766 -0.286404 1.323 
0.0582806 -0.307186 1.419 
0.14701 -0.344637 1.592 
0.237054 -0.369316 1.706 
0.338282 -0.394644 1.823 
0.520207 -0.478638 2.211 
0.63482 -0.487514 2.252 
0.737158 -0.485782 2.244 
0.838 -0.483617 2.234 
0.964057 -0.494874 2.286 
1.07201 -0.495524 2.289 
1.18282 -0.497255 2.297 
1.2927 -0.498338 2.302 
1.41702 -0.504399 2.33 
1.54396 -0.510461 2.358 
1.66368 -0.513491 2.372 
1.78546 -0.516739 2.387 
1.88957 -0.51479 2.378 
2.02985 -0.522367 2.413 
2.137 -0.521068 2.407 
2.30338 -0.533624 2.465 
2.39964 -0.529511 2.446 
-0.478645 -0.13175 0.613 
-0.465491 -0.136264 0.634 
-0.446254 -0.139487 0.649 
-0.41909 -0.141207 0.657 
-0.400293 -0.145505 0.677 
-0.382354 -0.150879 0.702 
-0.364576 -0.157326 0.732 
-0.344452 -0.163989 0.763 
-0.321033 -0.170437 0.793 
-0.2984 -0.179034 0.833 
-0.265376 -0.19064 0.887 
-0.239187 -0.203536 0.947 
-0.2107 -0.21987 1.023 
-0.171623 -0.231476 1.077 
-0.120615 -0.246951 1.149 
-0.0711453 -0.261996 1.219 
-0.0153852 -0.281339 1.309 
0.0492528 -0.303691 1.413 
0.124726 -0.329053 1.531 
0.216225 -0.358498 1.668 
0.317235 -0.386868 1.8 
0.497283 -0.476278 2.216 
0.606804 -0.481221 2.239 
0.712753 -0.482296 2.244 
0.814797 -0.480791 2.237 
0.935087 -0.489173 2.276 
1.04849 -0.492612 2.292 
1.16187 -0.495406 2.305 
1.26491 -0.493687 2.297 
1.3869 -0.49906 2.322 
1.51123 -0.504433 2.347 
1.6441 -0.51174 2.381 
1.77424 -0.517329 2.407 
1.86136 -0.510451 2.375 
2.03101 -0.525711 2.446 
2.12397 -0.520552 2.422 
2.25903 -0.525711 2.446 
2.37013 -0.525066 2.443 
-0.480408 -0.129731 0.608 
-0.46694 -0.133998 0.628 
-0.452304 -0.138479 0.649 
-0.426606 -0.139973 0.656 
-0.403878 -0.142747 0.669 
-0.385509 -0.147654 0.692 
-0.36908 -0.154269 0.723 
-0.34976 -0.160883 0.754 
-0.327969 -0.167711 0.786 
-0.304507 -0.176033 0.825 
-0.270414 -0.182434 0.855 
-0.247012 -0.19545 0.916 
-0.219931 -0.210386 0.986 
-0.187206 -0.226389 1.061 
-0.138299 -0.241752 1.133 
-0.0907713 -0.256688 1.203 
-0.0352043 -0.275251 1.29 
0.0272801 -0.301283 1.412 
0.0977749 -0.316432 1.483 
0.183692 -0.343531 1.61 
0.283805 -0.376817 1.766 
0.461391 -0.471341 2.209 
0.569974 -0.476035 2.231 
0.681211 -0.481156 2.255 
0.788758 -0.48265 2.262 
0.900516 -0.486064 2.278 
1.01156 -0.488411 2.289 
1.11678 -0.487771 2.286 
1.22922 -0.490118 2.297 
1.35548 -0.497159 2.33 
1.47099 -0.499506 2.341 
1.59901 -0.505481 2.369 
1.72675 -0.510602 2.393 
1.84212 -0.511668 2.398 
1.98567 -0.51999 2.437 
2.07084 -0.512949 2.404 
2.19378 -0.515509 2.416 
2.34458 -0.524044 2.456 
-0.484085 -0.127515 0.602 
-0.470966 -0.131963 0.623 
-0.456115 -0.1362 0.643 
-0.434097 -0.138742 0.655 
-0.410345 -0.141072 0.666 
-0.390123 -0.145096 0.685 
-0.37336 -0.151239 0.714 
-0.352464 -0.156746 0.74 
-0.333871 -0.164584 0.777 
-0.311063 -0.171997 0.812 
-0.28536 -0.181317 0.856 
-0.256645 -0.189578 0.895 
-0.231739 -0.204406 0.965 
-0.201468 -0.220504 1.041 
-0.159559 -0.230036 1.086 
-0.10953 -0.246558 1.164 
-0.0587901 -0.262232 1.238 
0.00506217 -0.283414 1.338 
0.0744406 -0.303537 1.433 
0.157692 -0.338911 1.6 
0.251141 -0.366447 1.73 
0.351338 -0.388053 1.832 
0.535311 -0.472569 2.231 
0.652194 -0.482101 2.276 
0.754614 -0.479771 2.265 
0.861325 -0.480406 2.268 
0.981535 -0.487608 2.302 
1.08647 -0.486549 2.297 
1.19925 -0.488879 2.308 
1.31588 -0.492268 2.324 
1.44136 -0.498199 2.352 
1.5622 -0.5018 2.369 
1.68321 -0.504977 2.384 
1.8139 -0.510485 2.41 
1.91664 -0.507943 2.398 
2.04871 -0.513026 2.422 
2.14821 -0.509849 2.407 
2.32333 -0.524041 2.474 
2.43568 -0.523406 2.471 
-0.472751 -0.130154 0.619 
-0.458958 -0.13457 0.64 
-0.440527 -0.138145 0.657 
-0.413023 -0.139196 0.662 
-0.39429 -0.143611 0.683 
-0.376784 -0.149289 0.71 
-0.356276 -0.154756 0.736 
-0.337282 -0.162115 0.771 
-0.313462 -0.168633 0.802 
-0.285375 -0.17431 0.829 
-0.261241 -0.186506 0.887 
-0.235517 -0.199752 0.95 
-0.20714 -0.216363 1.029 
-0.166758 -0.226666 1.078 
-0.118726 -0.241385 1.148 
-0.0690241 -0.255473 1.215 
-0.0133922 -0.276079 1.313 
0.0557598 -0.296685 1.411 
0.132293 -0.322968 1.536 
0.222204 -0.351985 1.674 
0.325877 -0.382053 1.817 
0.509902 -0.468051 2.226 
0.624408 -0.476252 2.265 
0.728369 -0.4752 2.26 
0.834446 -0.475621 2.262 
0.954421 -0.48298 2.297 
1.06795 -0.485924 2.311 
1.17974 -0.487606 2.319 
1.2845 -0.486344 2.313 
1.41398 -0.493914 2.349 
1.54033 -0.499381 2.375 
1.65937 -0.501904 2.387 
1.79882 -0.509894 2.425 
1.87716 -0.500643 2.381 
2.05577 -0.517674 2.462 
2.1432 -0.511156 2.431 
2.29363 -0.519566 2.471 
2.40296 -0.518305 2.465 
-0.47725 -0.127314 0.61 
-0.463533 -0.131489 0.63 
-0.44933 -0.13608 0.652 
-0.423438 -0.137541 0.659 
-0.401661 -0.140672 0.674 
-0.381781 -0.145055 0.695 
-0.366982 -0.15236 0.73 
-0.345271 -0.157995 0.757 
-0.322682 -0.164465 0.788 
-0.300105 -0.172605 0.827 
-0.268384 -0.178866 0.857 
-0.244432 -0.191389 0.917 
-0.218186 -0.207042 0.992 
-0.183563 -0.221026 1.059 
-0.143453 -0.236262 1.132 
-0.095337 -0.248367 1.19 
-0.0430872 -0.268404 1.286 
0.0269516 -0.291153 1.395 
0.0977749 -0.30952 1.483 
0.18029 -0.334357 1.602 
0.279788 -0.366916 1.758 
0.464192 -0.460419 2.206 
0.578066 -0.469393 2.249 
0.691091 -0.475028 2.276 
0.793324 -0.472733 2.265 
0.911596 -0.479411 2.297 
1.02487 -0.482333 2.311 
1.12817 -0.480455 2.302 
1.2403 -0.482333 2.311 
1.37018 -0.490264 2.349 
1.48912 -0.493395 2.364 
1.6169 -0.498822 2.39 
1.7471 -0.504248 2.416 
1.85509 -0.502996 2.41 
1.99681 -0.51051 2.446 
2.09528 -0.506753 2.428 
2.203 -0.5055 2.422 
2.35126 -0.513223 2.459 
-0.482347 -0.124502 0.601 
-0.469454 -0.128645 0.621 
-0.453926 -0.134031 0.647 
-0.432284 -0.136724 0.66 
-0.406996 -0.138589 0.669 
-0.387049 -0.142732 0.689 
-0.369874 -0.14874 0.718 
-0.348121 -0.153919 0.743 
-0.329945 -0.161998 0.782 
-0.305505 -0.168627 0.814 
-0.273071 -0.17712 0.855 
-0.248222 -0.188514 0.91 
-0.220733 -0.202187 0.976 
-0.188708 -0.217723 1.051 
-0.149558 -0.233053 1.125 
-0.10161 -0.243825 1.177 
-0.0504438 -0.263091 1.27 
0.00921292 -0.276971 1.337 
0.0924128 -0.30473 1.471 
0.174875 -0.331039 1.598 
0.272296 -0.361491 1.745 
0.374707 -0.383036 1.849 
0.572602 -0.467142 2.255 
0.685522 -0.472528 2.281 
0.788021 -0.470249 2.27 
0.905639 -0.476464 2.3 
1.02121 -0.4804 2.319 
1.1254 -0.478743 2.311 
1.23419 -0.479157 2.313 
1.36636 -0.487858 2.355 
1.48491 -0.490758 2.369 
1.61351 -0.496351 2.396 
1.73743 -0.499873 2.413 
1.8568 -0.501737 2.422 
1.98189 -0.504845 2.437 
2.09548 -0.504845 2.437 
2.18731 -0.499873 2.413 
2.34362 -0.509402 2.459 
-0.482347 -0.123568 0.601 
-0.469244 -0.127886 0.622 
-0.453313 -0.133437 0.649 
-0.430885 -0.135905 0.661 
-0.405523 -0.137755 0.67 
-0.385467 -0.141867 0.69 
-0.368667 -0.148035 0.72 
-0.346743 -0.153175 0.745 
-0.327933 -0.160988 0.783 
-0.302976 -0.167362 0.814 
-0.271047 -0.176203 0.857 
-0.245664 -0.187306 0.911 
-0.219261 -0.202109 0.983 
-0.185618 -0.216296 1.052 
-0.146711 -0.232333 1.13 
-0.0982025 -0.242613 1.18 
-0.0467904 -0.262763 1.278 
0.0133974 -0.27551 1.34 
0.0896984 -0.301005 1.464 
0.17196 -0.327734 1.594 
0.268658 -0.357546 1.739 
0.372237 -0.380574 1.851 
0.570865 -0.465078 2.262 
0.682875 -0.469601 2.284 
0.786568 -0.467956 2.276 
0.90285 -0.473302 2.302 
1.02112 -0.478442 2.327 
1.1257 -0.476797 2.319 
1.23219 -0.47618 2.316 
1.36618 -0.485433 2.361 
1.48498 -0.488311 2.375 
1.61516 -0.494274 2.404 
1.73368 -0.496124 2.413 
1.85992 -0.499825 2.431 
1.9781 -0.501058 2.437 
2.09942 -0.502909 2.446 
2.18085 -0.495507 2.41 
2.34551 -0.506815 2.465 
-0.48048 -0.122635 0.601 
-0.464709 -0.127532 0.625 
-0.44933 -0.133041 0.652 
-0.426008 -0.135286 0.663 
-0.401661 -0.13753 0.674 
-0.381781 -0.141815 0.695 
-0.366982 -0.148957 0.73 
-0.343903 -0.153854 0.754 
-0.321863 -0.160384 0.786 
-0.298654 -0.167934 0.823 
-0.267271 -0.175892 0.862 
-0.241319 -0.186911 0.916 
-0.216405 -0.203643 0.998 
-0.179931 -0.215682 1.057 
-0.139936 -0.230986 1.132 
-0.0917163 -0.243025 1.191 
-0.0390608 -0.262205 1.285 
0.0220008 -0.276897 1.357 
0.0971156 -0.300567 1.473 
0.17984 -0.326073 1.598 
0.278037 -0.356477 1.747 
0.459562 -0.445647 2.184 
0.585698 -0.462175 2.265 
0.697679 -0.46646 2.286 
0.801416 -0.464828 2.278 
0.918352 -0.470337 2.305 
1.03825 -0.476051 2.333 
1.14552 -0.475439 2.33 
1.25842 -0.477071 2.338 
1.38261 -0.482376 2.364 
1.50732 -0.48707 2.387 
1.6301 -0.490538 2.404 
1.76172 -0.496048 2.431 
1.86346 -0.492987 2.416 
2.0186 -0.503598 2.468 
2.11807 -0.499925 2.45 
2.20949 -0.494824 2.425 
2.36945 -0.504822 2.474 
-0.478612 -0.121701 0.601 
-0.462061 -0.127168 0.628 
-0.446291 -0.132028 0.652 
-0.423556 -0.134458 0.664 
-0.400293 -0.137091 0.677 
-0.380176 -0.141343 0.698 
-0.36607 -0.148835 0.735 
-0.341292 -0.153088 0.756 
-0.319414 -0.15977 0.789 
-0.295892 -0.167263 0.826 
-0.26582 -0.175363 0.866 
-0.239254 -0.186095 0.919 
-0.214373 -0.203105 1.003 
-0.177315 -0.21485 1.061 
-0.136539 -0.229429 1.133 
-0.0883849 -0.242187 1.196 
-0.0350133 -0.259804 1.283 
0.0330701 -0.279244 1.379 
0.10504 -0.301316 1.488 
0.188695 -0.326021 1.61 
0.288965 -0.357205 1.764 
0.483967 -0.452379 2.234 
0.597045 -0.459264 2.268 
0.707715 -0.462504 2.284 
0.814886 -0.462909 2.286 
0.929095 -0.466756 2.305 
1.05272 -0.474046 2.341 
1.15886 -0.472831 2.335 
1.27855 -0.476881 2.355 
1.39539 -0.479311 2.367 
1.52544 -0.485588 2.398 
1.64131 -0.486803 2.404 
1.77961 -0.494093 2.44 
1.86308 -0.486196 2.401 
2.04573 -0.503611 2.487 
2.12602 -0.495308 2.446 
2.23453 -0.494093 2.44 
2.39061 -0.503003 2.484 
-0.477679 -0.120767 0.601 
-0.460306 -0.127599 0.635 
-0.444952 -0.131819 0.656 
-0.420692 -0.133828 0.666 
-0.397256 -0.136441 0.679 
-0.377453 -0.140861 0.701 
-0.361994 -0.147894 0.736 
-0.338374 -0.152717 0.76 
-0.316503 -0.159549 0.794 
-0.291815 -0.166582 0.829 
-0.260426 -0.175826 0.875 
-0.233999 -0.188485 0.938 
-0.206507 -0.204561 1.018 
-0.167651 -0.215612 1.073 
-0.124655 -0.228473 1.137 
-0.0759448 -0.242137 1.205 
-0.0213551 -0.261428 1.301 
0.0485557 -0.279914 1.393 
0.127603 -0.30885 1.537 
0.213243 -0.330552 1.645 
0.320231 -0.365115 1.817 
0.506483 -0.45353 2.257 
0.617374 -0.45775 2.278 
0.726093 -0.459357 2.286 
0.839565 -0.463175 2.305 
0.951521 -0.465385 2.316 
1.07457 -0.472017 2.349 
1.18153 -0.471012 2.344 
1.30345 -0.475634 2.367 
1.41856 -0.477241 2.375 
1.55373 -0.484877 2.413 
1.66413 -0.484274 2.41 
1.80078 -0.490905 2.443 
1.87311 -0.480255 2.39 
2.06256 -0.499144 2.484 
2.13186 -0.488494 2.431 
2.27103 -0.49412 2.459 
2.41572 -0.50035 2.49 
-0.476884 -0.119634 0.6 
-0.460823 -0.126214 0.633 
-0.445628 -0.130401 0.654 
-0.422762 -0.132794 0.666 
-0.398777 -0.135186 0.678 
-0.378007 -0.139174 0.698 
-0.363137 -0.146751 0.736 
-0.338661 -0.151138 0.758 
-0.317337 -0.158116 0.793 
-0.293103 -0.165294 0.829 
-0.266127 -0.172871 0.867 
-0.237952 -0.182242 0.914 
-0.213945 -0.199589 1.001 
-0.177315 -0.211553 1.061 
-0.131258 -0.225909 1.133 
-0.0830873 -0.239268 1.2 
-0.0290332 -0.255817 1.283 
0.0372738 -0.274361 1.376 
0.127769 -0.306861 1.539 
0.213114 -0.327797 1.644 
0.31935 -0.361295 1.812 
0.508952 -0.452216 2.268 
0.618187 -0.454808 2.281 
0.726093 -0.455805 2.286 
0.84175 -0.46079 2.311 
0.951521 -0.461787 2.316 
1.07594 -0.468965 2.352 
1.18557 -0.468965 2.352 
1.30786 -0.473551 2.375 
1.42035 -0.474149 2.378 
1.55566 -0.481726 2.416 
1.67034 -0.482324 2.419 
1.79857 -0.486511 2.44 
1.87938 -0.478137 2.398 
2.06007 -0.494686 2.481 
2.13186 -0.484717 2.431 
2.27103 -0.4903 2.459 
2.42154 -0.497677 2.496 
-0.478881 -0.118504 0.599 
-0.460823 -0.12523 0.633 
-0.444946 -0.129187 0.653 
-0.422762 -0.131759 0.666 
-0.399366 -0.134331 0.679 
-0.378007 -0.13809 0.698 
-0.364281 -0.145607 0.736 
-0.338942 -0.149564 0.756 
-0.318167 -0.156686 0.792 
-0.294036 -0.163808 0.828 
-0.267166 -0.171326 0.866 
-0.238587 -0.180229 0.911 
-0.214209 -0.196847 0.995 
-0.178289 -0.209113 1.057 
-0.129497 -0.224148 1.133 
-0.0760078 -0.238591 1.206 
-0.0212074 -0.255604 1.292 
0.0437827 -0.272816 1.379 
0.134855 -0.304272 1.538 
0.222119 -0.327221 1.654 
0.327434 -0.358084 1.81 
0.521813 -0.450671 2.278 
0.630197 -0.452254 2.286 
0.737715 -0.452847 2.289 
0.857318 -0.459771 2.324 
0.966886 -0.460365 2.327 
1.0869 -0.465311 2.352 
1.20111 -0.467091 2.361 
1.3206 -0.470455 2.378 
1.43324 -0.471048 2.381 
1.57276 -0.479753 2.425 
1.68787 -0.480346 2.428 
1.80772 -0.482127 2.437 
1.89529 -0.475598 2.404 
2.06329 -0.488853 2.471 
2.13791 -0.479753 2.425 
2.29085 -0.48826 2.468 
2.43318 -0.493799 2.496 
-0.47702 -0.117573 0.599 
-0.461575 -0.123658 0.63 
-0.446618 -0.12778 0.651 
-0.425866 -0.130724 0.666 
-0.401938 -0.13308 0.678 
-0.379622 -0.136416 0.695 
-0.366568 -0.144464 0.736 
-0.339937 -0.147801 0.753 
-0.319414 -0.154867 0.789 
-0.295176 -0.161737 0.824 
-0.269234 -0.169588 0.864 
-0.240357 -0.178028 0.907 
-0.215116 -0.193338 0.985 
-0.180371 -0.206097 1.05 
-0.132548 -0.221603 1.129 
-0.0845269 -0.234361 1.194 
-0.0288295 -0.250064 1.274 
0.0326384 -0.267141 1.361 
0.125215 -0.301686 1.537 
0.210047 -0.321903 1.64 
0.312167 -0.350757 1.787 
0.510747 -0.446739 2.276 
0.619 -0.448309 2.284 
0.727046 -0.449291 2.289 
0.845757 -0.455768 2.322 
0.951521 -0.45459 2.316 
1.08006 -0.463423 2.361 
1.19161 -0.464012 2.364 
1.31447 -0.468527 2.387 
1.42573 -0.468527 2.387 
1.56145 -0.475985 2.425 
1.67863 -0.477163 2.431 
1.79636 -0.478341 2.437 
1.89349 -0.474219 2.416 
2.05426 -0.485603 2.474 
2.14239 -0.479518 2.443 
2.2738 -0.483248 2.462 
2.43125 -0.491884 2.506 
-0.479011 -0.116448 0.598 
-0.467844 -0.121511 0.624 
-0.453525 -0.1256 0.645 
-0.435935 -0.1293 0.664 
-0.411085 -0.131247 0.674 
-0.386487 -0.133973 0.688 
-0.367813 -0.139036 0.714 
-0.344165 -0.143515 0.737 
-0.326207 -0.15111 0.776 
-0.301251 -0.156952 0.806 
-0.278732 -0.165909 0.852 
-0.2494 -0.173114 0.889 
-0.220127 -0.18324 0.941 
-0.192938 -0.200571 1.03 
-0.151965 -0.210307 1.08 
-0.100661 -0.227054 1.166 
-0.0498878 -0.24458 1.256 
0.00917847 -0.259379 1.332 
0.076346 -0.277878 1.427 
0.174327 -0.310203 1.593 
0.266835 -0.332986 1.71 
0.37876 -0.363948 1.869 
0.57566 -0.444177 2.281 
0.685865 -0.446708 2.294 
0.797627 -0.449434 2.308 
0.907164 -0.450408 2.313 
1.03604 -0.459755 2.361 
1.14997 -0.461313 2.369 
1.27901 -0.468128 2.404 
1.38932 -0.467544 2.401 
1.49936 -0.46696 2.398 
1.63532 -0.47397 2.434 
1.75739 -0.476307 2.446 
1.88134 -0.478838 2.459 
2.01382 -0.483122 2.481 
2.13718 -0.484875 2.49 
2.22247 -0.478254 2.456 
2.4026 -0.49169 2.525 
-0.486983 -0.114553 0.593 
-0.46759 -0.11803 0.611 
-0.455641 -0.122473 0.634 
-0.441547 -0.126916 0.657 
-0.420932 -0.130007 0.673 
-0.394867 -0.132132 0.684 
-0.371477 -0.135223 0.7 
-0.355308 -0.141791 0.734 
-0.333783 -0.147393 0.763 
-0.311899 -0.154154 0.798 
-0.287441 -0.161301 0.835 
-0.25864 -0.167869 0.869 
-0.231942 -0.178494 0.924 
-0.205431 -0.194141 1.005 
-0.168687 -0.206504 1.069 
-0.12278 -0.219447 1.136 
-0.0741955 -0.233162 1.207 
-0.0190663 -0.247844 1.283 
0.0434334 -0.264264 1.368 
0.136709 -0.295944 1.532 
0.224417 -0.319125 1.652 
0.326049 -0.345204 1.787 
0.529589 -0.440633 2.281 
0.638973 -0.442758 2.292 
0.748407 -0.444303 2.3 
0.870863 -0.452223 2.341 
0.977466 -0.451064 2.335 
1.09979 -0.456666 2.364 
1.22482 -0.462268 2.393 
1.33636 -0.462268 2.393 
1.44427 -0.461109 2.387 
1.58811 -0.470768 2.437 
1.71078 -0.473279 2.45 
1.82497 -0.473279 2.45 
1.93363 -0.471927 2.443 
2.07096 -0.477336 2.471 
2.15606 -0.470768 2.437 
2.31342 -0.479847 2.484 
2.44093 -0.482165 2.496 
-0.470616 -0.116889 0.61 
-0.457406 -0.120913 0.631 
-0.442579 -0.12532 0.654 
-0.423438 -0.12877 0.672 
-0.398535 -0.130878 0.683 
-0.374753 -0.133752 0.698 
-0.35987 -0.14065 0.734 
-0.337193 -0.145632 0.76 
-0.314873 -0.151956 0.793 
-0.291578 -0.159429 0.832 
-0.263129 -0.165944 0.866 
-0.23434 -0.174567 0.911 
-0.208096 -0.189322 0.988 
-0.174347 -0.203694 1.063 
-0.131844 -0.215191 1.123 
-0.0839606 -0.227263 1.186 
-0.0306396 -0.242785 1.267 
0.0302771 -0.258689 1.35 
0.0987241 -0.274019 1.43 
0.206613 -0.312918 1.633 
0.30108 -0.33323 1.739 
0.504117 -0.436514 2.278 
0.614046 -0.439197 2.292 
0.722449 -0.440155 2.297 
0.842514 -0.447053 2.333 
0.943101 -0.443221 2.313 
1.07908 -0.455101 2.375 
1.19128 -0.455676 2.378 
1.31636 -0.460658 2.404 
1.43019 -0.461233 2.407 
1.55776 -0.465832 2.431 
1.67313 -0.466407 2.434 
1.79319 -0.468131 2.443 
1.91486 -0.470048 2.453 
2.05733 -0.476563 2.487 
2.15926 -0.473497 2.471 
2.2772 -0.474072 2.474 
2.4486 -0.485186 2.532 
-0.479381 -0.11309 0.595 
-0.462061 -0.119363 0.628 
-0.445932 -0.123544 0.65 
-0.427785 -0.127155 0.669 
-0.403716 -0.129436 0.681 
-0.379075 -0.131907 0.694 
-0.364714 -0.13875 0.73 
-0.34156 -0.143311 0.754 
-0.318608 -0.149013 0.784 
-0.296096 -0.156426 0.823 
-0.267581 -0.164029 0.863 
-0.238158 -0.171821 0.904 
-0.210984 -0.184936 0.973 
-0.17874 -0.199571 1.05 
-0.13734 -0.211165 1.111 
-0.0907152 -0.2239 1.178 
-0.0381489 -0.238535 1.255 
0.0217576 -0.255071 1.342 
0.0896486 -0.271227 1.427 
0.193577 -0.305819 1.609 
0.286267 -0.325966 1.715 
0.490605 -0.433545 2.281 
0.599802 -0.435636 2.292 
0.709716 -0.437536 2.302 
0.825886 -0.442288 2.327 
0.931135 -0.440767 2.319 
1.06566 -0.451981 2.378 
1.17799 -0.452552 2.381 
1.30629 -0.458634 2.413 
1.42229 -0.459774 2.419 
1.54075 -0.461485 2.428 
1.65801 -0.462625 2.434 
1.7831 -0.465666 2.45 
1.91124 -0.469088 2.468 
2.05993 -0.47688 2.509 
2.1656 -0.474409 2.496 
2.28194 -0.474409 2.496 
2.45208 -0.485053 2.552 
-0.482267 -0.111977 0.594 
-0.4623 -0.118198 0.627 
-0.445932 -0.122534 0.65 
-0.428424 -0.126305 0.67 
-0.403716 -0.128378 0.681 
-0.379075 -0.130829 0.694 
-0.364214 -0.137427 0.729 
-0.34156 -0.14214 0.754 
-0.318201 -0.147607 0.783 
-0.296456 -0.155336 0.824 
-0.269323 -0.162122 0.86 
-0.240167 -0.169851 0.901 
-0.212688 -0.182293 0.967 
-0.180442 -0.196243 1.041 
-0.139271 -0.207177 1.099 
-0.093895 -0.220939 1.172 
-0.0417805 -0.235077 1.247 
0.0217089 -0.252421 1.339 
0.0895857 -0.268821 1.426 
0.184227 -0.300303 1.593 
0.277949 -0.322925 1.713 
0.388496 -0.350636 1.86 
0.590404 -0.433017 2.297 
0.701719 -0.435656 2.311 
0.81609 -0.439238 2.33 
0.925883 -0.439804 2.333 
1.05591 -0.448852 2.381 
1.16836 -0.449418 2.384 
1.29504 -0.454885 2.413 
1.41976 -0.458844 2.434 
1.52187 -0.45545 2.416 
1.65275 -0.46054 2.443 
1.78036 -0.464122 2.462 
1.90974 -0.467704 2.481 
2.05885 -0.475433 2.522 
2.17122 -0.474302 2.516 
2.29122 -0.474867 2.519 
2.43732 -0.480523 2.549 
-0.484112 -0.111055 0.594 
-0.463738 -0.11685 0.625 
-0.446889 -0.120963 0.647 
-0.430903 -0.125077 0.669 
-0.40689 -0.12732 0.681 
-0.381208 -0.129377 0.692 
-0.364082 -0.134985 0.722 
-0.341871 -0.13966 0.747 
-0.320207 -0.145642 0.779 
-0.29811 -0.152934 0.818 
-0.272378 -0.160225 0.857 
-0.243282 -0.167704 0.897 
-0.215174 -0.179108 0.958 
-0.183871 -0.19313 1.033 
-0.142817 -0.203226 1.087 
-0.0983404 -0.216874 1.16 
-0.047173 -0.231083 1.236 
0.0111973 -0.24791 1.326 
0.0776822 -0.263801 1.411 
0.163969 -0.292593 1.565 
0.258713 -0.319516 1.709 
0.363119 -0.342886 1.834 
0.564684 -0.428887 2.294 
0.680391 -0.434496 2.324 
0.791768 -0.436179 2.333 
0.910159 -0.440853 2.358 
1.03131 -0.445714 2.384 
1.14243 -0.445714 2.384 
1.27196 -0.452257 2.419 
1.39329 -0.455062 2.434 
1.48817 -0.449453 2.404 
1.63084 -0.458053 2.45 
1.76213 -0.46254 2.474 
1.88959 -0.465532 2.49 
2.02095 -0.469084 2.509 
2.16601 -0.475254 2.542 
2.25484 -0.469084 2.509 
2.3784 -0.470393 2.516 
2.46691 -0.464971 2.487 
-0.465471 -0.114396 0.617 
-0.448745 -0.117548 0.634 
-0.438369 -0.122925 0.663 
-0.416071 -0.12552 0.677 
-0.390195 -0.127375 0.687 
-0.368995 -0.13201 0.712 
-0.346657 -0.136274 0.735 
-0.326501 -0.142949 0.771 
-0.302248 -0.148696 0.802 
-0.279397 -0.156854 0.846 
-0.250744 -0.1639 0.884 
-0.220681 -0.172614 0.931 
-0.192521 -0.187446 1.011 
-0.153739 -0.1982 1.069 
-0.110814 -0.211364 1.14 
-0.0616757 -0.226011 1.219 
-0.00517651 -0.240843 1.299 
0.0589508 -0.256418 1.383 
0.139807 -0.280706 1.514 
0.229829 -0.306663 1.654 
0.328262 -0.327985 1.769 
0.535703 -0.424952 2.292 
0.648421 -0.428846 2.313 
0.760808 -0.431442 2.327 
0.883092 -0.438302 2.364 
0.99538 -0.439229 2.369 
1.1156 -0.443122 2.39 
1.24189 -0.448499 2.419 
1.35464 -0.448499 2.419 
1.46193 -0.44683 2.41 
1.60039 -0.454247 2.45 
1.72298 -0.456472 2.462 
1.85416 -0.460551 2.484 
1.97946 -0.462775 2.496 
2.10419 -0.46463 2.506 
2.22366 -0.465186 2.509 
2.32288 -0.461663 2.49 
2.43894 -0.461663 2.49 
-0.472076 -0.110496 0.601 
-0.457183 -0.11546 0.628 
-0.442902 -0.119505 0.65 
-0.426571 -0.123549 0.672 
-0.401718 -0.125572 0.683 
-0.376924 -0.127962 0.696 
-0.360816 -0.134029 0.729 
-0.338215 -0.139177 0.757 
-0.314536 -0.144509 0.786 
-0.291335 -0.151495 0.824 
-0.263979 -0.158114 0.86 
-0.234828 -0.165836 0.902 
-0.20561 -0.176867 0.962 
-0.175644 -0.19323 1.051 
-0.133646 -0.203893 1.109 
-0.086833 -0.216027 1.175 
-0.0342764 -0.23092 1.256 
0.0257924 -0.245444 1.335 
0.093819 -0.261623 1.423 
0.182724 -0.290488 1.58 
0.279896 -0.317147 1.725 
0.385572 -0.339393 1.846 
0.593231 -0.424333 2.308 
0.705666 -0.427275 2.324 
0.820994 -0.430952 2.344 
0.934614 -0.432974 2.355 
1.0599 -0.439409 2.39 
1.17522 -0.44088 2.398 
1.29343 -0.443086 2.41 
1.4291 -0.45044 2.45 
1.52565 -0.445292 2.422 
1.65952 -0.450992 2.453 
1.79121 -0.455404 2.477 
1.92898 -0.460736 2.506 
2.08089 -0.468642 2.549 
2.19366 -0.467355 2.542 
2.32124 -0.469193 2.552 
2.43732 -0.468642 2.549 
-0.482376 -0.108104 0.593 
-0.466641 -0.111385 0.611 
-0.453221 -0.115213 0.632 
-0.439186 -0.119406 0.655 
-0.421758 -0.123234 0.676 
-0.396022 -0.125057 0.686 
-0.372538 -0.127974 0.702 
-0.354824 -0.133626 0.733 
-0.332161 -0.138912 0.762 
-0.30988 -0.14511 0.796 
-0.285458 -0.151855 0.833 
-0.256994 -0.158236 0.868 
-0.228511 -0.166986 0.916 
-0.197176 -0.177195 0.972 
-0.16562 -0.193237 1.06 
-0.12312 -0.204722 1.123 
-0.0755036 -0.218395 1.198 
-0.0210597 -0.23389 1.283 
0.0408248 -0.246469 1.352 
0.111369 -0.264334 1.45 
0.201202 -0.293502 1.61 
0.296491 -0.315013 1.728 
0.51142 -0.421294 2.311 
0.617529 -0.4202 2.305 
0.729369 -0.422752 2.319 
0.850459 -0.429315 2.355 
0.959003 -0.428768 2.352 
1.08726 -0.436243 2.393 
1.20882 -0.439889 2.413 
1.32293 -0.440436 2.416 
1.44802 -0.444264 2.437 
1.56737 -0.445905 2.446 
1.67932 -0.445358 2.443 
1.81815 -0.451556 2.477 
1.96639 -0.459212 2.519 
2.09455 -0.461582 2.532 
2.20995 -0.461035 2.529 
2.32414 -0.460306 2.525 
2.45537 -0.462858 2.539 
-0.479381 -0.107544 0.595 
-0.465311 -0.110797 0.613 
-0.450276 -0.114231 0.632 
-0.437464 -0.11875 0.657 
-0.419226 -0.122365 0.677 
-0.393397 -0.124172 0.687 
-0.37137 -0.127607 0.706 
-0.351887 -0.132667 0.734 
-0.329144 -0.138451 0.766 
-0.305699 -0.144235 0.798 
-0.282973 -0.152007 0.841 
-0.254788 -0.158876 0.879 
-0.223791 -0.166286 0.92 
-0.191966 -0.177854 0.984 
-0.157682 -0.191952 1.062 
-0.115211 -0.204424 1.131 
-0.0666944 -0.21816 1.207 
-0.00713935 -0.232981 1.289 
0.0564324 -0.248345 1.374 
0.129769 -0.267504 1.48 
0.218896 -0.294616 1.63 
0.315132 -0.314859 1.742 
0.531205 -0.419149 2.319 
0.63764 -0.418065 2.313 
0.753507 -0.422584 2.338 
0.873918 -0.428187 2.369 
0.986831 -0.429271 2.375 
1.10816 -0.433428 2.398 
1.23367 -0.438309 2.425 
1.3467 -0.438309 2.425 
1.46153 -0.438851 2.428 
1.59481 -0.444454 2.459 
1.70942 -0.444454 2.459 
1.84926 -0.450599 2.493 
1.98595 -0.455299 2.519 
2.11172 -0.457106 2.529 
2.23841 -0.458914 2.539 
2.33262 -0.454214 2.513 
2.44293 -0.452949 2.506 
-0.478335 -0.106799 0.596 
-0.464918 -0.110203 0.615 
-0.449731 -0.113608 0.634 
-0.436085 -0.117908 0.658 
-0.417739 -0.121492 0.678 
-0.391832 -0.123284 0.688 
-0.370222 -0.126868 0.708 
-0.34913 -0.131348 0.733 
-0.327191 -0.13744 0.767 
-0.30398 -0.143354 0.8 
-0.281026 -0.151059 0.843 
-0.253204 -0.158227 0.883 
-0.220692 -0.164678 0.919 
-0.190243 -0.176146 0.983 
-0.156032 -0.190302 1.062 
-0.113554 -0.202845 1.132 
-0.0647117 -0.215927 1.205 
-0.00912785 -0.23062 1.287 
0.0541791 -0.245672 1.371 
0.126695 -0.263592 1.471 
0.215169 -0.29047 1.621 
0.312246 -0.311974 1.741 
0.530105 -0.417518 2.33 
0.634047 -0.414471 2.313 
0.751799 -0.420026 2.344 
0.870237 -0.424506 2.369 
0.985624 -0.426656 2.381 
1.10443 -0.429703 2.398 
1.23142 -0.435079 2.428 
1.34459 -0.435079 2.428 
1.46136 -0.436154 2.434 
1.59293 -0.441171 2.462 
1.7056 -0.440633 2.459 
1.8476 -0.447264 2.496 
1.99227 -0.453714 2.532 
2.12112 -0.456044 2.545 
2.23974 -0.456044 2.545 
2.34354 -0.453177 2.529 
2.44877 -0.450847 2.516 
-0.478456 -0.105695 0.595 
-0.464359 -0.108892 0.613 
-0.450005 -0.112445 0.633 
-0.436443 -0.116708 0.657 
-0.418792 -0.120439 0.678 
-0.393472 -0.122393 0.689 
-0.370798 -0.12559 0.707 
-0.347991 -0.130209 0.733 
-0.327191 -0.136249 0.767 
-0.30398 -0.142111 0.8 
-0.281026 -0.149749 0.843 
-0.253491 -0.157032 0.884 
-0.220212 -0.162894 0.917 
-0.189469 -0.173908 0.979 
-0.155739 -0.188297 1.06 
-0.113454 -0.200909 1.131 
-0.0644969 -0.213344 1.201 
-0.00711719 -0.228265 1.285 
0.0563913 -0.243898 1.373 
0.12898 -0.261306 1.471 
0.217688 -0.287952 1.621 
0.315494 -0.309801 1.744 
0.53487 -0.414786 2.335 
0.639294 -0.411944 2.319 
0.758019 -0.417806 2.352 
0.876131 -0.421891 2.375 
0.99431 -0.425089 2.393 
1.10816 -0.425977 2.398 
1.23824 -0.432372 2.434 
1.35336 -0.432905 2.437 
1.46876 -0.433438 2.44 
1.59675 -0.437346 2.462 
1.71568 -0.438412 2.468 
1.85667 -0.444629 2.503 
2.00172 -0.451024 2.539 
2.13343 -0.453866 2.555 
2.24987 -0.453333 2.552 
2.35304 -0.450313 2.535 
2.4556 -0.447471 2.519 
-0.47821 -0.105123 0.597 
-0.463208 -0.108116 0.614 
-0.449453 -0.111814 0.635 
-0.435724 -0.11604 0.659 
-0.4173 -0.119562 0.679 
-0.391899 -0.121499 0.69 
-0.368601 -0.124492 0.707 
-0.346852 -0.12907 0.733 
-0.325999 -0.135057 0.767 
-0.303115 -0.141044 0.801 
-0.279716 -0.148439 0.843 
-0.252402 -0.155835 0.885 
-0.21831 -0.161118 0.915 
-0.185662 -0.173091 0.983 
-0.150513 -0.186298 1.058 
-0.108374 -0.199504 1.133 
-0.058948 -0.211654 1.202 
-0.00312667 -0.226445 1.286 
0.0607461 -0.242117 1.375 
0.133914 -0.259725 1.475 
0.222862 -0.28561 1.622 
0.321649 -0.307796 1.748 
0.547156 -0.412214 2.341 
0.654028 -0.410806 2.333 
0.772905 -0.416264 2.364 
0.890563 -0.419786 2.384 
1.01135 -0.423836 2.407 
1.12074 -0.42278 2.401 
1.24805 -0.428062 2.431 
1.372 -0.431408 2.45 
1.48377 -0.430703 2.446 
1.61019 -0.434049 2.465 
1.73628 -0.436866 2.481 
1.87581 -0.442501 2.513 
2.01038 -0.446375 2.535 
2.16213 -0.453418 2.575 
2.27063 -0.451129 2.562 
2.36486 -0.446375 2.535 
2.47714 -0.445318 2.529 
-0.476354 -0.104195 0.597 
-0.460992 -0.108209 0.62 
-0.446729 -0.111874 0.641 
-0.431809 -0.115889 0.664 
-0.413537 -0.119554 0.685 
-0.386066 -0.12095 0.693 
-0.363464 -0.124266 0.712 
-0.340483 -0.128106 0.734 
-0.32171 -0.134563 0.771 
-0.299858 -0.141196 0.809 
-0.273816 -0.147479 0.845 
-0.246637 -0.155158 0.889 
-0.211894 -0.16022 0.918 
-0.181817 -0.172262 0.987 
-0.145169 -0.18413 1.055 
-0.0996599 -0.197918 1.134 
-0.0499406 -0.211183 1.21 
0.0069115 -0.226018 1.295 
0.0716354 -0.240678 1.379 
0.147836 -0.261797 1.5 
0.239672 -0.288151 1.651 
0.3429 -0.312062 1.788 
0.561705 -0.408577 2.341 
0.673972 -0.410497 2.352 
0.790262 -0.413988 2.372 
0.908797 -0.417653 2.393 
1.02758 -0.42062 2.41 
1.13566 -0.419049 2.401 
1.26004 -0.423238 2.425 
1.39232 -0.429172 2.459 
1.50877 -0.429696 2.462 
1.62749 -0.430743 2.468 
1.76723 -0.436851 2.503 
1.90046 -0.440691 2.525 
2.02614 -0.442436 2.535 
2.19589 -0.453083 2.596 
2.29815 -0.449418 2.575 
2.39657 -0.445403 2.552 
2.49877 -0.442436 2.535 
-0.471926 -0.104132 0.602 
-0.460088 -0.107938 0.624 
-0.441863 -0.111916 0.647 
-0.426342 -0.115895 0.67 
-0.406318 -0.119181 0.689 
-0.379634 -0.120911 0.699 
-0.355991 -0.124025 0.717 
-0.334268 -0.128522 0.743 
-0.315768 -0.135441 0.783 
-0.289972 -0.140631 0.813 
-0.263772 -0.147896 0.855 
-0.235444 -0.155507 0.899 
-0.203229 -0.163291 0.944 
-0.172723 -0.177129 1.024 
-0.126754 -0.191832 1.109 
-0.0791923 -0.202384 1.17 
-0.0207971 -0.219162 1.267 
0.0410664 -0.235249 1.36 
0.110217 -0.248223 1.435 
0.194751 -0.272958 1.578 
0.30518 -0.302192 1.747 
0.531168 -0.409438 2.367 
0.629299 -0.401654 2.322 
0.751821 -0.409438 2.367 
0.868339 -0.412378 2.384 
0.986443 -0.415319 2.401 
1.09607 -0.414454 2.396 
1.23144 -0.422584 2.443 
1.35246 -0.424833 2.456 
1.47052 -0.42587 2.462 
1.58914 -0.426908 2.468 
1.71522 -0.429676 2.484 
1.84722 -0.433481 2.506 
2.0134 -0.444379 2.569 
2.14726 -0.44732 2.586 
2.24674 -0.443168 2.562 
2.39387 -0.448357 2.592 
2.49237 -0.444379 2.569 
-0.479498 -0.101826 0.594 
-0.461501 -0.105083 0.613 
-0.447612 -0.109368 0.638 
-0.433219 -0.113654 0.663 
-0.415059 -0.117254 0.684 
-0.38934 -0.11914 0.695 
-0.36465 -0.121711 0.71 
-0.342297 -0.125654 0.733 
-0.322424 -0.131482 0.767 
-0.300877 -0.137996 0.805 
-0.275787 -0.14451 0.843 
-0.248277 -0.15171 0.885 
-0.213811 -0.156681 0.914 
-0.183198 -0.167652 0.978 
-0.14653 -0.180509 1.053 
-0.101153 -0.19388 1.131 
-0.0461044 -0.20708 1.208 
0.0109693 -0.222679 1.299 
0.0761407 -0.237079 1.383 
0.152904 -0.257821 1.504 
0.260451 -0.291935 1.703 
0.362177 -0.311134 1.815 
0.590802 -0.401303 2.341 
0.710082 -0.407131 2.375 
0.821818 -0.407646 2.378 
0.939717 -0.410731 2.396 
1.05359 -0.411588 2.401 
1.17861 -0.416217 2.428 
1.30135 -0.419302 2.446 
1.43562 -0.425302 2.481 
1.54875 -0.424617 2.477 
1.67093 -0.426331 2.487 
1.80984 -0.431816 2.519 
1.96015 -0.439188 2.562 
2.08768 -0.440902 2.572 
2.23074 -0.44553 2.599 
2.35821 -0.44673 2.606 
2.47968 -0.44673 2.606 
-0.485617 -0.0998836 0.588 
-0.467864 -0.102602 0.604 
-0.457183 -0.106678 0.628 
-0.438848 -0.109906 0.647 
-0.423219 -0.113813 0.67 
-0.403691 -0.11721 0.69 
-0.377453 -0.119079 0.701 
-0.354124 -0.122306 0.72 
-0.332586 -0.126893 0.747 
-0.313314 -0.133518 0.786 
-0.286887 -0.138444 0.815 
-0.261421 -0.145409 0.856 
-0.233168 -0.153053 0.901 
-0.200932 -0.160867 0.947 
-0.168713 -0.173098 1.019 
-0.130734 -0.186687 1.099 
-0.0833435 -0.19569 1.152 
-0.0317331 -0.20945 1.233 
0.0278039 -0.226267 1.332 
0.0952201 -0.239687 1.411 
0.175477 -0.26126 1.538 
0.279305 -0.295234 1.738 
0.377728 -0.309503 1.822 
0.604575 -0.397156 2.338 
0.727589 -0.40497 2.384 
0.840819 -0.405989 2.39 
0.954608 -0.407009 2.396 
1.06985 -0.408368 2.404 
1.1996 -0.414483 2.44 
1.32678 -0.41873 2.465 
1.45279 -0.421957 2.484 
1.56667 -0.421448 2.481 
1.69249 -0.423996 2.496 
1.82549 -0.427903 2.519 
1.9915 -0.438605 2.582 
2.11757 -0.439794 2.589 
2.24429 -0.440983 2.596 
2.39081 -0.445739 2.624 
2.51311 -0.445739 2.624 
-0.48105 -0.09897 0.588 
-0.465647 -0.102 0.606 
-0.454002 -0.105871 0.629 
-0.437512 -0.109069 0.648 
-0.419262 -0.113109 0.672 
-0.398909 -0.116307 0.691 
-0.373069 -0.118326 0.703 
-0.349983 -0.121693 0.723 
-0.328238 -0.126742 0.753 
-0.307934 -0.133138 0.791 
-0.281003 -0.138019 0.82 
-0.256402 -0.145762 0.866 
-0.226515 -0.152831 0.908 
-0.19393 -0.16091 0.956 
-0.162964 -0.175554 1.043 
-0.121804 -0.187 1.111 
-0.073928 -0.197435 1.173 
-0.0206986 -0.212247 1.261 
0.040855 -0.227732 1.353 
0.109986 -0.241029 1.432 
0.19364 -0.264088 1.569 
0.296187 -0.293207 1.742 
0.528239 -0.401771 2.387 
0.62637 -0.393524 2.338 
0.752643 -0.402781 2.393 
0.868154 -0.404633 2.404 
0.981429 -0.405138 2.407 
1.09362 -0.405138 2.407 
1.22385 -0.411197 2.443 
1.35469 -0.416415 2.474 
1.47594 -0.418098 2.484 
1.5898 -0.417593 2.481 
1.72263 -0.421801 2.506 
1.85631 -0.425672 2.529 
2.01557 -0.434593 2.582 
2.15328 -0.438128 2.603 
2.265 -0.436276 2.592 
2.41527 -0.441662 2.624 
2.54434 -0.44284 2.631 
-0.477769 -0.0988903 0.593 
-0.461138 -0.101725 0.61 
-0.44748 -0.105894 0.635 
-0.433219 -0.110564 0.663 
-0.414452 -0.113899 0.683 
-0.392141 -0.116734 0.7 
-0.36465 -0.118402 0.71 
-0.34183 -0.12207 0.732 
-0.321163 -0.127407 0.764 
-0.299382 -0.133577 0.801 
-0.276114 -0.140748 0.844 
-0.246594 -0.146584 0.879 
-0.214045 -0.152588 0.915 
-0.182261 -0.16226 0.973 
-0.148588 -0.176101 1.056 
-0.105672 -0.187275 1.123 
-0.0565106 -0.198448 1.19 
-0.00112777 -0.21429 1.285 
0.0627452 -0.228798 1.372 
0.135375 -0.244474 1.466 
0.225243 -0.270322 1.621 
0.323623 -0.290834 1.744 
0.557381 -0.395061 2.369 
0.667237 -0.394727 2.367 
0.786105 -0.399063 2.393 
0.90402 -0.401898 2.41 
1.02774 -0.406401 2.437 
1.12306 -0.399897 2.398 
1.25028 -0.4049 2.428 
1.39658 -0.414739 2.487 
1.51798 -0.41624 2.496 
1.62646 -0.414239 2.484 
1.7759 -0.422243 2.532 
1.94179 -0.432916 2.596 
2.03816 -0.427746 2.565 
2.19809 -0.435751 2.613 
2.2897 -0.430081 2.579 
2.4585 -0.438753 2.631 
2.61939 -0.445256 2.67 
-0.471578 -0.098795 0.598 
-0.456941 -0.103256 0.625 
-0.440815 -0.106395 0.644 
-0.42236 -0.110194 0.667 
-0.404763 -0.113994 0.69 
-0.379622 -0.116142 0.703 
-0.354256 -0.11862 0.718 
-0.332406 -0.122916 0.744 
-0.313335 -0.129359 0.783 
-0.288153 -0.134645 0.815 
-0.26081 -0.141089 0.854 
-0.232133 -0.148193 0.897 
-0.200084 -0.155792 0.943 
-0.165162 -0.166366 1.007 
-0.129144 -0.18173 1.1 
-0.080387 -0.191808 1.161 
-0.0206822 -0.208163 1.26 
0.0471963 -0.223693 1.354 
0.117313 -0.237901 1.44 
0.203003 -0.261856 1.585 
0.301686 -0.285316 1.727 
0.54072 -0.395345 2.393 
0.642719 -0.389563 2.358 
0.766351 -0.396667 2.401 
0.884846 -0.399641 2.419 
1.00007 -0.400632 2.425 
1.10759 -0.398649 2.413 
1.23523 -0.403606 2.443 
1.37009 -0.409884 2.481 
1.49471 -0.412362 2.496 
1.60717 -0.411371 2.49 
1.74538 -0.416657 2.522 
1.89765 -0.424422 2.569 
2.02524 -0.426074 2.579 
2.17706 -0.432352 2.617 
2.28938 -0.430535 2.606 
2.43027 -0.434004 2.627 
2.59159 -0.440613 2.667 
-0.471853 -0.0975386 0.596 
-0.458761 -0.100975 0.617 
-0.445335 -0.104576 0.639 
-0.431158 -0.108504 0.663 
-0.41233 -0.111777 0.683 
-0.391637 -0.11505 0.703 
-0.363464 -0.116523 0.712 
-0.340019 -0.119959 0.733 
-0.318372 -0.124869 0.763 
-0.297634 -0.131415 0.803 
-0.27414 -0.138452 0.846 
-0.243308 -0.143526 0.877 
-0.212125 -0.150399 0.919 
-0.172966 -0.161855 0.989 
-0.136312 -0.178221 1.089 
-0.0884819 -0.18804 1.149 
-0.0366594 -0.197368 1.206 
0.0384378 -0.219625 1.342 
0.107009 -0.232718 1.422 
0.190106 -0.255302 1.56 
0.290448 -0.282142 1.724 
0.530673 -0.392446 2.398 
0.631728 -0.385899 2.358 
0.75799 -0.394409 2.41 
0.876821 -0.397355 2.428 
0.987545 -0.396373 2.422 
1.10043 -0.396373 2.422 
1.22535 -0.400301 2.446 
1.35633 -0.405374 2.477 
1.48723 -0.409629 2.503 
1.60198 -0.409138 2.5 
1.73569 -0.41323 2.525 
1.88054 -0.419285 2.562 
2.01869 -0.423213 2.586 
2.16487 -0.428286 2.617 
2.28685 -0.428286 2.617 
2.42447 -0.431068 2.634 
2.57529 -0.435814 2.663 
-0.471717 -0.0967747 0.597 
-0.457139 -0.100503 0.62 
-0.442745 -0.103907 0.641 
-0.427682 -0.107636 0.664 
-0.409878 -0.111202 0.686 
-0.387819 -0.11412 0.704 
-0.359544 -0.115579 0.713 
-0.336837 -0.119307 0.736 
-0.314863 -0.12417 0.766 
-0.295559 -0.131464 0.811 
-0.270153 -0.137786 0.85 
-0.238671 -0.142649 0.88 
-0.207986 -0.150106 0.926 
-0.174971 -0.159346 0.983 
-0.139311 -0.173935 1.073 
-0.0948737 -0.184796 1.14 
-0.0438614 -0.194198 1.198 
0.0233274 -0.21284 1.313 
0.0900631 -0.22678 1.399 
0.169366 -0.247367 1.526 
0.267916 -0.275573 1.7 
0.365532 -0.290162 1.79 
0.611298 -0.383208 2.364 
0.736439 -0.391151 2.413 
0.852076 -0.39261 2.422 
0.962576 -0.391638 2.416 
1.08186 -0.394069 2.431 
1.20255 -0.396501 2.446 
1.33324 -0.401526 2.477 
1.46975 -0.407362 2.513 
1.58688 -0.407362 2.513 
1.71486 -0.409955 2.529 
1.85448 -0.414818 2.559 
2.01309 -0.423085 2.61 
2.14292 -0.424706 2.62 
2.25899 -0.423572 2.613 
2.39718 -0.42649 2.631 
2.55717 -0.432812 2.67 
-0.477186 -0.0947233 0.59 
-0.458438 -0.0985765 0.614 
-0.44592 -0.102269 0.637 
-0.432565 -0.106283 0.662 
-0.413845 -0.109494 0.682 
-0.394942 -0.113186 0.705 
-0.365677 -0.11431 0.712 
-0.34183 -0.117521 0.732 
-0.319481 -0.122016 0.76 
-0.296765 -0.127475 0.794 
-0.275787 -0.135342 0.843 
-0.24435 -0.139837 0.871 
-0.214045 -0.146901 0.915 
-0.178869 -0.155892 0.971 
-0.143938 -0.16986 1.058 
-0.101064 -0.181419 1.13 
-0.0510925 -0.191534 1.193 
0.00486165 -0.206304 1.285 
0.0692913 -0.220754 1.375 
0.142014 -0.235042 1.464 
0.235097 -0.262817 1.637 
0.332322 -0.280477 1.747 
0.578701 -0.382265 2.381 
0.694604 -0.384994 2.398 
0.812429 -0.387884 2.416 
0.928485 -0.389329 2.425 
1.05225 -0.393343 2.45 
1.14598 -0.386439 2.407 
1.27698 -0.392219 2.443 
1.42672 -0.402333 2.506 
1.55338 -0.404902 2.522 
1.66696 -0.403939 2.516 
1.81685 -0.411324 2.562 
2.00202 -0.425292 2.649 
2.09098 -0.418388 2.606 
2.22179 -0.420154 2.617 
2.33392 -0.418388 2.606 
2.52605 -0.430429 2.681 
2.67672 -0.434603 2.707 
-0.462233 -0.0960326 0.604 
-0.45061 -0.0996895 0.627 
-0.436133 -0.104141 0.655 
-0.417368 -0.107162 0.674 
-0.398551 -0.11066 0.696 
-0.371896 -0.112409 0.707 
-0.347093 -0.115112 0.724 
-0.325033 -0.119405 0.751 
-0.303931 -0.125129 0.787 
-0.277857 -0.130693 0.822 
-0.250908 -0.136894 0.861 
-0.222038 -0.144208 0.907 
-0.188579 -0.152476 0.959 
-0.15694 -0.168057 1.057 
-0.113174 -0.176643 1.111 
-0.0651472 -0.187454 1.179 
-0.0109632 -0.201605 1.268 
0.0512138 -0.214483 1.349 
0.122041 -0.229429 1.443 
0.208846 -0.253119 1.592 
0.304919 -0.272675 1.715 
0.555103 -0.382699 2.407 
0.663413 -0.380473 2.393 
0.784342 -0.385084 2.422 
0.905012 -0.388423 2.443 
1.0218 -0.389536 2.45 
1.12579 -0.386038 2.428 
1.25172 -0.390013 2.453 
1.38165 -0.394465 2.481 
1.52807 -0.402574 2.532 
1.63113 -0.398917 2.509 
1.78013 -0.406231 2.555 
1.94753 -0.416565 2.62 
2.04516 -0.411636 2.589 
2.21018 -0.420063 2.642 
2.30506 -0.414975 2.61 
2.48994 -0.425787 2.678 
2.64698 -0.431034 2.711 
-0.471985 -0.0936772 0.595 
-0.457692 -0.0965111 0.613 
-0.443049 -0.100762 0.64 
-0.428068 -0.104383 0.663 
-0.409745 -0.107689 0.684 
-0.390018 -0.111153 0.706 
-0.361157 -0.112413 0.714 
-0.337062 -0.115561 0.734 
-0.314815 -0.120127 0.763 
-0.293373 -0.12674 0.805 
-0.270789 -0.134139 0.852 
-0.237315 -0.137761 0.875 
-0.207762 -0.145633 0.925 
-0.173903 -0.15382 0.977 
-0.137387 -0.168619 1.071 
-0.0935925 -0.180427 1.146 
-0.0421053 -0.189086 1.201 
0.0149133 -0.203256 1.291 
0.0804381 -0.21774 1.383 
0.155901 -0.234272 1.488 
0.253112 -0.263241 1.672 
0.349656 -0.27804 1.766 
0.596489 -0.376755 2.393 
0.713945 -0.379904 2.413 
0.831553 -0.382266 2.428 
0.94589 -0.382738 2.431 
1.06574 -0.3851 2.446 
1.17251 -0.382738 2.431 
1.3038 -0.388091 2.465 
1.44805 -0.396121 2.516 
1.57963 -0.399742 2.539 
1.69998 -0.400214 2.542 
1.83778 -0.404465 2.569 
2.01848 -0.41706 2.649 
2.13629 -0.415958 2.642 
2.23463 -0.411392 2.613 
2.37897 -0.415328 2.638 
2.55314 -0.42383 2.692 
2.6826 -0.42446 2.696 
-0.460178 -0.0943116 0.605 
-0.447161 -0.0980529 0.629 
-0.429952 -0.102574 0.658 
-0.413239 -0.106159 0.681 
-0.394942 -0.1099 0.705 
-0.36619 -0.111147 0.713 
-0.34183 -0.114109 0.732 
-0.318641 -0.118162 0.758 
-0.295644 -0.123307 0.791 
-0.27414 -0.13188 0.846 
-0.241366 -0.135622 0.87 
-0.211433 -0.142792 0.916 
-0.178501 -0.151054 0.969 
-0.139986 -0.164149 1.053 
-0.0980707 -0.177088 1.136 
-0.0475443 -0.186597 1.197 
0.00884082 -0.200003 1.283 
0.0736174 -0.2145 1.376 
0.146963 -0.228842 1.468 
0.24077 -0.255811 1.641 
0.337751 -0.272335 1.747 
0.58502 -0.37522 2.407 
0.698949 -0.376155 2.413 
0.81949 -0.379897 2.437 
0.935377 -0.380832 2.443 
1.05612 -0.383326 2.459 
1.15597 -0.378494 2.428 
1.28692 -0.383794 2.462 
1.42843 -0.39112 2.509 
1.57001 -0.397356 2.549 
1.67954 -0.395173 2.535 
1.82607 -0.401409 2.575 
2.00731 -0.414036 2.656 
2.11666 -0.41123 2.638 
2.23368 -0.410139 2.631 
2.36616 -0.411853 2.642 
2.54772 -0.421518 2.704 
2.68463 -0.423233 2.715 
-0.460178 -0.0933716 0.605 
-0.446184 -0.0970756 0.629 
-0.430319 -0.101397 0.657 
-0.413688 -0.104947 0.68 
-0.395475 -0.108651 0.704 
-0.367298 -0.11004 0.713 
-0.342967 -0.112972 0.732 
-0.319396 -0.11683 0.757 
-0.296122 -0.121769 0.789 
-0.273481 -0.128405 0.832 
-0.244857 -0.133961 0.868 
-0.213343 -0.140752 0.912 
-0.180763 -0.148932 0.965 
-0.141898 -0.16097 1.043 
-0.0994842 -0.174705 1.132 
-0.0493628 -0.184583 1.196 
0.00682077 -0.197238 1.278 
0.0711679 -0.211437 1.37 
0.144288 -0.225944 1.464 
0.239596 -0.252026 1.633 
0.337171 -0.269157 1.744 
0.587208 -0.372869 2.416 
0.700687 -0.373332 2.419 
0.821508 -0.377036 2.443 
0.938057 -0.378117 2.45 
1.05741 -0.379969 2.462 
1.16169 -0.376573 2.44 
1.29162 -0.381358 2.471 
1.43071 -0.38784 2.513 
1.57371 -0.394322 2.555 
1.68418 -0.392315 2.542 
1.8289 -0.398026 2.579 
2.00731 -0.409909 2.656 
2.12549 -0.408829 2.649 
2.23622 -0.406514 2.634 
2.3787 -0.409909 2.656 
2.55055 -0.41778 2.707 
2.68463 -0.419015 2.715 
-0.465379 -0.0919733 0.602 
-0.450393 -0.0953345 0.624 
-0.434135 -0.0996123 0.652 
-0.41613 -0.102668 0.672 
-0.397978 -0.106182 0.695 
-0.374526 -0.108779 0.712 
-0.346613 -0.11046 0.723 
-0.3246 -0.114585 0.75 
-0.302772 -0.119779 0.784 
-0.275738 -0.124057 0.812 
-0.252246 -0.131543 0.861 
-0.222708 -0.138113 0.904 
-0.191958 -0.146821 0.961 
-0.156813 -0.156446 1.024 
-0.112257 -0.168363 1.102 
-0.0650919 -0.179974 1.178 
-0.0107816 -0.190516 1.247 
0.050948 -0.20503 1.342 
0.121957 -0.220308 1.442 
0.206354 -0.240322 1.573 
0.304385 -0.261559 1.712 
0.554449 -0.372324 2.437 
0.663926 -0.370032 2.422 
0.784514 -0.373699 2.446 
0.906604 -0.37706 2.468 
1.01915 -0.376143 2.462 
