# .PCD v.7 - Point Cloud Data file format
VERSION .7
FIELDS x y z
SIZE 4 4 4
TYPE F F F
COUNT 1 1 1
WIDTH 1942
HEIGHT 1
VIEWPOINT 0 0 0 1 0 0 0
POINTS 1942
DATA ascii
0.382945 0.368084 1.413 
1.87828 1.51089 5.8 
1.93116 1.35798 5.213 
2.45566 1.53381 5.888 
2.60444 1.46322 5.617 
3.11731 1.59138 6.109 
3.55743 1.66406 6.388 
4.13942 1.78676 6.859 
4.53844 1.81854 6.981 
4.4653 1.66953 6.409 
5.60173 1.95087 7.489 
2.8461 0.901324 3.46 
2.85091 0.854435 3.28 
2.90581 0.826561 3.173 
2.99596 0.810931 3.113 
-0.441416 0.144129 0.55 
-0.426117 0.148321 0.566 
-0.411036 0.152514 0.582 
-0.395122 0.156969 0.599 
-0.377624 0.161424 0.616 
-0.355546 0.167713 0.64 
-0.335385 0.172692 0.659 
-0.304669 0.172692 0.659 
-0.282267 0.177933 0.679 
-0.259477 0.184223 0.703 
-0.235094 0.191036 0.729 
-0.209116 0.198635 0.758 
-0.180893 0.206759 0.789 
-0.150145 0.215407 0.822 
-0.117001 0.225365 0.86 
-0.0795991 0.233226 0.89 
-0.039829 0.243708 0.93 
0.00370015 0.256287 0.978 
0.0524598 0.272796 1.041 
0.107286 0.28983 1.106 
0.168316 0.307125 1.172 
0.238732 0.328875 1.255 
0.320438 0.354556 1.353 
0.401358 0.371066 1.416 
1.96479 1.53825 5.87 
2.02561 1.39202 5.312 
2.55051 1.56183 5.96 
2.65794 1.46775 5.601 
3.16395 1.59092 6.071 
3.6269 1.67399 6.388 
4.24351 1.80999 6.907 
4.73268 1.87629 7.16 
5.78974 2.1255 8.111 
6.24536 2.15223 8.213 
2.81845 0.887832 3.388 
2.83844 0.84669 3.231 
2.87988 0.815768 3.113 
3.01526 0.813147 3.103 
-0.438669 0.145774 0.553 
-0.423071 0.149992 0.569 
-0.407701 0.154209 0.585 
-0.391489 0.158691 0.602 
-0.374297 0.163436 0.62 
-0.352217 0.169498 0.643 
-0.331268 0.174243 0.661 
-0.300913 0.174507 0.662 
-0.278624 0.180043 0.683 
-0.255461 0.186369 0.707 
-0.231319 0.19375 0.735 
-0.203496 0.200077 0.759 
-0.175649 0.209039 0.793 
-0.142655 0.216947 0.823 
-0.108604 0.22591 0.857 
-0.0719434 0.236718 0.898 
-0.0314946 0.247789 0.94 
0.0129089 0.259652 0.985 
0.0624627 0.275732 1.046 
0.118341 0.293393 1.113 
0.181994 0.313691 1.19 
0.252227 0.333198 1.264 
0.336004 0.359822 1.365 
0.417779 0.376165 1.427 
2.01951 1.54737 5.87 
2.21967 1.49781 5.682 
2.59776 1.56608 5.941 
2.81515 1.53366 5.818 
3.27094 1.62539 6.166 
3.79841 1.73505 6.582 
4.32349 1.82731 6.932 
4.85305 1.90851 7.24 
5.56738 2.0208 7.666 
2.92059 0.96137 3.647 
2.81686 0.876225 3.324 
2.84662 0.839321 3.184 
2.92824 0.820605 3.113 
3.07334 0.820605 3.113 
-0.433006 0.148224 0.559 
-0.417143 0.151936 0.573 
-0.401338 0.156179 0.589 
-0.38531 0.160952 0.607 
-0.367016 0.165459 0.624 
-0.346366 0.171558 0.647 
-0.322563 0.175005 0.66 
-0.294011 0.176331 0.665 
-0.272112 0.18243 0.688 
-0.248767 0.189059 0.713 
-0.223695 0.196218 0.74 
-0.194829 0.202051 0.762 
-0.167256 0.212127 0.8 
-0.133713 0.220347 0.831 
-0.0993233 0.230423 0.869 
-0.0609172 0.238643 0.9 
-0.0201692 0.253757 0.957 
0.0257136 0.267015 1.007 
0.0761853 0.280008 1.056 
0.134075 0.299365 1.129 
0.201085 0.322434 1.216 
0.273237 0.34179 1.289 
0.358142 0.367246 1.385 
1.96376 1.67209 6.306 
1.93332 1.43186 5.4 
2.42617 1.5899 5.996 
2.6172 1.53792 5.8 
3.02246 1.60978 6.071 
3.57168 1.73945 6.56 
3.97024 1.78108 6.717 
4.45167 1.85108 6.981 
4.82906 1.87123 7.057 
5.92018 2.08999 7.882 
2.8555 0.922224 3.478 
2.85536 0.872639 3.291 
2.92922 0.849571 3.204 
2.97671 0.821464 3.098 
-0.441466 0.146425 0.549 
-0.424486 0.150693 0.565 
-0.410131 0.155227 0.582 
-0.392875 0.159228 0.597 
-0.376056 0.164029 0.615 
-0.356993 0.168563 0.632 
-0.339455 0.174697 0.655 
-0.309397 0.174964 0.656 
-0.285196 0.178964 0.671 
-0.263759 0.185899 0.697 
-0.240231 0.1931 0.724 
-0.214471 0.200568 0.752 
-0.184907 0.206703 0.775 
-0.155696 0.216304 0.811 
-0.125163 0.22964 0.861 
-0.0866119 0.233907 0.877 
-0.0480813 0.245909 0.922 
-0.00535036 0.257645 0.966 
0.0421395 0.273648 1.026 
0.0953102 0.289917 1.087 
0.153227 0.30432 1.141 
0.223234 0.329124 1.234 
0.301682 0.353662 1.326 
0.383772 0.373398 1.4 
2.03209 1.66562 6.245 
1.94447 1.39411 5.227 
2.45015 1.56107 5.853 
2.61317 1.49813 5.617 
3.06897 1.59921 5.996 
3.68798 1.76137 6.604 
4.25415 1.87526 7.031 
4.77085 1.95261 7.321 
4.70639 1.79765 6.74 
6.44785 2.25693 8.462 
2.81259 0.906824 3.4 
2.8662 0.874819 3.28 
2.90219 0.840946 3.153 
2.98629 0.82361 3.088 
-0.435081 0.148888 0.555 
-0.419535 0.152644 0.569 
-0.404065 0.156936 0.585 
-0.389036 0.162033 0.604 
-0.371041 0.166594 0.621 
-0.352563 0.171691 0.64 
-0.331809 0.17652 0.658 
-0.30297 0.177593 0.662 
-0.279513 0.182421 0.68 
-0.256929 0.189128 0.705 
-0.232332 0.196103 0.731 
-0.205583 0.203346 0.758 
-0.176092 0.213272 0.795 
-0.143584 0.220247 0.821 
-0.108477 0.229636 0.856 
-0.0715428 0.239562 0.893 
-0.0315281 0.252439 0.941 
0.0128433 0.262901 0.98 
0.0620447 0.278729 1.039 
0.117916 0.297508 1.109 
0.179853 0.315482 1.176 
0.251429 0.338016 1.26 
0.33305 0.362965 1.353 
0.416022 0.381207 1.421 
2.07217 1.60853 5.996 
2.23516 1.52885 5.699 
2.6557 1.62355 6.052 
2.86691 1.58438 5.906 
3.28052 1.65413 6.166 
3.92725 1.82073 6.787 
4.41242 1.89316 7.057 
4.97448 1.98625 7.404 
5.6299 2.09758 7.819 
6.72035 2.35163 8.766 
2.79824 0.904059 3.37 
2.87639 0.879915 3.28 
2.89813 0.841821 3.138 
2.98618 0.825725 3.078 
-0.434138 0.15002 0.556 
-0.418501 0.153798 0.57 
-0.402935 0.158115 0.586 
-0.386221 0.162972 0.604 
-0.369332 0.168098 0.623 
-0.350126 0.172955 0.641 
-0.329242 0.177812 0.659 
-0.30079 0.179161 0.664 
-0.277562 0.184287 0.683 
-0.254722 0.191033 0.708 
-0.229238 0.197509 0.732 
-0.202316 0.204794 0.759 
-0.17282 0.215047 0.797 
-0.139587 0.221253 0.82 
-0.104731 0.231506 0.858 
-0.067456 0.241219 0.894 
-0.0273151 0.25552 0.947 
0.0175355 0.266313 0.987 
0.067145 0.281423 1.043 
0.123529 0.30031 1.113 
0.187541 0.321086 1.19 
0.258118 0.341053 1.264 
0.34036 0.366146 1.357 
0.423835 0.384494 1.425 
2.07825 1.60813 5.96 
2.31375 1.57926 5.853 
2.6829 1.63808 6.071 
2.92923 1.61784 5.996 
3.33125 1.67963 6.225 
3.96231 1.83775 6.811 
4.43435 1.90412 7.057 
4.97859 1.9902 7.376 
5.59895 2.08463 7.726 
6.76121 2.36525 8.766 
2.79976 0.904708 3.353 
2.88639 0.883392 3.274 
2.89883 0.842649 3.123 
2.99176 0.828079 3.069 
-0.432232 0.151427 0.558 
-0.416087 0.155769 0.574 
-0.399507 0.159839 0.589 
-0.382166 0.164995 0.608 
-0.364884 0.170152 0.627 
-0.345831 0.175308 0.646 
-0.321586 0.178564 0.658 
-0.294895 0.181007 0.667 
-0.271716 0.186434 0.687 
-0.248767 0.19349 0.713 
-0.223695 0.200817 0.74 
-0.19534 0.20733 0.764 
-0.165598 0.216557 0.798 
-0.133391 0.224969 0.829 
-0.0989804 0.23501 0.866 
-0.0606464 0.243151 0.896 
-0.020127 0.259162 0.955 
0.0255349 0.271374 1 
0.0756803 0.284671 1.049 
0.132769 0.303396 1.118 
0.199596 0.327548 1.207 
0.270693 0.346545 1.277 
0.353229 0.370697 1.366 
2.07057 1.80437 6.649 
2.04037 1.54656 5.699 
2.44114 1.6372 6.033 
2.66504 1.60274 5.906 
2.98512 1.62716 5.996 
3.5597 1.77424 6.538 
4.0258 1.84833 6.811 
4.54923 1.93598 7.134 
4.97276 1.97208 7.267 
5.75138 2.12187 7.819 
6.34422 2.20111 8.111 
2.82703 0.905304 3.336 
2.86987 0.871111 3.21 
2.90943 0.83936 3.093 
3.05853 0.840717 3.098 
-0.429532 0.152567 0.559 
-0.413239 0.156933 0.575 
-0.397191 0.1613 0.591 
-0.378356 0.166759 0.611 
-0.360185 0.171672 0.629 
-0.341387 0.17713 0.649 
-0.314014 0.178768 0.655 
-0.289543 0.182589 0.669 
-0.266857 0.188593 0.691 
-0.243818 0.195962 0.718 
-0.219434 0.204423 0.749 
-0.189203 0.209608 0.768 
-0.159399 0.217796 0.798 
-0.128789 0.229532 0.841 
-0.0914323 0.23772 0.871 
-0.0528775 0.247273 0.906 
-0.011295 0.262284 0.961 
0.0371752 0.278659 1.021 
0.0881682 0.289849 1.062 
0.145187 0.305679 1.12 
0.216425 0.335155 1.228 
0.291267 0.356717 1.307 
0.372397 0.377186 1.382 
2.17995 1.84608 6.764 
1.98098 1.46562 5.37 
2.44651 1.607 5.888 
2.59572 1.53304 5.617 
2.98624 1.60209 5.87 
3.78241 1.85891 6.811 
4.263 1.93287 7.082 
4.7481 1.9981 7.321 
4.88774 1.91895 7.031 
6.24886 2.28959 8.389 
2.91092 0.98254 3.6 
2.84268 0.907212 3.324 
2.89931 0.877463 3.215 
2.92397 0.841436 3.083 
3.11743 0.855083 3.133 
-0.42856 0.15371 0.56 
-0.413239 0.157827 0.575 
-0.397191 0.162219 0.591 
-0.378356 0.167708 0.611 
-0.360185 0.172649 0.629 
-0.341387 0.178138 0.649 
-0.314493 0.18006 0.656 
-0.289543 0.183628 0.669 
-0.266857 0.189667 0.691 
-0.243818 0.197078 0.718 
-0.219141 0.205312 0.748 
-0.189203 0.210802 0.768 
-0.159399 0.219036 0.798 
-0.128636 0.230564 0.84 
-0.0926791 0.238799 0.87 
-0.0541054 0.247857 0.903 
-0.0127881 0.263777 0.961 
0.0355541 0.279971 1.02 
0.0861108 0.290127 1.057 
0.143063 0.306596 1.117 
0.213818 0.335965 1.224 
0.287688 0.356826 1.3 
0.36891 0.377961 1.377 
2.15277 1.86949 6.811 
2.04916 1.55082 5.65 
2.4619 1.65101 6.015 
2.64424 1.59199 5.8 
2.97639 1.62575 5.923 
3.67583 1.83738 6.694 
4.12963 1.90271 6.932 
4.63323 1.97983 7.213 
4.95152 1.9727 7.187 
5.86907 2.19009 7.979 
2.8725 0.982643 3.58 
2.83221 0.91567 3.336 
2.86948 0.879439 3.204 
2.90953 0.847599 3.088 
3.07323 0.853088 3.108 
-0.431365 0.154028 0.558 
-0.416253 0.158168 0.573 
-0.399063 0.162033 0.587 
-0.381222 0.167829 0.608 
-0.36391 0.173074 0.627 
-0.344828 0.178319 0.646 
-0.319589 0.181079 0.656 
-0.293418 0.183839 0.666 
-0.271043 0.189912 0.688 
-0.246964 0.196261 0.711 
-0.222546 0.204266 0.74 
-0.194407 0.211167 0.765 
-0.165391 0.22 0.797 
-0.133391 0.228833 0.829 
-0.0988661 0.23877 0.865 
-0.0607141 0.247603 0.897 
-0.020106 0.263337 0.954 
0.0254583 0.275207 0.997 
0.0787141 0.288733 1.046 
0.135633 0.307227 1.113 
0.202505 0.331794 1.202 
0.275737 0.353877 1.282 
0.360122 0.377616 1.368 
2.11355 1.87345 6.787 
2.14025 1.65014 5.978 
2.46421 1.68105 6.09 
2.68083 1.63992 5.941 
2.97616 1.65014 5.978 
3.52431 1.78678 6.473 
4.03998 1.8867 6.835 
4.59961 1.99104 7.213 
5.00971 2.02085 7.321 
5.80776 2.19337 7.946 
6.90821 2.45257 8.885 
2.81569 0.922233 3.341 
2.88337 0.894906 3.242 
2.89969 0.855157 3.098 
3.01069 0.845771 3.064 
-0.433357 0.154062 0.555 
-0.417767 0.157948 0.569 
-0.402248 0.162389 0.585 
-0.385236 0.166831 0.601 
-0.369111 0.172383 0.621 
-0.349478 0.177102 0.638 
-0.329263 0.182376 0.657 
-0.301822 0.184319 0.664 
-0.279032 0.189871 0.684 
-0.254738 0.1957 0.705 
-0.228802 0.201807 0.727 
-0.202959 0.210135 0.757 
-0.175428 0.21985 0.792 
-0.14201 0.225402 0.812 
-0.109037 0.23595 0.85 
-0.0720319 0.244833 0.882 
-0.0328148 0.259823 0.936 
0.011263 0.270649 0.975 
0.0631075 0.285916 1.03 
0.118452 0.304792 1.098 
0.179054 0.321725 1.159 
0.254191 0.350872 1.264 
0.343815 0.375855 1.354 
0.427061 0.394454 1.421 
2.17066 1.72799 6.225 
2.35605 1.65443 5.96 
2.76863 1.73909 6.265 
2.92923 1.66442 5.996 
3.27934 1.70106 6.128 
3.97627 1.89732 6.835 
4.48273 1.98032 7.134 
5.09401 2.09496 7.547 
5.7106 2.19684 7.914 
7.39692 2.6729 9.629 
2.80515 0.92909 3.347 
2.9063 0.911879 3.285 
2.90388 0.865522 3.118 
2.98271 0.846646 3.05 
-0.433587 0.154087 0.552 
-0.418942 0.158274 0.567 
-0.40359 0.16274 0.583 
-0.383369 0.167765 0.601 
-0.367773 0.173627 0.622 
-0.348041 0.178372 0.639 
-0.32772 0.183676 0.658 
-0.299759 0.185351 0.664 
-0.277716 0.191492 0.686 
-0.252906 0.197075 0.706 
-0.226543 0.202937 0.727 
-0.201137 0.211869 0.759 
-0.173185 0.22136 0.793 
-0.139487 0.226664 0.812 
-0.106521 0.23755 0.851 
-0.0696055 0.24732 0.886 
-0.0300022 0.262115 0.939 
0.0143513 0.27328 0.979 
0.064645 0.287238 1.029 
0.120158 0.306498 1.098 
0.181635 0.324922 1.164 
0.256763 0.353673 1.267 
0.340449 0.376563 1.349 
0.423358 0.395266 1.416 
2.16793 1.74324 6.245 
2.30466 1.63382 5.853 
2.78576 1.76586 6.326 
2.88436 1.65336 5.923 
3.24955 1.69998 6.09 
3.96565 1.90794 6.835 
4.43905 1.97689 7.082 
5.12202 2.12316 7.606 
5.6983 2.20913 7.914 
7.53069 2.74202 9.823 
2.79475 0.93429 3.347 
2.91108 0.921728 3.302 
2.90348 0.873158 3.128 
2.97324 0.851385 3.05 
-0.43458 0.154383 0.55 
-0.420097 0.158593 0.565 
-0.404913 0.163084 0.581 
-0.384595 0.168418 0.6 
-0.368517 0.174032 0.62 
-0.348931 0.178803 0.637 
-0.328762 0.184137 0.656 
-0.301367 0.186102 0.663 
-0.279847 0.192558 0.686 
-0.254377 0.19761 0.704 
-0.228487 0.203785 0.726 
-0.202691 0.212206 0.756 
-0.174985 0.22175 0.79 
-0.141486 0.227083 0.809 
-0.108781 0.23803 0.848 
-0.0718686 0.247013 0.88 
-0.0326745 0.261609 0.932 
0.011263 0.273679 0.975 
0.0611489 0.287433 1.024 
0.115895 0.305959 1.09 
0.17603 0.323081 1.151 
0.251828 0.354239 1.262 
0.329358 0.375571 1.338 
0.411338 0.394378 1.405 
2.11582 1.742 6.206 
2.09272 1.51576 5.4 
2.74644 1.77568 6.326 
2.71631 1.58593 5.65 
3.17214 1.68839 6.015 
3.9094 1.91182 6.811 
4.36339 1.97357 7.031 
5.15481 2.16866 7.726 
5.42927 2.13497 7.606 
7.54569 2.78535 9.923 
2.79824 0.945946 3.37 
2.90533 0.929946 3.313 
2.90275 0.882228 3.143 
2.9629 0.857246 3.054 
-0.435434 0.155237 0.55 
-0.42023 0.159189 0.564 
-0.405118 0.163705 0.58 
-0.389165 0.168503 0.597 
-0.371628 0.173301 0.614 
-0.35264 0.178664 0.633 
-0.332835 0.184027 0.652 
-0.30662 0.186567 0.661 
-0.284991 0.192777 0.683 
-0.258345 0.196728 0.697 
-0.234931 0.204631 0.725 
-0.207185 0.21197 0.751 
-0.179288 0.220719 0.782 
-0.146857 0.226929 0.804 
-0.114824 0.238219 0.844 
-0.0780787 0.246404 0.873 
-0.0392723 0.258823 0.917 
0.00365475 0.272653 0.966 
0.0513512 0.287613 1.019 
0.104085 0.302854 1.073 
0.160561 0.315555 1.118 
0.23759 0.35253 1.249 
0.312385 0.372287 1.319 
0.395123 0.393456 1.394 
2.25859 1.9224 6.811 
1.96636 1.46742 5.199 
2.58721 1.7189 6.09 
2.60329 1.55858 5.522 
3.1943 1.74035 6.166 
3.81936 1.90914 6.764 
4.29785 1.9845 7.031 
4.94595 2.12195 7.518 
5.10052 2.04349 7.24 
7.23236 2.71778 9.629 
2.81639 0.962754 3.411 
2.88553 0.933682 3.308 
2.8835 0.8857 3.138 
2.95349 0.863402 3.059 
-0.437309 0.155241 0.547 
-0.42036 0.159781 0.563 
-0.405319 0.164322 0.579 
-0.390093 0.169431 0.597 
-0.371975 0.173972 0.613 
-0.352212 0.179931 0.634 
-0.331822 0.18504 0.652 
-0.305593 0.187594 0.661 
-0.283929 0.193838 0.683 
-0.257631 0.198095 0.698 
-0.233482 0.205474 0.724 
-0.206909 0.212853 0.75 
-0.179288 0.221934 0.782 
-0.146857 0.228178 0.804 
-0.114688 0.239246 0.843 
-0.0780787 0.24776 0.873 
-0.0391866 0.25968 0.915 
0.00365475 0.274154 0.966 
0.0512504 0.288628 1.017 
0.103891 0.303954 1.071 
0.160561 0.317292 1.118 
0.237971 0.355038 1.251 
0.312622 0.374621 1.32 
0.394556 0.395054 1.392 
2.27451 1.94661 6.859 
1.96912 1.47152 5.185 
2.63761 1.75561 6.186 
2.61897 1.57142 5.537 
3.21427 1.75561 6.186 
3.85649 1.93299 6.811 
4.29345 1.98833 7.006 
4.99588 2.15009 7.576 
5.18873 2.08567 7.349 
7.29848 2.74637 9.677 
2.80295 0.959823 3.382 
2.89056 0.937119 3.302 
2.88865 0.889156 3.133 
2.95815 0.866736 3.054 
-0.434514 0.157232 0.551 
-0.418477 0.160941 0.564 
-0.403315 0.165507 0.58 
-0.387959 0.170644 0.598 
-0.370323 0.175495 0.615 
-0.347941 0.181773 0.637 
-0.326744 0.186624 0.654 
-0.294742 0.188906 0.662 
-0.273453 0.195755 0.686 
-0.248518 0.201462 0.706 
-0.222635 0.208025 0.729 
-0.19642 0.216586 0.759 
-0.16762 0.225432 0.79 
-0.135269 0.233137 0.817 
-0.101351 0.243124 0.852 
-0.0645333 0.254539 0.892 
-0.0242695 0.269092 0.943 
0.020519 0.280506 0.983 
0.0693737 0.293347 1.028 
0.125732 0.314464 1.102 
0.18931 0.336151 1.178 
0.263705 0.362974 1.272 
0.342291 0.384661 1.348 
0.422553 0.401212 1.406 
2.2157 1.80517 6.326 
2.4415 1.74867 6.128 
3.14056 2.01377 7.057 
3.04127 1.76522 6.186 
3.34037 1.77093 6.206 
3.92849 1.91674 6.717 
4.47206 2.0209 7.082 
5.23884 2.20467 7.726 
6.2403 2.45721 8.611 
7.88424 2.90522 10.181 
2.80231 0.9471 3.319 
2.8786 0.921989 3.231 
2.92795 0.89117 3.123 
3.00167 0.870339 3.05 
-0.430936 0.158662 0.553 
-0.41615 0.162965 0.568 
-0.400653 0.167556 0.584 
-0.383024 0.17186 0.599 
-0.366961 0.177598 0.619 
-0.345513 0.183049 0.638 
-0.32221 0.186779 0.651 
-0.296799 0.189935 0.662 
-0.275584 0.196821 0.686 
-0.250357 0.202272 0.705 
-0.224284 0.208584 0.727 
-0.197993 0.216905 0.756 
-0.16986 0.226373 0.789 
-0.137133 0.233258 0.813 
-0.103511 0.2433 0.848 
-0.0669278 0.25449 0.887 
-0.0257073 0.27027 0.942 
0.0189338 0.281173 0.98 
0.0675787 0.294084 1.025 
0.123457 0.314741 1.097 
0.186684 0.336546 1.173 
0.260905 0.363803 1.268 
0.339187 0.385608 1.344 
0.418575 0.401675 1.4 
2.23995 1.82676 6.367 
2.43393 1.75274 6.109 
3.24603 2.09273 7.294 
3.07028 1.79176 6.245 
3.34037 1.78057 6.206 
3.92849 1.92718 6.717 
4.43986 2.01727 7.031 
5.25986 2.22557 7.757 
6.38089 2.52625 8.805 
7.77161 2.89091 10.076 
2.79199 0.952257 3.319 
2.88721 0.933034 3.252 
2.92291 0.897457 3.128 
2.98728 0.873643 3.045 
-0.431014 0.159232 0.552 
-0.416299 0.163559 0.567 
-0.400872 0.168175 0.583 
-0.383954 0.17279 0.599 
-0.367328 0.178271 0.618 
-0.345513 0.18404 0.638 
-0.321715 0.187502 0.65 
-0.29577 0.190964 0.662 
-0.274118 0.197598 0.685 
-0.249261 0.203367 0.705 
-0.223461 0.210002 0.728 
-0.196818 0.218079 0.756 
-0.168634 0.227598 0.789 
-0.136204 0.235099 0.815 
-0.102314 0.244906 0.849 
-0.0656975 0.256445 0.889 
-0.0242695 0.272022 0.943 
0.0204772 0.282984 0.981 
0.0693062 0.296253 1.027 
0.125276 0.316734 1.098 
0.189471 0.3401 1.179 
0.262461 0.365196 1.266 
0.34153 0.387985 1.345 
2.22087 2.08848 7.24 
2.25727 1.84271 6.388 
2.46622 1.77867 6.166 
3.34445 2.16031 7.489 
3.17122 1.85483 6.43 
3.37106 1.80146 6.245 
3.93893 1.93762 6.717 
4.43496 2.02098 7.006 
5.29298 2.24656 7.788 
6.69596 2.65964 9.22 
7.95111 2.96772 10.288 
2.79209 0.955683 3.313 
2.88781 0.936644 3.247 
2.92309 0.900875 3.123 
2.99202 0.878374 3.045 
-0.430936 0.16038 0.553 
-0.415418 0.16444 0.567 
-0.399967 0.169081 0.583 
-0.382384 0.173431 0.598 
-0.366961 0.179521 0.619 
-0.345962 0.184742 0.637 
-0.322229 0.188222 0.649 
-0.297827 0.191992 0.662 
-0.275843 0.198372 0.684 
-0.250739 0.203883 0.703 
-0.225413 0.210843 0.727 
-0.198114 0.218094 0.752 
-0.170652 0.228244 0.787 
-0.138396 0.235785 0.813 
-0.104705 0.245645 0.847 
-0.0681519 0.256666 0.885 
-0.0285129 0.272037 0.938 
0.0158561 0.283638 0.978 
0.0638911 0.294948 1.017 
0.118626 0.31438 1.084 
0.180699 0.335841 1.158 
0.255141 0.365133 1.259 
0.333765 0.388334 1.339 
0.410378 0.402255 1.387 
2.16793 1.81116 6.245 
2.22472 1.6386 5.65 
3.36264 2.21458 7.636 
2.84151 1.69226 5.835 
3.26982 1.77723 6.128 
3.89719 1.94805 6.717 
4.34503 2.01041 6.932 
5.26545 2.26765 7.819 
6.28369 2.53099 8.727 
7.72465 2.92222 10.076 
2.77554 0.96402 3.324 
2.8767 0.946329 3.263 
2.90348 0.907177 3.128 
2.97713 0.885716 3.054 
-0.432016 0.160365 0.55 
-0.416725 0.164447 0.564 
-0.401513 0.169112 0.58 
-0.385172 0.17436 0.598 
-0.368054 0.179608 0.616 
-0.347395 0.18544 0.636 
-0.324745 0.189522 0.65 
-0.299884 0.193021 0.662 
-0.27675 0.19856 0.681 
-0.251844 0.2041 0.7 
-0.226733 0.211098 0.724 
-0.199917 0.218679 0.75 
-0.172438 0.228592 0.784 
-0.140749 0.236756 0.812 
-0.107083 0.246378 0.845 
-0.0706616 0.257166 0.882 
-0.0310255 0.269996 0.926 
0.0127647 0.283991 0.974 
0.0603726 0.294779 1.011 
0.114407 0.313731 1.076 
0.1745 0.332684 1.141 
0.250032 0.36534 1.253 
0.328127 0.388665 1.333 
0.404897 0.403244 1.383 
2.14475 1.80949 6.206 
2.20543 1.63309 5.601 
3.40227 2.25268 7.726 
2.89357 1.72698 5.923 
3.31999 1.80366 6.186 
3.90464 1.95178 6.694 
4.35082 2.01389 6.907 
5.31072 2.28884 7.85 
6.86183 2.76673 9.489 
7.91915 2.99969 10.288 
2.7818 0.965978 3.313 
2.88747 0.949941 3.258 
2.91339 0.910579 3.123 
2.98745 0.889294 3.05 
-0.431014 0.161805 0.552 
-0.414685 0.165909 0.566 
-0.398155 0.170892 0.583 
-0.380232 0.175582 0.599 
-0.364664 0.181738 0.62 
-0.344069 0.187307 0.639 
-0.317236 0.189066 0.645 
-0.295187 0.194342 0.663 
-0.271858 0.199912 0.682 
-0.248166 0.206653 0.705 
-0.222635 0.213689 0.729 
-0.194867 0.220724 0.753 
-0.166772 0.230397 0.786 
-0.135269 0.239484 0.817 
-0.100995 0.248864 0.849 
-0.0643163 0.260589 0.889 
-0.0213393 0.276417 0.943 
0.0235495 0.287849 0.982 
0.0727798 0.302212 1.031 
0.128219 0.320679 1.094 
0.195264 0.349406 1.192 
0.265974 0.370511 1.264 
0.346994 0.395719 1.35 
2.35925 2.22072 7.576 
2.32499 1.90356 6.494 
2.51115 1.81914 6.206 
3.45922 2.2471 7.666 
3.54624 2.06859 7.057 
3.53087 1.8848 6.43 
4.08614 2.01055 6.859 
4.40584 2.01055 6.859 
5.40829 2.30104 7.85 
7.3733 2.93829 10.024 
8.13306 3.04792 10.398 
2.80423 0.964676 3.291 
2.87494 0.937709 3.199 
2.92385 0.906637 3.093 
3.03429 0.896671 3.059 
-0.426459 0.163547 0.555 
-0.411417 0.167967 0.57 
-0.397002 0.173271 0.588 
-0.377766 0.177102 0.601 
-0.361393 0.182996 0.621 
-0.343154 0.188889 0.641 
-0.314743 0.189773 0.644 
-0.292097 0.195372 0.663 
-0.268679 0.200971 0.682 
-0.246269 0.208928 0.709 
-0.219839 0.21541 0.731 
-0.192374 0.223072 0.757 
-0.163108 0.231618 0.786 
-0.131782 0.241342 0.819 
-0.0973802 0.251067 0.852 
-0.060511 0.263443 0.894 
-0.0154788 0.277882 0.943 
0.0298033 0.290848 0.987 
0.0797248 0.305877 1.038 
0.135388 0.323263 1.097 
0.205222 0.355678 1.207 
0.275779 0.375127 1.273 
0.360122 0.403121 1.368 
2.40405 2.24133 7.606 
2.30195 1.87033 6.347 
2.5237 1.81699 6.166 
3.37551 2.1818 7.404 
3.50629 2.04979 6.956 
3.55242 1.90098 6.451 
4.12547 2.03535 6.907 
4.4165 2.0212 6.859 
5.39909 2.3041 7.819 
7.35128 2.93884 9.973 
8.063 3.03166 10.288 
2.80934 0.969789 3.291 
2.87541 0.941205 3.194 
2.91918 0.908496 3.083 
3.03904 0.901424 3.059 
-0.425596 0.164409 0.555 
-0.410531 0.168853 0.57 
-0.396762 0.174481 0.589 
-0.37746 0.178332 0.602 
-0.360428 0.183961 0.621 
-0.342159 0.189885 0.641 
-0.313256 0.190478 0.643 
-0.291067 0.196402 0.663 
-0.26762 0.202031 0.682 
-0.245859 0.210622 0.711 
-0.219002 0.216842 0.732 
-0.191703 0.224841 0.759 
-0.161887 0.232839 0.786 
-0.130669 0.242911 0.82 
-0.096282 0.252983 0.854 
-0.0591882 0.265128 0.895 
-0.0139988 0.279051 0.942 
0.0314003 0.292974 0.989 
0.0813375 0.30749 1.038 
0.136842 0.324375 1.095 
0.207612 0.358442 1.21 
0.278193 0.377697 1.275 
0.363042 0.406135 1.371 
2.39456 2.24426 7.576 
2.3092 1.88611 6.367 
2.51592 1.82094 6.147 
3.40149 2.21019 7.461 
3.45592 2.02475 6.835 
3.57459 1.91752 6.473 
4.18051 2.068 6.981 
4.42715 2.03186 6.859 
5.38978 2.30706 7.788 
7.32985 2.93952 9.923 
7.99496 3.01595 10.181 
2.81015 0.971644 3.28 
2.8763 0.943206 3.184 
2.91927 0.910324 3.073 
-0.442517 0.161996 0.544 
-0.423772 0.165569 0.556 
-0.40859 0.170036 0.571 
-0.395355 0.175992 0.591 
-0.373993 0.180756 0.607 
-0.353845 0.185521 0.623 
-0.336798 0.19237 0.646 
-0.306688 0.19237 0.646 
-0.284106 0.198326 0.666 
-0.261423 0.204877 0.688 
-0.238356 0.212917 0.715 
-0.212198 0.220362 0.74 
-0.184671 0.228998 0.769 
-0.153472 0.236145 0.793 
-0.12224 0.247758 0.832 
-0.0869713 0.258181 0.867 
-0.0486009 0.269497 0.905 
-0.00670936 0.281706 0.946 
0.0393994 0.296893 0.997 
0.0899179 0.310889 1.044 
0.145747 0.32697 1.098 
0.219344 0.364193 1.223 
0.291939 0.38474 1.292 
0.374783 0.409457 1.375 
2.42777 2.22179 7.461 
2.05979 1.64884 5.537 
2.47946 1.76379 5.923 
2.75754 1.75337 5.888 
3.30027 1.90851 6.409 
3.68379 1.95348 6.56 
4.30701 2.10892 7.082 
4.74056 2.15597 7.24 
5.37681 2.28283 7.666 
7.85127 3.11276 10.453 
7.87501 2.93975 9.872 
2.83668 0.968402 3.252 
2.8835 0.934454 3.138 
2.95349 0.910929 3.059 
-0.434813 0.16344 0.546 
-0.41812 0.167631 0.56 
-0.403919 0.172719 0.577 
-0.386826 0.177209 0.592 
-0.367565 0.183196 0.612 
-0.346302 0.189782 0.634 
-0.323246 0.193673 0.647 
-0.298727 0.198762 0.664 
-0.272617 0.202354 0.676 
-0.249669 0.209538 0.7 
-0.223553 0.215824 0.721 
-0.197323 0.224206 0.749 
-0.169568 0.234084 0.782 
-0.138566 0.243663 0.814 
-0.104457 0.252943 0.845 
-0.0679979 0.264317 0.883 
-0.0270843 0.28108 0.939 
0.0173934 0.293054 0.979 
0.0654712 0.304429 1.017 
0.118978 0.320893 1.072 
0.18171 0.345139 1.153 
0.254851 0.373577 1.248 
0.333337 0.397823 1.329 
0.409261 0.411892 1.376 
2.23006 1.9059 6.367 
2.22283 1.6766 5.601 
3.46752 2.34054 7.819 
2.96605 1.80592 6.033 
3.31884 1.84573 6.166 
3.94195 2.01755 6.74 
4.27125 2.02474 6.764 
5.13713 2.2678 7.576 
7.7938 3.11254 10.398 
7.90028 2.97035 9.923 
2.82104 0.978543 3.269 
2.87699 0.946813 3.163 
2.93836 0.919873 3.073 
-0.439136 0.163686 0.544 
-0.422908 0.167297 0.556 
-0.407703 0.17181 0.571 
-0.393101 0.177227 0.589 
-0.373333 0.183244 0.609 
-0.348879 0.188961 0.628 
-0.330296 0.19528 0.649 
-0.301432 0.196183 0.652 
-0.27707 0.201298 0.669 
-0.255076 0.20882 0.694 
-0.228827 0.214537 0.713 
-0.204098 0.223865 0.744 
-0.176934 0.233795 0.777 
-0.146332 0.243122 0.808 
-0.113109 0.253052 0.841 
-0.0768981 0.263282 0.875 
-0.0376412 0.274415 0.912 
0.0050969 0.287354 0.955 
0.0521032 0.301797 1.003 
0.105062 0.320753 1.066 
0.161282 0.334293 1.111 
0.235695 0.369799 1.229 
0.311812 0.393569 1.308 
0.392158 0.41403 1.376 
2.24619 2.00064 6.649 
1.98305 1.53967 5.117 
3.1667 2.19472 7.294 
2.6783 1.67086 5.553 
3.19101 1.81529 6.033 
3.8394 2.00726 6.671 
4.29717 2.07827 6.907 
5.10663 2.29763 7.636 
7.42876 3.00082 9.973 
7.93397 3.01616 10.024 
2.82034 0.986932 3.28 
2.87623 0.954736 3.173 
2.93834 0.927656 3.083 
-0.440016 0.164229 0.543 
-0.423872 0.167858 0.555 
-0.408043 0.172093 0.569 
-0.39225 0.176932 0.585 
-0.373333 0.184191 0.609 
-0.348324 0.189635 0.627 
-0.329787 0.195986 0.648 
-0.300573 0.199313 0.659 
-0.274361 0.20264 0.67 
-0.252567 0.210504 0.696 
-0.225503 0.215645 0.713 
-0.201439 0.225928 0.747 
-0.173536 0.235304 0.778 
-0.143272 0.245587 0.812 
-0.109449 0.254963 0.843 
-0.0730693 0.265549 0.878 
-0.0338297 0.279462 0.924 
0.00963816 0.291559 0.964 
0.0570046 0.304565 1.007 
0.110238 0.323014 1.068 
0.167509 0.338136 1.118 
0.241424 0.371708 1.229 
0.318638 0.396509 1.311 
0.398282 0.415865 1.375 
2.19499 1.93839 6.409 
1.991 1.54762 5.117 
3.263 2.26503 7.489 
2.69467 1.68433 5.569 
3.22054 1.83616 6.071 
3.86304 2.02458 6.694 
4.32349 2.09657 6.932 
5.07827 2.29134 7.576 
7.69537 3.11158 10.288 
7.92459 3.01631 9.973 
2.82543 0.992028 3.28 
2.87208 0.956642 3.163 
2.94314 0.932446 3.083 
-0.438291 0.165377 0.544 
-0.422044 0.169025 0.556 
-0.406103 0.173281 0.57 
-0.388526 0.179057 0.589 
-0.373946 0.185441 0.61 
-0.348324 0.190609 0.627 
-0.32878 0.196993 0.648 
-0.299549 0.200337 0.659 
-0.273728 0.203985 0.671 
-0.251486 0.211585 0.696 
-0.224396 0.216753 0.713 
-0.200546 0.227393 0.748 
-0.172548 0.236817 0.779 
-0.14201 0.246849 0.812 
-0.108011 0.255969 0.842 
-0.0717869 0.267217 0.879 
-0.0324642 0.281505 0.926 
0.011159 0.293665 0.966 
0.0586274 0.306433 1.008 
0.111897 0.324673 1.068 
0.1697 0.340785 1.121 
0.243531 0.373922 1.23 
0.320675 0.398546 1.311 
0.400419 0.418002 1.375 
2.19772 1.94196 6.388 
2.00442 1.55983 5.131 
3.35077 2.32135 7.636 
2.75142 1.71761 5.65 
3.25968 1.85714 6.109 
3.88384 2.03498 6.694 
4.32936 2.09974 6.907 
5.06276 2.28548 7.518 
8.12868 3.28321 10.8 
7.89035 3.0011 9.872 
2.83627 0.99378 3.269 
2.87345 0.955476 3.143 
2.95269 0.934196 3.073 
-0.436601 0.166222 0.544 
-0.420316 0.169889 0.556 
-0.405041 0.174472 0.571 
-0.387611 0.179972 0.589 
-0.372998 0.186389 0.61 
-0.349298 0.191583 0.627 
-0.330283 0.197694 0.647 
-0.299583 0.198 0.648 
-0.276656 0.204111 0.668 
-0.254709 0.21175 0.693 
-0.228506 0.217555 0.712 
-0.204098 0.227333 0.744 
-0.175501 0.237111 0.776 
-0.144897 0.246583 0.807 
-0.11167 0.256666 0.84 
-0.0755386 0.267361 0.875 
-0.0363037 0.279277 0.914 
0.00659444 0.292416 0.957 
0.0536615 0.306472 1.003 
0.106719 0.325722 1.066 
0.163008 0.339472 1.111 
0.236252 0.373388 1.222 
0.311925 0.397221 1.3 
0.393437 0.419527 1.373 
2.22901 1.99772 6.538 
1.98305 1.56352 5.117 
3.2508 2.27975 7.461 
2.6783 1.69675 5.553 
3.24126 1.87244 6.128 
3.85264 2.04538 6.694 
4.34321 2.13308 6.981 
5.16682 2.36072 7.726 
7.69973 3.28166 10.74 
8.2273 3.24622 10.624 
7.10098 2.64274 8.649 
2.88277 0.992137 3.247 
2.89021 0.945081 3.093 
2.96865 0.924609 3.026 
-0.429453 0.16891 0.55 
-0.413952 0.173516 0.565 
-0.39585 0.177202 0.577 
-0.380266 0.184879 0.602 
-0.358687 0.189793 0.618 
-0.340098 0.196242 0.639 
-0.31029 0.196857 0.641 
-0.289599 0.203306 0.662 
-0.265387 0.208527 0.679 
-0.245443 0.218968 0.713 
-0.216972 0.223882 0.729 
-0.190273 0.232788 0.758 
-0.160461 0.24108 0.785 
-0.128448 0.249986 0.814 
-0.0949551 0.262271 0.854 
-0.0581205 0.276398 0.9 
-0.0168181 0.287454 0.936 
0.0280121 0.300352 0.978 
0.0773596 0.315708 1.028 
0.132465 0.333827 1.087 
0.203684 0.371294 1.209 
0.27122 0.387264 1.261 
0.349884 0.410604 1.337 
2.44707 2.40128 7.819 
2.33508 1.99436 6.494 
2.42818 1.8359 5.978 
3.37831 2.29134 7.461 
3.16973 1.94922 6.347 
3.40987 1.91789 6.245 
3.96704 2.05579 6.694 
4.29376 2.06285 6.717 
5.3839 2.4108 7.85 
8.04385 3.37267 10.982 
8.18723 3.2274 10.509 
2.83126 1.02605 3.341 
2.87434 0.987354 3.215 
2.90002 0.946816 3.083 
2.98745 0.929311 3.026 
-0.426726 0.170382 0.552 
-0.409973 0.17532 0.568 
-0.392276 0.179333 0.581 
-0.376201 0.187049 0.606 
-0.35542 0.191062 0.619 
-0.337647 0.197544 0.64 
-0.308298 0.197853 0.641 
-0.286513 0.204334 0.662 
-0.263381 0.210508 0.682 
-0.24212 0.220076 0.713 
-0.214453 0.225941 0.732 
-0.186986 0.234275 0.759 
-0.157002 0.242609 0.786 
-0.12542 0.252794 0.819 
-0.0915072 0.265141 0.859 
-0.0541653 0.279031 0.904 
-0.0110599 0.290451 0.941 
0.0341249 0.30218 0.979 
0.084563 0.320392 1.038 
0.139733 0.336751 1.091 
0.211198 0.373173 1.209 
0.280163 0.390766 1.266 
0.360337 0.415151 1.345 
2.46897 2.423 7.85 
2.31448 1.97822 6.409 
2.41504 1.82821 5.923 
3.33767 2.25972 7.321 
3.55327 2.16249 7.006 
3.54921 1.97822 6.409 
4.1037 2.10971 6.835 
4.39123 2.09489 6.787 
5.99908 2.66962 8.649 
7.27124 3.03199 9.823 
8.13825 3.19249 10.343 
2.83746 1.02785 3.33 
2.86146 0.982781 3.184 
2.90494 0.948519 3.073 
3.00155 0.934012 3.026 
-0.424922 0.171549 0.553 
-0.40837 0.175892 0.567 
-0.390238 0.180546 0.582 
-0.374279 0.188922 0.609 
-0.352709 0.192644 0.621 
-0.333754 0.199779 0.644 
-0.302794 0.199159 0.642 
-0.282221 0.205983 0.664 
-0.259975 0.213118 0.687 
-0.236249 0.220874 0.712 
-0.209622 0.228009 0.735 
-0.182283 0.237005 0.764 
-0.151664 0.245071 0.79 
-0.118078 0.257479 0.83 
-0.0832172 0.269888 0.87 
-0.0443336 0.280435 0.904 
-0.00230489 0.294085 0.948 
0.0433838 0.304632 0.982 
0.0954195 0.326037 1.051 
0.15059 0.339997 1.096 
0.222652 0.375361 1.21 
0.293579 0.394905 1.273 
0.377588 0.422514 1.362 
2.47495 2.3595 7.606 
2.06574 1.72263 5.553 
2.3928 1.77319 5.716 
2.94351 1.95622 6.306 
3.6823 2.20501 7.108 
3.76685 2.06945 6.671 
4.36081 2.21308 7.134 
5.14397 2.42558 7.819 
6.62081 2.91541 9.398 
7.89333 3.26006 10.509 
8.03775 3.12574 10.076 
2.84434 1.02247 3.296 
2.86335 0.97656 3.148 
2.92498 0.948951 3.059 
-0.437485 0.169291 0.543 
-0.421285 0.173032 0.555 
-0.405391 0.177397 0.569 
-0.389523 0.182385 0.585 
-0.37526 0.188932 0.606 
-0.353886 0.192674 0.618 
-0.336653 0.199533 0.64 
-0.305828 0.199533 0.64 
-0.285485 0.206392 0.662 
-0.262322 0.212627 0.682 
-0.239998 0.221356 0.71 
-0.213316 0.228215 0.732 
-0.185807 0.236633 0.759 
-0.155781 0.245051 0.786 
-0.123996 0.255028 0.818 
-0.0903826 0.268434 0.861 
-0.0527608 0.28184 0.904 
-0.0110599 0.293375 0.941 
0.0340204 0.304287 0.976 
0.0844 0.322993 1.036 
0.13922 0.338894 1.087 
0.210499 0.375682 1.205 
0.279057 0.393142 1.261 
0.359265 0.418083 1.341 
2.51151 2.47732 7.946 
2.29433 1.97225 6.326 
2.40255 1.83009 5.87 
3.33563 2.26563 7.267 
3.78432 2.2912 7.349 
3.72085 2.06579 6.626 
4.30701 2.20795 7.082 
4.92259 2.34388 7.518 
6.62317 2.94404 9.443 
7.69537 3.20749 10.288 
8.13198 3.19065 10.234 
2.84871 1.03289 3.313 
2.85357 0.981451 3.148 
2.90689 0.950897 3.05 
-0.440016 0.170135 0.543 
-0.422344 0.173268 0.553 
-0.406443 0.177968 0.568 
-0.389334 0.182354 0.582 
-0.375898 0.189247 0.604 
-0.35523 0.19332 0.617 
-0.338113 0.200214 0.639 
-0.308811 0.200527 0.64 
-0.287542 0.20742 0.662 
-0.263665 0.21306 0.68 
-0.241181 0.22152 0.707 
-0.214707 0.228413 0.729 
-0.187422 0.236872 0.756 
-0.158022 0.245959 0.785 
-0.125919 0.255045 0.814 
-0.0925176 0.268205 0.856 
-0.0554469 0.282618 0.902 
-0.0139245 0.293584 0.937 
0.0309241 0.305177 0.974 
0.080789 0.323036 1.031 
0.135218 0.339016 1.082 
0.20624 0.376615 1.202 
0.274702 0.394474 1.259 
0.35298 0.41766 1.333 
2.52782 2.53071 8.077 
2.31207 2.01467 6.43 
2.37009 1.82824 5.835 
3.36274 2.31107 7.376 
3.76932 2.32862 7.432 
3.50324 1.98208 6.326 
4.07488 2.12653 6.787 
4.43781 2.14908 6.859 
6.54981 2.95871 9.443 
7.73758 3.27517 10.453 
8.26886 3.29272 10.509 
2.85185 1.05057 3.353 
2.85652 0.997622 3.184 
2.86902 0.952503 3.04 
2.97804 0.942163 3.007 
-0.425953 0.173497 0.551 
-0.410441 0.177905 0.565 
-0.393624 0.182314 0.579 
-0.379301 0.188611 0.599 
-0.360181 0.193334 0.614 
-0.342902 0.199947 0.635 
-0.317745 0.202781 0.644 
-0.294296 0.208134 0.661 
-0.267872 0.211597 0.672 
-0.246054 0.220099 0.699 
-0.218971 0.225767 0.717 
-0.194867 0.237102 0.753 
-0.165499 0.245604 0.78 
-0.133778 0.254421 0.808 
-0.100162 0.265126 0.842 
-0.0643886 0.280241 0.89 
-0.0238577 0.291891 0.927 
0.020185 0.304486 0.967 
0.0684964 0.3196 1.015 
0.122309 0.337548 1.072 
0.185614 0.363683 1.155 
0.258522 0.392652 1.247 
0.335943 0.416582 1.323 
0.414739 0.43453 1.38 
2.15706 1.94783 6.186 
2.03347 1.61973 5.144 
3.30476 2.31403 7.349 
3.33088 2.09362 6.649 
3.37632 1.94153 6.166 
3.96378 2.10054 6.671 
4.37981 2.15218 6.835 
6.33784 2.90317 9.22 
8.06091 3.45798 10.982 
8.24805 3.32699 10.566 
2.8413 1.05767 3.359 
2.86488 1.01076 3.21 
2.8464 0.954392 3.031 
2.95022 0.942427 2.993 
-0.427819 0.17372 0.549 
-0.412487 0.17815 0.563 
-0.395164 0.182264 0.576 
-0.381105 0.188593 0.596 
-0.362811 0.193656 0.612 
-0.344664 0.199668 0.631 
-0.322247 0.204098 0.645 
-0.295354 0.206313 0.652 
-0.271873 0.211692 0.669 
-0.250045 0.219919 0.695 
-0.223601 0.225932 0.714 
-0.20045 0.237956 0.752 
-0.170458 0.245234 0.775 
-0.138842 0.253461 0.801 
-0.105942 0.264536 0.836 
-0.0704212 0.278143 0.879 
-0.0306569 0.289534 0.915 
0.0155967 0.304406 0.962 
0.0634513 0.319595 1.01 
0.116875 0.337948 1.068 
0.175705 0.356301 1.126 
0.25048 0.391108 1.236 
0.328281 0.416739 1.317 
0.406532 0.434776 1.374 
2.14164 1.96978 6.225 
1.99895 1.61918 5.117 
3.27106 2.33399 7.376 
2.93958 1.87422 5.923 
3.30632 1.92706 6.09 
4.00107 2.14761 6.787 
4.40965 2.1935 6.932 
6.35494 2.94534 9.308 
8.19352 3.55478 11.234 
8.1988 3.34341 10.566 
2.82042 1.06289 3.359 
2.86354 1.02239 3.231 
2.82757 0.959101 3.031 
2.91007 0.940116 2.971 
-0.42966 0.173937 0.547 
-0.414508 0.178389 0.561 
-0.396667 0.182205 0.573 
-0.380936 0.187611 0.59 
-0.364469 0.19397 0.61 
-0.345952 0.199694 0.628 
-0.324749 0.204782 0.644 
-0.296105 0.205736 0.647 
-0.274169 0.212096 0.667 
-0.252191 0.220045 0.692 
-0.226611 0.226723 0.713 
-0.203413 0.238488 0.75 
-0.173621 0.245802 0.773 
-0.141507 0.252798 0.795 
-0.109576 0.265199 0.834 
-0.0740944 0.277918 0.874 
-0.0346546 0.28873 0.908 
0.0140581 0.304947 0.959 
0.061637 0.319892 1.006 
0.114892 0.338653 1.065 
0.173029 0.356142 1.12 
0.247756 0.391757 1.232 
0.325739 0.418149 1.315 
0.403808 0.436275 1.372 
2.12436 1.95465 6.147 
2.01239 1.63158 5.131 
3.2979 2.38138 7.489 
2.84429 1.82809 5.749 
3.296 1.93048 6.071 
4.02937 2.17342 6.835 
4.42492 2.2119 6.956 
6.54202 3.04693 9.582 
8.10017 3.53153 11.106 
8.15457 3.3417 10.509 
2.8258 1.0662 3.353 
2.85491 1.02073 3.21 
2.82388 0.959359 3.017 
2.92323 0.946003 2.975 
-0.428743 0.175107 0.548 
-0.413501 0.17958 0.562 
-0.395576 0.183415 0.574 
-0.378904 0.189806 0.594 
-0.362451 0.195877 0.613 
-0.343683 0.201629 0.631 
-0.320249 0.205463 0.643 
-0.29389 0.208019 0.651 
-0.270834 0.213771 0.669 
-0.248607 0.221759 0.694 
-0.219471 0.22847 0.715 
-0.195777 0.240293 0.752 
-0.165001 0.246683 0.772 
-0.134198 0.256589 0.803 
-0.101229 0.268412 0.84 
-0.065328 0.282472 0.884 
-0.0250524 0.293336 0.918 
0.0216201 0.308035 0.964 
0.0703495 0.325609 1.019 
0.123512 0.341267 1.068 
0.187571 0.369386 1.156 
0.260042 0.397825 1.245 
0.337743 0.422429 1.322 
0.417185 0.441282 1.381 
2.18589 1.97666 6.186 
2.09625 1.6747 5.241 
3.31799 2.36586 7.404 
3.81881 2.42082 7.576 
3.4161 1.97666 6.186 
4.00865 2.13899 6.694 
4.47427 2.21504 6.932 
6.93723 3.20305 10.024 
8.0663 3.48936 10.92 
8.16537 3.32256 10.398 
2.83842 1.05863 3.313 
2.81217 0.994722 3.113 
2.84802 0.957975 2.998 
-0.441732 0.174032 0.542 
-0.422617 0.1766 0.55 
-0.407808 0.181417 0.565 
-0.390925 0.185912 0.579 
-0.373717 0.192334 0.599 
-0.355612 0.197793 0.616 
-0.338044 0.204535 0.637 
-0.308837 0.204857 0.638 
-0.288724 0.211921 0.66 
-0.264215 0.217058 0.676 
-0.239935 0.223801 0.697 
-0.215484 0.23247 0.724 
-0.189018 0.241782 0.753 
-0.159235 0.25013 0.779 
-0.127975 0.260405 0.811 
-0.0940656 0.271644 0.846 
-0.0574102 0.285451 0.889 
-0.0166384 0.297331 0.926 
0.0277257 0.310817 0.968 
0.0775853 0.331046 1.031 
0.130637 0.34421 1.072 
0.200146 0.381457 1.188 
0.267779 0.399759 1.245 
0.348803 0.425447 1.325 
0.431322 0.44696 1.392 
2.26748 2.0248 6.306 
2.29495 1.81417 5.65 
3.4158 2.41397 7.518 
4.09633 2.56199 7.979 
3.7085 2.12049 6.604 
4.29181 2.26594 7.057 
5.05878 2.48075 7.726 
7.25442 3.32105 10.343 
7.99008 3.4299 10.682 
7.92459 3.20225 9.973 
2.82152 1.04419 3.252 
2.79208 0.980614 3.054 
2.85468 0.953964 2.971 
-0.434954 0.175196 0.543 
-0.417725 0.179391 0.556 
-0.40097 0.183585 0.569 
-0.384978 0.188748 0.585 
-0.366844 0.194555 0.603 
-0.349412 0.200685 0.622 
-0.330208 0.206816 0.641 
-0.299862 0.206493 0.64 
-0.279126 0.214237 0.664 
-0.245372 0.223916 0.694 
-0.217857 0.231337 0.717 
-0.190595 0.241984 0.75 
-0.160618 0.249728 0.774 
-0.130334 0.261343 0.81 
-0.0962373 0.271667 0.842 
-0.0598342 0.285219 0.884 
-0.0193894 0.296834 0.92 
0.0246156 0.31103 0.964 
0.0758361 0.332002 1.029 
0.128731 0.345231 1.07 
0.199641 0.382335 1.185 
0.267134 0.400726 1.242 
0.348276 0.42686 1.323 
0.431012 0.4488 1.391 
2.25274 2.02137 6.265 
2.26855 1.80197 5.585 
3.45755 2.46372 7.636 
4.07154 2.57439 7.979 
3.55562 2.05428 6.367 
4.17912 2.22851 6.907 
4.80669 2.37983 7.376 
7.33819 3.39068 10.509 
7.95688 3.4465 10.682 
7.93397 3.2342 10.024 
2.81154 1.05118 3.258 
2.7824 0.986972 3.059 
2.84944 0.961483 2.98 
-0.435838 0.175716 0.542 
-0.416861 0.180255 0.556 
-0.399018 0.184793 0.57 
-0.378616 0.189656 0.585 
-0.362573 0.197761 0.61 
-0.343453 0.203273 0.627 
-0.321746 0.208136 0.642 
-0.293186 0.209108 0.645 
-0.270429 0.216565 0.668 
-0.233263 0.227912 0.703 
-0.202328 0.241853 0.746 
-0.172274 0.248661 0.767 
-0.141329 0.257414 0.794 
-0.109576 0.270382 0.834 
-0.0738401 0.282377 0.871 
-0.0345783 0.293724 0.906 
0.00801375 0.307665 0.949 
0.0541738 0.319012 0.984 
0.121511 0.345272 1.065 
0.183203 0.369587 1.14 
0.256449 0.401034 1.237 
0.336466 0.42697 1.317 
0.416581 0.447071 1.379 
2.1425 1.97437 6.09 
2.04428 1.66347 5.131 
3.41158 2.48531 7.666 
2.88684 1.8917 5.835 
3.27494 1.95006 6.015 
4.0258 2.20812 6.811 
4.46761 2.27134 7.006 
7.04001 3.33536 10.288 
8.02679 3.56035 10.982 
8.08459 3.37102 10.398 
2.794 1.06694 3.291 
2.81485 1.01896 3.143 
2.83321 0.974867 3.007 
2.95557 0.969031 2.989 
-0.420908 0.179164 0.55 
-0.406052 0.18405 0.565 
-0.389126 0.188611 0.579 
-0.365907 0.196429 0.603 
-0.349005 0.202944 0.623 
-0.329212 0.208808 0.641 
-0.298868 0.208482 0.64 
-0.277063 0.2163 0.664 
-0.239591 0.226724 0.696 
-0.214951 0.236496 0.726 
-0.183237 0.250178 0.768 
-0.15128 0.256693 0.788 
-0.119494 0.267769 0.822 
-0.0845379 0.278844 0.856 
-0.0464647 0.290246 0.891 
-0.00520081 0.305882 0.939 
0.0400448 0.317609 0.975 
0.114568 0.345949 1.062 
0.173183 0.365169 1.121 
0.246951 0.400024 1.228 
0.32351 0.425433 1.306 
0.402631 0.44563 1.368 
2.16228 2.04736 6.285 
2.04192 1.70271 5.227 
3.41893 2.54706 7.819 
2.65889 1.77861 5.46 
3.27793 1.98383 6.09 
4.09752 2.28222 7.006 
4.60593 2.37604 7.294 
6.86758 3.29922 10.128 
7.95854 3.57742 10.982 
8.10559 3.42334 10.509 
7.10098 2.81744 8.649 
2.82189 1.0372 3.184 
2.84063 0.991917 3.045 
2.90126 0.96488 2.962 
-0.424485 0.179364 0.548 
-0.409135 0.183946 0.562 
-0.392479 0.188528 0.576 
-0.371856 0.196057 0.599 
-0.354272 0.201948 0.617 
-0.336065 0.208494 0.637 
-0.305893 0.208167 0.636 
-0.285805 0.215368 0.658 
-0.250733 0.225187 0.688 
-0.225658 0.232388 0.71 
-0.190993 0.244498 0.747 
-0.160984 0.252026 0.77 
-0.131105 0.264136 0.807 
-0.0971979 0.27461 0.839 
-0.0607922 0.287375 0.878 
-0.0206378 0.298503 0.912 
0.0230459 0.314541 0.961 
0.0968678 0.343344 1.049 
0.151459 0.356764 1.09 
0.226225 0.395713 1.209 
0.294263 0.412079 1.259 
0.376494 0.439573 1.343 
2.44143 2.43254 7.432 
2.13776 1.86532 5.699 
3.05309 2.36086 7.213 
3.35217 2.335 7.134 
3.98328 2.50913 7.666 
3.87765 2.22928 6.811 
4.49261 2.38737 7.294 
5.88669 2.90812 8.885 
7.87585 3.63507 11.106 
8.02922 3.4773 10.624 
7.92103 3.23117 9.872 
2.78548 1.04705 3.199 
2.7979 0.998285 3.05 
2.85524 0.969482 2.962 
-0.431529 0.1789 0.544 
-0.415133 0.182846 0.556 
-0.398318 0.187121 0.569 
-0.377969 0.192054 0.584 
-0.363361 0.19896 0.605 
-0.346242 0.205538 0.625 
-0.325736 0.211128 0.642 
-0.295812 0.211128 0.642 
-0.274585 0.218034 0.663 
-0.244294 0.228229 0.694 
-0.21631 0.237766 0.723 
-0.18419 0.252236 0.767 
-0.152311 0.258813 0.787 
-0.119639 0.270652 0.823 
-0.0842417 0.280518 0.853 
-0.0462561 0.291699 0.887 
-0.0051842 0.307813 0.936 
0.0400038 0.32031 0.974 
0.115999 0.348592 1.06 
0.175393 0.369639 1.124 
0.250154 0.402854 1.225 
0.326816 0.428505 1.303 
0.406882 0.449881 1.368 
2.14346 2.0215 6.147 
2.0228 1.68278 5.117 
3.47967 2.57136 7.819 
2.78653 1.85806 5.65 
3.28474 1.98401 6.033 
3.91645 2.17903 6.626 
4.48355 2.31222 7.031 
7.34931 3.53196 10.74 
8.0721 3.63193 11.044 
8.12736 3.43757 10.453 
7.32235 2.92192 8.885 
2.80866 1.03854 3.158 
2.84541 0.999735 3.04 
2.92323 0.978359 2.975 
-0.423711 0.180736 0.547 
-0.406664 0.185362 0.561 
-0.39069 0.190318 0.576 
-0.374289 0.196266 0.594 
-0.357106 0.202213 0.612 
-0.338245 0.208161 0.63 
-0.311331 0.209813 0.635 
-0.287945 0.214439 0.649 
-0.260176 0.221708 0.671 
-0.238111 0.230629 0.698 
-0.204745 0.243845 0.738 
-0.17704 0.253427 0.767 
-0.143253 0.261357 0.791 
-0.111764 0.274574 0.831 
-0.0758435 0.285147 0.863 
-0.0371459 0.297372 0.9 
0.00504886 0.312571 0.946 
0.0507526 0.322814 0.977 
0.130393 0.353543 1.07 
0.201779 0.388567 1.176 
0.269466 0.408061 1.235 
0.349008 0.435485 1.318 
0.43037 0.456632 1.382 
2.21563 2.0185 6.109 
2.31905 1.87212 5.666 
3.57884 2.59375 7.85 
3.84906 2.52304 7.636 
3.34316 2.00594 6.071 
3.93135 2.17478 6.582 
4.4474 2.28217 6.907 
7.75717 3.71187 11.234 
7.8739 3.52948 10.682 
8.14921 3.43564 10.398 
2.74383 1.06591 3.226 
2.79282 1.02858 3.113 
2.83788 0.993554 3.007 
2.95526 0.985955 2.984 
-0.419961 0.182914 0.551 
-0.400615 0.187894 0.566 
-0.384151 0.192873 0.581 
-0.368133 0.198849 0.599 
-0.352141 0.20582 0.62 
-0.332106 0.211463 0.637 
-0.302415 0.211463 0.637 
-0.281715 0.218435 0.658 
-0.254762 0.22441 0.676 
-0.232171 0.233373 0.703 
-0.206196 0.243996 0.735 
-0.179424 0.254619 0.767 
-0.1443 0.262254 0.79 
-0.112783 0.275201 0.829 
-0.076916 0.285492 0.86 
-0.0384586 0.298107 0.898 
0.0035753 0.313709 0.945 
0.0492346 0.324332 0.977 
0.12482 0.353545 1.065 
0.186418 0.377779 1.138 
0.260943 0.408652 1.231 
0.338748 0.434877 1.31 
0.419035 0.455791 1.373 
2.22868 2.0665 6.225 
2.11501 1.73519 5.227 
3.55669 2.61657 7.882 
3.30907 2.19962 6.626 
3.29412 2.00276 6.033 
3.83607 2.14883 6.473 
4.46251 2.31746 6.981 
7.74939 3.7509 11.299 
8.04385 3.64567 10.982 
8.18723 3.48865 10.509 
7.50707 3.01825 9.092 
2.79616 1.04005 3.133 
2.84171 1.00453 3.026 
2.93741 0.989263 2.98 
-0.422011 0.182436 0.547 
-0.40374 0.187772 0.563 
-0.387556 0.192775 0.578 
-0.371222 0.198445 0.595 
-0.355034 0.205115 0.615 
-0.335921 0.211119 0.633 
-0.306901 0.211452 0.634 
-0.285224 0.217456 0.652 
-0.261088 0.222792 0.668 
-0.239591 0.232131 0.696 
-0.216377 0.24247 0.727 
-0.188265 0.250141 0.75 
-0.158622 0.258812 0.776 
-0.124654 0.271486 0.814 
-0.0900159 0.281825 0.845 
-0.0524277 0.291831 0.875 
-0.0121893 0.305505 0.916 
0.0323041 0.323515 0.97 
0.0811122 0.338524 1.015 
0.135507 0.357201 1.071 
0.203259 0.391554 1.174 
0.271824 0.412566 1.237 
0.351588 0.440248 1.32 
0.431892 0.460259 1.38 
2.19598 1.99379 5.978 
2.50525 2.01847 6.052 
3.60115 2.6078 7.819 
3.75338 2.4237 7.267 
3.5853 2.12353 6.367 
4.28692 2.34499 7.031 
5.17317 2.62881 7.882 
8.13018 3.85751 11.566 
7.83503 3.4863 10.453 
8.14789 3.41325 10.234 
2.75566 1.06693 3.199 
2.7949 1.02658 3.078 
2.88013 1.00623 3.017 
-0.433352 0.181275 0.541 
-0.417189 0.185296 0.553 
-0.396918 0.189987 0.567 
-0.378483 0.195014 0.582 
-0.36343 0.201715 0.602 
-0.347069 0.208752 0.623 
-0.326709 0.214448 0.64 
-0.296879 0.214448 0.64 
-0.275811 0.221484 0.661 
-0.250561 0.226511 0.676 
-0.22845 0.236228 0.705 
-0.203635 0.245945 0.734 
-0.176348 0.255997 0.764 
-0.145159 0.264039 0.788 
-0.113796 0.277107 0.827 
-0.0779792 0.287159 0.857 
-0.0396762 0.299557 0.894 
0.00209816 0.315305 0.941 
0.0476678 0.327033 0.976 
0.0997456 0.350153 1.045 
0.155414 0.366572 1.094 
0.22884 0.403095 1.203 
0.297701 0.421189 1.257 
0.380667 0.450005 1.343 
2.52808 2.51909 7.518 
2.2142 1.93774 5.783 
3.58543 2.78715 8.318 
2.83209 1.96119 5.853 
3.39984 2.14749 6.409 
3.78571 2.19809 6.56 
4.65343 2.49999 7.461 
6.96989 3.48411 10.398 
8.05389 3.76423 11.234 
8.24614 3.61881 10.8 
8.12086 3.35879 10.024 
2.78695 1.06487 3.178 
2.85195 1.03471 3.088 
2.89984 1.00154 2.989 
-0.428994 0.183126 0.544 
-0.409822 0.187502 0.557 
-0.391326 0.192888 0.573 
-0.374163 0.197938 0.588 
-0.357961 0.204333 0.607 
-0.339444 0.210393 0.625 
-0.315774 0.214096 0.636 
-0.290179 0.217125 0.645 
-0.267778 0.223521 0.664 
-0.246102 0.232274 0.69 
-0.219522 0.238333 0.708 
-0.19485 0.250452 0.744 
-0.165124 0.258194 0.767 
-0.134602 0.26863 0.798 
-0.10168 0.280412 0.833 
-0.0654942 0.292194 0.868 
-0.0260171 0.303639 0.902 
0.0168426 0.319124 0.948 
0.0634111 0.331579 0.985 
0.116869 0.35447 1.053 
0.175563 0.375004 1.114 
0.248521 0.409677 1.217 
0.322301 0.432568 1.285 
0.403015 0.456132 1.355 
2.28225 2.19347 6.516 
2.03631 1.72724 5.131 
3.6048 2.70784 8.044 
3.38849 2.27696 6.764 
3.29363 2.02482 6.015 
3.75879 2.12951 6.326 
4.44196 2.33351 6.932 
8.24331 4.03685 11.992 
7.88328 3.61539 10.74 
8.24805 3.55682 10.566 
7.59151 3.08924 9.177 
2.77903 1.04456 3.103 
2.82473 1.00921 2.998 
2.93777 1.00012 2.971 
-0.422011 0.184986 0.547 
-0.405214 0.189044 0.559 
-0.384391 0.196146 0.58 
-0.367216 0.201557 0.596 
-0.351396 0.208658 0.617 
-0.33205 0.214746 0.635 
-0.302929 0.215084 0.636 
-0.281449 0.221509 0.655 
-0.257814 0.227597 0.673 
-0.235194 0.236389 0.699 
-0.209888 0.246197 0.728 
-0.18224 0.254989 0.754 
-0.152363 0.26412 0.781 
-0.121157 0.275957 0.816 
-0.0863829 0.286778 0.848 
-0.0484045 0.296248 0.876 
-0.00793705 0.310451 0.918 
0.0368633 0.328375 0.971 
0.0869427 0.347651 1.028 
0.140368 0.361855 1.07 
0.208909 0.397364 1.175 
0.278487 0.419684 1.241 
0.359367 0.44843 1.326 
2.48256 2.5925 7.666 
2.22826 2.03417 6.015 
3.88039 3.08896 9.134 
3.46461 2.4853 7.349 
3.58713 2.32771 6.883 
3.66267 2.18161 6.451 
4.41554 2.43052 7.187 
6.15248 3.1478 9.308 
7.85859 3.75585 11.106 
7.96897 3.57323 10.566 
8.28288 3.49782 10.343 
2.78548 1.08184 3.199 
2.83276 1.04431 3.088 
2.89861 1.01691 3.007 
-0.432469 0.184137 0.542 
-0.415471 0.187874 0.553 
-0.395339 0.19229 0.566 
-0.376154 0.198406 0.584 
-0.359689 0.204521 0.602 
-0.341262 0.211655 0.623 
-0.31924 0.216412 0.637 
-0.292276 0.21845 0.643 
-0.270465 0.225245 0.663 
-0.246789 0.23204 0.683 
-0.221878 0.239514 0.705 
-0.198938 0.252084 0.742 
-0.169004 0.259218 0.763 
-0.138338 0.268731 0.791 
-0.106472 0.281981 0.83 
-0.0704802 0.293192 0.863 
-0.0314475 0.304743 0.897 
0.0108702 0.319691 0.941 
0.057057 0.333281 0.981 
0.109487 0.355024 1.045 
0.166975 0.374729 1.103 
0.238186 0.408702 1.203 
0.309423 0.429766 1.265 
0.391682 0.456945 1.345 
2.60335 2.59422 7.636 
2.17682 1.9083 5.617 
3.73671 2.86261 8.426 
2.92082 2.01837 5.941 
3.27793 2.06899 6.09 
3.62963 2.1084 6.206 
4.62298 2.48721 7.321 
7.70637 3.8611 11.365 
8.14116 3.81659 11.234 
8.23902 3.62906 10.682 
8.19873 3.40551 10.024 
2.78555 1.06779 3.143 
2.8313 1.0311 3.035 
2.91007 1.00936 2.971 
-0.425613 0.185661 0.544 
-0.409086 0.189757 0.556 
-0.387331 0.196241 0.575 
-0.370562 0.201702 0.591 
-0.354624 0.208528 0.611 
-0.334938 0.216036 0.633 
-0.305433 0.216036 0.633 
