# .PCD v.7 - Point Cloud Data file format
VERSION .7
FIELDS x y z
SIZE 4 4 4
TYPE F F F
COUNT 1 1 1
WIDTH 1924
HEIGHT 1
VIEWPOINT 0 0 0 1 0 0 0
POINTS 1924
DATA ascii
0.242282 0.420726 1.023 
0.316919 0.457329 1.112 
0.394798 0.487352 1.185 
0.48714 0.516963 1.257 
3.07381 2.84062 6.907 
2.42969 2.01973 4.911 
3.71316 2.82088 6.859 
9.12138 6.13693 14.922 
3.80877 2.31009 5.617 
4.21624 2.39275 5.818 
4.75583 2.53587 6.166 
10.1127 5.05612 12.294 
8.98994 4.25374 10.343 
8.06354 3.62121 8.805 
8.66932 3.70469 9.008 
-0.406054 0.214254 0.519 
-0.389956 0.218795 0.53 
-0.372834 0.223336 0.541 
-0.356613 0.229116 0.555 
-0.339087 0.234895 0.569 
-0.318609 0.239436 0.58 
-0.294612 0.24728 0.599 
-0.272035 0.252233 0.611 
-0.246552 0.264618 0.641 
-0.216336 0.264205 0.64 
-0.192043 0.272049 0.659 
-0.166957 0.281544 0.682 
-0.138934 0.289387 0.701 
-0.109899 0.299295 0.725 
-0.0793603 0.312093 0.756 
-0.045582 0.322413 0.781 
-0.00954374 0.33521 0.812 
0.0294541 0.348834 0.845 
0.0726688 0.368236 0.892 
0.117191 0.377731 0.915 
0.228669 0.420664 1.019 
0.2908 0.442957 1.073 
0.370352 0.481349 1.166 
0.458682 0.509008 1.233 
0.537083 0.529649 1.283 
2.99251 2.58632 6.265 
2.71217 2.12933 5.158 
4.25429 3.06808 7.432 
3.56524 2.24781 5.445 
4.11713 2.42326 5.87 
4.51265 2.49055 6.033 
10.3465 5.34397 12.945 
8.79542 4.29251 10.398 
8.11449 3.75337 9.092 
8.45938 3.71869 9.008 
8.87925 3.71869 9.008 
-0.396182 0.216718 0.523 
-0.380336 0.22169 0.535 
-0.365364 0.227906 0.55 
-0.347758 0.233293 0.563 
-0.327227 0.237437 0.573 
-0.308911 0.244067 0.589 
-0.28581 0.250282 0.604 
-0.261332 0.26147 0.631 
-0.230689 0.262299 0.633 
-0.205317 0.267686 0.646 
-0.181987 0.278045 0.671 
-0.154305 0.284675 0.687 
-0.126022 0.293377 0.708 
-0.0965956 0.308295 0.744 
-0.0639149 0.31824 0.768 
-0.0291433 0.329842 0.796 
0.00827842 0.343102 0.828 
0.0484002 0.35429 0.855 
0.0932065 0.37418 0.903 
0.195556 0.406087 0.98 
0.253049 0.425977 1.028 
0.327899 0.464099 1.12 
0.40318 0.492277 1.188 
0.502826 0.525012 1.267 
3.11574 2.8223 6.811 
2.39734 1.97076 4.756 
4.10418 3.07963 7.432 
9.16771 6.23053 15.036 
3.66838 2.26248 5.46 
4.20523 2.42533 5.853 
4.79326 2.59606 6.265 
10.9844 5.58618 13.481 
9.35494 4.50011 10.86 
7.92432 3.61625 8.727 
8.44373 3.66514 8.845 
-0.406913 0.214619 0.516 
-0.391024 0.219194 0.527 
-0.374805 0.224185 0.539 
-0.358765 0.230008 0.553 
-0.340817 0.235415 0.566 
-0.321102 0.240406 0.578 
-0.302813 0.247477 0.595 
-0.277731 0.254132 0.611 
-0.251739 0.263698 0.634 
-0.222539 0.264114 0.635 
-0.19841 0.271601 0.653 
-0.174405 0.281999 0.678 
-0.145962 0.288238 0.693 
-0.11727 0.297389 0.715 
-0.0825552 0.313194 0.753 
-0.0488441 0.322344 0.775 
-0.00830256 0.338565 0.814 
0.030767 0.351459 0.845 
0.0761171 0.374335 0.9 
0.123146 0.381406 0.917 
0.238402 0.424247 1.02 
0.304727 0.452114 1.087 
0.38351 0.487884 1.173 
0.460224 0.512424 1.232 
0.537396 0.531972 1.279 
2.98361 2.58125 6.206 
3.20976 2.50929 6.033 
10.1981 7.19514 17.299 
3.52036 2.25225 5.415 
3.93649 2.34999 5.65 
4.35073 2.43443 5.853 
9.93693 5.21158 12.53 
9.1691 4.54193 10.92 
8.61899 4.0449 9.725 
8.25134 3.67888 8.845 
9.33946 3.96587 9.535 
-0.396182 0.218343 0.523 
-0.380336 0.223353 0.535 
-0.364699 0.229198 0.549 
-0.347758 0.235042 0.563 
-0.326656 0.2388 0.572 
-0.308911 0.245897 0.589 
-0.285337 0.251742 0.603 
-0.261481 0.262596 0.629 
-0.23364 0.264266 0.633 
-0.20736 0.268441 0.643 
-0.184563 0.279295 0.669 
-0.157049 0.285975 0.685 
-0.129139 0.29516 0.707 
-0.0993147 0.304762 0.73 
-0.066215 0.320209 0.767 
-0.0254651 0.332733 0.797 
0.0121084 0.34484 0.826 
0.0523854 0.356947 0.855 
0.100443 0.377821 0.905 
0.215238 0.420822 1.008 
0.273147 0.438356 1.05 
0.350922 0.477599 1.144 
0.418379 0.494298 1.184 
0.509133 0.529367 1.268 
3.08295 2.77584 6.649 
2.47197 2.01017 4.815 
4.23804 3.15074 7.547 
8.89745 6.00047 14.373 
3.72495 2.29865 5.506 
4.2072 2.42891 5.818 
4.83785 2.62387 6.285 
10.6995 5.44062 13.032 
9.6914 4.66327 11.17 
8.27385 3.77821 9.05 
8.61592 3.74356 8.967 
-0.397905 0.218317 0.521 
-0.382226 0.223346 0.533 
-0.36677 0.229212 0.547 
-0.350009 0.235079 0.561 
-0.329634 0.239269 0.571 
-0.310979 0.245555 0.586 
-0.290443 0.251421 0.6 
-0.267726 0.25645 0.612 
-0.242044 0.266926 0.637 
-0.212359 0.268183 0.64 
-0.189658 0.278659 0.665 
-0.162718 0.285782 0.682 
-0.135346 0.29542 0.705 
-0.105102 0.302963 0.723 
-0.069426 0.319724 0.763 
-0.0289603 0.331457 0.791 
0.00820844 0.344028 0.821 
0.0484002 0.358275 0.855 
0.0956934 0.377132 0.9 
0.21967 0.424902 1.014 
0.2772 0.441244 1.053 
0.355717 0.481053 1.148 
0.422058 0.496138 1.184 
0.513478 0.531756 1.269 
3.07235 2.76731 6.604 
2.52028 2.06333 4.924 
4.2661 3.17461 7.576 
8.7907 5.93564 14.165 
3.7335 2.30721 5.506 
4.19088 2.42328 5.783 
4.86382 2.64244 6.306 
10.529 5.3536 12.776 
9.78184 4.70744 11.234 
8.37903 3.82747 9.134 
8.7238 3.79227 9.05 
-0.396995 0.219968 0.523 
-0.379742 0.224174 0.533 
-0.364886 0.230483 0.548 
-0.347758 0.236792 0.563 
-0.326656 0.240577 0.572 
-0.308386 0.247306 0.588 
-0.287192 0.252774 0.601 
-0.265648 0.259083 0.616 
-0.23659 0.266233 0.633 
-0.209703 0.269598 0.641 
-0.1874 0.280954 0.668 
-0.159774 0.287262 0.683 
-0.132247 0.296936 0.706 
-0.101732 0.304086 0.723 
-0.0569033 0.323854 0.77 
-0.0156955 0.338154 0.804 
0.0225918 0.350771 0.834 
0.0638969 0.364651 0.867 
0.109722 0.383577 0.912 
0.22506 0.427739 1.017 
0.283447 0.444983 1.058 
0.36264 0.484939 1.153 
0.429744 0.500501 1.19 
0.518983 0.533307 1.268 
3.05128 2.71322 6.451 
4.09264 3.12582 7.432 
9.12099 6.32398 15.036 
3.52595 2.22786 5.297 
4.15604 2.45414 5.835 
4.6071 2.5534 6.071 
11.7533 6.09013 14.48 
9.58727 4.69798 11.17 
8.11438 3.77142 8.967 
8.45431 3.73693 8.885 
-0.400442 0.21867 0.518 
-0.385742 0.224158 0.531 
-0.36915 0.229224 0.543 
-0.350009 0.236822 0.561 
-0.329056 0.240621 0.57 
-0.310449 0.246954 0.585 
-0.290443 0.253286 0.6 
-0.268163 0.258774 0.613 
-0.24819 0.268061 0.635 
-0.218592 0.268061 0.635 
-0.19465 0.276081 0.654 
-0.16994 0.285791 0.677 
-0.142473 0.294234 0.697 
-0.113142 0.302676 0.717 
-0.070519 0.321673 0.762 
-0.0358287 0.329271 0.78 
0.000552321 0.344891 0.817 
0.0403825 0.36051 0.854 
0.0853326 0.377396 0.894 
0.182822 0.409056 0.969 
0.252803 0.433541 1.027 
0.326435 0.470689 1.115 
0.400126 0.497706 1.179 
0.479783 0.524724 1.243 
3.07382 2.90561 6.883 
2.90391 2.48558 5.888 
8.22486 5.93659 14.063 
3.3927 2.22427 5.269 
3.78053 2.31123 5.475 
4.15219 2.37793 5.633 
9.47301 5.06234 11.992 
10.2202 5.15732 12.217 
9.08599 4.34301 10.288 
8.41446 3.82039 9.05 
9.17607 3.9673 9.398 
-0.394497 0.222017 0.524 
-0.377136 0.226254 0.534 
-0.360821 0.231762 0.547 
-0.345134 0.238541 0.563 
-0.324556 0.242778 0.573 
-0.306166 0.249557 0.589 
-0.28439 0.254642 0.601 
-0.265336 0.263539 0.622 
-0.240904 0.268624 0.634 
-0.212686 0.270318 0.638 
-0.191265 0.282606 0.667 
-0.163298 0.288114 0.68 
-0.136248 0.298282 0.704 
-0.105932 0.305485 0.721 
-0.0579488 0.325399 0.768 
-0.0229308 0.336839 0.795 
0.0186148 0.351668 0.83 
0.0591654 0.363108 0.857 
0.106419 0.384716 0.908 
0.231153 0.430476 1.016 
0.29057 0.449118 1.06 
0.373208 0.490641 1.158 
0.443415 0.509283 1.202 
0.525617 0.535976 1.265 
3.07175 2.74259 6.473 
4.23344 3.18535 7.518 
8.85279 6.08979 14.373 
3.64485 2.28796 5.4 
4.21043 2.47227 5.835 
4.79736 2.64598 6.245 
11.3235 5.83261 13.766 
9.59924 4.6793 11.044 
8.5654 3.96283 9.353 
8.47395 3.73065 8.805 
-0.398796 0.220705 0.519 
-0.383267 0.225808 0.531 
-0.364582 0.231761 0.545 
-0.349137 0.238565 0.561 
-0.328171 0.242393 0.57 
-0.30954 0.248771 0.585 
-0.289028 0.254725 0.599 
-0.268083 0.261529 0.615 
-0.246814 0.269609 0.634 
-0.217263 0.269609 0.634 
-0.193634 0.278114 0.654 
-0.168888 0.287894 0.677 
-0.141999 0.297675 0.7 
-0.112028 0.304904 0.717 
-0.0567555 0.326592 0.768 
-0.0204862 0.338499 0.796 
0.0212705 0.354233 0.833 
0.0620448 0.365715 0.86 
0.107949 0.386552 0.909 
0.215238 0.428652 1.008 
0.270025 0.44141 1.038 
0.347548 0.481808 1.133 
0.417319 0.502221 1.181 
0.504363 0.53624 1.261 
3.07262 2.84662 6.694 
2.97759 2.48899 5.853 
8.9591 6.34558 14.922 
3.43763 2.21683 5.213 
4.03575 2.43073 5.716 
4.3654 2.46645 5.8 
11.6634 6.15762 14.48 
9.74025 4.86103 11.431 
8.32557 3.93952 9.264 
8.55507 3.84851 9.05 
-0.40294 0.219377 0.514 
-0.38783 0.224499 0.526 
-0.371602 0.229621 0.538 
-0.354899 0.235169 0.551 
-0.338179 0.241571 0.566 
-0.317306 0.245839 0.576 
-0.296267 0.253095 0.593 
-0.275875 0.259924 0.609 
-0.256837 0.26974 0.632 
-0.2263 0.26846 0.629 
-0.202619 0.276142 0.647 
-0.179126 0.286812 0.672 
-0.151323 0.293641 0.688 
-0.123242 0.303458 0.711 
-0.063582 0.326078 0.764 
-0.0264018 0.336321 0.788 
0.0199284 0.354674 0.831 
0.0604969 0.365771 0.857 
0.106185 0.386684 0.906 
0.199492 0.423389 0.992 
0.254151 0.437901 1.026 
0.327873 0.47546 1.114 
0.401276 0.502348 1.177 
0.482489 0.531371 1.245 
3.0631 2.92745 6.859 
3.07998 2.66539 6.245 
4.14624 3.16006 7.404 
8.80813 6.13445 14.373 
3.59783 2.28553 5.355 
4.16715 2.47546 5.8 
4.57368 2.55143 5.978 
11.8208 6.18012 14.48 
8.92566 4.41443 10.343 
8.42632 3.95391 9.264 
8.41923 3.75801 8.805 
-0.398833 0.221889 0.518 
-0.383369 0.22703 0.53 
-0.367463 0.232598 0.543 
-0.351605 0.239024 0.558 
-0.331432 0.243307 0.568 
-0.3114 0.248447 0.58 
-0.288097 0.256586 0.599 
-0.265874 0.26601 0.621 
-0.242271 0.272007 0.635 
-0.213008 0.272435 0.636 
-0.192301 0.285715 0.667 
-0.163629 0.289998 0.677 
-0.136951 0.300707 0.702 
-0.106755 0.307989 0.719 
-0.0452902 0.332405 0.776 
-0.00824136 0.346113 0.808 
0.036061 0.36239 0.846 
0.0793305 0.38081 0.889 
0.124299 0.391947 0.915 
0.223041 0.434783 1.015 
0.278607 0.448062 1.046 
0.358551 0.488328 1.14 
0.427938 0.507604 1.185 
0.515382 0.541444 1.264 
3.11394 2.84815 6.649 
3.30027 2.74534 6.409 
4.14202 3.15957 7.376 
8.8737 6.20262 14.48 
3.60791 2.30028 5.37 
4.14272 2.46991 5.766 
4.51859 2.52988 5.906 
11.7983 6.20262 14.48 
8.6796 4.31613 10.076 
8.37197 3.94946 9.22 
8.48192 3.80596 8.885 
-0.39799 0.223124 0.519 
-0.381722 0.227853 0.53 
-0.365775 0.233442 0.543 
-0.350498 0.24032 0.559 
-0.329667 0.24419 0.568 
-0.310131 0.249778 0.581 
-0.286714 0.257947 0.6 
-0.26651 0.265685 0.618 
-0.244244 0.272994 0.635 
-0.214646 0.272994 0.635 
-0.192917 0.284601 0.662 
-0.165488 0.29062 0.676 
-0.138934 0.301368 0.701 
-0.108686 0.308246 0.717 
-0.0486551 0.331891 0.772 
-0.0131972 0.345649 0.804 
0.0279414 0.360696 0.839 
0.0695248 0.374023 0.87 
0.116679 0.391649 0.911 
0.205556 0.429481 0.999 
0.259186 0.441519 1.027 
0.333664 0.479781 1.116 
0.407799 0.507295 1.18 
0.491038 0.538249 1.252 
3.30354 3.14738 7.321 
3.2226 2.78282 6.473 
3.98601 3.14738 7.321 
8.69057 6.27154 14.588 
3.40306 2.22909 5.185 
3.88162 2.37397 5.522 
4.27167 2.45006 5.699 
10.8289 5.83605 13.575 
10.5794 5.38679 12.53 
8.45406 4.07943 9.489 
8.44539 3.87264 9.008 
-0.402142 0.221773 0.514 
-0.387013 0.226951 0.526 
-0.370766 0.232128 0.538 
-0.354685 0.238169 0.552 
-0.3373 0.244209 0.566 
-0.315862 0.248092 0.575 
-0.293008 0.255427 0.592 
-0.274382 0.264057 0.612 
-0.254694 0.273549 0.634 
-0.223368 0.271391 0.629 
-0.199603 0.279158 0.647 
-0.175994 0.289944 0.672 
-0.149192 0.299005 0.693 
-0.120096 0.307203 0.712 
-0.0689711 0.32705 0.758 
-0.0345725 0.336111 0.779 
0.0018083 0.349918 0.811 
0.0413675 0.365451 0.847 
0.0846644 0.382709 0.887 
0.164651 0.410323 0.951 
0.222601 0.437074 1.013 
0.278341 0.450881 1.045 
0.354902 0.489281 1.134 
0.426456 0.511717 1.186 
0.513419 0.545372 1.264 
3.42004 3.18249 7.376 
3.42756 2.89815 6.717 
4.0319 3.12381 7.24 
9.00629 6.38956 14.809 
3.55352 2.29798 5.326 
4.02091 2.43044 5.633 
4.35875 2.47316 5.732 
11.6256 6.15614 14.268 
8.29454 4.15458 9.629 
8.33293 3.95955 9.177 
8.40555 3.79905 8.805 
-0.395476 0.225603 0.521 
-0.378317 0.229933 0.531 
-0.362223 0.235562 0.544 
-0.346775 0.24249 0.56 
-0.326399 0.246821 0.57 
-0.307196 0.252883 0.584 
-0.283457 0.260244 0.601 
-0.263944 0.268905 0.621 
-0.240297 0.274967 0.635 
-0.211695 0.276266 0.638 
-0.190229 0.288823 0.667 
-0.161048 0.292288 0.675 
-0.134578 0.303546 0.701 
-0.104375 0.310907 0.718 
-0.0575715 0.330393 0.763 
-0.0227578 0.341652 0.789 
0.0146218 0.356374 0.823 
0.0547846 0.368499 0.851 
0.108639 0.391016 0.903 
0.188305 0.42176 0.974 
0.243541 0.439514 1.015 
0.30919 0.467227 1.079 
0.388468 0.5049 1.166 
0.465982 0.531314 1.227 
0.545344 0.553831 1.279 
3.26293 2.9389 6.787 
3.74856 3.0779 7.108 
4.28249 3.23075 7.461 
3.35103 2.27551 5.255 
3.70545 2.3448 5.415 
4.0821 2.41841 5.585 
10.4131 5.71931 13.208 
11.1798 5.79769 13.389 
8.05263 3.95519 9.134 
8.5582 3.99243 9.22 
-0.40375 0.222936 0.513 
-0.387984 0.227716 0.524 
-0.371886 0.232931 0.536 
-0.355964 0.239015 0.55 
-0.338737 0.245099 0.564 
-0.317988 0.249444 0.574 
-0.298337 0.255528 0.588 
-0.279224 0.263351 0.606 
-0.260504 0.273346 0.629 
-0.231186 0.273346 0.629 
-0.206361 0.27943 0.643 
-0.182975 0.28986 0.667 
-0.154618 0.295075 0.679 
-0.127678 0.306373 0.705 
-0.0830911 0.32028 0.737 
-0.0474556 0.33549 0.772 
-0.0119034 0.348092 0.801 
0.0265744 0.363737 0.837 
0.0675462 0.374601 0.862 
0.12362 0.395461 0.91 
0.20773 0.435441 1.002 
0.260527 0.445871 1.026 
0.334496 0.483679 1.113 
0.408938 0.511926 1.178 
0.49377 0.544954 1.254 
3.85346 3.59956 8.283 
3.62056 3.05548 7.031 
4.11113 3.1815 7.321 
9.35844 6.63635 15.271 
3.62807 2.34669 5.4 
4.00694 2.41318 5.553 
4.36487 2.46924 5.682 
11.4847 6.0675 13.962 
7.65314 3.82641 8.805 
8.5654 4.06455 9.353 
8.25067 3.72559 8.573 
-0.393102 0.226785 0.52 
-0.376667 0.231583 0.531 
-0.360533 0.237253 0.544 
-0.344419 0.243794 0.559 
-0.325198 0.249028 0.571 
-0.305904 0.255134 0.585 
-0.285305 0.261239 0.599 
-0.26459 0.269526 0.618 
-0.241889 0.276504 0.634 
-0.213008 0.277376 0.636 
-0.191148 0.289151 0.663 
-0.162904 0.293949 0.674 
-0.136561 0.305288 0.7 
-0.106161 0.31183 0.715 
-0.0643451 0.33102 0.759 
-0.0298075 0.340614 0.781 
0.00683998 0.353262 0.81 
0.0480039 0.369835 0.848 
0.105247 0.391641 0.898 
0.178141 0.418681 0.96 
0.234263 0.440051 1.009 
0.29356 0.459241 1.053 
0.375505 0.503289 1.154 
0.447894 0.525096 1.204 
0.536664 0.559113 1.282 
3.47078 3.08864 7.082 
4.0821 3.31717 7.606 
4.45411 3.33026 7.636 
3.3282 2.24343 5.144 
3.72472 2.342 5.37 
4.23639 2.44972 5.617 
11.131 6.00371 13.766 
9.18483 4.68399 10.74 
8.16137 3.94694 9.05 
8.23986 3.78906 8.688 
-0.398947 0.224967 0.514 
-0.383744 0.230219 0.526 
-0.367111 0.236347 0.54 
-0.351439 0.242912 0.555 
-0.332023 0.247727 0.566 
-0.311582 0.252541 0.577 
-0.291595 0.258669 0.591 
-0.272984 0.267422 0.611 
-0.252909 0.276614 0.632 
-0.222037 0.274863 0.628 
-0.198598 0.283179 0.647 
-0.174169 0.292808 0.669 
-0.148543 0.304187 0.695 
-0.118823 0.31119 0.711 
-0.079764 0.323008 0.738 
-0.0473942 0.337451 0.771 
-0.0118589 0.349268 0.798 
0.0265426 0.3659 0.836 
0.0674678 0.376842 0.861 
0.115782 0.395662 0.904 
0.1931 0.430239 0.983 
0.251922 0.44512 1.017 
0.324636 0.482761 1.103 
0.39889 0.512085 1.17 
0.480164 0.542285 1.239 
0.559622 0.564169 1.289 
4.00532 3.4778 7.946 
4.14202 3.22832 7.376 
9.60765 6.84443 15.638 
3.64656 2.37004 5.415 
3.97725 2.3766 5.43 
11.0292 6.11088 13.962 
11.2006 5.86009 13.389 
7.81159 3.87128 8.845 
8.41446 3.961 9.05 
8.63612 3.87128 8.845 
-0.390678 0.228401 0.52 
-0.374897 0.233672 0.532 
-0.358075 0.2407 0.548 
-0.340421 0.24641 0.561 
-0.320435 0.251241 0.572 
-0.299654 0.25783 0.587 
-0.280643 0.265736 0.605 
-0.257982 0.276717 0.63 
-0.224606 0.275399 0.627 
-0.201302 0.283745 0.646 
-0.176757 0.292969 0.667 
-0.150036 0.301753 0.687 
-0.121965 0.311856 0.71 
-0.0851495 0.322836 0.735 
-0.0495316 0.336892 0.767 
-0.0142307 0.347873 0.792 
0.0238303 0.365442 0.832 
0.0647172 0.377741 0.86 
0.109555 0.394871 0.899 
0.179633 0.421664 0.96 
0.235597 0.442747 1.008 
0.295196 0.462513 1.053 
0.378933 0.509071 1.159 
0.450885 0.530155 1.207 
0.538656 0.563097 1.282 
3.75973 3.38034 7.696 
4.12937 3.34081 7.606 
9.00362 6.6557 15.153 
3.36931 2.26557 5.158 
3.66781 2.30202 5.241 
4.22961 2.45312 5.585 
11.1163 6.00388 13.669 
8.70865 4.44855 10.128 
8.24162 3.99351 9.092 
8.31753 3.83319 8.727 
-0.399765 0.226124 0.513 
-0.384646 0.231413 0.525 
-0.368408 0.236703 0.537 
-0.35275 0.243755 0.553 
-0.33407 0.249045 0.565 
-0.310685 0.254334 0.577 
-0.288461 0.261827 0.594 
-0.265648 0.271525 0.616 
-0.242705 0.278137 0.631 
-0.212353 0.280781 0.637 
-0.187947 0.290479 0.659 
-0.160571 0.29665 0.673 
-0.134194 0.30811 0.699 
-0.103794 0.314722 0.714 
-0.0629994 0.333676 0.757 
-0.0285575 0.343814 0.78 
0.00933383 0.356156 0.808 
0.0493214 0.373787 0.848 
0.0931426 0.39186 0.889 
0.160675 0.416544 0.945 
0.220154 0.444754 1.009 
0.295196 0.464149 1.053 
0.378933 0.510872 1.159 
0.450511 0.531589 1.206 
0.538656 0.565089 1.282 
3.86623 3.48839 7.914 
4.77667 3.93446 8.926 
4.51264 3.41918 7.757 
3.33725 2.27358 5.158 
3.6942 2.34763 5.326 
4.24697 2.4618 5.585 
11.238 6.06787 13.766 
8.39235 4.28665 9.725 
8.30807 4.02615 9.134 
8.34464 3.84675 8.727 
-0.399765 0.226921 0.513 
-0.383744 0.232671 0.526 
-0.366431 0.238422 0.539 
-0.348852 0.245499 0.555 
-0.330549 0.251249 0.568 
-0.307265 0.256115 0.579 
-0.286208 0.264077 0.597 
-0.264691 0.272482 0.616 
-0.241342 0.278675 0.63 
-0.21202 0.281329 0.636 
-0.188111 0.290175 0.656 
-0.161617 0.297695 0.673 
-0.13528 0.309196 0.699 
-0.104756 0.315389 0.713 
-0.0629162 0.33441 0.756 
-0.0285209 0.344583 0.779 
0.00932228 0.356969 0.807 
0.0506987 0.375547 0.849 
0.0991115 0.39501 0.893 
0.162144 0.418012 0.945 
0.221502 0.445879 1.008 
0.294915 0.465342 1.052 
0.378606 0.51223 1.158 
0.449764 0.532578 1.204 
0.537816 0.566196 1.28 
3.88559 3.52944 7.979 
5.91009 4.88521 11.044 
9.53811 6.97306 15.764 
3.47123 2.31211 5.227 
3.25722 1.99673 4.514 
11.2645 6.35776 14.373 
11.2719 6.00477 13.575 
7.68734 3.87756 8.766 
8.39701 4.02176 9.092 
8.54235 3.89481 8.805 
-0.394888 0.229049 0.516 
-0.378536 0.23482 0.529 
-0.359313 0.242366 0.546 
-0.341813 0.248137 0.559 
-0.321407 0.252576 0.569 
-0.300054 0.260122 0.586 
-0.280652 0.267668 0.603 
-0.260504 0.276102 0.622 
-0.232629 0.277434 0.625 
-0.205719 0.284536 0.641 
-0.181603 0.293858 0.662 
-0.153707 0.299629 0.675 
-0.12786 0.313389 0.706 
-0.0968355 0.319604 0.72 
-0.0536612 0.336472 0.758 
-0.0189351 0.347569 0.783 
0.0183457 0.363106 0.818 
0.063381 0.381749 0.86 
0.107797 0.397729 0.896 
0.170561 0.422143 0.951 
0.226863 0.44567 1.004 
0.300735 0.470972 1.061 
0.386656 0.517581 1.166 
0.45878 0.538444 1.213 
0.546331 0.570848 1.286 
4.08944 3.69231 8.318 
9.36491 7.67893 17.299 
9.53811 6.99755 15.764 
3.46193 2.31402 5.213 
3.20599 1.97222 4.443 
11.4104 6.47553 14.588 
11.3287 6.06759 13.669 
7.81378 3.9622 8.926 
8.38288 4.03589 9.092 
8.56741 3.92625 8.845 
-0.395723 0.229406 0.515 
-0.38038 0.234751 0.527 
-0.362244 0.240096 0.539 
-0.344052 0.248115 0.557 
-0.324943 0.25346 0.569 
-0.304715 0.258805 0.581 
-0.284829 0.266378 0.598 
-0.264691 0.274396 0.616 
-0.240192 0.279296 0.627 
-0.212338 0.282414 0.634 
-0.187977 0.290432 0.652 
-0.162421 0.299341 0.672 
-0.136366 0.311368 0.699 
-0.105716 0.317159 0.712 
-0.0673462 0.335422 0.753 
-0.0333193 0.346559 0.778 
0.00304563 0.358586 0.805 
0.0425323 0.375958 0.844 
0.0847815 0.389322 0.874 
0.130976 0.406249 0.912 
0.202778 0.44233 0.993 
0.254079 0.451239 1.013 
0.337044 0.494447 1.11 
0.410847 0.522511 1.173 
0.492508 0.552801 1.241 
4.92977 4.78411 10.74 
5.81527 5.09192 11.431 
10.6554 7.98822 17.933 
3.35167 2.28559 5.131 
3.60973 2.29762 5.158 
4.24345 2.4807 5.569 
11.5417 6.30977 14.165 
8.8157 4.55871 10.234 
8.21761 4.0313 9.05 
8.40555 3.92217 8.805 
-0.402168 0.228865 0.512 
-0.384953 0.232888 0.521 
-0.369669 0.238699 0.534 
-0.353611 0.245404 0.549 
-0.336387 0.251662 0.563 
-0.316205 0.256579 0.574 
-0.297014 0.263284 0.589 
-0.276426 0.269989 0.604 
-0.257316 0.279823 0.626 
-0.226316 0.277588 0.621 
-0.204045 0.286975 0.642 
-0.179546 0.295915 0.662 
-0.151834 0.302173 0.676 
-0.125844 0.31603 0.707 
-0.094861 0.322735 0.722 
-0.0580639 0.337039 0.754 
-0.02371 0.348661 0.78 
0.0130675 0.360283 0.806 
0.0535253 0.380845 0.852 
0.0991115 0.399173 0.893 
0.160505 0.42197 0.944 
0.221962 0.448343 1.003 
0.285925 0.468905 1.049 
0.357481 0.500642 1.12 
0.433827 0.530144 1.186 
0.521274 0.56501 1.264 
3.71722 3.46739 7.757 
8.20576 6.93478 15.514 
9.38684 6.93478 15.514 
3.42601 2.31145 5.171 
3.11387 1.93731 4.334 
4.30264 2.50366 5.601 
11.8005 6.42476 14.373 
8.27283 4.26216 9.535 
8.27385 4.04537 9.05 
8.53714 3.97161 8.885 
-0.398171 0.230109 0.513 
-0.382285 0.235043 0.524 
-0.36674 0.240874 0.537 
-0.351255 0.247603 0.552 
-0.333192 0.253434 0.565 
-0.312832 0.258368 0.576 
-0.292935 0.264648 0.59 
-0.272633 0.271825 0.606 
-0.25326 0.281693 0.628 
-0.222562 0.279899 0.624 
-0.199678 0.28887 0.644 
-0.17493 0.297841 0.664 
-0.148101 0.306363 0.683 
-0.120522 0.317577 0.708 
-0.0897467 0.325651 0.726 
-0.0546218 0.338659 0.755 
-0.0200744 0.349873 0.78 
0.0169287 0.363778 0.811 
0.0576314 0.383066 0.854 
0.101886 0.40056 0.893 
0.153492 0.420296 0.937 
0.213103 0.447658 0.998 
0.276452 0.468292 1.044 
0.345978 0.498345 1.111 
0.424299 0.529295 1.18 
0.509763 0.562937 1.255 
3.66635 3.46554 7.726 
9.93379 8.35075 18.617 
9.36085 6.90416 15.392 
3.45011 2.31948 5.171 
3.08634 1.91443 4.268 
4.34112 2.51954 5.617 
11.7808 6.39999 14.268 
8.08088 4.15542 9.264 
8.35463 4.07827 9.092 
8.61813 4.00381 8.926 
-0.398191 0.230456 0.512 
-0.382368 0.235407 0.523 
-0.365905 0.241709 0.537 
-0.350397 0.24846 0.552 
-0.332315 0.254312 0.565 
-0.312478 0.259713 0.577 
-0.292514 0.266014 0.591 
-0.27214 0.273216 0.607 
-0.252686 0.283119 0.629 
-0.221947 0.281318 0.625 
-0.198369 0.28942 0.643 
-0.173127 0.299322 0.665 
-0.146833 0.309225 0.687 
-0.118322 0.318677 0.708 
-0.0876113 0.327229 0.727 
-0.0512381 0.340733 0.757 
-0.0152465 0.351535 0.781 
0.0222126 0.369089 0.82 
0.0630125 0.384843 0.855 
0.107677 0.402848 0.895 
0.167429 0.427604 0.95 
0.223508 0.448309 0.996 
0.287829 0.472614 1.05 
0.358901 0.503672 1.119 
0.45051 0.540581 1.201 
0.535587 0.571638 1.27 
3.89798 3.59142 7.979 
11.6012 9.56347 21.247 
9.0982 6.71653 14.922 
3.45814 2.32751 5.171 
3.07273 1.90441 4.231 
12.0153 6.92808 15.392 
11.8898 6.46942 14.373 
8.05683 4.15001 9.22 
8.44699 4.13065 9.177 
8.7113 4.05458 9.008 
-0.397395 0.231251 0.512 
-0.381556 0.23622 0.523 
-0.365071 0.242543 0.537 
-0.350173 0.249769 0.553 
-0.33085 0.254738 0.564 
-0.312122 0.261061 0.578 
-0.291595 0.266933 0.591 
-0.271644 0.274611 0.608 
-0.251709 0.284096 0.629 
-0.220976 0.282289 0.625 
-0.19737 0.290419 0.643 
-0.172867 0.299904 0.664 
-0.145978 0.310744 0.688 
-0.117222 0.319777 0.708 
-0.0864818 0.328359 0.727 
-0.0522758 0.341005 0.755 
-0.0176507 0.352297 0.78 
0.0195447 0.368105 0.815 
0.0602145 0.385268 0.853 
0.107677 0.404238 0.895 
0.174809 0.42908 0.95 
0.229236 0.448953 0.994 
0.300389 0.476052 1.054 
0.389849 0.521219 1.154 
0.467472 0.549222 1.216 
0.552599 0.579032 1.282 
9.84593 8.74148 19.354 
14.3345 11.4659 25.386 
8.91722 6.58886 14.588 
3.47421 2.33555 5.171 
3.10561 1.91911 4.249 
11.9446 6.89734 15.271 
12.0008 6.54008 14.48 
8.06202 4.14491 9.177 
8.52955 4.16433 9.22 
8.83491 4.10652 9.092 
-0.395753 0.232953 0.514 
-0.379029 0.237485 0.524 
-0.363402 0.243377 0.537 
-0.348455 0.250629 0.553 
-0.329681 0.256067 0.565 
-0.3114 0.262866 0.58 
-0.290249 0.268304 0.592 
-0.269755 0.275556 0.608 
-0.249754 0.285073 0.629 
-0.219385 0.283713 0.626 
-0.195372 0.291418 0.643 
-0.171061 0.301389 0.665 
-0.144677 0.313626 0.692 
-0.114859 0.320424 0.707 
-0.0844544 0.330395 0.729 
-0.0501281 0.343538 0.758 
-0.015227 0.353509 0.78 
0.0221584 0.370731 0.818 
0.0627914 0.38614 0.852 
0.107797 0.406082 0.896 
0.176285 0.430556 0.95 
0.230316 0.449591 0.992 
0.311307 0.484488 1.069 
0.391302 0.522558 1.153 
0.468975 0.550658 1.215 
0.553726 0.580117 1.28 
13.1245 11.6567 25.72 
12.2651 9.95399 21.963 
9.02865 6.76289 14.922 
3.39818 2.31911 5.117 
3.08634 1.93433 4.268 
4.30771 2.53121 5.585 
12.5378 6.92107 15.271 
8.08088 4.1986 9.264 
8.39322 4.13968 9.134 
8.73786 4.10161 9.05 
-0.398207 0.232387 0.511 
-0.381716 0.236935 0.521 
-0.367036 0.243302 0.535 
-0.351691 0.250124 0.55 
-0.333762 0.256036 0.563 
-0.314075 0.261493 0.575 
-0.294269 0.26786 0.589 
-0.273158 0.274226 0.603 
-0.253992 0.284231 0.625 
-0.224141 0.283322 0.623 
-0.201053 0.291962 0.642 
-0.176194 0.300603 0.661 
-0.149343 0.308789 0.679 
-0.121682 0.319249 0.702 
-0.0916225 0.328799 0.723 
-0.0589997 0.341532 0.751 
-0.0236493 0.353811 0.778 
0.0130351 0.365635 0.804 
0.053274 0.385645 0.848 
0.0979429 0.407019 0.895 
0.168372 0.430667 0.947 
0.221937 0.449768 0.989 
0.298679 0.476599 1.048 
0.377807 0.515709 1.134 
0.457247 0.547543 1.204 
0.540654 0.576648 1.268 
17.0928 15.3267 33.702 
12.587 10.3365 22.729 
9.69938 7.34681 16.155 
3.34006 2.30887 5.077 
3.56754 2.30296 5.064 
4.26941 2.53261 5.569 
12.4903 6.94479 15.271 
8.09034 4.233 9.308 
8.24945 4.09657 9.008 
8.75016 4.13477 9.092 
-0.399001 0.233181 0.511 
-0.381791 0.237288 0.52 
-0.36718 0.243677 0.534 
-0.351905 0.250522 0.549 
-0.334043 0.256454 0.562 
-0.313727 0.262842 0.576 
-0.293354 0.268775 0.589 
-0.272184 0.276076 0.605 
-0.252453 0.285659 0.626 
-0.218412 0.285659 0.626 
-0.194373 0.293416 0.643 
-0.170028 0.303455 0.665 
-0.144468 0.31532 0.691 
-0.114697 0.322165 0.706 
-0.0844544 0.33266 0.729 
-0.0522758 0.344524 0.755 
-0.0164178 0.355476 0.779 
0.0208109 0.371904 0.815 
0.0612512 0.387419 0.849 
0.106524 0.409322 0.897 
0.177574 0.433051 0.949 
0.23139 0.451761 0.99 
0.316984 0.491461 1.077 
0.400541 0.528879 1.159 
0.476918 0.55489 1.216 
0.56168 0.584094 1.28 
16.0741 14.1588 31.028 
12.4016 10.0222 21.963 
8.24054 6.1517 13.481 
3.46548 2.35372 5.158 
4.09871 2.50567 5.491 
11.0587 6.32602 13.863 
12.1354 6.55874 14.373 
7.73871 3.9294 8.611 
8.58534 4.11056 9.008 
-0.402184 0.23306 0.509 
-0.385151 0.237181 0.518 
-0.370067 0.243133 0.531 
-0.353121 0.248627 0.543 
-0.337471 0.255953 0.559 
-0.315654 0.262364 0.573 
-0.295502 0.268316 0.586 
-0.272184 0.277016 0.605 
-0.250908 0.287089 0.627 
-0.21744 0.286631 0.626 
-0.193374 0.294415 0.643 
-0.168994 0.304488 0.665 
-0.143602 0.316851 0.692 
-0.113439 0.322804 0.705 
-0.0835504 0.334708 0.731 
-0.0511704 0.346155 0.756 
-0.0164178 0.356687 0.779 
0.0208364 0.373628 0.816 
0.0611791 0.38828 0.848 
0.106524 0.410716 0.897 
0.177387 0.434068 0.948 
0.231156 0.452841 0.989 
0.295633 0.477566 1.043 
0.372397 0.514196 1.123 
0.45235 0.547621 1.196 
0.53656 0.578299 1.263 
14.8369 13.561 29.617 
12.481 10.4071 22.729 
11.7628 9.04079 19.745 
7.2161 5.1438 11.234 
3.55304 2.32464 5.077 
4.34616 2.56457 5.601 
11.8938 6.48583 14.165 
7.85834 4.03161 8.805 
8.39625 4.08701 8.926 
8.97617 4.16302 9.092 
-0.390922 0.236607 0.515 
-0.374755 0.241661 0.526 
-0.358894 0.247633 0.539 
-0.34244 0.254065 0.553 
-0.32292 0.260497 0.567 
-0.303812 0.266929 0.581 
-0.27832 0.273821 0.596 
-0.256776 0.284847 0.62 
-0.224141 0.286226 0.623 
-0.20074 0.294495 0.641 
-0.175661 0.302765 0.659 
-0.149343 0.311954 0.679 
-0.121162 0.321142 0.699 
-0.0917492 0.332628 0.724 
-0.0600864 0.344573 0.75 
-0.0259663 0.356059 0.775 
0.0105237 0.368923 0.803 
0.0502209 0.386382 0.841 
0.0947365 0.409353 0.891 
0.157185 0.428649 0.933 
0.210567 0.449783 0.979 
0.277553 0.475971 1.036 
0.352105 0.511806 1.114 
0.42724 0.54121 1.178 
0.510388 0.572911 1.247 
3.7252 3.60653 7.85 
12.0573 10.4424 22.729 
13.1167 10.4424 22.729 
7.61975 5.61287 12.217 
3.51356 2.36975 5.158 
4.14989 2.52274 5.491 
12.5654 7.07156 15.392 
8.07588 4.27638 9.308 
8.35463 4.17715 9.092 
8.73786 4.15785 9.05 
-0.39822 0.235102 0.51 
-0.381057 0.239251 0.519 
-0.366492 0.245705 0.533 
-0.351264 0.25262 0.548 
-0.334637 0.259534 0.563 
-0.310685 0.265988 0.577 
-0.286615 0.273825 0.594 
-0.263831 0.283045 0.614 
-0.232852 0.287194 0.623 
-0.20774 0.292725 0.635 
-0.181509 0.298257 0.647 
-0.156265 0.307938 0.668 
-0.130187 0.320384 0.695 
-0.100466 0.329143 0.714 
-0.0696327 0.341129 0.74 
-0.0365182 0.354497 0.769 
-0.000695092 0.3651 0.792 
0.0376837 0.379851 0.824 
0.0792303 0.395525 0.858 
0.125753 0.417191 0.905 
0.191365 0.442084 0.959 
0.243942 0.456836 0.991 
0.331392 0.5057 1.097 
0.403794 0.53382 1.158 
0.479511 0.559175 1.213 
4.97846 5.03395 10.92 
18.3016 16.3839 35.541 
10.0064 8.1917 17.77 
8.10802 6.13018 13.298 
3.41408 2.35886 5.117 
4.02786 2.50315 5.43 
11.0371 6.39063 13.863 
11.8519 6.48283 14.063 
7.78092 4.00504 8.688 
8.5184 4.13365 8.967 
-0.403755 0.234507 0.507 
-0.386871 0.23867 0.516 
-0.371961 0.244683 0.529 
-0.355182 0.250233 0.541 
-0.338505 0.256709 0.555 
-0.317634 0.262259 0.567 
-0.298518 0.26966 0.583 
-0.274609 0.276598 0.598 
-0.254147 0.288161 0.623 
-0.220623 0.288624 0.624 
-0.196449 0.296025 0.64 
-0.172346 0.3062 0.662 
-0.14662 0.317301 0.686 
-0.116985 0.323777 0.7 
-0.0867197 0.337191 0.729 
-0.0544048 0.347829 0.752 
-0.020023 0.359855 0.778 
0.0169496 0.375581 0.812 
0.0569566 0.390382 0.844 
0.102343 0.414897 0.897 
0.149115 0.425073 0.919 
0.207764 0.45005 0.973 
0.285325 0.478727 1.035 
0.359995 0.516655 1.117 
0.435299 0.545795 1.18 
0.521878 0.580948 1.256 
4.24968 4.12862 8.926 
12.8099 11.3017 24.434 
10.1445 8.21931 17.77 
7.78711 5.83307 12.611 
3.47205 2.3793 5.144 
4.12701 2.54674 5.506 
12.229 7.00884 15.153 
8.17395 4.38903 9.489 
7.85349 4.00049 8.649 
8.61333 4.16655 9.008 
-0.400604 0.235295 0.507 
-0.383541 0.2404 0.518 
-0.368417 0.246433 0.531 
-0.352081 0.252466 0.544 
-0.335734 0.259427 0.559 
-0.315218 0.264068 0.569 
-0.296308 0.27103 0.584 
-0.275077 0.277063 0.597 
-0.254706 0.288665 0.622 
-0.225714 0.288665 0.622 
-0.202415 0.297019 0.64 
-0.17636 0.303516 0.654 
-0.149892 0.31187 0.672 
-0.123157 0.323936 0.698 
-0.0916225 0.335539 0.723 
-0.0600062 0.347605 0.749 
-0.0259663 0.359671 0.775 
0.0105368 0.37313 0.804 
0.0500418 0.388909 0.838 
0.0945239 0.412578 0.889 
0.139172 0.422324 0.91 
0.193737 0.443672 0.956 
0.282895 0.478943 1.032 
0.357938 0.517927 1.116 
0.432731 0.546701 1.178 
0.519926 0.5829 1.256 
4.75023 4.67619 10.076 
14.9365 13.3408 28.746 
9.37991 7.68815 16.566 
7.98633 6.04805 13.032 
3.40397 2.36223 5.09 
4.10469 2.56272 5.522 
11.6184 6.72005 14.48 
11.9393 6.52653 14.063 
8.34416 4.20003 9.05 
8.68558 4.16151 8.967 
-0.396635 0.237479 0.51 
-0.379444 0.24167 0.519 
-0.365521 0.248655 0.534 
-0.348923 0.254708 0.547 
-0.333479 0.262624 0.564 
-0.312637 0.267281 0.574 
-0.29186 0.272868 0.586 
-0.270866 0.279387 0.6 
-0.251647 0.290563 0.624 
-0.222205 0.290097 0.623 
-0.198438 0.298013 0.64 
-0.173876 0.307326 0.66 
-0.14745 0.316639 0.68 
-0.118819 0.325021 0.698 
-0.0887408 0.338524 0.727 
-0.0565906 0.349234 0.75 
-0.0224116 0.361807 0.777 
0.0143908 0.377173 0.81 
0.0540765 0.391142 0.84 
0.0992224 0.416287 0.894 
0.143729 0.424669 0.912 
0.196914 0.445623 0.957 
0.270362 0.475424 1.021 
0.342864 0.512676 1.101 
0.417453 0.542943 1.166 
0.502957 0.578798 1.243 
5.4419 5.48344 11.776 
14.0058 12.8197 27.531 
9.27804 7.77954 16.707 
8.91426 6.89575 14.809 
3.35783 2.37666 5.104 
3.5767 2.36408 5.077 
4.34616 2.60808 5.601 
12.0246 6.64383 14.268 
8.08702 4.06369 8.727 
8.68748 4.15635 8.926 
-0.394237 0.238739 0.511 
-0.377668 0.243411 0.521 
-0.36288 0.249952 0.535 
-0.346787 0.256492 0.549 
-0.329974 0.2635 0.564 
-0.309609 0.26864 0.575 
-0.28871 0.274246 0.587 
-0.268028 0.281254 0.602 
-0.249137 0.292 0.625 
-0.219301 0.291065 0.623 
-0.19576 0.299475 0.641 
-0.171318 0.309286 0.662 
-0.145554 0.320499 0.686 
-0.115732 0.326572 0.699 
-0.0855871 0.340588 0.729 
-0.0531656 0.350867 0.751 
-0.01879 0.363014 0.777 
0.018256 0.3803 0.814 
0.0581989 0.393849 0.843 
0.103274 0.417209 0.893 
0.148791 0.428422 0.917 
0.200096 0.447577 0.958 
0.263522 0.473273 1.013 
0.334971 0.510182 1.092 
0.408838 0.54055 1.157 
0.489564 0.571852 1.224 
5.71948 5.74375 12.294 
13.34 12.1766 26.063 
8.73298 7.30607 15.638 
8.50891 6.57023 14.063 
3.35584 2.37197 5.077 
3.59248 2.37197 5.077 
4.33374 2.60931 5.585 
12.1131 6.71506 14.373 
8.00629 4.02305 8.611 
8.59707 4.11369 8.805 
-0.389404 0.24047 0.513 
-0.374755 0.246564 0.526 
-0.358228 0.252189 0.538 
-0.341821 0.258752 0.552 
-0.323536 0.264846 0.565 
-0.303514 0.270471 0.577 
-0.283811 0.277502 0.592 
-0.264441 0.286408 0.611 
-0.240596 0.292033 0.623 
-0.212577 0.293439 0.626 
-0.189258 0.302815 0.646 
-0.163582 0.311252 0.664 
-0.137627 0.322971 0.689 
-0.107809 0.330002 0.704 
-0.0769459 0.343596 0.733 
-0.044298 0.355784 0.759 
-0.00919114 0.366565 0.782 
0.0285827 0.384378 0.82 
0.0693286 0.398909 0.851 
0.113989 0.41719 0.89 
0.164786 0.438284 0.935 
0.216166 0.454691 0.97 
0.280428 0.479534 1.023 
0.356335 0.520785 1.111 
0.430894 0.549847 1.173 
0.521582 0.590629 1.26 
6.18482 6.14957 13.119 
12.0555 10.9084 23.271 
8.62293 7.15833 15.271 
8.18431 6.27614 13.389 
3.3692 2.36158 5.038 
3.77574 2.43705 5.199 
4.25533 2.58095 5.506 
11.83 6.59208 14.063 
7.9976 4.01862 8.573 
8.43441 4.03643 8.611 
-0.391031 0.240797 0.512 
-0.375772 0.246441 0.524 
-0.359395 0.252084 0.536 
-0.34377 0.259139 0.551 
-0.325592 0.265253 0.564 
-0.305672 0.270897 0.576 
-0.285118 0.277011 0.589 
-0.265539 0.285476 0.607 
-0.243891 0.293471 0.624 
-0.214462 0.293001 0.623 
-0.191674 0.302878 0.644 
-0.166175 0.311343 0.662 
-0.140429 0.323101 0.687 
-0.110775 0.330155 0.702 
-0.0800335 0.343324 0.73 
-0.0475206 0.354611 0.754 
-0.0127868 0.366369 0.779 
0.0247002 0.384711 0.818 
0.0650548 0.39835 0.847 
0.109594 0.417632 0.888 
0.164786 0.439737 0.935 
0.215721 0.455257 0.968 
0.274312 0.478772 1.018 
0.347364 0.516867 1.099 
0.422163 0.547437 1.164 
0.514072 0.590705 1.256 
6.10329 6.16996 13.119 
11.1166 10.2146 21.719 
8.39679 7.07153 15.036 
8.63294 6.71034 14.268 
3.3465 2.37552 5.051 
3.62873 2.40656 5.117 
4.10379 2.55377 5.43 
10.4695 6.00864 12.776 
7.65844 4.04981 8.611 
8.38194 4.12271 8.766 
-0.399027 0.238761 0.506 
-0.383604 0.243952 0.517 
-0.365942 0.250558 0.531 
-0.349545 0.256692 0.544 
-0.331984 0.264242 0.56 
-0.311344 0.268961 0.57 
-0.291362 0.276038 0.585 
-0.269512 0.281701 0.597 
-0.251806 0.293497 0.622 
-0.222457 0.293025 0.621 
-0.199121 0.301519 0.639 
-0.174107 0.310012 0.657 
-0.147415 0.318506 0.675 
-0.119904 0.329359 0.698 
-0.090374 0.340683 0.722 
-0.0586854 0.35248 0.747 
-0.0246983 0.364748 0.773 
0.0117713 0.378904 0.803 
0.0510987 0.393532 0.834 
0.0951499 0.416181 0.882 
0.140586 0.429393 0.91 
0.198843 0.449211 0.952 
0.256501 0.473748 1.004 
0.328371 0.512912 1.087 
0.39961 0.540752 1.146 
0.475953 0.56812 1.204 
0.565216 0.60351 1.279 
8.5586 8.16271 17.299 
8.49001 7.37895 15.638 
10.6697 8.5402 18.099 
7.02542 5.21123 11.044 
3.63524 2.47302 5.241 
4.03053 2.56928 5.445 
4.40707 2.64289 5.601 
7.60493 4.06319 8.611 
8.27685 4.11793 8.727 
8.27665 3.92494 8.318 
-0.385371 0.243335 0.514 
-0.367156 0.249963 0.528 
-0.351628 0.25659 0.542 
-0.332532 0.264165 0.558 
-0.312566 0.269373 0.569 
-0.288218 0.277421 0.586 
-0.266692 0.283575 0.599 
-0.244468 0.294937 0.623 
-0.215084 0.294464 0.622 
-0.192375 0.304405 0.643 
-0.166951 0.312927 0.661 
-0.140879 0.323815 0.684 
-0.111706 0.331863 0.701 
-0.0819637 0.344172 0.727 
-0.0497313 0.356007 0.752 
-0.0151684 0.367843 0.777 
0.0220501 0.385359 0.814 
0.0622018 0.399562 0.844 
0.106113 0.417551 0.882 
0.153232 0.434594 0.918 
0.21311 0.455898 0.963 
0.271123 0.479095 1.012 
0.343454 0.516968 1.092 
0.418187 0.548214 1.158 
0.509674 0.591768 1.25 
6.50189 6.70591 14.165 
9.23719 8.6488 18.269 
8.49994 7.28679 15.392 
9.92041 7.84258 16.566 
3.32734 2.36092 4.987 
3.70112 2.45465 5.185 
4.07207 2.53513 5.355 
7.82557 4.32417 9.134 
7.84841 4.11302 8.688 
8.37756 4.09456 8.649 
-0.39505 0.242234 0.51 
-0.377103 0.246033 0.518 
-0.360543 0.253633 0.534 
-0.342914 0.261707 0.551 
-0.323565 0.266932 0.562 
-0.300448 0.274531 0.578 
-0.280605 0.281656 0.593 
-0.261497 0.291155 0.613 
-0.230984 0.29353 0.618 
-0.207086 0.300655 0.633 
-0.18179 0.307779 0.648 
-0.155797 0.316329 0.666 
-0.128735 0.329153 0.693 
-0.0989391 0.337702 0.711 
-0.0682979 0.350526 0.738 
-0.0351397 0.36335 0.765 
0.000533392 0.37475 0.789 
0.0387275 0.388999 0.819 
0.0804694 0.407047 0.857 
0.125894 0.425571 0.896 
0.182998 0.445995 0.939 
0.236183 0.464519 0.978 
0.295309 0.486842 1.025 
0.376891 0.534814 1.126 
0.44844 0.558562 1.176 
0.538773 0.597985 1.259 
7.01336 6.92883 14.588 
8.381 7.54819 15.892 
9.04826 7.48739 15.764 
3.33006 2.39289 5.038 
3.6689 2.46271 5.185 
4.06142 2.5577 5.385 
9.18743 5.24554 11.044 
8.05865 4.25904 8.967 
8.17014 4.01918 8.462 
-0.395067 0.242549 0.509 
-0.373621 0.248268 0.521 
-0.358724 0.254939 0.535 
-0.340346 0.262563 0.551 
-0.321516 0.268282 0.563 
-0.301721 0.274953 0.577 
-0.281495 0.281624 0.591 
-0.262542 0.291155 0.611 
-0.231944 0.29449 0.618 
-0.207741 0.301162 0.632 
-0.182514 0.308309 0.647 
-0.156832 0.317363 0.666 
-0.128549 0.329753 0.692 
-0.0989391 0.338807 0.711 
-0.0682979 0.351673 0.738 
-0.0350938 0.364062 0.764 
0.000533392 0.375975 0.789 
0.0386802 0.389795 0.818 
0.0804694 0.408379 0.857 
0.126456 0.428869 0.9 
0.181152 0.446501 0.937 
0.233944 0.464608 0.975 
0.29171 0.485099 1.018 
0.374142 0.535134 1.123 
0.446233 0.559913 1.175 
0.535964 0.598988 1.257 
6.83735 6.79901 14.268 
8.35631 7.57288 15.892 
8.95164 7.45184 15.638 
3.3264 2.37022 4.974 
3.74924 2.49745 5.241 
4.05829 2.53795 5.326 
8.93607 5.0902 10.682 
8.24738 4.37304 9.177 
8.03111 3.96371 8.318 
-0.393466 0.243818 0.51 
-0.373621 0.249077 0.521 
-0.358724 0.25577 0.535 
-0.340346 0.263419 0.551 
-0.320945 0.268678 0.562 
-0.301198 0.275371 0.576 
-0.281495 0.282542 0.591 
-0.262542 0.292104 0.611 
-0.231569 0.294972 0.617 
-0.207741 0.302144 0.632 
-0.182796 0.309793 0.648 
-0.156832 0.318398 0.666 
-0.130133 0.329394 0.689 
-0.101006 0.339433 0.71 
-0.0703041 0.351385 0.735 
-0.0373697 0.364293 0.762 
-0.00191102 0.375767 0.786 
0.03605 0.390109 0.816 
0.0773525 0.40732 0.852 
0.12366 0.430268 0.9 
0.17603 0.446044 0.933 
0.228458 0.464211 0.971 
0.28471 0.482856 1.01 
0.364965 0.531142 1.111 
0.439256 0.559826 1.171 
0.527575 0.598072 1.251 
6.62563 6.67489 13.962 
8.48914 7.78737 16.289 
8.60339 7.24427 15.153 
3.33151 2.42097 5.064 
3.69224 2.50559 5.241 
4.03342 2.56726 5.37 
8.43409 4.89262 10.234 
8.36196 4.47144 9.353 
7.80604 3.87767 8.111 
-0.392694 0.244131 0.509 
-0.375493 0.248448 0.518 
-0.361524 0.255642 0.533 
-0.345524 0.262357 0.547 
-0.326463 0.267633 0.558 
-0.303719 0.275307 0.574 
-0.28372 0.282022 0.588 
-0.263724 0.290175 0.605 
-0.241364 0.29737 0.62 
-0.213494 0.298809 0.623 
-0.190081 0.307922 0.642 
-0.164647 0.316555 0.66 
-0.137536 0.325188 0.678 
-0.109058 0.338138 0.705 
-0.0785751 0.34869 0.727 
-0.0464106 0.36212 0.755 
-0.0115616 0.373151 0.778 
0.0257489 0.388979 0.811 
0.065979 0.403848 0.842 
0.109599 0.420635 0.877 
0.157339 0.43982 0.917 
0.210955 0.460444 0.96 
0.267953 0.482507 1.006 
0.339254 0.519918 1.084 
0.415659 0.552053 1.151 
0.501519 0.589944 1.23 
6.66897 6.94503 14.48 
8.40185 7.94553 16.566 
8.66009 7.50044 15.638 
12.7566 10.1907 21.247 
3.59305 2.50702 5.227 
3.90934 2.5545 5.326 
4.1693 2.5617 5.341 
7.93639 4.34064 9.05 
7.99138 4.04135 8.426 
-0.397453 0.24396 0.507 
-0.37972 0.247809 0.515 
-0.365386 0.254546 0.529 
-0.349746 0.261282 0.543 
-0.330412 0.266094 0.553 
-0.307262 0.273793 0.569 
-0.287726 0.281492 0.585 
-0.265802 0.287266 0.597 
-0.246577 0.298814 0.621 
-0.217632 0.298814 0.621 
-0.193245 0.306032 0.636 
-0.169003 0.316137 0.657 
-0.142171 0.324798 0.675 
-0.112956 0.33779 0.702 
-0.0828646 0.348857 0.725 
-0.0506966 0.360406 0.749 
-0.0163124 0.372435 0.774 
0.0206577 0.389277 0.809 
0.0600248 0.400344 0.832 
0.103792 0.420554 0.874 
0.150979 0.43932 0.913 
0.201801 0.458086 0.952 
0.258845 0.481664 1.001 
0.327171 0.515828 1.072 
0.403523 0.551916 1.147 
0.478499 0.5779 1.201 
6.32194 6.71827 13.962 
7.93656 7.64695 15.892 
8.8209 7.7735 16.155 
11.7014 9.50095 19.745 
3.40833 2.4242 5.038 
3.86227 2.57 5.341 
4.06657 2.54209 5.283 
8.01006 4.39512 9.134 
7.86862 3.98564 8.283 
-0.395877 0.244747 0.507 
-0.375647 0.249092 0.516 
-0.362498 0.256816 0.532 
-0.346589 0.263574 0.546 
-0.326433 0.267919 0.555 
-0.30408 0.276608 0.573 
-0.284634 0.283849 0.588 
-0.264008 0.294469 0.61 
-0.238665 0.298331 0.618 
-0.212237 0.30171 0.625 
-0.187793 0.309434 0.641 
-0.162597 0.318606 0.66 
-0.13523 0.326812 0.677 
-0.105922 0.340812 0.706 
-0.0753934 0.351915 0.729 
-0.0429484 0.364949 0.756 
-0.00797617 0.3775 0.782 
0.029529 0.391499 0.811 
0.0701527 0.407912 0.845 
0.132538 0.440738 0.913 
0.178354 0.448945 0.93 
0.23219 0.470185 0.974 
0.287849 0.487564 1.01 
0.371402 0.540665 1.12 
0.44176 0.563836 1.168 
0.529763 0.601972 1.247 
6.46021 6.50777 13.481 
8.56506 7.86329 16.289 
9.24759 7.7986 16.155 
3.30658 2.43202 5.038 
3.6841 2.53002 5.241 
3.99209 2.57105 5.326 
8.18394 4.60289 9.535 
7.85018 4.0154 8.318 
7.33268 3.57418 7.404 
-0.376519 0.249409 0.515 
-0.363467 0.257158 0.531 
-0.347009 0.263454 0.544 
-0.327566 0.268297 0.554 
-0.309369 0.275077 0.568 
-0.289867 0.281857 0.582 
-0.268609 0.288152 0.595 
-0.247144 0.30026 0.62 
-0.218597 0.300744 0.621 
-0.193622 0.30704 0.634 
-0.169506 0.31721 0.655 
-0.143008 0.326411 0.674 
-0.113722 0.339003 0.7 
-0.083991 0.35111 0.725 
-0.0516526 0.36128 0.746 
-0.0174923 0.374356 0.773 
0.0193528 0.390822 0.807 
0.0584497 0.400992 0.828 
0.124759 0.439735 0.908 
0.169841 0.447 0.923 
0.22301 0.468308 0.967 
0.278339 0.486227 1.004 
0.357196 0.534172 1.103 
0.427871 0.559355 1.155 
0.514654 0.597614 1.234 
6.56055 6.76166 13.962 
8.41321 7.8886 16.289 
8.73604 7.51327 15.514 
39.9578 31.7379 65.535 
3.6271 2.53816 5.241 
3.94525 2.58659 5.341 
4.21697 2.60064 5.37 
7.74714 3.87965 8.011 
-0.38471 0.248266 0.511 
-0.369367 0.254096 0.523 
-0.351722 0.260898 0.537 
-0.334601 0.267214 0.55 
-0.316268 0.27353 0.563 
-0.298269 0.281303 0.579 
-0.277841 0.288105 0.593 
-0.256776 0.301223 0.62 
-0.226775 0.299765 0.617 
-0.202831 0.307053 0.632 
-0.178037 0.315313 0.649 
-0.152113 0.324544 0.668 
-0.123708 0.337661 0.695 
-0.0932844 0.344949 0.71 
-0.06248 0.358067 0.737 
-0.0291587 0.371185 0.764 
0.0067302 0.387217 0.797 
0.0451449 0.398392 0.82 
0.096192 0.427057 0.879 
0.146402 0.442604 0.911 
0.195083 0.457179 0.941 
0.253946 0.482929 0.994 
0.318402 0.512079 1.054 
0.398564 0.555319 1.143 
0.471209 0.579126 1.192 
0.552842 0.60779 1.251 
7.60271 7.41932 15.271 
12.0942 10.792 22.213 
11.7895 9.69064 19.946 
3.56572 2.5259 5.199 
3.92231 2.60169 5.355 
4.14932 2.5876 5.326 
7.64724 3.86051 7.946 
-0.390344 0.247598 0.508 
-0.374606 0.252959 0.519 
-0.359867 0.259783 0.533 
-0.343195 0.266119 0.546 
-0.323566 0.270993 0.556 
-0.305145 0.277816 0.57 
-0.285908 0.285127 0.585 
-0.264389 0.291464 0.598 
-0.241936 0.301699 0.619 
-0.214117 0.303161 0.622 
-0.188995 0.309497 0.635 
-0.164669 0.319733 0.656 
-0.137772 0.328506 0.674 
-0.108748 0.34264 0.703 
-0.0785751 0.354338 0.727 
-0.0462262 0.366523 0.752 
-0.0115616 0.379195 0.778 
0.0256536 0.393817 0.808 
0.0657439 0.408926 0.839 
0.123212 0.442069 0.907 
0.167495 0.447431 0.918 
0.22301 0.471313 0.967 
0.278339 0.489347 1.004 
0.358168 0.539061 1.106 
0.42676 0.561482 1.152 
0.512568 0.599011 1.229 
6.75368 7.00536 14.373 
8.48397 8.00599 16.426 
9.75656 8.28478 16.998 
3.50402 2.50717 5.144 
3.96285 2.65388 5.445 
4.11365 2.58905 5.312 
7.69262 3.95328 8.111 
7.39506 3.62234 7.432 
-0.374919 0.25181 0.515 
-0.362498 0.260122 0.532 
-0.345319 0.265989 0.544 
-0.325845 0.270879 0.554 
-0.307604 0.277724 0.568 
-0.288554 0.285058 0.583 
-0.26676 0.290926 0.595 
-0.248267 0.302172 0.618 
-0.219817 0.302661 0.619 
-0.194667 0.308528 0.631 
-0.170756 0.318796 0.652 
-0.144672 0.328575 0.672 
-0.114482 0.341288 0.698 
-0.083991 0.354489 0.725 
-0.0516526 0.364757 0.746 
-0.0175149 0.378448 0.774 
0.0193288 0.394094 0.806 
0.0584497 0.404851 0.828 
0.103674 0.426854 0.873 
0.151897 0.444945 0.91 
0.201786 0.462059 0.945 
0.259099 0.486995 0.996 
0.323008 0.514865 1.053 
0.403538 0.558382 1.142 
0.479165 0.585763 1.198 
0.558226 0.611189 1.25 
7.60271 7.46677 15.271 
9.59364 8.23931 16.851 
3.27031 2.41346 4.936 
3.76702 2.59731 5.312 
4.02519 2.60415 5.326 
6.13763 3.70429 7.576 
7.92391 3.94926 8.077 
-0.379839 0.251629 0.513 
-0.364948 0.258005 0.526 
-0.34755 0.263401 0.537 
-0.329814 0.270759 0.552 
-0.311798 0.277626 0.566 
-0.291575 0.284493 0.58 
-0.271382 0.29185 0.595 
-0.253068 0.303132 0.618 
-0.2239 0.302641 0.617 
-0.198936 0.308527 0.629 
-0.174742 0.317847 0.648 
-0.149 0.327657 0.668 
-0.120468 0.340901 0.695 
-0.090482 0.35022 0.714 
-0.0590449 0.361502 0.737 
-0.0256982 0.376217 0.767 
0.0104581 0.391423 0.798 
0.0490266 0.402704 0.821 
0.092929 0.428701 0.874 
0.138866 0.445378 0.908 
0.185778 0.45666 0.931 
0.24148 0.481185 0.981 
0.30155 0.50522 1.03 
0.384854 0.556232 1.134 
0.454694 0.577814 1.178 
0.538152 0.610188 1.244 
6.95466 7.05002 14.373 
12.0573 11.1487 22.729 
11.3058 9.3088 18.978 
3.73992 2.5982 5.297 
4.03047 2.62665 5.355 
6.02061 3.67339 7.489 
8.07885 4.04568 8.248 
-0.38069 0.251934 0.512 
-0.365189 0.257839 0.524 
-0.348569 0.263743 0.536 
-0.328099 0.271616 0.552 
-0.310587 0.278997 0.567 
-0.290674 0.285394 0.58 
-0.269534 0.292775 0.595 
-0.250741 0.3036 0.617 
-0.221982 0.3036 0.617 
-0.196982 0.309505 0.629 
-0.172728 0.318854 0.648 
-0.147144 0.329187 0.669 
-0.117398 0.342473 0.696 
-0.0877643 0.35379 0.719 
-0.0559115 0.364615 0.741 
-0.0221809 0.378393 0.769 
0.0142309 0.394139 0.801 
0.0529177 0.404472 0.822 
0.100729 0.428583 0.871 
0.147006 0.445805 0.906 
0.195919 0.461551 0.938 
0.252924 0.487138 0.99 
0.315985 0.514693 1.046 
0.39682 0.559962 1.138 
0.470023 0.585057 1.189 
0.551075 0.613597 1.247 
7.41563 7.39859 15.036 
26.455 24.0459 48.868 
11.3648 9.33828 18.978 
4.0242 2.7324 5.553 
4.10794 2.6207 5.326 
7.75018 4.00781 8.145 
-0.395863 0.2473 0.501 
-0.375788 0.253717 0.514 
-0.361136 0.261614 0.53 
-0.343841 0.268031 0.543 
-0.322702 0.274448 0.556 
-0.30426 0.281359 0.57 
-0.282755 0.289257 0.586 
-0.262852 0.297648 0.603 
-0.240585 0.305052 0.618 
-0.212808 0.306533 0.621 
-0.187712 0.31295 0.634 
-0.162153 0.320848 0.65 
-0.136522 0.332201 0.673 
-0.107503 0.346516 0.702 
-0.0772325 0.357869 0.725 
-0.0449979 0.370703 0.751 
-0.0103662 0.384524 0.779 
0.026909 0.398838 0.808 
0.0671274 0.414634 0.84 
0.111467 0.434872 0.881 
0.157552 0.449187 0.91 
0.208098 0.467451 0.947 
0.265289 0.491638 0.996 
0.330178 0.520761 1.055 
0.410635 0.563705 1.142 
0.488641 0.593815 1.203 
8.30763 8.93388 18.099 
8.23606 8.04045 16.289 
10.6572 9.36777 18.978 
3.29875 2.48682 5.038 
3.83781 2.6655 5.4 
3.9903 2.60084 5.269 
6.02128 3.68284 7.461 
8.08285 4.05404 8.213 
-0.38158 0.252534 0.51 
-0.364606 0.258476 0.522 
-0.348098 0.264418 0.534 
-0.329217 0.272836 0.551 
-0.311247 0.279769 0.565 
-0.288142 0.289177 0.584 
-0.266283 0.295119 0.596 
-0.246506 0.305022 0.616 
-0.217794 0.305022 0.616 
-0.19338 0.311954 0.63 
-0.168701 0.320867 0.648 
-0.141947 0.331266 0.669 
-0.113397 0.345626 0.698 
-0.0835276 0.357014 0.721 
-0.0516526 0.369394 0.746 
-0.0175376 0.383753 0.775 
0.0192329 0.397123 0.802 
0.0583792 0.409502 0.827 
0.103436 0.431289 0.871 
0.149821 0.44862 0.906 
0.199046 0.464961 0.939 
0.256259 0.490709 0.991 
0.321474 0.518934 1.048 
0.402478 0.563994 1.139 
0.477565 0.591228 1.194 
0.55644 0.616976 1.246 
8.02638 7.93354 16.022 
11.0678 9.679 19.547 
22.1836 17.9245 36.199 
3.66781 2.59516 5.241 
4.07557 2.7036 5.46 
4.37923 2.7343 5.522 
8.01478 4.08413 8.248 
-0.387294 0.249353 0.502 
-0.372993 0.257797 0.519 
-0.356195 0.263261 0.53 
-0.339622 0.269719 0.543 
-0.316016 0.27866 0.561 
-0.298135 0.286607 0.577 
-0.272772 0.295051 0.594 
-0.252925 0.304489 0.613 
-0.224719 0.304986 0.614 
-0.199933 0.310946 0.626 
-0.175119 0.318894 0.642 
-0.147076 0.329822 0.664 
-0.11956 0.345717 0.696 
-0.0873981 0.355651 0.716 
-0.055836 0.367572 0.74 
-0.0221521 0.38148 0.768 
0.0141421 0.395389 0.796 
