# .PCD v.7 - Point Cloud Data file format
VERSION .7
FIELDS x y z
SIZE 4 4 4
TYPE F F F
COUNT 1 1 1
WIDTH 1893
HEIGHT 1
VIEWPOINT 0 0 0 1 0 0 0
POINTS 1893
DATA ascii
0.331613 0.262589 0.564 
0.35917 0.26352 0.566 
0.378058 0.258399 0.555 
0.395527 0.251415 0.54 
0.411348 0.245828 0.528 
0.425224 0.239776 0.515 
0.438761 0.234189 0.503 
0.452098 0.229067 0.492 
-1.00593 0.539544 1.155 
-0.951272 0.539076 1.154 
-0.900595 0.540945 1.158 
-0.851007 0.543748 1.164 
-0.80086 0.546551 1.17 
-0.748239 0.547952 1.173 
-0.693565 0.547952 1.173 
-0.648151 0.555893 1.19 
-0.596171 0.559163 1.197 
-0.543087 0.561966 1.203 
-0.491873 0.567572 1.215 
-0.433092 0.564769 1.209 
-0.383907 0.575513 1.232 
-0.326748 0.57598 1.233 
-0.274519 0.587192 1.257 
-0.216274 0.588126 1.259 
-0.158593 0.591863 1.267 
-0.100794 0.599337 1.283 
-0.0408336 0.597001 1.278 
0.0186024 0.592797 1.269 
0.0884614 0.383053 0.82 
0.120558 0.347083 0.743 
0.143075 0.319989 0.685 
0.164018 0.299902 0.642 
0.18221 0.27748 0.594 
0.199107 0.262064 0.561 
0.222952 0.257393 0.551 
0.249988 0.258794 0.554 
0.279168 0.26113 0.559 
0.306315 0.262064 0.561 
0.334241 0.263465 0.564 
0.361169 0.263933 0.565 
0.379274 0.258327 0.553 
0.395527 0.252254 0.54 
0.411348 0.246648 0.528 
0.424399 0.240109 0.514 
0.438761 0.23497 0.503 
0.452098 0.229832 0.492 
-1.00685 0.540869 1.154 
-0.95224 0.540401 1.153 
-0.902394 0.542744 1.158 
-0.852815 0.545556 1.164 
-0.802677 0.548368 1.17 
-0.751341 0.550712 1.175 
-0.694202 0.548837 1.171 
-0.649453 0.557274 1.189 
-0.598031 0.561023 1.197 
-0.543597 0.562429 1.2 
-0.49376 0.56946 1.215 
-0.434251 0.56571 1.207 
-0.386134 0.577896 1.233 
-0.328397 0.577427 1.232 
-0.276472 0.589145 1.257 
-0.218056 0.589613 1.258 
-0.160308 0.592894 1.265 
-0.102868 0.601799 1.284 
-0.0428192 0.598987 1.278 
0.0166177 0.5943 1.268 
0.0872937 0.384795 0.821 
0.118198 0.351518 0.75 
0.142218 0.321522 0.686 
0.16302 0.3009 0.642 
0.180668 0.278871 0.595 
0.198067 0.263873 0.563 
0.219926 0.258717 0.552 
0.2461 0.259186 0.553 
0.279168 0.261998 0.559 
0.306315 0.262936 0.561 
0.334241 0.264342 0.564 
0.36053 0.264342 0.564 
0.378588 0.258717 0.552 
0.394795 0.252624 0.539 
0.410569 0.247 0.527 
0.424399 0.240907 0.514 
0.438761 0.235752 0.503 
0.451179 0.230127 0.491 
-1.00598 0.542192 1.153 
-0.95224 0.542192 1.153 
-0.903173 0.545014 1.159 
-0.853548 0.547835 1.165 
-0.801991 0.549716 1.169 
-0.75198 0.553008 1.176 
-0.693609 0.550186 1.17 
-0.648907 0.558651 1.188 
-0.59853 0.563353 1.198 
-0.542691 0.563353 1.198 
-0.49376 0.571347 1.215 
-0.434251 0.567585 1.207 
-0.386134 0.579812 1.233 
-0.328397 0.579341 1.232 
-0.276692 0.591568 1.258 
-0.218056 0.591568 1.258 
-0.160434 0.59533 1.266 
-0.102868 0.603794 1.284 
-0.0428192 0.600973 1.278 
0.0166177 0.59627 1.268 
0.0884614 0.385601 0.82 
0.12072 0.349862 0.744 
0.143508 0.320707 0.682 
0.163987 0.300016 0.638 
0.180364 0.279325 0.594 
0.197193 0.264748 0.563 
0.219069 0.259575 0.552 
0.245685 0.260516 0.554 
0.276935 0.262397 0.558 
0.304572 0.263807 0.561 
0.332489 0.265218 0.564 
0.359413 0.265688 0.565 
0.377555 0.260045 0.553 
0.39312 0.253462 0.539 
0.409707 0.248289 0.528 
0.423624 0.242176 0.515 
0.437198 0.236533 0.503 
0.450569 0.23136 0.492 
-1.0069 0.543512 1.152 
-0.953203 0.543512 1.152 
-0.904974 0.546814 1.159 
-0.856092 0.550117 1.166 
-0.80312 0.55106 1.168 
-0.755089 0.555779 1.178 
-0.694833 0.551532 1.169 
-0.650753 0.560496 1.188 
-0.600893 0.565686 1.199 
-0.543643 0.564271 1.196 
-0.494832 0.572291 1.213 
-0.436126 0.569461 1.207 
-0.38868 0.582671 1.235 
-0.330043 0.580784 1.231 
-0.278425 0.593051 1.257 
-0.220011 0.593522 1.258 
-0.162145 0.596353 1.264 
-0.104944 0.606261 1.285 
-0.0448399 0.60343 1.279 
0.0146476 0.59824 1.268 
0.0838736 0.389234 0.825 
0.114445 0.35668 0.756 
0.13896 0.326013 0.691 
0.159773 0.30431 0.645 
0.177476 0.284494 0.603 
0.194382 0.266566 0.565 
0.216496 0.260433 0.552 
0.243541 0.261848 0.555 
0.270381 0.262792 0.557 
0.297939 0.264207 0.56 
0.325776 0.265622 0.563 
0.352643 0.266094 0.564 
0.374228 0.262792 0.557 
0.388695 0.255243 0.541 
0.405552 0.249581 0.529 
0.419636 0.243448 0.516 
0.434229 0.238258 0.505 
0.447796 0.233068 0.494 
-1.02565 0.547668 1.157 
-0.968362 0.545775 1.153 
-0.924139 0.551455 1.165 
-0.870585 0.551928 1.166 
-0.818338 0.553348 1.169 
-0.771691 0.559029 1.181 
-0.708756 0.552875 1.168 
-0.665519 0.562342 1.188 
-0.615795 0.567549 1.199 
-0.557108 0.564709 1.193 
-0.507807 0.571809 1.208 
-0.451128 0.571336 1.207 
-0.405011 0.58601 1.238 
-0.345905 0.583643 1.233 
-0.29054 0.587903 1.242 
-0.235834 0.59595 1.259 
-0.177574 0.59737 1.262 
-0.12054 0.606364 1.281 
-0.061212 0.610151 1.289 
-0.00112163 0.604944 1.278 
0.075809 0.395249 0.835 
0.10616 0.361641 0.764 
0.133579 0.335133 0.708 
0.153874 0.309572 0.654 
0.172236 0.289218 0.611 
0.190012 0.271231 0.573 
0.210394 0.262237 0.554 
0.237077 0.262237 0.554 
0.264323 0.263657 0.557 
0.291848 0.265077 0.56 
0.319086 0.266024 0.562 
0.347124 0.267444 0.565 
0.369493 0.264604 0.559 
0.386349 0.25845 0.546 
0.403025 0.250877 0.53 
0.415623 0.243776 0.515 
0.432798 0.239989 0.507 
0.444726 0.233836 0.494 
-1.03463 0.550416 1.159 
-0.975527 0.547566 1.153 
-0.93058 0.55279 1.164 
-0.879337 0.55469 1.168 
-0.824896 0.55469 1.168 
-0.777711 0.559914 1.179 
-0.717854 0.556115 1.171 
-0.672336 0.563713 1.187 
-0.623247 0.569412 1.199 
-0.566415 0.568462 1.197 
-0.514888 0.573211 1.207 
-0.459769 0.574636 1.21 
-0.412038 0.586983 1.236 
-0.353281 0.585084 1.232 
-0.298018 0.589358 1.241 
-0.244433 0.599806 1.263 
-0.185564 0.599806 1.263 
-0.127999 0.60598 1.276 
-0.0692227 0.612153 1.289 
-0.0090853 0.608354 1.281 
0.0745117 0.396546 0.835 
0.104973 0.362828 0.764 
0.134299 0.335283 0.706 
0.156489 0.307739 0.648 
0.175534 0.287793 0.606 
0.192427 0.269272 0.567 
0.213065 0.262148 0.552 
0.240092 0.263573 0.555 
0.267398 0.264997 0.558 
0.293933 0.265472 0.559 
0.321705 0.266897 0.562 
0.349138 0.267847 0.564 
0.371432 0.264997 0.558 
0.388815 0.256449 0.54 
0.405552 0.251225 0.529 
0.420406 0.244102 0.514 
0.434854 0.238878 0.503 
0.449187 0.234129 0.493 
-1.01761 0.549834 1.154 
-0.963823 0.549834 1.154 
-0.917132 0.554122 1.163 
-0.86515 0.555552 1.166 
-0.810107 0.555075 1.165 
-0.764889 0.561746 1.179 
-0.706323 0.558887 1.173 
-0.659426 0.565557 1.187 
-0.611225 0.572228 1.201 
-0.550623 0.567463 1.191 
-0.501761 0.575086 1.207 
-0.444395 0.573657 1.204 
-0.398919 0.58938 1.237 
-0.33933 0.586045 1.23 
-0.285897 0.594145 1.247 
-0.230879 0.602245 1.264 
-0.171556 0.600815 1.261 
-0.114032 0.607486 1.275 
-0.0549897 0.611774 1.284 
0.0048276 0.607962 1.276 
0.0823916 0.392126 0.823 
0.115314 0.35925 0.754 
0.144966 0.321134 0.674 
0.165056 0.29874 0.627 
0.182487 0.279205 0.586 
0.200643 0.265864 0.558 
0.225072 0.263006 0.552 
0.25171 0.263958 0.554 
0.280037 0.266341 0.559 
0.307187 0.267294 0.561 
0.334524 0.268247 0.563 
0.360765 0.268247 0.563 
0.378758 0.262529 0.551 
0.395369 0.253953 0.533 
0.41154 0.248712 0.522 
0.42585 0.242994 0.51 
0.440805 0.23823 0.5 
0.452972 0.232512 0.488 
-0.993565 0.549237 1.149 
-0.943283 0.551149 1.153 
-0.897256 0.555929 1.163 
-0.846673 0.558319 1.168 
-0.790875 0.557363 1.166 
-0.742844 0.562143 1.176 
-0.690371 0.564055 1.18 
-0.640217 0.568357 1.189 
-0.592667 0.576006 1.205 
-0.532494 0.571704 1.196 
-0.484322 0.580786 1.215 
-0.429098 0.582698 1.219 
-0.373502 0.58461 1.223 
-0.319862 0.590824 1.236 
-0.26989 0.608033 1.272 
-0.208449 0.601818 1.259 
-0.151432 0.608511 1.273 
-0.0923868 0.610423 1.277 
-0.032814 0.609467 1.275 
0.0608184 0.402965 0.843 
0.0984355 0.371894 0.778 
0.129544 0.339389 0.71 
0.156006 0.308796 0.646 
0.174016 0.28872 0.604 
0.189784 0.271033 0.567 
0.21135 0.263863 0.552 
0.237938 0.264819 0.554 
0.265664 0.266731 0.558 
0.292196 0.267209 0.559 
0.319959 0.268643 0.562 
0.347386 0.269599 0.564 
0.369699 0.266731 0.558 
0.386488 0.260517 0.545 
0.40473 0.252869 0.529 
0.4164 0.245221 0.513 
0.433444 0.241397 0.505 
0.446123 0.23566 0.493 
-1.0194 0.55342 1.154 
-0.967289 0.554379 1.156 
-0.917359 0.556777 1.161 
-0.866218 0.558695 1.165 
-0.81122 0.558216 1.164 
-0.764119 0.563491 1.175 
-0.711163 0.56493 1.178 
-0.660156 0.568287 1.185 
-0.613601 0.576439 1.202 
-0.552473 0.571164 1.191 
-0.502385 0.577398 1.204 
-0.447378 0.578837 1.207 
-0.400516 0.592744 1.236 
-0.341241 0.589867 1.23 
-0.287835 0.59802 1.247 
-0.233212 0.607131 1.266 
-0.173653 0.605213 1.262 
-0.115376 0.608091 1.268 
-0.0570291 0.616243 1.285 
0.00284511 0.611927 1.276 
0.0797373 0.394204 0.822 
0.112821 0.361114 0.753 
0.14558 0.322269 0.672 
0.16453 0.299729 0.625 
0.181577 0.281026 0.586 
0.198909 0.267598 0.558 
0.222952 0.264241 0.551 
0.250439 0.26616 0.555 
0.277802 0.267598 0.558 
0.304899 0.268557 0.56 
0.332183 0.269516 0.562 
0.359016 0.269996 0.563 
0.37773 0.264721 0.552 
0.391132 0.256089 0.534 
0.407453 0.250813 0.523 
0.421922 0.245059 0.511 
0.437017 0.240263 0.501 
0.45026 0.234988 0.49 
-1.00158 0.553288 1.15 
-0.947975 0.553288 1.15 
-0.902928 0.558581 1.161 
-0.852469 0.560986 1.166 
-0.794699 0.558581 1.161 
-0.751429 0.56676 1.178 
-0.700069 0.569647 1.184 
-0.647061 0.571571 1.188 
-0.600155 0.57975 1.205 
-0.53767 0.573014 1.191 
-0.488634 0.580712 1.207 
-0.435241 0.584561 1.215 
-0.382661 0.590816 1.228 
-0.327543 0.594665 1.236 
-0.276485 0.609098 1.266 
-0.216274 0.605731 1.259 
-0.158718 0.610061 1.268 
-0.100166 0.613429 1.275 
-0.0408655 0.615353 1.279 
0.0186171 0.611023 1.27 
0.0925894 0.380085 0.79 
0.12395 0.350737 0.729 
0.147163 0.319945 0.665 
0.167217 0.296851 0.617 
0.186346 0.279531 0.581 
0.204738 0.267022 0.555 
0.229776 0.26606 0.553 
0.256475 0.267022 0.555 
0.284379 0.268946 0.559 
0.311545 0.269909 0.561 
0.338897 0.270871 0.563 
0.363842 0.269909 0.561 
0.380953 0.263654 0.548 
0.393885 0.255475 0.531 
0.410751 0.250664 0.521 
0.425015 0.24489 0.509 
0.439924 0.240079 0.499 
0.452972 0.234787 0.488 
-0.990857 0.555075 1.15 
-0.935625 0.55411 1.148 
-0.89441 0.561833 1.164 
-0.842321 0.563281 1.167 
-0.787252 0.562798 1.166 
-0.741704 0.569555 1.18 
-0.68845 0.571003 1.183 
-0.637057 0.574382 1.19 
-0.588922 0.581622 1.205 
-0.527893 0.576313 1.194 
-0.479755 0.585484 1.213 
-0.427753 0.591758 1.226 
-0.369399 0.589828 1.222 
-0.318322 0.600929 1.245 
-0.265101 0.612031 1.268 
-0.203887 0.605756 1.255 
-0.147824 0.615892 1.276 
-0.0885572 0.61734 1.279 
-0.0287842 0.613961 1.272 
0.0685139 0.405929 0.841 
0.102868 0.369728 0.766 
0.133775 0.328701 0.681 
0.156546 0.308911 0.64 
0.175075 0.288639 0.598 
0.192285 0.272228 0.564 
0.213535 0.265953 0.551 
0.24398 0.268367 0.556 
0.271352 0.269815 0.559 
0.297407 0.269815 0.559 
0.325776 0.271746 0.563 
0.352018 0.271746 0.563 
0.372885 0.267884 0.555 
0.388695 0.261127 0.541 
0.403965 0.254852 0.528 
0.4164 0.247612 0.513 
0.431728 0.242785 0.503 
0.446123 0.237958 0.493 
-1.01764 0.55783 1.152 
-0.966453 0.559283 1.155 
-0.914198 0.560251 1.157 
-0.865475 0.563641 1.164 
-0.810524 0.563157 1.163 
-0.761518 0.567031 1.171 
-0.714786 0.573326 1.184 
-0.659599 0.573326 1.184 
-0.613601 0.582042 1.202 
-0.553401 0.577684 1.193 
-0.501133 0.581558 1.201 
-0.449972 0.587852 1.214 
-0.400516 0.598505 1.236 
-0.340964 0.595116 1.229 
-0.288066 0.604316 1.248 
-0.232843 0.612064 1.264 
-0.173928 0.612064 1.264 
-0.115194 0.613032 1.266 
-0.0569403 0.621264 1.283 
0.00284065 0.616906 1.274 
0.0886411 0.392224 0.81 
0.124378 0.34477 0.712 
0.146942 0.321527 0.664 
0.166258 0.298769 0.617 
0.186687 0.276494 0.571 
0.207543 0.266809 0.551 
0.234072 0.267778 0.553 
0.261727 0.269715 0.557 
0.288722 0.270683 0.559 
0.31534 0.271168 0.56 
0.343881 0.273104 0.564 
0.366231 0.270199 0.558 
0.383101 0.263904 0.545 
0.396511 0.256156 0.529 
0.41241 0.25083 0.518 
0.427284 0.245503 0.507 
0.441132 0.240177 0.496 
-1.03733 0.560592 1.154 
-0.980989 0.559134 1.151 
-0.928146 0.55962 1.152 
-0.88356 0.56545 1.164 
-0.83073 0.566421 1.166 
-0.779712 0.56885 1.171 
-0.730085 0.572736 1.179 
-0.675704 0.573222 1.18 
-0.627542 0.579537 1.193 
-0.573374 0.580995 1.196 
-0.519792 0.583423 1.201 
-0.469606 0.59071 1.216 
-0.418701 0.598969 1.233 
-0.35918 0.595568 1.226 
-0.308195 0.607713 1.251 
-0.251683 0.612085 1.26 
-0.192494 0.610627 1.257 
-0.13561 0.6184 1.273 
-0.076874 0.623258 1.283 
-0.01686 0.615485 1.267 
0.0707889 0.406599 0.837 
0.105661 0.365308 0.752 
0.143296 0.328388 0.676 
0.162773 0.302156 0.622 
0.18305 0.282725 0.582 
0.203631 0.268151 0.552 
0.229776 0.268637 0.553 
0.256938 0.270094 0.556 
0.28387 0.271066 0.558 
0.31099 0.272038 0.56 
0.338295 0.273009 0.562 
0.363193 0.272038 0.56 
0.379562 0.265237 0.546 
0.393143 0.257464 0.53 
0.410751 0.253092 0.521 
0.42418 0.246777 0.508 
0.439042 0.241919 0.498 
0.452972 0.237061 0.488 
-0.985566 0.559461 1.148 
-0.932057 0.559461 1.148 
-0.888498 0.565796 1.161 
-0.837976 0.568233 1.166 
-0.783629 0.568233 1.166 
-0.737412 0.574568 1.179 
-0.685353 0.577005 1.184 
-0.634956 0.581391 1.193 
-0.58275 0.584802 1.2 
-0.525061 0.582853 1.196 
-0.475986 0.591137 1.213 
-0.425326 0.599422 1.23 
-0.366201 0.596498 1.224 
-0.315969 0.609656 1.251 
-0.259513 0.614042 1.26 
-0.200306 0.61258 1.257 
-0.143859 0.62184 1.276 
-0.0847813 0.624764 1.282 
-0.0247341 0.617454 1.267 
0.0638141 0.41326 0.848 
0.099816 0.375248 0.77 
0.129709 0.340647 0.699 
0.153284 0.313356 0.643 
0.171932 0.292401 0.6 
0.18878 0.274857 0.564 
0.20973 0.268034 0.55 
0.236649 0.269496 0.553 
0.265272 0.27242 0.559 
0.291327 0.27242 0.559 
0.31795 0.272908 0.56 
0.346509 0.274857 0.564 
0.368171 0.271446 0.557 
0.385203 0.264136 0.542 
0.400683 0.257313 0.528 
0.414822 0.250978 0.515 
0.429454 0.245617 0.504 
0.44306 0.240256 0.493 
-1.02122 0.5632 1.152 
-0.968362 0.563689 1.153 
-0.915414 0.564178 1.154 
-0.866852 0.5676 1.161 
-0.814837 0.569067 1.164 
-0.765157 0.572489 1.171 
-0.717251 0.577867 1.182 
-0.661598 0.577378 1.181 
-0.614255 0.584711 1.196 
-0.557108 0.583244 1.193 
-0.505285 0.587644 1.202 
-0.455613 0.595955 1.219 
-0.405338 0.605733 1.239 
-0.344783 0.600844 1.229 
-0.291242 0.608667 1.245 
-0.236396 0.616978 1.262 
-0.177856 0.617955 1.264 
-0.119222 0.619422 1.267 
-0.0608795 0.626755 1.282 
-0.00111548 0.621378 1.271 
0.0749012 0.403333 0.825 
0.107715 0.362755 0.742 
0.134833 0.332933 0.681 
0.155817 0.309467 0.633 
0.174196 0.290889 0.595 
0.193006 0.274267 0.561 
0.215638 0.269867 0.552 
0.242679 0.271333 0.555 
0.269999 0.2728 0.558 
0.297069 0.273778 0.56 
0.324325 0.274756 0.562 
0.351767 0.275733 0.564 
0.370682 0.270355 0.553 
0.389883 0.263022 0.538 
0.404932 0.256667 0.525 
0.417952 0.249822 0.511 
0.43226 0.244444 0.5 
0.447365 0.240044 0.491 
-0.998871 0.564499 1.151 
-0.940296 0.561557 1.145 
-0.89932 0.569404 1.161 
-0.848118 0.571365 1.165 
-0.789729 0.568423 1.159 
-0.745864 0.57627 1.175 
-0.701684 0.585098 1.193 
-0.644453 0.583627 1.19 
-0.595916 0.590493 1.204 
-0.53621 0.586569 1.196 
-0.483678 0.590493 1.204 
-0.435017 0.600792 1.225 
-0.379153 0.602754 1.229 
-0.325536 0.60962 1.243 
-0.270183 0.615505 1.255 
-0.211855 0.615996 1.256 
-0.155266 0.623843 1.272 
-0.0965813 0.627766 1.28 
-0.0368624 0.626785 1.278 
0.0515347 0.423252 0.863 
0.0902454 0.377641 0.77 
0.118513 0.348214 0.71 
0.144879 0.325654 0.664 
0.165299 0.302603 0.617 
0.182735 0.284947 0.581 
0.203262 0.270234 0.551 
0.229776 0.271215 0.553 
0.2574 0.273176 0.557 
0.28387 0.273667 0.558 
0.309879 0.273667 0.558 
0.338295 0.275629 0.562 
0.362545 0.274157 0.559 
0.382677 0.26582 0.542 
0.400743 0.258463 0.527 
0.415623 0.252578 0.515 
0.42853 0.246202 0.502 
0.443826 0.241788 0.493 
-1.00956 0.567272 1.153 
-0.950848 0.56432 1.147 
-0.90834 0.571207 1.161 
-0.856432 0.572684 1.164 
-0.80011 0.571207 1.161 
-0.753064 0.576619 1.172 
-0.710355 0.586459 1.192 
-0.652599 0.584491 1.188 
-0.604264 0.591379 1.202 
-0.54687 0.589903 1.199 
-0.490165 0.588919 1.197 
-0.443082 0.600727 1.221 
-0.390598 0.607615 1.235 
-0.332495 0.606631 1.233 
-0.278371 0.614011 1.248 
-0.221436 0.617455 1.255 
-0.164498 0.623359 1.267 
-0.106025 0.626803 1.274 
-0.0469368 0.630739 1.282 
0.0127676 0.628279 1.277 
0.0887021 0.377361 0.767 
0.120379 0.348333 0.708 
0.144224 0.325209 0.661 
0.165719 0.302578 0.615 
0.18269 0.284374 0.578 
0.205457 0.270598 0.55 
0.232353 0.272074 0.553 
0.260463 0.274534 0.558 
0.286471 0.274534 0.558 
0.31304 0.275026 0.559 
0.341521 0.276994 0.563 
0.363844 0.274042 0.557 
0.385333 0.26617 0.541 
0.401617 0.25879 0.526 
0.417197 0.252394 0.513 
0.431483 0.245998 0.5 
0.445693 0.241078 0.49 
-0.995233 0.569063 1.153 
-0.935775 0.565608 1.146 
-0.893139 0.572518 1.16 
-0.843411 0.575479 1.166 
-0.784326 0.572024 1.159 
-0.740387 0.579921 1.175 
-0.698457 0.590779 1.197 
-0.640517 0.588805 1.193 
-0.588833 0.592753 1.201 
-0.531967 0.591766 1.199 
-0.482037 0.599169 1.214 
-0.429658 0.605092 1.226 
-0.373425 0.606573 1.229 
-0.320771 0.615457 1.247 
-0.264544 0.619899 1.256 
-0.206985 0.62286 1.262 
-0.149102 0.626808 1.27 
-0.0908275 0.633224 1.283 
-0.0309056 0.630757 1.278 
0.0566343 0.423959 0.859 
0.0977231 0.376579 0.763 
0.124634 0.345978 0.701 
0.150287 0.317353 0.643 
0.168763 0.297117 0.602 
0.18932 0.277869 0.563 
0.210201 0.270959 0.549 
0.237508 0.272933 0.553 
0.265664 0.275401 0.558 
0.291673 0.275401 0.558 
0.319389 0.276881 0.561 
0.347386 0.278362 0.564 
0.367048 0.273427 0.554 
0.387375 0.26553 0.538 
0.403347 0.25862 0.524 
0.417974 0.252697 0.512 
0.432171 0.246281 0.499 
0.446303 0.241346 0.489 
-0.989781 0.571845 1.155 
-0.931895 0.569369 1.15 
-0.885166 0.573825 1.159 
-0.836165 0.577291 1.166 
-0.780476 0.5763 1.164 
-0.734333 0.582737 1.177 
-0.689286 0.591154 1.194 
-0.633103 0.590658 1.193 
-0.580401 0.593629 1.199 
-0.525828 0.595114 1.202 
-0.476447 0.603531 1.219 
-0.42376 0.609472 1.231 
-0.365787 0.608482 1.229 
-0.313021 0.617394 1.247 
-0.257556 0.62383 1.26 
-0.200089 0.627791 1.268 
-0.140987 0.627791 1.268 
-0.0827895 0.634723 1.282 
-0.0229452 0.632247 1.277 
0.0609627 0.418362 0.845 
0.101391 0.373803 0.755 
0.126807 0.344097 0.695 
0.151337 0.316371 0.639 
0.171711 0.295082 0.596 
0.191262 0.277753 0.561 
0.213148 0.272307 0.55 
0.243102 0.274287 0.554 
0.270381 0.275773 0.557 
0.297939 0.277258 0.56 
0.325198 0.278248 0.562 
0.352018 0.278743 0.563 
0.370197 0.272802 0.551 
0.38854 0.26488 0.535 
0.404202 0.258939 0.523 
0.417926 0.252503 0.51 
0.433527 0.246066 0.497 
0.448423 0.24161 0.488 
-0.973835 0.571652 1.151 
-0.923385 0.573639 1.155 
-0.874067 0.576619 1.161 
-0.823484 0.579102 1.166 
-0.772434 0.581586 1.171 
-0.720306 0.583572 1.175 
-0.671203 0.588539 1.185 
-0.618569 0.591022 1.19 
-0.566415 0.594499 1.197 
-0.516168 0.600955 1.21 
-0.463189 0.605425 1.219 
-0.412038 0.613868 1.236 
-0.352134 0.609895 1.228 
-0.298018 0.616352 1.241 
-0.244626 0.627775 1.264 
-0.186152 0.629265 1.267 
-0.126796 0.627775 1.264 
-0.0687931 0.636218 1.281 
-0.00906402 0.634728 1.278 
0.0732624 0.407756 0.821 
0.110267 0.35809 0.721 
0.136091 0.33872 0.682 
0.161287 0.307927 0.62 
0.180534 0.285081 0.574 
0.199838 0.273658 0.551 
0.22593 0.274155 0.552 
0.257801 0.276141 0.556 
0.284737 0.277135 0.558 
0.31186 0.278128 0.56 
0.339772 0.279618 0.563 
0.362113 0.276638 0.557 
0.378321 0.269685 0.543 
0.39471 0.263725 0.531 
0.409191 0.257268 0.518 
0.424133 0.251805 0.507 
0.438586 0.245349 0.494 
-1.01318 0.573441 1.151 
-0.957862 0.572444 1.149 
-0.912177 0.577426 1.159 
-0.861858 0.579917 1.164 
-0.80691 0.579419 1.163 
-0.759821 0.584899 1.174 
-0.711707 0.59038 1.185 
-0.654812 0.588885 1.182 
-0.606315 0.595362 1.195 
-0.554762 0.599846 1.204 
-0.501128 0.602835 1.21 
-0.448038 0.607319 1.219 
-0.395713 0.614294 1.233 
-0.337419 0.612799 1.23 
-0.282366 0.617781 1.24 
-0.227829 0.626749 1.258 
-0.17 0.629739 1.264 
-0.111348 0.631233 1.267 
-0.0527885 0.637212 1.279 
0.0432378 0.427465 0.858 
0.0871681 0.380633 0.764 
0.115041 0.353231 0.709 
0.141195 0.336791 0.676 
0.164641 0.304407 0.611 
0.184173 0.281987 0.566 
0.206312 0.274016 0.55 
0.237937 0.275012 0.552 
0.266054 0.277503 0.557 
0.29254 0.278002 0.558 
0.321403 0.280493 0.563 
0.348262 0.280991 0.564 
0.366581 0.275012 0.552 
0.38236 0.268037 0.538 
0.397591 0.261561 0.525 
0.413218 0.25608 0.514 
0.429309 0.250102 0.502 
0.442788 0.244622 0.491 
-1.0068 0.577728 1.156 
-0.947975 0.574729 1.15 
-0.90215 0.579727 1.16 
-0.8532 0.583225 1.167 
-0.790592 0.577228 1.155 
-0.748239 0.586224 1.173 
-0.707756 0.598218 1.197 
-0.647061 0.59372 1.188 
-0.598163 0.600217 1.201 
-0.544893 0.603216 1.207 
-0.492682 0.608213 1.217 
-0.437749 0.610712 1.222 
-0.383907 0.61571 1.232 
-0.327808 0.618209 1.237 
-0.271462 0.621207 1.243 
-0.215758 0.627704 1.256 
-0.158217 0.631702 1.264 
-0.100166 0.6372 1.275 
-0.0409934 0.641198 1.283 
0.0485134 0.428298 0.857 
0.0883551 0.38182 0.764 
0.115979 0.353833 0.708 
0.142737 0.322348 0.645 
0.163692 0.305356 0.611 
0.181294 0.283866 0.568 
0.20155 0.27537 0.551 
0.227645 0.27587 0.552 
0.259529 0.277869 0.556 
0.286985 0.279368 0.559 
0.31416 0.280368 0.561 
0.341521 0.281367 0.563 
0.362537 0.277369 0.555 
0.378608 0.270373 0.541 
0.395614 0.264875 0.53 
0.409214 0.257879 0.516 
0.423189 0.251881 0.504 
0.437818 0.246884 0.494 
0.918152 0.464781 0.93 
-0.968471 0.577017 1.151 
-0.918796 0.579524 1.156 
-0.870152 0.583033 1.163 
-0.820154 0.586041 1.169 
-0.768286 0.588046 1.173 
-0.714221 0.588548 1.174 
-0.664556 0.593059 1.183 
-0.613022 0.596569 1.19 
-0.563647 0.603086 1.203 
-0.51306 0.609603 1.216 
-0.457507 0.611107 1.219 
-0.405949 0.619128 1.235 
-0.348103 0.618627 1.234 
-0.291763 0.621133 1.239 
-0.238735 0.633666 1.264 
-0.180531 0.636173 1.269 
-0.120713 0.632664 1.262 
-0.0627733 0.641687 1.28 
-0.00311452 0.642189 1.281 
0.0777002 0.401556 0.801 
0.109961 0.360448 0.719 
0.135891 0.341398 0.681 
0.158652 0.311319 0.621 
0.177014 0.290765 0.58 
0.194197 0.276728 0.552 
0.219926 0.276728 0.552 
0.24699 0.278232 0.555 
0.273842 0.279234 0.557 
0.300881 0.280237 0.559 
0.32986 0.282743 0.564 
0.354885 0.281741 0.562 
0.371587 0.274722 0.548 
0.387709 0.268205 0.535 
0.401847 0.261187 0.521 
0.417134 0.255672 0.51 
0.431396 0.250158 0.499 
0.444632 0.244643 0.488 
-1.00401 0.582829 1.159 
-0.943435 0.578806 1.151 
-0.897517 0.583834 1.161 
-0.847761 0.586851 1.167 
-0.785209 0.580817 1.155 
-0.744038 0.590874 1.175 
-0.70159 0.601435 1.196 
-0.642604 0.598418 1.19 
-0.591578 0.602943 1.199 
-0.539267 0.606966 1.207 
-0.489011 0.614509 1.222 
-0.433467 0.616521 1.226 
-0.377858 0.619035 1.231 
-0.322303 0.622555 1.238 
-0.265882 0.625573 1.244 
-0.210405 0.633116 1.259 
-0.152326 0.63563 1.264 
-0.094297 0.641665 1.276 
-0.0351224 0.647196 1.287 
0.0508778 0.428447 0.852 
0.0893077 0.383188 0.762 
0.116748 0.355028 0.706 
0.141735 0.324352 0.645 
0.162888 0.305746 0.608 
0.180161 0.286637 0.57 
0.20033 0.27658 0.55 
0.226787 0.277585 0.552 
0.253889 0.279094 0.555 
0.281774 0.281105 0.559 
0.30893 0.282111 0.561 
0.33687 0.28362 0.564 
0.359295 0.280603 0.558 
0.375637 0.273562 0.544 
0.392147 0.267528 0.532 
0.405972 0.260488 0.518 
0.420152 0.254453 0.506 
0.43409 0.248922 0.495 
0.930912 0.481751 0.958 
-0.995868 0.585134 1.16 
-0.932057 0.579081 1.148 
-0.888498 0.585638 1.161 
-0.839414 0.589169 1.168 
-0.780941 0.586142 1.162 
-0.736787 0.594213 1.178 
-0.690562 0.60178 1.193 
-0.634424 0.601275 1.192 
-0.584692 0.607328 1.204 
-0.530329 0.609346 1.208 
-0.479518 0.616408 1.222 
-0.425326 0.620443 1.23 
-0.369492 0.622966 1.235 
-0.313191 0.625488 1.24 
-0.258278 0.63255 1.254 
-0.20174 0.638603 1.266 
-0.142732 0.638603 1.266 
-0.0845829 0.64516 1.279 
-0.0252026 0.651213 1.291 
0.060433 0.413629 0.82 
0.095399 0.380337 0.754 
0.121367 0.353602 0.701 
0.146603 0.322832 0.64 
0.165507 0.301142 0.597 
0.183618 0.286009 0.567 
0.204603 0.277434 0.55 
0.231494 0.278947 0.553 
0.2582 0.279956 0.555 
0.286628 0.282478 0.56 
0.313847 0.283487 0.562 
0.341857 0.285 0.565 
0.362327 0.280461 0.556 
0.378466 0.273399 0.542 
0.394045 0.266841 0.529 
0.407621 0.259779 0.515 
0.42073 0.253222 0.502 
0.437051 0.249186 0.494 
0.933456 0.480718 0.953 
-0.990553 0.585924 1.158 
-0.929299 0.58137 1.149 
-0.886414 0.588454 1.163 
-0.8365 0.59149 1.169 
-0.778668 0.58896 1.164 
-0.732504 0.595538 1.177 
-0.685128 0.602115 1.19 
-0.63072 0.603127 1.192 
-0.581433 0.609705 1.205 
-0.527012 0.611729 1.209 
-0.474942 0.617295 1.22 
-0.42219 0.623366 1.232 
-0.366542 0.626402 1.238 
-0.308839 0.626402 1.238 
-0.255395 0.637028 1.259 
-0.198119 0.641582 1.268 
-0.138688 0.640064 1.265 
-0.0806086 0.647147 1.279 
-0.0212238 0.654231 1.293 
0.0637066 0.411361 0.813 
0.098492 0.375437 0.742 
0.125546 0.35115 0.694 
0.15039 0.321297 0.635 
0.169639 0.29954 0.592 
0.187441 0.283348 0.56 
0.20973 0.278289 0.55 
0.236221 0.279301 0.552 
0.264323 0.28183 0.557 
0.291848 0.283348 0.56 
0.319086 0.28436 0.562 
0.347738 0.286384 0.566 
0.364866 0.279301 0.552 
0.380688 0.272217 0.538 
0.39596 0.265639 0.525 
0.41082 0.259567 0.513 
0.423715 0.25299 0.5 
0.439868 0.248942 0.492 
-1.01413 0.580618 1.144 
-0.966682 0.58417 1.151 
-0.917793 0.587216 1.157 
-0.868345 0.590261 1.163 
-0.821138 0.595336 1.173 
-0.769077 0.597366 1.177 
-0.710576 0.594321 1.171 
-0.664959 0.602442 1.187 
-0.611173 0.603964 1.19 
-0.563179 0.612085 1.206 
-0.51075 0.616652 1.215 
-0.457108 0.620713 1.223 
-0.403703 0.626296 1.234 
-0.349272 0.631878 1.245 
-0.290072 0.629341 1.24 
-0.236584 0.641014 1.263 
-0.178559 0.644059 1.269 
-0.118564 0.639491 1.26 
-0.0607846 0.649642 1.28 
-0.00112601 0.651165 1.283 
0.0789878 0.400443 0.789 
0.108476 0.367454 0.724 
0.133186 0.344107 0.678 
0.156672 0.313148 0.617 
0.176929 0.289801 0.571 
0.199113 0.278636 0.549 
0.22593 0.280158 0.552 
0.253482 0.282188 0.556 
0.280403 0.283203 0.558 
0.308059 0.284726 0.561 
0.335994 0.286249 0.564 
0.357786 0.282696 0.557 
0.374102 0.27559 0.543 
0.390585 0.2695 0.531 
0.404385 0.262395 0.517 
0.419366 0.256812 0.506 
0.433321 0.251229 0.495 
0.934274 0.488754 0.963 
-0.99509 0.589013 1.157 
-0.939535 0.587995 1.155 
-0.892602 0.592577 1.164 
-0.841949 0.595122 1.169 
-0.784767 0.593086 1.165 
-0.738617 0.599704 1.178 
-0.689514 0.604795 1.188 
-0.635209 0.605813 1.19 
-0.586563 0.61294 1.204 
-0.531766 0.614468 1.207 
-0.479053 0.619049 1.216 
-0.42689 0.625667 1.229 
-0.372313 0.630249 1.238 
-0.314609 0.630249 1.238 
-0.259603 0.636867 1.251 
-0.202259 0.639922 1.257 
-0.144127 0.641958 1.261 
-0.086367 0.649594 1.276 
-0.0272084 0.657231 1.291 
0.060433 0.417451 0.82 
0.0920064 0.38436 0.755 
0.119763 0.355342 0.698 
0.146373 0.325306 0.639 
0.165877 0.302907 0.595 
0.184399 0.287125 0.564 
0.21276 0.279489 0.549 
0.240086 0.281525 0.553 
0.267784 0.283561 0.557 
0.294801 0.284579 0.559 
0.323152 0.286616 0.563 
0.351256 0.288143 0.566 
0.369884 0.278979 0.548 
0.388744 0.271343 0.533 
0.401948 0.263707 0.518 
0.417866 0.258616 0.508 
0.431983 0.253016 0.497 
0.446906 0.248434 0.488 
-0.996959 0.58979 1.155 
-0.946391 0.591832 1.159 
-0.896219 0.594385 1.164 
-0.845581 0.596938 1.169 
-0.788387 0.594896 1.165 
-0.743538 0.602555 1.18 
-0.691455 0.605109 1.185 
-0.639443 0.608173 1.191 
-0.588833 0.613279 1.201 
-0.535516 0.616343 1.207 
-0.48164 0.619407 1.213 
-0.430709 0.627577 1.229 
-0.375552 0.631151 1.236 
-0.318456 0.632173 1.238 
-0.262859 0.637279 1.248 
-0.205345 0.639322 1.252 
-0.147811 0.642896 1.259 
-0.0900488 0.649534 1.272 
-0.0311716 0.658215 1.289 
0.0550519 0.426385 0.835 
0.0887217 0.386555 0.757 
0.114668 0.357448 0.7 
0.143294 0.328342 0.643 
0.163269 0.305874 0.599 
0.181294 0.290044 0.568 
0.208021 0.280852 0.55 
0.234931 0.282384 0.553 
0.262592 0.284427 0.557 
0.290626 0.286469 0.561 
0.316775 0.286469 0.561 
0.346591 0.289533 0.567 
0.366962 0.280852 0.55 
0.386154 0.272682 0.534 
0.401038 0.266044 0.521 
0.415525 0.259916 0.509 
0.429757 0.254299 0.498 
0.443873 0.249192 0.488 
-0.994303 0.591072 1.154 
-0.945405 0.594145 1.16 
-0.895947 0.597218 1.166 
-0.843043 0.598243 1.168 
-0.787252 0.597218 1.166 
-0.741704 0.604389 1.18 
-0.68845 0.605925 1.183 
-0.637593 0.610023 1.191 
-0.588433 0.616682 1.204 
-0.534083 0.61873 1.208 
-0.479755 0.621291 1.213 
-0.428102 0.628462 1.227 
-0.374236 0.634096 1.238 
-0.316788 0.634608 1.239 
-0.261965 0.641779 1.253 
-0.203725 0.642291 1.254 
-0.145739 0.64434 1.258 
-0.0880725 0.651511 1.272 
-0.0291689 0.660218 1.289 
0.0550519 0.427682 0.835 
0.0877769 0.388755 0.759 
0.114505 0.358024 0.699 
0.140515 0.329853 0.644 
0.160612 0.308853 0.603 
0.180412 0.290926 0.568 
0.208021 0.281707 0.55 
0.234931 0.283243 0.553 
0.262592 0.285292 0.557 
0.290626 0.287341 0.561 
0.316775 0.287341 0.561 
0.346591 0.290414 0.567 
0.366295 0.281194 0.549 
0.386259 0.272999 0.533 
0.401143 0.265316 0.518 
0.417077 0.260195 0.508 
0.431211 0.25456 0.497 
0.9416 0.496316 0.969 
-0.985421 0.591837 1.152 
-0.937387 0.595433 1.159 
-0.889463 0.599543 1.167 
-0.837216 0.601085 1.17 
-0.781344 0.600057 1.168 
-0.733126 0.605195 1.178 
-0.681098 0.607763 1.183 
-0.631249 0.612901 1.193 
-0.580951 0.618552 1.204 
-0.527012 0.621121 1.209 
-0.472606 0.62369 1.214 
-0.420819 0.630882 1.228 
-0.368023 0.638588 1.243 
-0.309088 0.636533 1.239 
-0.256004 0.648349 1.262 
-0.197182 0.648349 1.262 
-0.13803 0.646808 1.259 
-0.0801044 0.652973 1.271 
-0.0212074 0.663762 1.292 
0.0605804 0.422301 0.822 
0.0952897 0.382228 0.744 
0.1248 0.351403 0.684 
0.151177 0.319551 0.622 
0.171234 0.302084 0.588 
0.193995 0.282047 0.549 
0.220384 0.283075 0.551 
0.247853 0.28513 0.555 
0.274708 0.286157 0.557 
0.301209 0.286671 0.558 
0.330736 0.289754 0.564 
0.357363 0.28513 0.555 
0.378046 0.27691 0.539 
0.393577 0.269204 0.524 
0.410807 0.262525 0.511 
0.423567 0.255846 0.498 
0.439602 0.251736 0.49 
-0.995233 0.594142 1.153 
-0.950473 0.599811 1.164 
-0.899299 0.601872 1.168 
-0.846305 0.602902 1.17 
-0.790417 0.601872 1.168 
-0.744168 0.608571 1.181 
-0.688538 0.608055 1.18 
-0.640517 0.614754 1.193 
-0.590304 0.620423 1.204 
-0.53596 0.622484 1.208 
-0.480846 0.62403 1.211 
-0.429658 0.631759 1.226 
-0.375552 0.636912 1.236 
-0.318713 0.638458 1.239 
-0.264333 0.646703 1.255 
-0.205837 0.646703 1.255 
-0.147576 0.647734 1.257 
-0.0897656 0.653402 1.268 
-0.0310749 0.662162 1.285 
0.0549201 0.429246 0.833 
0.0894229 0.388022 0.753 
0.117489 0.356073 0.691 
0.145381 0.329278 0.639 
0.165877 0.306604 0.595 
0.184429 0.283931 0.551 
0.20973 0.283416 0.55 
0.236649 0.284962 0.553 
0.264797 0.287538 0.558 
0.292369 0.289084 0.561 
0.319086 0.289599 0.562 
0.347738 0.291661 0.566 
0.366479 0.282385 0.548 
0.386361 0.27414 0.532 
0.401111 0.267441 0.519 
0.416288 0.261773 0.508 
0.429573 0.255589 0.496 
-1.02122 0.595417 1.152 
-0.966682 0.5949 1.151 
-0.917793 0.598001 1.157 
-0.869838 0.602136 1.165 
-0.819738 0.605237 1.171 
-0.769731 0.608855 1.178 
-0.714824 0.608855 1.178 
-0.6672 0.615574 1.191 
-0.612714 0.616608 1.193 
-0.562245 0.622293 1.204 
-0.508648 0.625395 1.21 
-0.455987 0.630563 1.22 
-0.401413 0.634181 1.227 
-0.347869 0.6409 1.24 
-0.290774 0.642451 1.243 
-0.236771 0.653305 1.264 
-0.179263 0.658473 1.274 
-0.119317 0.655372 1.268 
-0.0602147 0.655372 1.268 
0.0321141 0.455866 0.882 
0.071088 0.404697 0.783 
0.102149 0.375754 0.727 
0.129067 0.347843 0.673 
0.153751 0.316832 0.613 
0.172214 0.297708 0.576 
0.192289 0.283753 0.549 
0.218275 0.28427 0.55 
0.246128 0.286855 0.555 
0.273467 0.288405 0.558 
0.300012 0.288922 0.559 
0.328984 0.291506 0.564 
0.351493 0.288405 0.558 
0.368706 0.281686 0.545 
0.386361 0.274967 0.532 
0.401111 0.268248 0.519 
0.415468 0.262045 0.507 
0.429573 0.25636 0.496 
-1.0167 0.598762 1.155 
-0.963697 0.59928 1.156 
-0.910603 0.599799 1.157 
-0.862598 0.603946 1.165 
-0.813848 0.608093 1.173 
-0.765646 0.613277 1.183 
-0.709905 0.612759 1.182 
-0.662014 0.619498 1.195 
-0.6053 0.618461 1.193 
-0.556144 0.625719 1.207 
-0.501128 0.627274 1.21 
-0.449875 0.634532 1.224 
-0.392183 0.633495 1.222 
-0.339614 0.64179 1.238 
-0.284188 0.646974 1.248 
-0.229097 0.655787 1.265 
-0.171076 0.659416 1.272 
-0.111612 0.658379 1.27 
-0.0523757 0.657861 1.269 
0.0414163 0.439611 0.848 
0.0803604 0.397619 0.767 
0.10907 0.365996 0.706 
0.139731 0.334374 0.645 
0.161677 0.311045 0.6 
0.180656 0.293419 0.566 
0.202525 0.284606 0.549 
0.229776 0.28668 0.553 
0.256938 0.288235 0.556 
0.284379 0.28979 0.559 
0.31099 0.290309 0.56 
0.340101 0.292901 0.565 
0.358005 0.286162 0.552 
0.374696 0.279422 0.539 
0.390918 0.273201 0.527 
0.405232 0.266462 0.514 
0.41917 0.260241 0.502 
0.433752 0.255057 0.492 
-0.998754 0.600556 1.155 
-0.951464 0.604716 1.163 
-0.900342 0.606796 1.167 
-0.848122 0.608356 1.17 
-0.795623 0.609916 1.173 
-0.746634 0.614595 1.182 
-0.689201 0.612516 1.178 
-0.643447 0.621355 1.195 
-0.591683 0.625515 1.203 
-0.538282 0.628635 1.209 
-0.482329 0.629154 1.21 
-0.430154 0.635394 1.222 
-0.375029 0.638514 1.228 
-0.320897 0.644753 1.24 
-0.266283 0.652553 1.255 
-0.209277 0.657232 1.264 
-0.149767 0.654633 1.259 
-0.0917357 0.659312 1.268 
-0.0329169 0.665032 1.279 
0.0547223 0.431569 0.83 
0.0951493 0.381652 0.734 
0.123705 0.352534 0.678 
0.149475 0.319777 0.615 
0.169805 0.301578 0.58 
0.188367 0.285979 0.55 
0.214002 0.285979 0.55 
0.241817 0.288579 0.555 
0.269132 0.290139 0.558 
0.296199 0.291179 0.56 
0.324027 0.292739 0.563 
0.349024 0.291699 0.561 
0.36581 0.284419 0.547 
0.380575 0.27662 0.532 
0.397752 0.27142 0.522 
0.411571 0.264661 0.509 
0.425033 0.258421 0.497 
-1.02117 0.602872 1.156 
-0.966453 0.602351 1.155 
-0.911038 0.601308 1.153 
-0.866962 0.608088 1.166 
-0.816796 0.611217 1.172 
-0.76607 0.614346 1.178 
-0.715389 0.617996 1.185 
-0.66517 0.62269 1.194 
-0.609007 0.622169 1.193 
-0.559895 0.62947 1.207 
-0.503636 0.62947 1.207 
-0.452938 0.637293 1.222 
-0.39598 0.637293 1.222 
-0.342351 0.643551 1.234 
-0.288066 0.650852 1.248 
-0.232843 0.659196 1.264 
-0.175854 0.666497 1.278 
-0.11574 0.663368 1.272 
-0.0561858 0.660239 1.266 
0.0388728 0.443289 0.85 
0.0820965 0.396874 0.761 
0.114674 0.358281 0.687 
0.140297 0.335335 0.643 
0.162997 0.311867 0.598 
0.181661 0.288398 0.553 
0.206312 0.286834 0.55 
0.233212 0.288398 0.553 
0.260393 0.289963 0.556 
0.287853 0.291527 0.559 
0.315031 0.29257 0.561 
0.343612 0.294657 0.565 
0.364398 0.286834 0.55 
0.379635 0.277968 0.533 
0.39613 0.272231 0.522 
0.40999 0.265452 0.509 
0.425193 0.260236 0.499 
-1.02205 0.605192 1.157 
-0.966453 0.604145 1.155 
-0.911828 0.603622 1.154 
-0.866962 0.609899 1.166 
-0.816796 0.613038 1.172 
-0.76607 0.616176 1.178 
-0.716597 0.620884 1.187 
-0.666284 0.625591 1.196 
-0.610028 0.625068 1.195 
-0.559895 0.631345 1.207 
-0.502802 0.630299 1.205 
-0.452938 0.639191 1.222 
-0.395656 0.638668 1.221 
-0.342074 0.644945 1.233 
-0.288527 0.653837 1.25 
-0.232843 0.66116 1.264 
-0.175992 0.669006 1.279 
-0.115649 0.664822 1.271 
-0.0562302 0.662729 1.267 
0.0375521 0.444609 0.85 
0.0809141 0.398056 0.761 
0.107973 0.369287 0.706 
0.13472 0.33738 0.645 
0.159001 0.315934 0.604 
0.178018 0.296057 0.566 
0.199966 0.287165 0.549 
0.226787 0.288734 0.552 
0.254346 0.290827 0.556 
0.281774 0.292396 0.559 
0.307278 0.291873 0.558 
0.33687 0.295011 0.564 
0.359068 0.288211 0.551 
0.376199 0.279319 0.534 
0.393577 0.274089 0.524 
0.406833 0.266766 0.51 
0.422161 0.261535 0.5 
0.435666 0.255781 0.489 
-0.972047 0.603841 1.151 
-0.92159 0.60594 1.155 
-0.877522 0.61276 1.168 
-0.826605 0.615383 1.173 
-0.769957 0.613809 1.17 
-0.724595 0.621679 1.185 
-0.669362 0.621679 1.185 
-0.618275 0.625876 1.193 
-0.5688 0.632696 1.206 
-0.512588 0.632696 1.206 
-0.461295 0.639516 1.219 
-0.406136 0.642139 1.224 
-0.351652 0.646861 1.233 
-0.296568 0.652107 1.243 
-0.241895 0.661025 1.26 
-0.186364 0.672567 1.282 
-0.125227 0.665222 1.268 
-0.0661249 0.665222 1.268 
0.0267536 0.464816 0.886 
0.074111 0.400812 0.764 
0.104613 0.374056 0.713 
0.129989 0.349924 0.667 
0.156962 0.318446 0.607 
0.175999 0.297986 0.568 
0.200819 0.288018 0.549 
0.231494 0.290117 0.553 
0.2582 0.291166 0.555 
0.286116 0.293264 0.559 
0.31273 0.293789 0.56 
0.341252 0.295888 0.564 
0.365494 0.285395 0.544 
0.38151 0.278575 0.531 
0.397844 0.272804 0.52 
0.413893 0.265984 0.507 
0.426305 0.259164 0.494 
-1.00947 0.608787 1.157 
-0.955543 0.608787 1.157 
-0.904732 0.610892 1.161 
-0.854281 0.613522 1.166 
-0.806108 0.618258 1.175 
-0.754538 0.620889 1.18 
-0.70428 0.625098 1.188 
-0.656008 0.631939 1.201 
-0.59853 0.63036 1.198 
-0.547674 0.636148 1.209 
-0.48929 0.633517 1.204 
-0.440007 0.643514 1.223 
-0.382376 0.642462 1.221 
-0.33053 0.652459 1.24 
-0.274713 0.657195 1.249 
-0.21927 0.665614 1.265 
-0.160308 0.665614 1.265 
-0.101987 0.669823 1.273 
-0.0426517 0.669823 1.273 
0.0518291 0.434096 0.825 
0.0892694 0.390423 0.742 
0.115067 0.359379 0.683 
0.141188 0.335701 0.638 
0.162179 0.313075 0.595 
0.182191 0.29045 0.552 
0.208875 0.289397 0.55 
0.23579 0.290976 0.553 
0.262038 0.291502 0.554 
0.289939 0.293607 0.558 
0.318779 0.296238 0.563 
0.347158 0.293607 0.558 
0.368197 0.285714 0.543 
0.382636 0.277821 0.528 
0.400396 0.271507 0.516 
0.417661 0.264667 0.503 
0.430582 0.258353 0.491 
-1.00234 0.609529 1.155 
-0.949329 0.610057 1.156 
-0.901644 0.614278 1.164 
-0.850302 0.616389 1.168 
-0.799268 0.619028 1.173 
-0.749038 0.622722 1.18 
-0.697567 0.625889 1.186 
-0.649868 0.633277 1.2 
-0.593936 0.633277 1.2 
-0.541142 0.636971 1.207 
-0.484883 0.636971 1.207 
-0.434662 0.645942 1.224 
-0.377919 0.64647 1.225 
-0.32475 0.654386 1.24 
-0.26846 0.65808 1.247 
-0.212867 0.665996 1.262 
-0.154167 0.666524 1.263 
-0.0960531 0.671801 1.273 
-0.0367182 0.671801 1.273 
0.0579556 0.433267 0.821 
0.0926154 0.386299 0.732 
0.118438 0.357801 0.678 
0.143333 0.33247 0.63 
0.163201 0.312417 0.592 
0.185803 0.290252 0.55 
0.21742 0.290252 0.55 
0.244824 0.292363 0.554 
0.272111 0.293946 0.557 
0.299144 0.295001 0.559 
0.327526 0.297112 0.563 
0.353914 0.292891 0.555 
0.372184 0.284447 0.539 
0.38625 0.276531 0.524 
0.402053 0.270726 0.513 
0.417661 0.265449 0.503 
0.430582 0.259116 0.491 
-1.00055 0.611323 1.155 
-0.946713 0.611323 1.155 
-0.899836 0.616087 1.164 
-0.848487 0.618204 1.168 
-0.796766 0.620321 1.172 
-0.747204 0.624556 1.18 
-0.695137 0.627202 1.185 
-0.647464 0.634612 1.199 
-0.592565 0.635671 1.201 
-0.539267 0.638846 1.207 
-0.483408 0.639376 1.208 
-0.433114 0.648373 1.225 
-0.376937 0.649961 1.228 
-0.322824 0.656313 1.24 
-0.266737 0.660547 1.248 
-0.210573 0.666898 1.26 
-0.152205 0.668486 1.263 
-0.0940753 0.673779 1.273 
-0.0347131 0.67325 1.272 
0.07055 0.404373 0.764 
0.0997684 0.380026 0.718 
0.123771 0.353033 0.667 
0.148746 0.323922 0.612 
0.167463 0.302751 0.572 
0.189221 0.291106 0.55 
0.219984 0.291106 0.55 
0.247406 0.293224 0.554 
0.274708 0.294811 0.557 
0.302289 0.296399 0.56 
0.33015 0.297987 0.563 
0.351327 0.293753 0.555 
0.367681 0.286343 0.541 
0.38273 0.278933 0.527 
0.399565 0.27364 0.517 
0.413829 0.267289 0.505 
0.426974 0.260937 0.493 
-1.01311 0.613118 1.155 
-0.960936 0.61418 1.157 
-0.910143 0.616303 1.161 
-0.858978 0.618426 1.165 
-0.809512 0.622142 1.172 
-0.756173 0.623204 1.174 
-0.714597 0.634882 1.196 
-0.662708 0.638598 1.203 
-0.605627 0.637537 1.201 
-0.552852 0.641252 1.208 
-0.492025 0.635413 1.197 
-0.445343 0.648684 1.222 
-0.390292 0.651869 1.228 
-0.336038 0.657708 1.239 
-0.28031 0.662486 1.248 
-0.223386 0.666202 1.255 
-0.166598 0.673103 1.268 
-0.107751 0.674695 1.271 
-0.0486233 0.676288 1.274 
0.0602119 0.433695 0.817 
0.0914782 0.388573 0.732 
0.11774 0.357785 0.674 
0.143907 0.331243 0.624 
0.164115 0.307355 0.579 
0.182191 0.293023 0.552 
0.211823 0.292492 0.551 
0.238799 0.294084 0.554 
0.264621 0.294084 0.554 
0.29254 0.296208 0.558 
0.321403 0.298862 0.563 
0.344557 0.296208 0.558 
0.362596 0.289838 0.546 
0.378096 0.282406 0.532 
0.393805 0.276036 0.52 
0.408395 0.269666 0.508 
0.422717 0.263826 0.497 
-1.0239 0.613848 1.153 
-0.973519 0.615977 1.157 
-0.921181 0.617042 1.159 
-0.873145 0.621301 1.167 
-0.823662 0.625028 1.174 
-0.765011 0.621834 1.168 
-0.72578 0.635143 1.193 
-0.670735 0.635676 1.194 
-0.617143 0.637805 1.198 
-0.565521 0.642597 1.207 
-0.504621 0.636741 1.196 
-0.460135 0.652712 1.226 
-0.404305 0.654842 1.23 
-0.349795 0.660166 1.24 
-0.293647 0.663893 1.247 
-0.237413 0.669216 1.257 
-0.1811 0.677735 1.273 
-0.121191 0.67454 1.267 
-0.0625281 0.6788 1.275 
0.0513265 0.434964 0.817 
0.089691 0.39184 0.736 
0.116692 0.358832 0.674 
0.142937 0.332212 0.624 
0.163831 0.307722 0.578 
0.184429 0.293348 0.551 
0.213535 0.293348 0.551 
0.240086 0.294413 0.553 
0.266342 0.294945 0.554 
0.294801 0.297607 0.559 
0.323152 0.299737 0.563 
0.34567 0.296542 0.557 
0.362959 0.289621 0.544 
0.379749 0.283232 0.532 
0.39466 0.276311 0.519 
0.409166 0.269923 0.507 
0.422554 0.263534 0.495 
-1.01673 0.615639 1.153 
-0.966329 0.617775 1.157 
-0.916344 0.620445 1.162 
-0.865892 0.623114 1.167 
-0.814975 0.625784 1.172 
-0.758401 0.624182 1.169 
-0.720774 0.639133 1.197 
-0.666093 0.6402 1.199 
-0.611225 0.641268 1.201 
-0.55802 0.644472 1.207 
-0.49511 0.635929 1.191 
-0.452146 0.654083 1.225 
-0.397306 0.657821 1.232 
-0.342089 0.662092 1.24 
-0.286356 0.666898 1.249 
-0.22887 0.669034 1.253 
-0.172508 0.677043 1.268 
-0.113406 0.677043 1.268 
-0.05469 0.681848 1.277 
0.0536015 0.434098 0.813 
0.0941907 0.383373 0.718 
0.120481 0.355608 0.666 
0.145404 0.329978 0.618 
0.166283 0.304883 0.571 
0.186141 0.294204 0.551 
0.211823 0.294204 0.551 
0.238799 0.295806 0.554 
0.264621 0.295806 0.554 
0.293064 0.298475 0.559 
0.321403 0.300611 0.563 
0.344557 0.297942 0.558 
0.361932 0.291 0.545 
0.378096 0.284059 0.532 
0.393047 0.277118 0.519 
0.408395 0.271244 0.508 
0.421016 0.264303 0.495 
-1.01852 0.61743 1.153 
-0.968126 0.619572 1.157 
-0.918149 0.62225 1.162 
-0.867705 0.624927 1.167 
-0.817493 0.62814 1.173 
-0.758917 0.624927 1.167 
-0.722634 0.640992 1.197 
-0.666841 0.640992 1.197 
-0.613091 0.643134 1.201 
-0.559431 0.645812 1.206 
-0.496543 0.637244 1.19 
-0.45442 0.656522 1.226 
-0.399868 0.660806 1.234 
-0.344293 0.664554 1.241 
-0.288296 0.668838 1.249 
-0.230817 0.67098 1.253 
-0.174478 0.679013 1.268 
-0.115285 0.678477 1.267 
-0.056674 0.683832 1.277 
0.0509495 0.43429 0.811 
0.0884272 0.393592 0.735 
0.116866 0.358249 0.669 
0.141224 0.334687 0.625 
0.161903 0.312731 0.584 
0.179408 0.296666 0.554 
0.204489 0.295595 0.552 
0.230635 0.296131 0.553 
0.261178 0.296666 0.554 
0.28959 0.299344 0.559 
0.317904 0.301486 0.563 
0.342312 0.299879 0.56 
0.358545 0.291847 0.545 
0.375494 0.285421 0.533 
0.390628 0.277924 0.519 
0.406027 0.272034 0.508 
0.419555 0.265608 0.496 
-1.02031 0.619222 1.153 
-0.969924 0.62137 1.157 
-0.921538 0.625129 1.164 
-0.870264 0.627278 1.168 
-0.820014 0.6305 1.174 
-0.760078 0.626204 1.166 
-0.723888 0.642315 1.196 
-0.667584 0.641778 1.195 
-0.613933 0.643926 1.199 
-0.561305 0.647686 1.206 
-0.498392 0.639093 1.19 
-0.456325 0.658427 1.226 
-0.401786 0.662723 1.234 
-0.3465 0.66702 1.242 
-0.290005 0.670242 1.248 
-0.23295 0.673464 1.254 
-0.176031 0.679372 1.265 
-0.117161 0.679909 1.266 
-0.058704 0.686354 1.278 
0.0496895 0.43555 0.811 
0.0844299 0.397419 0.74 
0.113358 0.371641 0.692 
0.138975 0.337269 0.628 
0.159998 0.31525 0.587 
0.177145 0.298064 0.555 
0.201916 0.296453 0.552 
0.227645 0.296453 0.552 
0.259456 0.297527 0.554 
0.288368 0.30075 0.56 
0.315593 0.301824 0.562 
0.340572 0.30075 0.56 
0.357507 0.293231 0.546 
0.373838 0.286249 0.533 
0.388209 0.27873 0.519 
0.404454 0.27336 0.509 
0.418784 0.266378 0.496 
-1.02033 0.619936 1.151 
-0.973401 0.624245 1.159 
-0.923346 0.626938 1.164 
-0.872078 0.629092 1.168 
-0.821838 0.632324 1.174 
-0.76189 0.628015 1.166 
-0.724533 0.643096 1.194 
-0.66832 0.642558 1.193 
-0.615282 0.64525 1.198 
-0.562712 0.649021 1.205 
-0.501081 0.642019 1.192 
-0.458604 0.66087 1.227 
-0.404357 0.665718 1.236 
-0.34843 0.668949 1.242 
-0.291944 0.672181 1.248 
-0.235085 0.675951 1.255 
-0.177856 0.680799 1.264 
-0.119034 0.681337 1.265 
-0.0606896 0.688339 1.278 
0.0483698 0.436271 0.81 
0.0794256 0.402339 0.747 
0.107989 0.376486 0.699 
0.135718 0.339861 0.631 
0.16072 0.314008 0.583 
0.179943 0.297849 0.553 
0.205347 0.297311 0.552 
0.231494 0.297849 0.553 
0.264236 0.298927 0.555 
0.292718 0.30162 0.56 
0.320528 0.303235 0.563 
0.34369 0.300542 0.558 
0.35976 0.292463 0.543 
0.37656 0.286 0.531 
0.391485 0.278998 0.518 
0.407606 0.273612 0.508 
0.420247 0.26661 0.495 
-1.01406 0.622264 1.152 
-0.962864 0.623885 1.155 
-0.917686 0.629827 1.166 
-0.86556 0.631447 1.169 
-0.815235 0.634688 1.175 
-0.756585 0.631447 1.169 
-0.718314 0.646031 1.196 
-0.663122 0.646572 1.197 
-0.609359 0.648732 1.201 
-0.555223 0.650893 1.205 
-0.493259 0.643331 1.191 
-0.450611 0.662236 1.226 
-0.396676 0.667638 1.236 
-0.340163 0.669798 1.24 
-0.285326 0.676821 1.253 
-0.226742 0.67628 1.252 
-0.17 0.682762 1.264 
-0.111436 0.684923 1.268 
-0.0527472 0.690325 1.278 
0.0530081 0.434289 0.804 
0.0840876 0.398098 0.737 
0.11185 0.375951 0.696 
0.137024 0.339221 0.628 
0.160088 0.315453 0.584 
0.178225 0.298709 0.553 
0.203631 0.298168 0.552 
0.229776 0.298709 0.553 
0.262121 0.300329 0.556 
0.290108 0.30249 0.56 
0.317339 0.30357 0.562 
0.343437 0.301949 0.559 
0.358917 0.293307 0.543 
0.375735 0.286825 0.531 
0.39068 0.279803 0.518 
0.406015 0.273861 0.507 
0.419478 0.267379 0.495 
-1.01406 0.624054 1.152 
-0.962864 0.625679 1.155 
-0.917686 0.631638 1.166 
-0.86556 0.633263 1.169 
-0.815929 0.637055 1.176 
-0.757879 0.634347 1.171 
-0.717713 0.647348 1.195 
-0.663122 0.648431 1.197 
-0.609359 0.650598 1.201 
-0.554762 0.652223 1.204 
-0.494088 0.646265 1.193 
-0.450611 0.664141 1.226 
-0.396997 0.6701 1.237 
-0.339888 0.671183 1.239 
-0.285782 0.679851 1.255 
-0.227105 0.679309 1.254 
-0.169866 0.684184 1.263 
-0.111261 0.68581 1.266 
-0.0527472 0.69231 1.278 
0.0550922 0.432288 0.798 
0.0850013 0.39816 0.735 
0.112445 0.375408 0.693 
0.134524 0.34128 0.63 
0.154923 0.320695 0.592 
0.172342 0.302818 0.559 
0.195913 0.299026 0.552 
0.22124 0.298484 0.551 
0.24737 0.299026 0.552 
0.275078 0.301193 0.556 
0.304242 0.304443 0.562 
0.331613 0.305527 0.564 
0.351555 0.300109 0.554 
0.366478 0.291442 0.538 
0.382093 0.2844 0.525 
0.398045 0.278441 0.514 
0.412151 0.27194 0.502 
0.426005 0.265981 0.491 
-0.998531 0.630733 1.161 
-0.938722 0.626931 1.154 
-0.896436 0.63508 1.169 
-0.841229 0.634536 1.168 
-0.789482 0.636709 1.172 
-0.743006 0.643772 1.185 
-0.687773 0.643772 1.185 
-0.639479 0.650834 1.198 
-0.589486 0.657354 1.21 
-0.527801 0.650834 1.198 
-0.477083 0.657897 1.211 
-0.42689 0.667676 1.229 
-0.373516 0.674738 1.242 
-0.315117 0.673652 1.24 
-0.262093 0.686147 1.263 
-0.202259 0.682887 1.257 
-0.14447 0.68669 1.264 
-0.0858255 0.688863 1.268 
-0.026829 0.691579 1.273 
0.0726377 0.413427 0.761 
0.101392 0.383547 0.706 
0.125472 0.352581 0.649 
0.147071 0.33085 0.609 
0.165999 0.308033 0.567 
0.186997 0.29934 0.551 
0.212679 0.29934 0.551 
0.239227 0.300427 0.553 
0.26865 0.3026 0.557 
0.301086 0.304773 0.561 
0.328984 0.306403 0.564 
0.349603 0.301513 0.555 
0.366163 0.293364 0.54 
0.381187 0.285759 0.526 
0.397219 0.279783 0.515 
0.410591 0.27272 0.502 
0.423615 0.266201 0.49 
-1.00033 0.632537 1.161 
-0.9397 0.628179 1.153 
-0.898252 0.636896 1.169 
-0.843043 0.636351 1.168 
-0.791978 0.639075 1.173 
-0.746104 0.646703 1.187 
-0.690778 0.646703 1.187 
-0.642411 0.653785 1.2 
-0.591366 0.659234 1.21 
-0.52922 0.652151 1.197 
-0.478964 0.659778 1.211 
-0.428451 0.66904 1.228 
-0.375143 0.676123 1.241 
-0.317044 0.675578 1.24 
-0.264056 0.688109 1.263 
-0.204375 0.685385 1.258 
-0.146434 0.688654 1.264 
-0.0877263 0.690288 1.267 
-0.0288295 0.694102 1.274 
0.0694538 0.416788 0.765 
0.0974163 0.386278 0.709 
0.124656 0.354134 0.65 
0.145417 0.332341 0.61 
0.165999 0.308914 0.567 
0.187853 0.300196 0.551 
0.213148 0.299652 0.55 
0.240086 0.301286 0.553 
0.269515 0.303465 0.557 
0.302829 0.305645 0.561 
0.330736 0.307279 0.564 
0.350694 0.301831 0.554 
0.366478 0.293114 0.538 
0.382093 0.286031 0.525 
0.398045 0.280038 0.514 
0.41133 0.272955 0.501 
0.425137 0.266962 0.49 
-1.0012 0.634888 1.162 
-0.940515 0.630517 1.154 
