# .PCD v.7 - Point Cloud Data file format
VERSION .7
FIELDS x y z
SIZE 4 4 4
TYPE F F F
COUNT 1 1 1
WIDTH 1916
HEIGHT 1
VIEWPOINT 0 0 0 1 0 0 0
POINTS 1916
DATA ascii
-0.874661 0.689928 1.507 
-0.856731 0.734793 1.605 
-0.809203 0.760431 1.661 
-0.662616 0.700915 1.531 
-0.606704 0.719228 1.571 
-0.577285 0.778286 1.7 
-0.500977 0.782864 1.71 
-0.402185 0.761805 1.664 
-0.293606 0.689012 1.505 
-0.22717 0.700457 1.53 
-0.155448 0.698626 1.526 
-0.0833265 0.690385 1.508 
-0.0129863 0.687639 1.502 
0.0593761 0.716023 1.564 
0.112083 0.274231 0.599 
0.137666 0.269653 0.589 
0.162596 0.265533 0.58 
0.187014 0.26187 0.572 
0.212181 0.260039 0.568 
0.234454 0.255461 0.558 
0.257195 0.252256 0.551 
0.279284 0.249051 0.544 
0.2996 0.244931 0.535 
0.32211 0.2431 0.531 
0.342941 0.240353 0.525 
0.361812 0.23669 0.517 
0.382178 0.234401 0.512 
0.401284 0.231655 0.506 
0.418151 0.227992 0.498 
0.436046 0.225245 0.492 
0.455246 0.223414 0.488 
-2.25103 1.14245 2.487 
-2.16258 1.15715 2.519 
-2.10444 1.19068 2.592 
-2.01041 1.20676 2.627 
-1.88581 1.20538 2.624 
-1.8045 1.23341 2.685 
-0.879344 0.692269 1.507 
-0.857423 0.733612 1.597 
-0.812894 0.761634 1.658 
-0.669664 0.698241 1.52 
-0.61812 0.72075 1.569 
-0.586323 0.775415 1.688 
-0.523583 0.799761 1.741 
-0.44523 0.804814 1.752 
-0.31418 0.695485 1.514 
-0.247796 0.707428 1.54 
-0.17533 0.704672 1.534 
-0.101799 0.690891 1.504 
-0.0315499 0.687675 1.497 
0.0379959 0.683541 1.488 
0.104638 0.275162 0.599 
0.131008 0.271946 0.592 
0.156191 0.267812 0.583 
0.180219 0.263218 0.573 
0.204399 0.260003 0.566 
0.228334 0.257247 0.56 
0.250801 0.253572 0.552 
0.274025 0.251275 0.547 
0.294045 0.246681 0.537 
0.316698 0.244844 0.533 
0.337697 0.242087 0.527 
0.356074 0.237953 0.518 
0.377282 0.236116 0.514 
0.395775 0.2329 0.507 
0.412789 0.229225 0.499 
0.430804 0.226469 0.493 
0.449181 0.224172 0.488 
-2.26232 1.14032 2.474 
-2.17738 1.15645 2.509 
-2.11792 1.18872 2.579 
-2.03799 1.21269 2.631 
-1.90517 1.20623 2.617 
-1.85746 1.25647 2.726 
-0.895139 0.694149 1.506 
-0.861645 0.725031 1.573 
-0.820401 0.75453 1.637 
-0.683645 0.693228 1.504 
-0.633532 0.715813 1.553 
-0.602699 0.768819 1.668 
-0.546984 0.801083 1.738 
-0.469193 0.806615 1.75 
-0.336517 0.705212 1.53 
-0.263817 0.701524 1.522 
-0.19427 0.706594 1.533 
-0.121214 0.697376 1.513 
-0.0499557 0.687236 1.491 
0.0194485 0.684009 1.484 
0.0977547 0.75453 1.637 
0.124991 0.273788 0.594 
0.150364 0.26964 0.585 
0.174595 0.265031 0.575 
0.198594 0.261343 0.567 
0.22264 0.258578 0.561 
0.245241 0.25489 0.553 
0.268566 0.252586 0.548 
0.289278 0.248437 0.539 
0.310901 0.245672 0.533 
0.332595 0.243367 0.528 
0.351117 0.239219 0.519 
0.372415 0.237375 0.515 
0.391031 0.234149 0.508 
0.408994 0.230922 0.501 
0.428031 0.228618 0.496 
0.444783 0.225391 0.489 
-2.31329 1.15619 2.5 
-2.20819 1.1622 2.513 
-2.126 1.18163 2.555 
-2.06897 1.21816 2.634 
-1.93881 1.21354 2.624 
-1.8795 1.25562 2.715 
-0.909004 0.692789 1.498 
-0.868312 0.716838 1.55 
-0.83664 0.753374 1.629 
-0.717749 0.710826 1.537 
-0.644428 0.708976 1.533 
-0.60138 0.744124 1.609 
-0.562043 0.794534 1.718 
-0.478881 0.789447 1.707 
-0.367503 0.72655 1.571 
-0.280791 0.693252 1.499 
-0.213877 0.702964 1.52 
-0.1435 0.705276 1.525 
-0.070757 0.68909 1.49 
-0.00131558 0.693252 1.499 
0.0731722 0.739962 1.6 
0.117078 0.275636 0.596 
0.142427 0.271011 0.586 
0.167423 0.267311 0.578 
0.191674 0.263611 0.57 
0.21671 0.261762 0.566 
0.238367 0.256674 0.555 
0.261379 0.253899 0.549 
0.282787 0.2502 0.541 
0.303448 0.2465 0.533 
0.325828 0.24465 0.529 
0.345847 0.241413 0.522 
0.365923 0.238638 0.516 
0.383928 0.234938 0.508 
0.403594 0.232626 0.503 
0.422794 0.230313 0.498 
0.438841 0.226613 0.49 
-2.36218 1.16889 2.519 
-2.25903 1.17632 2.535 
-2.14931 1.18096 2.545 
-2.09053 1.21576 2.62 
-1.97668 1.22086 2.631 
-1.9076 1.25613 2.707 
-0.929614 0.691405 1.49 
-0.874597 0.703005 1.515 
-0.855989 0.74848 1.613 
-0.783227 0.7508 1.618 
-0.665378 0.70579 1.521 
-0.62067 0.73688 1.588 
-0.579012 0.780498 1.682 
-0.513411 0.800452 1.725 
-0.422968 0.78189 1.685 
-0.304486 0.696509 1.501 
-0.240149 0.713214 1.537 
-0.168399 0.71275 1.536 
-0.094348 0.694653 1.497 
-0.0245231 0.693261 1.494 
0.0455052 0.699293 1.507 
0.107818 0.276562 0.596 
0.134005 0.273314 0.589 
0.158991 0.269137 0.58 
0.18346 0.265425 0.572 
0.207917 0.262641 0.566 
0.230986 0.258929 0.558 
0.25331 0.255216 0.55 
0.275903 0.252432 0.544 
0.296275 0.248256 0.535 
0.318209 0.245936 0.53 
0.339031 0.243152 0.524 
0.358599 0.239903 0.517 
0.378256 0.237119 0.511 
0.397352 0.234335 0.505 
0.415056 0.231087 0.498 
0.432108 0.227839 0.491 
0.452214 0.226447 0.488 
-2.27456 1.17001 2.513 
-2.1849 1.18491 2.545 
-2.10768 1.20866 2.596 
-2.01041 1.22309 2.627 
-1.91887 1.24311 2.67 
-1.8092 1.25335 2.692 
-0.885192 0.700703 1.505 
-0.862159 0.741209 1.592 
-0.797359 0.750055 1.611 
-0.675643 0.701635 1.507 
-0.6283 0.728173 1.564 
-0.590913 0.774731 1.664 
-0.537108 0.810581 1.741 
-0.453341 0.805925 1.731 
-0.327233 0.707687 1.52 
-0.255542 0.705359 1.515 
-0.187003 0.713274 1.532 
-0.113332 0.699307 1.502 
-0.0430638 0.695116 1.493 
0.0263655 0.690926 1.484 
0.106029 0.766816 1.647 
0.127114 0.27516 0.591 
0.152567 0.271435 0.583 
0.176658 0.266779 0.573 
0.200881 0.26352 0.566 
0.224452 0.260261 0.559 
0.246474 0.256071 0.55 
0.270131 0.254209 0.546 
0.291249 0.250484 0.538 
0.31221 0.247225 0.531 
0.333787 0.244897 0.526 
0.352855 0.241172 0.518 
0.37336 0.238844 0.513 
0.391075 0.23512 0.505 
0.409688 0.232326 0.499 
0.42774 0.229533 0.493 
0.445234 0.226739 0.487 
-2.30464 1.17532 2.516 
-2.19867 1.18139 2.529 
-2.1137 1.20008 2.569 
-2.04208 1.22904 2.631 
-1.93477 1.23885 2.652 
-1.85897 1.27155 2.722 
-0.894371 0.697436 1.493 
-0.861243 0.728267 1.559 
-0.820444 0.757697 1.622 
-0.68603 0.700239 1.499 
-0.632603 0.718924 1.539 
-0.598043 0.766572 1.641 
-0.551749 0.81095 1.736 
-0.467036 0.80441 1.722 
-0.340156 0.712384 1.525 
-0.264488 0.700239 1.499 
-0.198774 0.715187 1.531 
-0.1255 0.704443 1.508 
-0.0541494 0.690896 1.479 
0.0149771 0.699772 1.498 
0.0920452 0.759565 1.626 
0.121811 0.276545 0.592 
0.147133 0.272341 0.583 
0.171915 0.268604 0.575 
0.195951 0.264867 0.567 
0.219633 0.261597 0.56 
0.241786 0.257393 0.551 
0.265526 0.255524 0.547 
0.286766 0.251787 0.539 
0.30726 0.24805 0.531 
0.329509 0.246181 0.527 
0.348698 0.242444 0.519 
0.368577 0.239641 0.513 
0.386368 0.235904 0.505 
0.406659 0.234036 0.501 
0.424861 0.231233 0.495 
0.441599 0.227963 0.488 
-2.33386 1.18813 2.535 
-2.21308 1.18673 2.532 
-2.11988 1.20079 2.562 
-2.05981 1.23641 2.638 
-1.95301 1.24672 2.66 
-1.86684 1.2725 2.715 
-0.900624 0.697412 1.488 
-0.863669 0.724596 1.546 
-0.830524 0.760217 1.622 
-0.701376 0.708661 1.512 
-0.637161 0.715691 1.527 
-0.600828 0.759748 1.621 
-0.558001 0.807086 1.722 
-0.46997 0.793963 1.694 
-0.348858 0.718035 1.532 
-0.270932 0.701162 1.496 
-0.205776 0.717097 1.53 
-0.133056 0.709598 1.514 
-0.0610431 0.693194 1.479 
0.0080056 0.703036 1.5 
0.083895 0.756936 1.615 
0.118331 0.277934 0.593 
0.143756 0.273716 0.584 
0.168634 0.269966 0.576 
0.192766 0.266216 0.568 
0.216539 0.262936 0.561 
0.238794 0.258717 0.552 
0.262606 0.256843 0.548 
0.283416 0.252624 0.539 
0.30396 0.248875 0.531 
0.326234 0.247 0.527 
0.346138 0.243719 0.52 
0.366102 0.240907 0.514 
0.383988 0.237158 0.506 
0.404351 0.235283 0.502 
0.422637 0.232471 0.496 
0.439465 0.22919 0.489 
-2.37726 1.20006 2.552 
-2.25566 1.19865 2.549 
-2.14188 1.20148 2.555 
-2.07742 1.23392 2.624 
-1.98715 1.25414 2.667 
-1.89637 1.27671 2.715 
-0.916293 0.694081 1.476 
-0.880799 0.721355 1.534 
-0.849394 0.757094 1.61 
-0.759442 0.742516 1.579 
-0.642168 0.715712 1.522 
-0.60388 0.756624 1.609 
-0.562083 0.804118 1.71 
-0.473634 0.789541 1.679 
-0.366882 0.732641 1.558 
-0.283498 0.705837 1.501 
-0.21823 0.721355 1.534 
-0.14606 0.718064 1.527 
-0.0727778 0.697843 1.484 
-0.00363725 0.703486 1.496 
0.0700237 0.745338 1.585 
0.113725 0.278855 0.593 
0.139457 0.275093 0.585 
0.164159 0.270861 0.576 
0.188686 0.267569 0.569 
0.213316 0.265218 0.564 
0.234931 0.260045 0.553 
0.258349 0.257694 0.548 
0.279229 0.253462 0.539 
0.299835 0.2497 0.531 
0.32214 0.247819 0.527 
0.342098 0.244527 0.52 
0.362109 0.241706 0.514 
0.380809 0.238414 0.507 
0.399654 0.235593 0.501 
0.418784 0.233241 0.496 
0.436557 0.23042 0.49 
-2.37742 1.21016 2.565 
-2.24642 1.20403 2.552 
-2.13831 1.21016 2.565 
-2.07935 1.24649 2.642 
-1.98805 1.26678 2.685 
-1.88094 1.27905 2.711 
-0.906505 0.695903 1.475 
-0.880353 0.731287 1.55 
-0.839388 0.759595 1.61 
-0.681421 0.704867 1.494 
-0.628165 0.723739 1.534 
-0.59513 0.773749 1.64 
-0.545573 0.813852 1.725 
-0.459507 0.803944 1.704 
-0.336458 0.716662 1.519 
-0.26076 0.703451 1.491 
-0.19601 0.720908 1.528 
-0.123238 0.711944 1.509 
-0.0517464 0.696374 1.476 
0.017293 0.706282 1.497 
0.0944552 0.766201 1.624 
0.122523 0.278833 0.591 
0.147785 0.274587 0.582 
0.172207 0.27034 0.573 
0.196485 0.267038 0.566 
0.219322 0.262792 0.557 
0.242202 0.259489 0.55 
0.265889 0.257602 0.546 
0.28707 0.253828 0.538 
0.307505 0.250053 0.53 
0.328447 0.247222 0.524 
0.34883 0.244392 0.518 
0.368654 0.241561 0.512 
0.385619 0.237315 0.503 
0.406624 0.235899 0.5 
0.423051 0.232125 0.492 
0.441451 0.229766 0.487 
-2.30861 1.20941 2.555 
-2.20408 1.21746 2.572 
-2.08987 1.22077 2.579 
-2.02313 1.25391 2.649 
-1.94412 1.28326 2.711 
-1.78356 1.25912 2.66 
-0.889136 0.706241 1.492 
-0.864638 0.745056 1.574 
-0.811382 0.76399 1.614 
-0.659691 0.713815 1.508 
-0.619107 0.74979 1.584 
-0.577979 0.794758 1.679 
-0.499481 0.798545 1.687 
-0.398147 0.760203 1.606 
-0.302959 0.712395 1.505 
-0.235131 0.719495 1.52 
-0.166769 0.730382 1.543 
-0.0906698 0.698194 1.475 
-0.0222762 0.709555 1.499 
0.0483863 0.721388 1.524 
0.109118 0.280698 0.593 
0.135143 0.277384 0.586 
0.159962 0.273124 0.577 
0.184265 0.269337 0.569 
0.208934 0.266971 0.564 
0.231052 0.262237 0.554 
0.253628 0.258924 0.547 
0.275552 0.25561 0.54 
0.29571 0.25135 0.531 
0.318046 0.249456 0.527 
0.338059 0.246143 0.52 
0.358812 0.243776 0.515 
0.378357 0.240936 0.509 
0.394972 0.236676 0.5 
0.415767 0.235256 0.497 
0.431867 0.231469 0.489 
-2.37679 1.22811 2.586 
-2.24404 1.22146 2.572 
-2.12416 1.22146 2.572 
-2.08065 1.268 2.67 
-1.99723 1.29459 2.726 
-1.85988 1.28747 2.711 
-0.903756 0.701911 1.478 
-0.878361 0.738478 1.555 
-0.833349 0.763648 1.608 
-0.67819 0.708559 1.492 
-0.625373 0.72803 1.533 
-0.594027 0.780745 1.644 
-0.541004 0.816363 1.719 
-0.451813 0.804965 1.695 
-0.32786 0.718057 1.512 
-0.253981 0.708559 1.492 
-0.188023 0.722332 1.521 
-0.115589 0.712833 1.501 
-0.0448667 0.700961 1.476 
0.0241895 0.708559 1.492 
0.101899 0.770297 1.622 
0.126899 0.280194 0.59 
0.151782 0.275445 0.58 
0.176042 0.271171 0.571 
0.200172 0.267847 0.564 
0.222846 0.263573 0.555 
0.245578 0.260248 0.548 
0.269141 0.258349 0.544 
0.289625 0.254075 0.535 
0.311034 0.251225 0.529 
0.330614 0.247426 0.521 
0.352173 0.245526 0.517 
0.371176 0.242202 0.51 
0.387978 0.237928 0.501 
0.409688 0.236978 0.499 
0.425137 0.232704 0.49 
-2.42477 1.24022 2.603 
-2.28221 1.22879 2.579 
-2.1729 1.23498 2.592 
-2.10275 1.26548 2.656 
-2.03409 1.30073 2.73 
-1.89358 1.29168 2.711 
-0.915888 0.699442 1.468 
-0.887297 0.732318 1.537 
-0.849621 0.762811 1.601 
-0.761928 0.749947 1.574 
-0.646918 0.71993 1.511 
-0.611208 0.763288 1.602 
-0.565342 0.804263 1.688 
-0.481186 0.795211 1.669 
-0.366932 0.737559 1.548 
-0.288115 0.720883 1.513 
-0.221189 0.732795 1.538 
-0.149113 0.730889 1.534 
-0.0749822 0.706113 1.482 
-0.0059496 0.711354 1.493 
0.0667086 0.745659 1.565 
0.114452 0.282064 0.592 
0.139886 0.277776 0.583 
0.164481 0.273488 0.574 
0.188903 0.270152 0.567 
0.212673 0.266817 0.56 
0.234937 0.262529 0.551 
0.258255 0.260147 0.546 
0.279027 0.255859 0.537 
0.299527 0.252047 0.529 
0.321733 0.250141 0.525 
0.341587 0.246806 0.518 
0.361495 0.243947 0.512 
0.380844 0.241088 0.506 
0.398834 0.237753 0.499 
0.418709 0.235847 0.495 
0.436426 0.232989 0.489 
-2.35009 1.23901 2.592 
-2.23272 1.24092 2.596 
-2.11416 1.24236 2.599 
-2.04746 1.27629 2.67 
-1.95542 1.29781 2.715 
-1.80126 1.27821 2.674 
-0.893308 0.716542 1.499 
-0.869033 0.756217 1.582 
-0.813393 0.773425 1.618 
-0.6722 0.711761 1.489 
-0.622634 0.735184 1.538 
-0.588414 0.802584 1.679 
-0.518663 0.815968 1.707 
-0.419292 0.779161 1.63 
-0.315487 0.721322 1.509 
-0.244015 0.717976 1.502 
-0.178177 0.735184 1.538 
-0.102474 0.707459 1.48 
-0.0334458 0.706503 1.478 
0.0360917 0.71941 1.505 
0.102322 0.282506 0.591 
0.131037 0.281072 0.588 
0.155749 0.276292 0.578 
0.179529 0.271511 0.568 
0.20419 0.269121 0.563 
0.226339 0.264341 0.553 
0.249379 0.261473 0.547 
0.27186 0.258605 0.541 
0.292134 0.254303 0.532 
0.313952 0.251913 0.527 
0.333377 0.248089 0.519 
0.354123 0.245699 0.514 
0.374403 0.243309 0.509 
0.391088 0.239007 0.5 
0.412735 0.23805 0.498 
0.428069 0.233748 0.489 
-2.4321 1.25838 2.624 
-2.28515 1.24496 2.596 
-2.17832 1.25311 2.613 
-2.1132 1.28764 2.685 
-2.04728 1.326 2.765 
-1.88857 1.30538 2.722 
-0.904827 0.707841 1.476 
-0.882476 0.747165 1.558 
-0.834808 0.770184 1.606 
-0.71265 0.724625 1.511 
-0.642647 0.725105 1.512 
-0.613799 0.777857 1.622 
-0.541004 0.824375 1.719 
-0.448012 0.801356 1.671 
-0.324434 0.722707 1.507 
-0.251494 0.715034 1.491 
-0.186392 0.732298 1.527 
-0.11303 0.718391 1.498 
-0.0425446 0.707361 1.475 
0.0264365 0.713595 1.488 
0.105995 0.283424 0.591 
0.132412 0.281026 0.586 
0.157 0.27623 0.576 
0.180975 0.271914 0.567 
0.20594 0.269996 0.563 
0.228057 0.2652 0.553 
0.25062 0.261843 0.546 
0.27253 0.258486 0.539 
0.293235 0.25465 0.531 
0.314991 0.252252 0.526 
0.334344 0.248416 0.518 
0.355028 0.246018 0.513 
0.375984 0.244099 0.509 
0.392641 0.239783 0.5 
0.413451 0.238345 0.497 
0.42871 0.234029 0.488 
-2.41856 1.2639 2.627 
-2.28125 1.25572 2.61 
-2.17367 1.2639 2.627 
-2.1051 1.2971 2.696 
-2.0301 1.3303 2.765 
-1.87716 1.31346 2.73 
-0.902814 0.713983 1.484 
-0.879146 0.752953 1.565 
-0.833504 0.778453 1.618 
-0.701396 0.720237 1.497 
-0.638371 0.727935 1.513 
-0.611761 0.784226 1.63 
-0.533922 0.828489 1.722 
-0.429949 0.785188 1.632 
-0.324434 0.725048 1.507 
-0.251494 0.71735 1.491 
-0.187125 0.737558 1.533 
-0.112955 0.720237 1.497 
-0.0426312 0.711096 1.478 
0.0335515 0.719756 1.496 
0.108566 0.283861 0.59 
0.134913 0.281455 0.585 
0.159408 0.276644 0.575 
0.183294 0.272314 0.566 
0.207823 0.269909 0.561 
0.230218 0.265578 0.552 
0.252701 0.262211 0.545 
0.274532 0.258843 0.538 
0.295153 0.254994 0.53 
0.316839 0.252588 0.525 
0.336108 0.248739 0.517 
0.356026 0.245853 0.511 
0.377613 0.244409 0.508 
0.394182 0.240079 0.499 
0.414094 0.238155 0.495 
0.430984 0.234787 0.488 
-2.38999 1.26798 2.627 
-2.26754 1.26798 2.627 
-2.17204 1.28391 2.66 
-2.08733 1.30853 2.711 
-1.97182 1.31577 2.726 
-1.84205 1.31384 2.722 
-0.895764 0.729321 1.511 
-0.867941 0.766969 1.589 
-0.805867 0.778553 1.613 
-0.673154 0.717254 1.486 
-0.622992 0.739939 1.533 
-0.585961 0.807031 1.672 
-0.51927 0.82489 1.709 
-0.40926 0.767935 1.591 
-0.316323 0.730286 1.513 
-0.244015 0.724976 1.502 
-0.179451 0.747662 1.549 
-0.102197 0.712427 1.476 
-0.0333779 0.711944 1.475 
0.0508541 0.737043 1.527 
0.114788 0.284295 0.589 
0.140551 0.280916 0.582 
0.164797 0.27609 0.572 
0.189115 0.272711 0.565 
0.212399 0.268849 0.557 
0.234937 0.264988 0.549 
0.258154 0.262575 0.544 
0.279341 0.258713 0.536 
0.299781 0.254852 0.528 
0.32132 0.252439 0.523 
0.34107 0.24906 0.516 
0.360875 0.246164 0.51 
0.380876 0.24375 0.505 
0.398808 0.240372 0.498 
0.417783 0.237958 0.493 
-2.45568 1.28078 2.645 
-2.31652 1.27207 2.627 
-2.21496 1.28417 2.652 
-2.1292 1.30741 2.7 
-2.06864 1.35003 2.788 
-1.90114 1.32388 2.734 
-0.906666 0.716173 1.479 
-0.879644 0.752006 1.553 
-0.839486 0.782028 1.615 
-0.715945 0.732637 1.513 
-0.642864 0.729731 1.507 
-0.615179 0.783965 1.619 
-0.548629 0.815924 1.685 
-0.466464 0.809629 1.672 
-0.346233 0.726342 1.5 
-0.277975 0.7307 1.509 
-0.210805 0.741837 1.532 
-0.138852 0.738932 1.526 
-0.0656833 0.716657 1.48 
0.0194747 0.719562 1.486 
0.0953063 0.772827 1.596 
0.12899 0.284242 0.587 
0.15342 0.278915 0.576 
0.177138 0.274073 0.566 
0.202081 0.272136 0.562 
0.224621 0.267778 0.553 
0.246774 0.263904 0.545 
0.269679 0.261483 0.54 
0.290481 0.257609 0.532 
0.311722 0.254704 0.526 
0.330486 0.250346 0.517 
0.35184 0.248409 0.513 
0.372088 0.245988 0.508 
0.394182 0.24163 0.499 
0.413953 0.238724 0.493 
-2.47585 1.28683 2.649 
-2.34617 1.28343 2.642 
-2.24069 1.29364 2.663 
-2.16664 1.32424 2.726 
-2.08073 1.35096 2.781 
-1.90972 1.3223 2.722 
-0.911523 0.71507 1.472 
-0.880706 0.747132 1.538 
-0.846893 0.782108 1.61 
-0.728731 0.740817 1.525 
-0.647732 0.729644 1.502 
-0.615802 0.777736 1.601 
-0.56359 0.813684 1.675 
-0.486388 0.815141 1.678 
-0.366413 0.736445 1.516 
-0.298483 0.743246 1.53 
-0.225982 0.739359 1.522 
-0.156773 0.747618 1.539 
-0.0821109 0.721871 1.486 
0.00100797 0.7243 1.491 
0.0748543 0.768992 1.583 
0.121694 0.285154 0.587 
0.146769 0.280782 0.578 
0.170704 0.275924 0.568 
0.195443 0.273495 0.563 
0.218141 0.269123 0.554 
0.24088 0.265722 0.547 
0.263941 0.263294 0.542 
0.284402 0.258922 0.533 
0.305764 0.256007 0.527 
0.324686 0.251635 0.518 
0.346137 0.249692 0.514 
0.366494 0.247263 0.509 
0.391856 0.242405 0.499 
0.415325 0.238519 0.491 
-2.46351 1.29095 2.649 
-2.34269 1.29241 2.652 
-2.23748 1.30313 2.674 
-2.14524 1.32311 2.715 
-2.07892 1.36259 2.796 
-1.91306 1.33773 2.745 
-0.908349 0.720281 1.478 
-0.876377 0.751958 1.543 
-0.841995 0.787046 1.615 
-0.716396 0.735389 1.509 
-0.643921 0.732952 1.504 
-0.614799 0.788508 1.618 
-0.556115 0.816774 1.676 
-0.477996 0.816774 1.676 
-0.355318 0.730515 1.499 
-0.29059 0.743673 1.526 
-0.219751 0.744648 1.528 
-0.148822 0.74611 1.531 
-0.0749316 0.721743 1.481 
0.00100864 0.727104 1.492 
0.0750907 0.773888 1.588 
0.119666 0.285578 0.586 
0.144973 0.28168 0.578 
0.169237 0.277294 0.569 
0.193694 0.27437 0.563 
0.216419 0.269984 0.554 
0.239181 0.266572 0.547 
0.262257 0.264136 0.542 
0.282746 0.25975 0.533 
0.304126 0.256826 0.527 
0.3237 0.252927 0.519 
0.34454 0.25049 0.514 
0.36563 0.248541 0.51 
0.394182 0.24318 0.499 
0.416763 0.238794 0.49 
-2.44704 1.29507 2.649 
-2.32971 1.29849 2.656 
-2.23582 1.31609 2.692 
-2.12837 1.32733 2.715 
-2.05565 1.36302 2.788 
-1.90705 1.34982 2.761 
-0.90597 0.729911 1.493 
-0.876155 0.764622 1.564 
-0.831504 0.791511 1.619 
-0.688852 0.726 1.485 
-0.630902 0.7392 1.512 
-0.611577 0.806666 1.65 
-0.548928 0.828178 1.694 
-0.460815 0.812044 1.661 
-0.34554 0.731867 1.497 
-0.277975 0.737733 1.509 
-0.211355 0.750933 1.536 
-0.137942 0.741155 1.516 
-0.065417 0.720622 1.474 
0.00565238 0.7304 1.494 
0.0804787 0.780755 1.597 
0.121279 0.286 0.585 
0.146515 0.282089 0.577 
0.170704 0.277689 0.568 
0.195096 0.274756 0.562 
0.217747 0.270355 0.553 
0.24044 0.266933 0.546 
0.263454 0.264489 0.541 
0.284402 0.260578 0.533 
0.305764 0.257644 0.527 
0.324686 0.253244 0.518 
0.345463 0.2508 0.513 
0.366494 0.248844 0.509 
0.394939 0.243467 0.498 
0.417524 0.239556 0.49 
-2.44982 1.30065 2.652 
-2.33585 1.30605 2.663 
-2.24578 1.32616 2.704 
-2.13386 1.33498 2.722 
-2.05344 1.36588 2.785 
-1.90981 1.35607 2.765 
-0.906576 0.732721 1.494 
-0.873354 0.7646 1.559 
-0.830477 0.793045 1.617 
-0.691624 0.728797 1.486 
-0.631157 0.739097 1.507 
-0.610418 0.804326 1.64 
-0.550583 0.829338 1.691 
-0.46479 0.817077 1.666 
-0.348098 0.734683 1.498 
-0.281248 0.74253 1.514 
-0.213464 0.752339 1.534 
-0.140205 0.74302 1.515 
-0.0675234 0.72095 1.47 
0.00101 0.732721 1.494 
0.0755163 0.783237 1.597 
0.119257 0.286418 0.584 
0.144722 0.282985 0.577 
0.168939 0.278571 0.568 
0.19335 0.275629 0.562 
0.216419 0.271705 0.554 
0.238743 0.267782 0.546 
0.261773 0.265329 0.541 
0.282215 0.260915 0.532 
0.303549 0.257973 0.526 
0.323077 0.254049 0.518 
0.343869 0.251597 0.513 
0.364913 0.249635 0.509 
0.387976 0.24424 0.498 
0.409911 0.240317 0.49 
-2.50511 1.31215 2.667 
-2.40312 1.32445 2.692 
-2.28779 1.33036 2.704 
-2.22012 1.36627 2.777 
-2.08767 1.36431 2.773 
-1.93653 1.34905 2.742 
-0.915667 0.720282 1.464 
-0.886791 0.753738 1.532 
-0.843592 0.779814 1.585 
-0.733426 0.747834 1.52 
-0.653425 0.737502 1.499 
-0.611585 0.772926 1.571 
-0.578798 0.830981 1.689 
-0.505994 0.840821 1.709 
-0.376827 0.747834 1.52 
-0.307992 0.752754 1.53 
-0.234203 0.744882 1.514 
-0.166337 0.757182 1.539 
-0.0923295 0.738978 1.502 
-0.0220236 0.729138 1.482 
0.0478783 0.74193 1.508 
0.110372 0.287818 0.585 
0.136463 0.285358 0.58 
0.160678 0.280438 0.57 
0.184618 0.276502 0.562 
0.208937 0.274042 0.557 
0.231526 0.270106 0.549 
0.254305 0.267154 0.543 
0.275494 0.263218 0.535 
0.295939 0.259282 0.527 
0.317461 0.256822 0.522 
0.336554 0.252886 0.514 
0.356303 0.249934 0.508 
0.377833 0.246982 0.502 
0.396436 0.24403 0.496 
0.416672 0.240586 0.489 
-2.45351 1.31087 2.656 
-2.34901 1.32173 2.678 
-2.26405 1.34542 2.726 
-2.14013 1.34739 2.73 
-2.05049 1.37256 2.781 
-1.90429 1.36072 2.757 
-0.908779 0.735389 1.49 
-0.868622 0.761054 1.542 
-0.828784 0.791654 1.604 
-0.696242 0.733415 1.486 
-0.63373 0.741312 1.502 
-0.606882 0.79807 1.617 
-0.555837 0.834593 1.691 
-0.472506 0.826696 1.675 
-0.351128 0.740818 1.501 
-0.284725 0.750196 1.52 
-0.216128 0.758092 1.536 
-0.142371 0.746741 1.513 
-0.0698073 0.725518 1.47 
-0.00131383 0.738844 1.497 
0.0733552 0.791654 1.604 
0.121072 0.288233 0.584 
0.146007 0.283791 0.575 
0.170404 0.279843 0.567 
0.194055 0.275894 0.559 
0.217747 0.272933 0.553 
0.24 0.268985 0.545 
0.261994 0.26553 0.538 
0.283335 0.262075 0.531 
0.304604 0.259114 0.525 
0.32406 0.255165 0.517 
0.34479 0.252697 0.512 
0.365774 0.250723 0.508 
0.384881 0.245788 0.498 
0.403996 0.24332 0.493 
0.421778 0.240359 0.487 
-2.4564 1.33678 2.7 
-2.31156 1.32589 2.678 
-2.26431 1.37292 2.773 
-2.10504 1.35361 2.734 
-1.9805 1.35559 2.738 
-0.941674 0.723841 1.462 
-0.901651 0.749092 1.513 
-0.865188 0.779788 1.575 
-0.813393 0.801077 1.618 
-0.667234 0.731763 1.478 
-0.626682 0.76642 1.548 
-0.602173 0.832269 1.681 
-0.539402 0.857024 1.731 
-0.41098 0.772361 1.56 
-0.326803 0.751567 1.518 
-0.253687 0.744636 1.504 
-0.187979 0.762459 1.54 
-0.112879 0.740675 1.496 
-0.0424869 0.729287 1.473 
0.0265431 0.739685 1.494 
0.105192 0.808999 1.634 
0.13038 0.287655 0.581 
0.15475 0.282704 0.571 
0.178823 0.278743 0.563 
0.203244 0.276268 0.558 
0.225966 0.272307 0.55 
0.247942 0.268346 0.542 
0.27018 0.265375 0.536 
0.291308 0.26191 0.529 
0.311187 0.257949 0.521 
0.331608 0.254978 0.515 
0.352159 0.252503 0.51 
0.37546 0.249037 0.503 
0.393353 0.245571 0.496 
0.410594 0.242106 0.489 
-2.47585 1.31564 2.649 
-2.41455 1.35041 2.719 
-2.31305 1.36531 2.749 
-2.20718 1.37922 2.777 
-2.07475 1.37723 2.773 
-1.93147 1.3673 2.753 
-0.911947 0.729589 1.469 
-0.878502 0.759885 1.53 
-0.833039 0.784222 1.579 
-0.707786 0.738033 1.486 
-0.646257 0.746972 1.504 
-0.608334 0.788692 1.588 
-0.571329 0.843324 1.698 
-0.497982 0.853257 1.718 
-0.359078 0.747469 1.505 
-0.292577 0.756905 1.524 
-0.222125 0.758892 1.528 
-0.150114 0.754919 1.52 
-0.0773891 0.737039 1.484 
-0.00829139 0.743496 1.497 
0.0652628 0.789188 1.589 
0.11543 0.289551 0.583 
0.140647 0.285578 0.575 
0.165118 0.281605 0.567 
0.188844 0.277631 0.559 
0.212592 0.274651 0.553 
0.23535 0.271175 0.546 
0.256978 0.267202 0.538 
0.279433 0.264718 0.533 
0.29971 0.260745 0.525 
0.319858 0.257268 0.518 
0.340017 0.254288 0.512 
0.368993 0.251805 0.507 
0.38488 0.246839 0.497 
0.40394 0.244355 0.492 
0.422535 0.241872 0.487 
-2.46735 1.35812 2.726 
-2.3214 1.34716 2.704 
-2.26682 1.391 2.792 
-2.09842 1.36609 2.742 
-1.97852 1.37157 2.753 
-0.926847 0.7239 1.453 
-0.898146 0.756782 1.519 
-0.85948 0.786177 1.578 
-0.805354 0.805607 1.617 
-0.664813 0.741338 1.488 
-0.622268 0.774718 1.555 
-0.596459 0.840482 1.687 
-0.53471 0.867883 1.742 
-0.38155 0.75728 1.52 
-0.311724 0.759772 1.525 
-0.239697 0.756782 1.519 
-0.170452 0.763757 1.533 
-0.0966738 0.745822 1.497 
-0.0265748 0.736854 1.479 
0.0436507 0.759273 1.524 
0.107462 0.290955 0.584 
0.133298 0.287966 0.578 
0.157744 0.283482 0.569 
0.181675 0.279496 0.561 
0.205971 0.277005 0.556 
0.22855 0.27302 0.548 
0.250846 0.269532 0.541 
0.273001 0.266543 0.535 
0.293482 0.262557 0.527 
0.313218 0.258571 0.519 
0.333508 0.255582 0.513 
0.354632 0.253589 0.509 
0.381794 0.247113 0.496 
0.402464 0.245618 0.493 
0.421128 0.243127 0.488 
-2.47159 1.36236 2.726 
-2.32818 1.35286 2.707 
-2.27441 1.39734 2.796 
-2.10498 1.37185 2.745 
-1.98567 1.37785 2.757 
-0.929104 0.726158 1.453 
-0.897542 0.756643 1.514 
-0.86084 0.787629 1.576 
-0.809864 0.810118 1.621 
-0.664813 0.74365 1.488 
-0.622268 0.777134 1.555 
-0.595399 0.841604 1.684 
-0.534403 0.87009 1.741 
-0.372248 0.755144 1.511 
-0.304017 0.760642 1.522 
-0.233535 0.762141 1.525 
-0.163094 0.765139 1.531 
-0.0897562 0.748647 1.498 
-0.0197743 0.74265 1.486 
0.0517199 0.776134 1.553 
0.110711 0.290863 0.582 
0.13618 0.287365 0.575 
0.16043 0.282867 0.566 
0.184501 0.279368 0.559 
0.208673 0.27687 0.554 
0.231109 0.272871 0.546 
0.253269 0.269373 0.539 
0.275809 0.266874 0.534 
0.295631 0.262376 0.525 
0.315834 0.258878 0.518 
0.33604 0.255879 0.512 
0.369942 0.251881 0.504 
0.388715 0.247383 0.495 
0.406796 0.244385 0.489 
-2.47196 1.33702 2.667 
-2.38286 1.35707 2.707 
-2.32755 1.39968 2.792 
-2.16672 1.38013 2.753 
-2.04136 1.38213 2.757 
-1.89412 1.3686 2.73 
-0.906814 0.743455 1.483 
-0.868758 0.771027 1.538 
-0.822984 0.796093 1.588 
-0.688277 0.736436 1.469 
-0.635839 0.755486 1.507 
-0.609885 0.814642 1.625 
-0.565041 0.861766 1.719 
-0.465531 0.841212 1.678 
-0.342301 0.764009 1.524 
-0.271267 0.764009 1.524 
-0.201021 0.767017 1.53 
-0.127842 0.755988 1.508 
-0.0566382 0.743956 1.484 
0.0128017 0.759998 1.516 
0.09051 0.824167 1.644 
0.12337 0.291767 0.582 
0.147653 0.286253 0.571 
0.172131 0.282743 0.564 
0.195605 0.278733 0.556 
0.219129 0.275725 0.55 
0.241205 0.271714 0.542 
0.263026 0.268205 0.535 
0.284195 0.264696 0.528 
0.304711 0.261187 0.521 
0.325206 0.258179 0.515 
0.347176 0.256675 0.512 
0.378711 0.248654 0.496 
0.3994 0.24715 0.493 
-2.56329 1.36329 2.711 
-2.4576 1.37485 2.734 
-2.34977 1.38642 2.757 
-2.25591 1.40804 2.8 
-2.08365 1.38038 2.745 
-1.97851 1.39648 2.777 
-0.912409 0.728159 1.448 
-0.88693 0.764365 1.52 
-0.84937 0.795543 1.582 
-0.766807 0.786492 1.564 
-0.663738 0.752296 1.496 
-0.619025 0.783977 1.559 
-0.592619 0.850356 1.691 
-0.529297 0.876003 1.742 
-0.380044 0.761348 1.514 
-0.310906 0.764868 1.521 
-0.241432 0.769394 1.53 
-0.170119 0.769394 1.53 
-0.0966093 0.752296 1.496 
-0.0265209 0.742239 1.476 
0.0443954 0.779451 1.55 
0.107278 0.293174 0.583 
0.132607 0.289151 0.575 
0.15719 0.285128 0.567 
0.181027 0.281105 0.559 
0.20523 0.278591 0.554 
0.227715 0.274568 0.546 
0.249455 0.270545 0.538 
0.272491 0.268534 0.534 
0.292925 0.264511 0.526 
0.312614 0.260488 0.518 
0.333508 0.257973 0.513 
0.354632 0.255962 0.509 
0.388697 0.248419 0.494 
0.408238 0.245401 0.488 
-2.4779 1.35993 2.696 
-2.36881 1.36952 2.715 
-2.31246 1.41239 2.8 
-2.1578 1.39675 2.769 
-2.0258 1.39474 2.765 
-1.86743 1.37305 2.722 
-0.907887 0.756638 1.5 
-0.865345 0.781355 1.549 
-0.819772 0.807585 1.601 
-0.679574 0.738983 1.465 
-0.632153 0.764205 1.515 
-0.60787 0.827258 1.64 
-0.560917 0.873161 1.731 
-0.420665 0.791444 1.569 
-0.33823 0.770258 1.527 
-0.267581 0.771771 1.53 
-0.194984 0.766727 1.52 
-0.123565 0.763196 1.513 
-0.0522372 0.751594 1.49 
0.0176742 0.771771 1.53 
0.0985907 0.832807 1.651 
0.125649 0.292567 0.58 
0.149788 0.287018 0.569 
0.17445 0.283992 0.563 
0.19784 0.279956 0.555 
0.220887 0.276425 0.548 
0.243281 0.272894 0.541 
0.265024 0.269363 0.534 
0.28557 0.265328 0.526 
0.305961 0.261797 0.519 
0.327607 0.259779 0.515 
0.34888 0.257761 0.511 
0.383331 0.249691 0.495 
0.402237 0.246664 0.489 
-2.49931 1.3621 2.692 
-2.39412 1.37373 2.715 
-2.33188 1.41269 2.792 
-2.17099 1.39296 2.753 
-2.03674 1.38891 2.745 
-1.8928 1.37728 2.722 
-0.910807 0.749861 1.482 
-0.876377 0.780726 1.543 
-0.82479 0.800459 1.582 
-0.698831 0.744801 1.472 
-0.647346 0.765041 1.512 
-0.614642 0.815132 1.611 
-0.574719 0.86826 1.716 
-0.5044 0.890017 1.759 
-0.345574 0.773136 1.528 
-0.274892 0.774654 1.531 
-0.202202 0.769594 1.521 
-0.130531 0.765041 1.512 
-0.0593013 0.755427 1.493 
0.0105842 0.777184 1.536 
0.0880092 0.832336 1.645 
0.122255 0.293974 0.581 
0.146252 0.287902 0.569 
0.170951 0.284866 0.563 
0.194391 0.280818 0.555 
0.217481 0.277277 0.548 
0.239919 0.273735 0.541 
0.261215 0.269687 0.533 
0.282301 0.266145 0.526 
0.303318 0.263109 0.52 
0.324406 0.260579 0.515 
0.345704 0.258555 0.511 
0.377948 0.25046 0.495 
0.397779 0.248436 0.491 
-2.48996 1.37034 2.7 
-2.39038 1.38556 2.73 
-2.31785 1.41906 2.796 
-2.1664 1.40536 2.769 
-2.04617 1.41145 2.781 
-1.86348 1.37237 2.704 
-0.910308 0.76333 1.504 
-0.86758 0.788199 1.553 
-0.815675 0.8085 1.593 
-0.68185 0.743536 1.465 
-0.635764 0.770435 1.518 
-0.612279 0.834892 1.645 
-0.563607 0.87854 1.731 
-0.484319 0.881077 1.736 
-0.334359 0.777033 1.531 
-0.263342 0.778048 1.533 
-0.18926 0.76739 1.512 
-0.118706 0.766882 1.511 
-0.047799 0.759269 1.496 
0.0226483 0.784138 1.545 
0.100788 0.834892 1.645 
0.126793 0.292847 0.577 
0.150757 0.287264 0.566 
0.175886 0.285233 0.562 
0.198845 0.280666 0.553 
0.221777 0.277113 0.546 
0.244057 0.27356 0.539 
0.266184 0.270515 0.533 
0.286659 0.266455 0.525 
0.306981 0.262902 0.518 
0.327929 0.260364 0.513 
0.349096 0.258334 0.509 
0.380254 0.250721 0.494 
0.400015 0.248691 0.49 
-2.50483 1.3781 2.707 
-2.39886 1.38981 2.73 
-2.31988 1.41933 2.788 
-2.16872 1.40559 2.761 
-2.04299 1.40762 2.765 
-1.87396 1.3781 2.707 
-0.913251 0.766175 1.505 
-0.869992 0.790611 1.553 
-0.815582 0.808429 1.588 
-0.684127 0.745812 1.465 
-0.637281 0.771775 1.516 
-0.615583 0.838466 1.647 
-0.566296 0.881229 1.731 
-0.489261 0.887847 1.744 
-0.341495 0.779411 1.531 
-0.270134 0.779411 1.531 
-0.196437 0.770248 1.513 
-0.125749 0.76923 1.511 
-0.0548817 0.763121 1.499 
0.015507 0.789593 1.551 
0.0928944 0.835411 1.641 
0.124533 0.294761 0.579 
0.14838 0.288652 0.567 
0.173575 0.286616 0.563 
0.196623 0.282034 0.554 
0.219232 0.277961 0.546 
0.241993 0.274907 0.54 
0.263699 0.271343 0.533 
0.28367 0.266761 0.524 
0.304566 0.263707 0.518 
0.325538 0.261161 0.513 
0.347405 0.259634 0.51 
0.375649 0.251489 0.494 
0.395447 0.249452 0.49 
-2.58264 1.40171 2.745 
-2.42787 1.38639 2.715 
-2.39117 1.44052 2.821 
-2.21162 1.40988 2.761 
-2.07388 1.40375 2.749 
-1.97335 1.42366 2.788 
-0.911118 0.747577 1.464 
-0.886061 0.785875 1.539 
-0.840255 0.810897 1.588 
-0.717598 0.761875 1.492 
-0.653702 0.768514 1.505 
-0.61341 0.807833 1.582 
-0.579926 0.868088 1.7 
-0.511291 0.886471 1.736 
-0.364327 0.779748 1.527 
-0.292193 0.777194 1.522 
-0.220235 0.77362 1.515 
-0.14804 0.76545 1.499 
-0.0776498 0.760343 1.489 
-0.00844093 0.778216 1.524 
0.0675218 0.839492 1.644 
0.115737 0.296171 0.58 
0.140063 0.290554 0.569 
0.165413 0.288512 0.565 
0.188355 0.283405 0.555 
0.211907 0.280341 0.549 
0.234036 0.276256 0.541 
0.255897 0.272682 0.534 
0.277632 0.269618 0.528 
0.298236 0.266044 0.521 
0.318805 0.26298 0.515 
0.340147 0.260937 0.511 
0.36795 0.252767 0.495 
0.388652 0.251235 0.492 
0.408238 0.249192 0.488 
-2.51223 1.39061 2.715 
-2.41556 1.40802 2.749 
-2.31988 1.428 2.788 
-2.17815 1.42031 2.773 
-2.05776 1.42646 2.785 
-1.8795 1.39061 2.715 
-0.913858 0.771364 1.506 
-0.871673 0.796974 1.556 
-0.813014 0.810803 1.583 
-0.683193 0.74934 1.463 
-0.638122 0.77751 1.518 
-0.617078 0.845632 1.651 
-0.565315 0.885071 1.728 
-0.489541 0.893778 1.745 
-0.346704 0.785193 1.533 
-0.274174 0.78212 1.527 
-0.200607 0.772901 1.509 
-0.129667 0.769315 1.502 
-0.0596588 0.769315 1.502 
0.0131817 0.799535 1.561 
0.0899594 0.836925 1.634 
0.122522 0.296048 0.578 
0.146101 0.28939 0.565 
0.171826 0.288365 0.563 
0.194901 0.283755 0.554 
0.217536 0.279658 0.546 
0.240315 0.276585 0.54 
0.261551 0.272487 0.532 
0.282042 0.26839 0.524 
0.302957 0.265316 0.518 
0.323943 0.262755 0.513 
0.345142 0.260707 0.509 
0.36399 0.255073 0.498 
0.382537 0.251999 0.492 
0.402173 0.249951 0.488 
-2.56754 1.40664 2.738 
-2.42923 1.40048 2.726 
-2.38578 1.45134 2.825 
-2.20623 1.42051 2.765 
-2.07735 1.42051 2.765 
-1.96257 1.43079 2.785 
-0.91603 0.761888 1.483 
-0.881743 0.793226 1.544 
-0.834951 0.817886 1.592 
-0.707705 0.76086 1.481 
-0.649888 0.774218 1.507 
-0.61234 0.817886 1.592 
-0.574981 0.873885 1.701 
-0.504148 0.888783 1.73 
-0.364566 0.785006 1.528 
-0.291809 0.780896 1.52 
-0.219363 0.775245 1.509 
-0.147053 0.76497 1.489 
-0.0777541 0.765998 1.491 
-0.00849632 0.788089 1.534 
0.0701186 0.845115 1.645 
0.115538 0.29746 0.579 
0.139817 0.291809 0.568 
0.165413 0.290267 0.565 
0.188355 0.28513 0.555 
0.211521 0.281534 0.548 
0.233603 0.277424 0.54 
0.255897 0.274341 0.534 
0.277106 0.270745 0.527 
0.297663 0.267149 0.52 
0.318805 0.26458 0.515 
0.339481 0.262011 0.51 
0.357554 0.257901 0.502 
0.375655 0.253278 0.493 
0.395399 0.251223 0.489 
-2.5869 1.4145 2.745 
-2.4491 1.40883 2.734 
-2.41253 1.46397 2.841 
-2.23196 1.43305 2.781 
-2.09024 1.42481 2.765 
-1.99541 1.44954 2.813 
-0.915474 0.758008 1.471 
-0.883182 0.790472 1.534 
-0.841842 0.819844 1.591 
-0.715573 0.764192 1.483 
-0.653425 0.772437 1.499 
-0.615867 0.815207 1.582 
-0.577879 0.87292 1.694 
-0.50599 0.885288 1.718 
-0.36076 0.789442 1.532 
-0.287275 0.783773 1.521 
-0.214105 0.775528 1.505 
-0.142139 0.765738 1.486 
-0.0732191 0.769345 1.493 
-0.00375882 0.796656 1.546 
0.0750473 0.845609 1.641 
0.116931 0.297329 0.577 
0.141084 0.291661 0.566 
0.166873 0.29063 0.564 
0.189737 0.285477 0.554 
0.212835 0.28187 0.547 
0.235281 0.278263 0.54 
0.257557 0.275171 0.534 
0.278215 0.271048 0.526 
0.298703 0.267441 0.519 
0.319783 0.264865 0.514 
0.340397 0.262288 0.509 
0.359114 0.258681 0.502 
0.375655 0.254044 0.493 
0.395399 0.251982 0.489 
-2.57229 1.41308 2.734 
-2.45201 1.41722 2.742 
-2.4149 1.47252 2.849 
-2.23325 1.44099 2.788 
-2.09198 1.43324 2.773 
-1.99104 1.45391 2.813 
-0.917136 0.759777 1.47 
-0.883833 0.791305 1.531 
-0.842722 0.820766 1.588 
-0.712196 0.762878 1.476 
-0.652553 0.773732 1.497 
-0.616257 0.818181 1.583 
-0.578455 0.872451 1.688 
-0.506882 0.884856 1.712 
-0.366219 0.788204 1.525 
-0.294171 0.78562 1.52 
-0.221413 0.7789 1.507 
-0.148463 0.764945 1.48 
-0.0801243 0.771148 1.492 
-0.0109506 0.798024 1.544 
0.065007 0.850226 1.645 
0.115834 0.297708 0.576 
0.140204 0.29254 0.566 
0.165997 0.291506 0.564 
0.188535 0.285821 0.553 
0.211985 0.28272 0.547 
0.234442 0.279102 0.54 
0.256727 0.276001 0.534 
0.276871 0.271349 0.525 
0.297323 0.267731 0.518 
0.318985 0.265663 0.514 
0.338939 0.262562 0.508 
0.358334 0.259461 0.502 
0.374889 0.254809 0.493 
0.393833 0.252225 0.488 
-2.58881 1.4194 2.738 
-2.47108 1.42511 2.749 
-2.43244 1.47954 2.854 
-2.25591 1.45154 2.8 
-2.10187 1.43547 2.769 
-2.0127 1.4645 2.825 
-0.917136 0.762061 1.47 
-0.882102 0.792128 1.528 
-0.843253 0.823751 1.589 
-0.710748 0.763616 1.473 
-0.652117 0.775539 1.496 
-0.616257 0.820641 1.583 
-0.577084 0.873 1.684 
-0.50629 0.886479 1.71 
-0.369985 0.788499 1.521 
-0.298698 0.787463 1.519 
-0.226246 0.78176 1.508 
-0.153165 0.767763 1.481 
-0.0848173 0.773984 1.493 
-0.0157585 0.800941 1.545 
0.0600047 0.854337 1.648 
0.111166 0.298085 0.575 
0.136047 0.293938 0.567 
0.162189 0.293419 0.566 
0.183906 0.286162 0.552 
0.208116 0.284088 0.548 
0.230247 0.279941 0.54 
0.252579 0.27683 0.534 
0.273831 0.273201 0.527 
0.293865 0.269054 0.519 
0.315605 0.26698 0.515 
0.334993 0.263352 0.508 
0.356775 0.260241 0.502 
0.373357 0.255575 0.493 
0.392316 0.252983 0.488 
0.756743 0.424058 0.818 
-2.47757 1.42574 2.742 
-2.44917 1.48605 2.858 
-2.2795 1.46265 2.813 
-2.11783 1.44186 2.773 
-2.03161 1.47305 2.833 
-0.923502 0.760185 1.462 
-0.888706 0.789823 1.519 
-0.848597 0.819461 1.576 
-0.735792 0.777864 1.496 
-0.658049 0.768504 1.478 
-0.631412 0.82362 1.584 
-0.591726 0.874057 1.681 
-0.524063 0.892255 1.716 
-0.381638 0.785663 1.511 
-0.314094 0.792943 1.525 
-0.240941 0.786183 1.512 
-0.167197 0.771104 1.483 
-0.0982061 0.772144 1.485 
-0.0298683 0.795542 1.53 
0.0448315 0.860538 1.655 
0.118876 0.838699 1.613 
0.132757 0.295339 0.568 
0.158671 0.294299 0.566 
0.180475 0.287019 0.552 
0.20471 0.284939 0.548 
0.227311 0.2813 0.541 
0.24926 0.27766 0.534 
0.270556 0.27402 0.527 
0.2912 0.27038 0.52 
0.312404 0.267781 0.515 
0.331836 0.264141 0.508 
0.352875 0.261021 0.502 
0.369527 0.256341 0.493 
0.389321 0.254262 0.489 
0.936916 0.55064 1.059 
-2.47582 1.42165 2.726 
-2.45905 1.48841 2.854 
-2.29913 1.4712 2.821 
-2.13998 1.45242 2.785 
-2.04481 1.47745 2.833 
-0.925571 0.75672 1.451 
-0.895781 0.790097 1.515 
-0.854034 0.817737 1.568 
-0.765509 0.80157 1.537 
-0.657158 0.769758 1.476 
-0.631412 0.826081 1.584 
-0.589262 0.873018 1.674 
-0.52498 0.896486 1.719 
-0.379542 0.788532 1.512 
-0.310906 0.793226 1.521 
-0.238592 0.788532 1.512 
-0.164448 0.771322 1.479 
-0.0960926 0.776016 1.488 
-0.0276169 0.80157 1.537 
0.0474601 0.864152 1.657 
0.120856 0.837555 1.606 
0.133404 0.2957 0.567 
0.159269 0.294657 0.565 
0.181333 0.287877 0.552 
0.205186 0.285269 0.547 
0.228152 0.28214 0.541 
0.249621 0.277968 0.533 
0.271375 0.274839 0.527 
0.291446 0.270667 0.519 
0.312596 0.268059 0.514 
0.33197 0.264409 0.507 
0.352172 0.26128 0.501 
0.369527 0.257107 0.493 
0.388525 0.2545 0.488 
0.930335 0.552285 1.059 
-2.47427 1.42013 2.715 
-2.46359 1.49023 2.849 
-2.31116 1.47767 2.825 
-2.1602 1.4646 2.8 
-2.05362 1.48186 2.833 
-0.925907 0.757405 1.448 
-0.897542 0.791927 1.514 
-0.854285 0.818081 1.564 
-0.773893 0.810235 1.549 
-0.667265 0.770482 1.473 
-0.634371 0.816512 1.561 
-0.593632 0.863065 1.65 
-0.539899 0.901772 1.724 
-0.392595 0.788789 1.508 
-0.326368 0.798727 1.527 
-0.252019 0.788789 1.508 
-0.177633 0.771005 1.474 
-0.109373 0.774143 1.48 
-0.0413173 0.791927 1.514 
0.0319749 0.86568 1.655 
0.106016 0.841096 1.608 
0.131643 0.29658 0.567 
0.157234 0.295011 0.564 
0.179618 0.288734 0.552 
0.203115 0.285596 0.546 
0.226471 0.282981 0.541 
0.247965 0.278796 0.533 
0.269737 0.275658 0.527 
0.289833 0.271473 0.519 
0.310999 0.268858 0.514 
0.330395 0.265196 0.507 
0.349138 0.261535 0.5 
0.367229 0.257873 0.493 
0.386251 0.255258 0.488 
0.929567 0.554454 1.06 
-2.47369 1.42645 2.719 
-2.45917 1.49465 2.849 
-2.31331 1.48626 2.833 
-2.15277 1.46685 2.796 
-2.055 1.49045 2.841 
-0.926234 0.758081 1.445 
-0.8993 0.793755 1.513 
-0.855072 0.818937 1.561 
-0.781812 0.818412 1.56 
-0.666812 0.772246 1.472 
-0.633964 0.818412 1.56 
-0.591114 0.861956 1.643 
-0.539273 0.903401 1.722 
-0.390252 0.791132 1.508 
-0.322934 0.798477 1.522 
-0.249344 0.790083 1.506 
-0.175105 0.772246 1.472 
-0.107146 0.776967 1.481 
-0.0391194 0.797428 1.52 
0.0347341 0.872973 1.664 
0.108312 0.84202 1.605 
0.128345 0.297986 0.568 
0.153729 0.295888 0.564 
0.176826 0.290641 0.554 
0.199721 0.286444 0.546 
0.223521 0.284346 0.542 
0.245112 0.280149 0.534 
0.265957 0.275952 0.526 
0.28716 0.272804 0.52 
0.308403 0.270181 0.515 
0.327244 0.265984 0.507 
0.346723 0.262836 0.501 
0.369527 0.258639 0.493 
0.388525 0.256016 0.488 
0.944646 0.558199 1.064 
-2.47602 1.44436 2.745 
-2.43361 1.49697 2.845 
-2.29454 1.49276 2.837 
-2.11962 1.4633 2.781 
-2.03866 1.49908 2.849 
-0.92514 0.768745 1.461 
-0.88872 0.797158 1.515 
-0.852665 0.830834 1.579 
-0.741076 0.790318 1.502 
-0.656771 0.77348 1.47 
-0.630672 0.829255 1.576 
-0.584085 0.869244 1.652 
-0.529492 0.907655 1.725 
-0.382969 0.792949 1.507 
-0.31418 0.796632 1.514 
-0.242808 0.794001 1.509 
-0.168587 0.776111 1.475 
-0.100513 0.781373 1.485 
-0.0325826 0.81347 1.546 
0.0424389 0.874506 1.662 
0.115144 0.839779 1.596 
0.131643 0.298342 0.567 
0.156677 0.295711 0.562 
0.179292 0.289924 0.551 
0.202743 0.286766 0.545 
0.226052 0.284136 0.54 
0.247965 0.280452 0.533 
0.269226 0.276769 0.526 
0.289275 0.27256 0.518 
0.310999 0.270455 0.514 
0.330395 0.266772 0.507 
0.34844 0.262562 0.499 
0.373364 0.258879 0.492 
0.393074 0.256774 0.488 
-2.53986 1.42698 2.704 
-2.49596 1.47554 2.796 
-2.41048 1.5035 2.849 
-2.27768 1.5035 2.849 
-2.12983 1.49295 2.829 
-2.0121 1.5035 2.849 
-0.91381 0.77682 1.472 
-0.876779 0.805845 1.527 
-0.840953 0.841203 1.594 
-0.701856 0.772598 1.464 
-0.645737 0.787374 1.492 
-0.610952 0.83487 1.582 
-0.560985 0.871811 1.652 
-0.506836 0.912974 1.73 
-0.364327 0.805845 1.527 
-0.288162 0.792124 1.501 
-0.217618 0.790013 1.497 
-0.144584 0.772598 1.464 
-0.0774412 0.78368 1.485 
-0.00888957 0.847008 1.605 
0.0672342 0.863895 1.637 
0.111578 0.299751 0.568 
0.136837 0.297112 0.563 
0.16192 0.295001 0.559 
0.184612 0.289724 0.549 
0.20867 0.287613 0.545 
0.231066 0.283919 0.538 
0.253286 0.280753 0.532 
0.273901 0.276531 0.524 
0.29377 0.272309 0.516 
0.315357 0.270198 0.512 
0.335246 0.267032 0.506 
0.359348 0.26281 0.498 
0.376414 0.258588 0.49 
0.92967 0.56045 1.062 
-2.50179 1.44071 2.722 
-2.48223 1.50581 2.845 
-2.35293 1.50793 2.849 
-2.20767 1.49946 2.833 
-2.09394 1.51269 2.858 
-0.934215 0.762169 1.44 
-0.903828 0.794456 1.501 
-0.861087 0.820391 1.55 
-0.801565 0.833623 1.575 
-0.680534 0.779107 1.472 
-0.633957 0.807159 1.525 
-0.586498 0.841033 1.589 
-0.541458 0.888669 1.679 
-0.396227 0.796044 1.504 
-0.329161 0.803454 1.518 
-0.25364 0.788634 1.49 
-0.182213 0.780165 1.474 
-0.11428 0.785458 1.484 
-0.0461434 0.803454 1.518 
0.0448857 0.877024 1.657 
0.117107 0.841033 1.589 
0.129652 0.299575 0.566 
0.154379 0.296399 0.56 
0.17758 0.291636 0.551 
0.201418 0.288989 0.546 
0.224374 0.285814 0.54 
0.246309 0.282109 0.533 
0.266574 0.277345 0.524 
0.287665 0.274169 0.518 
0.3088 0.271523 0.513 
0.328171 0.267818 0.506 
0.34689 0.264113 0.499 
0.366463 0.260937 0.493 
0.384703 0.257761 0.487 
-2.53847 1.43698 2.707 
-2.50676 1.49325 2.813 
-2.39929 1.50811 2.841 
-2.28363 1.51926 2.862 
-2.14046 1.51236 2.849 
-2.00767 1.51236 2.849 
-0.911261 0.785109 1.479 
-0.875927 0.816429 1.538 
-0.827771 0.840317 1.583 
-0.697783 0.777678 1.465 
-0.644109 0.795726 1.499 
-0.604504 0.837662 1.578 
-0.552823 0.872167 1.643 
-0.500881 0.917288 1.728 
-0.350092 0.81059 1.527 
-0.271795 0.789887 1.488 
-0.201622 0.786702 1.482 
-0.131562 0.780863 1.471 
-0.0635123 0.787233 1.483 
0.011418 0.879599 1.657 
0.0865112 0.858365 1.617 
0.117133 0.299923 0.565 
0.142452 0.2978 0.561 
0.167398 0.295677 0.557 
0.190583 0.29143 0.549 
0.214203 0.288776 0.544 
0.236477 0.28506 0.537 
0.257124 0.280282 0.528 
0.277465 0.276036 0.52 
0.298802 0.273382 0.515 
0.319045 0.270197 0.509 
0.339403 0.267542 0.504 
0.357134 0.263296 0.496 
0.37642 0.260641 0.491 
0.943994 0.566404 1.067 
-2.49523 1.45769 2.738 
-2.45322 1.5104 2.837 
-2.34798 1.52796 2.87 
-2.17332 1.49975 2.817 
-2.08406 1.53063 2.875 
-0.924589 0.773565 1.453 
-0.891658 0.804976 1.512 
-0.855399 0.838517 1.575 
-0.750212 0.804444 1.511 
-0.65594 0.776227 1.458 
-0.625084 0.825207 1.55 
-0.581371 0.867799 1.63 
-0.535472 0.919441 1.727 
-0.382715 0.801782 1.506 
-0.312728 0.802314 1.507 
-0.24152 0.79912 1.501 
-0.169501 0.789537 1.483 
-0.100852 0.793264 1.49 
-0.033531 0.847035 1.591 
0.0422602 0.881108 1.655 
0.114855 0.847568 1.592 
0.127893 0.301334 0.566 
0.152366 0.297607 0.559 
0.175868 0.293348 0.551 
0.199721 0.290686 0.546 
0.222696 0.287492 0.54 
0.244653 0.283765 0.533 
0.26444 0.278441 0.523 
0.286056 0.275779 0.518 
0.307206 0.273117 0.513 
0.326599 0.26939 0.506 
0.345339 0.265663 0.499 
0.364904 0.263002 0.494 
0.383218 0.259807 0.488 
-2.54223 1.44753 2.711 
-2.51389 1.50626 2.821 
-2.40267 1.51907 2.845 
-2.29719 1.53723 2.879 
-2.15324 1.53029 2.866 
-2.01683 1.52815 2.862 
-0.908797 0.787569 1.475 
-0.875927 0.821208 1.538 
-0.823588 0.840964 1.575 
-0.694083 0.780628 1.462 
-0.644349 0.803588 1.505 
-0.601289 0.841498 1.576 
-0.548931 0.875136 1.639 
-0.496178 0.91892 1.721 
-0.344895 0.814267 1.525 
-0.264837 0.787569 1.475 
-0.196618 0.789705 1.479 
-0.127337 0.787569 1.475 
-0.0591821 0.795579 1.49 
0.0114662 0.888485 1.664 
0.0865112 0.86339 1.617 
0.116255 0.301679 0.565 
0.14158 0.299543 0.561 
0.166234 0.296874 0.556 
0.189385 0.292602 0.548 
0.212966 0.289932 0.543 
0.235642 0.286729 0.537 
0.255818 0.281389 0.527 
0.276125 0.277118 0.519 
0.297423 0.274448 0.514 
0.317629 0.271244 0.508 
0.337948 0.268575 0.503 
0.356363 0.264837 0.496 
0.374892 0.261633 0.49 
0.945763 0.570788 1.069 
-2.50332 1.47851 2.761 
-2.44343 1.52135 2.841 
-2.36958 1.55991 2.913 
-2.16632 1.51278 2.825 
-2.08867 1.55295 2.9 
-0.915434 0.781829 1.46 
-0.881046 0.812888 1.518 
-0.847656 0.850372 1.588 
-0.715325 0.78879 1.473 
-0.645351 0.787184 1.47 
-0.61215 0.835379 1.56 
-0.565027 0.875005 1.634 
-0.519981 0.930697 1.738 
-0.371247 0.822527 1.536 
-0.288534 0.792003 1.479 
-0.221676 0.7995 1.493 
-0.15005 0.78879 1.473 
-0.0828845 0.803249 1.5 
-0.0141449 0.876076 1.636 
0.0619957 0.87447 1.633 
0.108428 0.305234 0.57 
0.133338 0.301486 0.563 
0.157879 0.298273 0.557 
0.18087 0.293453 0.548 
0.204906 0.291312 0.544 
0.227723 0.288099 0.538 
0.24857 0.283279 0.529 
0.269095 0.278995 0.521 
0.290563 0.276318 0.516 
0.311566 0.27364 0.511 
0.330789 0.269892 0.504 
0.34936 0.266143 0.497 
0.368778 0.263466 0.492 
0.923156 0.569771 1.064 
-2.55666 1.4914 2.777 
-2.49452 1.53275 2.854 
-2.42107 1.57142 2.926 
-2.23784 1.53919 2.866 
-2.13583 1.56229 2.909 
-0.924311 0.77443 1.442 
-0.894545 0.808264 1.505 
-0.862193 0.845321 1.574 
-0.749412 0.805579 1.5 
-0.658205 0.780338 1.453 
-0.627056 0.828672 1.543 
-0.583558 0.8711 1.622 
-0.538333 0.923194 1.719 
-0.385822 0.810413 1.509 
-0.316114 0.812024 1.512 
-0.24174 0.799134 1.488 
-0.172037 0.797523 1.485 
-0.103444 0.802357 1.494 
-0.035935 0.85284 1.588 
0.039449 0.883452 1.645 
0.112664 0.857136 1.596 
0.125911 0.303435 0.565 
0.15036 0.299675 0.558 
0.17384 0.295379 0.55 
0.198387 0.293768 0.547 
0.221018 0.290008 0.54 
0.242996 0.286249 0.533 
0.26181 0.279804 0.521 
0.283897 0.277656 0.517 
0.30442 0.274434 0.511 
0.324384 0.271212 0.505 
0.343099 0.267452 0.498 
0.362634 0.264767 0.493 
0.381702 0.262082 0.488 
-2.55705 1.47847 2.745 
-2.51052 1.52803 2.837 
-2.4311 1.56196 2.9 
-2.28959 1.55765 2.892 
-2.16746 1.56681 2.909 
-0.94328 0.770207 1.43 
-0.902988 0.793367 1.473 
-0.87228 0.829454 1.54 
-0.812456 0.841842 1.563 
-0.683767 0.778286 1.445 
-0.647556 0.817605 1.518 
-0.59884 0.848844 1.576 
-0.549051 0.887085 1.647 
-0.485188 0.911322 1.692 
-0.347492 0.821913 1.526 
-0.266042 0.791213 1.469 
-0.198782 0.79606 1.478 
-0.129716 0.794983 1.476 
-0.0594999 0.806832 1.498 
0.0114248 0.893009 1.658 
0.0865112 0.870927 1.617 
0.116255 0.304313 0.565 
0.141833 0.302697 0.562 
0.165636 0.298388 0.554 
0.189385 0.295156 0.548 
0.212182 0.291386 0.541 
0.235642 0.289232 0.537 
0.254847 0.282768 0.525 
0.275061 0.27846 0.517 
0.296266 0.275766 0.512 
0.317004 0.273073 0.507 
0.337276 0.27038 0.502 
0.355645 0.26661 0.495 
0.374892 0.263917 0.49 
0.947533 0.576847 1.071 
-2.52938 1.51731 2.809 
-2.42236 1.53243 2.837 
-2.38377 1.59509 2.953 
-2.16398 1.53676 2.845 
-2.07421 1.56917 2.905 
-0.921341 0.785933 1.455 
-0.88344 0.813481 1.506 
-0.855905 0.856154 1.585 
-0.717778 0.790794 1.464 
-0.648957 0.795656 1.473 
-0.612998 0.840489 1.556 
-0.566871 0.881541 1.632 
-0.520275 0.934477 1.73 
-0.37558 0.834007 1.544 
-0.290635 0.798357 1.478 
-0.223546 0.804839 1.49 
-0.153062 0.799437 1.48 
-0.0857263 0.815102 1.509 
-0.0142832 0.892344 1.652 
0.061654 0.87722 1.624 
0.108428 0.307891 0.57 
0.134213 0.30411 0.563 
0.158174 0.299789 0.555 
0.18139 0.295468 0.547 
0.204995 0.292767 0.542 
0.228134 0.290066 0.537 
0.248449 0.284664 0.527 
0.268868 0.280343 0.519 
0.2908 0.278182 0.515 
0.311748 0.275482 0.51 
0.331572 0.272241 0.504 
0.348723 0.267379 0.495 
0.368791 0.265219 0.491 
0.935798 0.577431 1.069 
-2.5512 1.52167 2.809 
-2.47283 1.55472 2.87 
-2.43605 1.61918 2.989 
-2.18915 1.54334 2.849 
-2.12132 1.5921 2.939 
-0.925268 0.78386 1.447 
-0.889243 0.812571 1.5 
-0.86521 0.858075 1.584 
-0.733136 0.797403 1.472 
-0.65729 0.791444 1.461 
-0.625487 0.840198 1.551 
-0.579231 0.879743 1.624 
