# .PCD v.7 - Point Cloud Data file format
VERSION .7
FIELDS x y z
SIZE 4 4 4
TYPE F F F
COUNT 1 1 1
WIDTH 1844
HEIGHT 1
VIEWPOINT 0 0 0 1 0 0 0
POINTS 1844
DATA ascii
-0.523737 -0.220053 0.7 
-0.505843 -0.226655 0.721 
-0.490577 -0.235457 0.749 
-0.466616 -0.241116 0.767 
-0.452213 -0.253061 0.805 
-0.441888 -0.271294 0.863 
-0.412832 -0.282611 0.899 
-0.382568 -0.297072 0.945 
-0.351059 -0.308075 0.98 
-0.317845 -0.320649 1.02 
-0.286203 -0.339511 1.08 
-0.246128 -0.354286 1.127 
-0.19988 -0.372519 1.185 
-0.153679 -0.395782 1.259 
-0.100052 -0.416844 1.326 
-0.0405544 -0.441993 1.406 
0.027236 -0.481917 1.533 
0.101265 -0.494491 1.573 
0.193795 -0.541331 1.722 
0.299204 -0.591001 1.88 
0.404733 -0.61835 1.967 
0.494901 -0.616464 1.961 
0.593479 -0.624009 1.985 
0.69153 -0.629038 2.001 
0.787151 -0.630925 2.007 
0.886841 -0.635326 2.021 
0.980069 -0.634697 2.019 
1.08694 -0.642242 2.043 
1.18448 -0.643499 2.047 
1.28365 -0.645385 2.053 
1.37934 -0.645385 2.053 
1.49227 -0.65293 2.077 
1.60132 -0.65796 2.093 
1.70456 -0.66016 2.1 
1.80244 -0.66016 2.1 
1.9148 -0.66519 2.116 
2.04198 -0.674621 2.146 
-0.577654 -0.213961 0.684 
-0.548167 -0.214899 0.687 
-0.52441 -0.21834 0.698 
-0.50597 -0.224596 0.718 
-0.492246 -0.233981 0.748 
-0.467776 -0.239298 0.765 
-0.451325 -0.249934 0.799 
-0.442509 -0.268702 0.859 
-0.41563 -0.280276 0.896 
-0.388889 -0.291537 0.932 
-0.358764 -0.30405 0.972 
-0.325714 -0.315936 1.01 
-0.292707 -0.33189 1.061 
-0.254258 -0.346904 1.109 
-0.211892 -0.365986 1.17 
-0.166503 -0.387257 1.238 
-0.113524 -0.411343 1.315 
-0.0548924 -0.432301 1.382 
0.0102741 -0.466397 1.491 
0.0842641 -0.492673 1.575 
0.16168 -0.505185 1.615 
0.278164 -0.586828 1.876 
0.380612 -0.610915 1.953 
0.47623 -0.616858 1.972 
0.571026 -0.619986 1.982 
0.671107 -0.627181 2.005 
0.765323 -0.627806 2.007 
0.864861 -0.632186 2.021 
0.960484 -0.633124 2.024 
1.05013 -0.630309 2.015 
1.16563 -0.642196 2.053 
1.25763 -0.640319 2.047 
1.36296 -0.645011 2.062 
1.46685 -0.648452 2.073 
1.57177 -0.651893 2.084 
1.68653 -0.658774 2.106 
1.78723 -0.659713 2.109 
1.89536 -0.663154 2.12 
2.01864 -0.671287 2.146 
2.13051 -0.67504 2.158 
-0.559682 -0.215388 0.692 
-0.527113 -0.215699 0.693 
-0.507665 -0.221302 0.711 
-0.497884 -0.232196 0.746 
-0.474287 -0.237799 0.764 
-0.453606 -0.245891 0.79 
-0.446328 -0.263321 0.846 
-0.424814 -0.276705 0.889 
-0.399765 -0.288533 0.927 
-0.368096 -0.297871 0.957 
-0.33904 -0.312188 1.003 
-0.302198 -0.322771 1.037 
-0.267572 -0.340201 1.093 
-0.225744 -0.354519 1.139 
-0.182507 -0.374751 1.204 
-0.132792 -0.393737 1.265 
-0.0777404 -0.414591 1.332 
-0.0168779 -0.446962 1.436 
0.0542025 -0.484001 1.555 
0.129126 -0.493339 1.585 
0.231781 -0.556523 1.788 
0.338384 -0.597609 1.92 
0.440355 -0.615039 1.976 
0.531918 -0.614417 1.974 
0.634989 -0.625311 2.009 
0.730806 -0.627178 2.015 
0.823088 -0.625933 2.011 
0.927307 -0.633092 2.034 
1.01558 -0.629046 2.021 
1.12625 -0.638383 2.051 
1.22185 -0.638383 2.051 
1.32451 -0.641807 2.062 
1.42338 -0.643052 2.066 
1.53807 -0.650833 2.091 
1.6457 -0.65488 2.104 
1.75122 -0.657681 2.113 
1.86022 -0.661416 2.125 
1.9565 -0.660482 2.122 
2.08737 -0.670754 2.155 
-0.571757 -0.214003 0.691 
-0.537987 -0.213384 0.689 
-0.51762 -0.218339 0.705 
-0.4992 -0.224843 0.726 
-0.486513 -0.235063 0.759 
-0.463024 -0.241257 0.779 
-0.443147 -0.250548 0.809 
-0.431661 -0.267582 0.864 
-0.409008 -0.280589 0.906 
-0.379734 -0.290499 0.938 
-0.349626 -0.302268 0.976 
-0.317222 -0.315276 1.018 
-0.285673 -0.333858 1.078 
-0.244599 -0.346865 1.12 
-0.202703 -0.365447 1.18 
-0.157091 -0.388675 1.255 
-0.103465 -0.407876 1.317 
-0.044508 -0.431413 1.393 
0.0221499 -0.467958 1.511 
0.0967444 -0.489018 1.579 
0.178433 -0.512245 1.654 
0.294767 -0.585025 1.889 
0.396999 -0.606704 1.959 
0.492048 -0.61135 1.974 
0.587903 -0.615376 1.987 
0.690792 -0.624667 2.017 
0.784805 -0.624667 2.017 
0.885354 -0.629312 2.032 
0.978136 -0.628074 2.028 
1.08271 -0.633958 2.047 
1.18676 -0.638603 2.062 
1.28287 -0.638603 2.062 
1.38031 -0.639223 2.064 
1.49726 -0.648204 2.093 
1.6032 -0.651611 2.104 
1.70855 -0.654398 2.113 
1.8096 -0.655327 2.116 
1.92626 -0.661521 2.136 
2.04669 -0.668335 2.158 
2.16817 -0.674838 2.179 
-0.547097 -0.210465 0.683 
-0.522483 -0.213854 0.694 
-0.504966 -0.220325 0.715 
-0.493408 -0.230494 0.748 
-0.468965 -0.235733 0.765 
-0.448035 -0.243745 0.791 
-0.442587 -0.263158 0.854 
-0.419289 -0.273943 0.889 
-0.393579 -0.285344 0.926 
-0.364041 -0.296438 0.962 
-0.333802 -0.309996 1.006 
-0.296608 -0.320473 1.04 
-0.261018 -0.337113 1.094 
-0.220393 -0.353753 1.148 
-0.176915 -0.375015 1.217 
-0.126412 -0.394429 1.28 
-0.0700361 -0.413842 1.343 
-0.0079923 -0.444657 1.443 
0.064236 -0.481942 1.564 
0.139765 -0.491187 1.594 
0.246153 -0.558363 1.812 
0.352688 -0.595649 1.933 
0.454697 -0.611672 1.985 
0.54777 -0.612289 1.987 
0.652309 -0.62369 2.024 
0.744804 -0.622149 2.019 
0.838079 -0.621533 2.017 
0.944107 -0.629545 2.043 
1.03374 -0.626155 2.032 
1.14011 -0.632626 2.053 
1.24543 -0.637557 2.069 
1.34317 -0.638173 2.071 
1.44387 -0.640022 2.077 
1.55551 -0.646185 2.097 
1.66429 -0.650499 2.111 
1.77438 -0.654813 2.125 
1.88929 -0.66036 2.143 
1.98268 -0.658203 2.136 
2.12708 -0.672377 2.182 
-0.567208 -0.212163 0.692 
-0.531264 -0.21155 0.69 
-0.512123 -0.217068 0.708 
-0.498748 -0.225959 0.737 
-0.481409 -0.234238 0.764 
-0.457469 -0.240369 0.784 
-0.441865 -0.252327 0.823 
-0.425568 -0.266123 0.868 
-0.405519 -0.280227 0.914 
-0.374432 -0.289118 0.943 
-0.344848 -0.301688 0.984 
-0.312656 -0.315485 1.029 
-0.27807 -0.331428 1.081 
-0.235267 -0.342465 1.117 
-0.194848 -0.364233 1.188 
-0.147693 -0.385695 1.258 
-0.0932345 -0.403784 1.317 
-0.0340252 -0.431377 1.407 
0.0342244 -0.467862 1.526 
0.110046 -0.48871 1.594 
0.201001 -0.525808 1.715 
0.311734 -0.583448 1.903 
0.414322 -0.603683 1.969 
0.509439 -0.607669 1.982 
0.608197 -0.614107 2.003 
0.710314 -0.621772 2.028 
0.803252 -0.620546 2.024 
0.904687 -0.625451 2.04 
0.997811 -0.624225 2.036 
1.11364 -0.636182 2.075 
1.21152 -0.636795 2.077 
1.30707 -0.636182 2.075 
1.40379 -0.636182 2.075 
1.52799 -0.647832 2.113 
1.6334 -0.650592 2.122 
1.73068 -0.649978 2.12 
1.83984 -0.653658 2.132 
1.94922 -0.65703 2.143 
2.06345 -0.661629 2.158 
-0.571727 -0.208037 0.682 
-0.53598 -0.206512 0.677 
-0.518582 -0.212308 0.696 
-0.502904 -0.219629 0.72 
-0.488249 -0.228475 0.749 
-0.466049 -0.234881 0.77 
-0.440773 -0.240677 0.789 
-0.438304 -0.261114 0.856 
-0.413765 -0.271181 0.889 
-0.386987 -0.281857 0.924 
-0.358807 -0.294059 0.964 
-0.328526 -0.307785 1.009 
-0.293214 -0.320597 1.051 
-0.255613 -0.335544 1.1 
-0.214187 -0.351711 1.153 
-0.170604 -0.373979 1.226 
-0.11966 -0.394417 1.293 
-0.0623787 -0.414244 1.358 
0.000979575 -0.442003 1.449 
0.073814 -0.476167 1.561 
0.15061 -0.489284 1.604 
0.259261 -0.556698 1.825 
0.36621 -0.592083 1.941 
0.468445 -0.607334 1.991 
0.561246 -0.607334 1.991 
0.668173 -0.620451 2.034 
0.759977 -0.618011 2.026 
0.856096 -0.619231 2.03 
0.959614 -0.625027 2.049 
1.05048 -0.622281 2.04 
1.16017 -0.630212 2.066 
1.26316 -0.633568 2.077 
1.36193 -0.634483 2.08 
1.46659 -0.637838 2.091 
1.57378 -0.641804 2.104 
1.68615 -0.647295 2.122 
1.79095 -0.64943 2.129 
1.91326 -0.657361 2.155 
2.01184 -0.656751 2.153 
2.16909 -0.674443 2.211 
-0.561538 -0.209102 0.689 
-0.528048 -0.209406 0.69 
-0.509541 -0.215172 0.709 
-0.498001 -0.224883 0.741 
-0.477848 -0.231863 0.764 
-0.454972 -0.23854 0.786 
-0.4359 -0.248555 0.819 
-0.42395 -0.264943 0.873 
-0.401698 -0.27769 0.915 
-0.371607 -0.287401 0.947 
-0.339579 -0.303486 1 
-0.301172 -0.311984 1.028 
-0.266806 -0.328676 1.083 
-0.225915 -0.343243 1.131 
-0.184837 -0.366308 1.207 
-0.134544 -0.383303 1.263 
-0.0794504 -0.402423 1.326 
-0.0188295 -0.429433 1.415 
0.0509873 -0.464637 1.531 
0.128501 -0.488006 1.608 
0.229643 -0.544151 1.793 
0.33575 -0.583301 1.922 
0.439719 -0.603027 1.987 
0.533406 -0.604241 1.991 
0.639102 -0.616684 2.032 
0.733814 -0.616684 2.032 
0.825264 -0.614256 2.024 
0.93596 -0.625182 2.06 
1.02947 -0.623664 2.055 
1.13292 -0.627913 2.069 
1.24897 -0.637928 2.102 
1.33541 -0.632465 2.084 
1.43873 -0.635197 2.093 
1.55097 -0.641266 2.113 
1.66194 -0.646122 2.129 
1.75952 -0.645515 2.127 
1.88138 -0.653406 2.153 
1.97069 -0.649764 2.141 
2.1169 -0.664331 2.189 
-0.569751 -0.207126 0.686 
-0.533073 -0.205314 0.68 
-0.515387 -0.211051 0.699 
-0.499383 -0.218297 0.723 
-0.484363 -0.227053 0.752 
-0.463054 -0.233998 0.775 
-0.435745 -0.238829 0.791 
-0.431832 -0.25936 0.859 
-0.40867 -0.270532 0.896 
-0.380011 -0.280193 0.928 
-0.351272 -0.292271 0.968 
-0.317864 -0.306462 1.015 
-0.284682 -0.322464 1.068 
-0.2459 -0.337561 1.118 
-0.20367 -0.354771 1.175 
-0.15828 -0.377114 1.249 
-0.104951 -0.395532 1.31 
-0.0463372 -0.417573 1.383 
0.019383 -0.446558 1.479 
0.0942912 -0.476752 1.579 
0.172886 -0.490942 1.626 
0.292114 -0.565218 1.872 
0.396189 -0.590278 1.955 
0.498778 -0.604167 2.001 
0.593229 -0.605375 2.005 
0.697984 -0.615339 2.038 
0.792198 -0.614735 2.036 
0.888839 -0.615943 2.04 
0.98923 -0.619264 2.051 
1.09541 -0.625302 2.071 
1.20057 -0.629831 2.086 
1.30091 -0.631341 2.091 
1.39503 -0.629831 2.086 
1.51515 -0.639493 2.118 
1.62454 -0.64372 2.132 
1.72148 -0.642815 2.129 
1.8267 -0.644928 2.136 
1.93889 -0.649155 2.15 
2.06471 -0.657307 2.177 
2.22289 -0.674517 2.234 
-0.54149 -0.203056 0.676 
-0.521298 -0.207562 0.691 
-0.504662 -0.21417 0.713 
-0.491264 -0.223182 0.743 
-0.470768 -0.23009 0.766 
-0.448128 -0.236999 0.789 
-0.430643 -0.248113 0.826 
-0.414992 -0.263432 0.877 
-0.392458 -0.276349 0.92 
-0.363636 -0.287463 0.957 
-0.332806 -0.30128 1.003 
-0.295468 -0.311193 1.036 
-0.260063 -0.327413 1.09 
-0.218857 -0.342432 1.14 
-0.176769 -0.365261 1.216 
-0.126017 -0.383283 1.276 
-0.0700882 -0.403709 1.344 
-0.00784276 -0.425337 1.416 
0.0633324 -0.463184 1.542 
0.141256 -0.48391 1.611 
0.247594 -0.541283 1.802 
0.356059 -0.581233 1.935 
0.460548 -0.599857 1.997 
0.554184 -0.600457 1.999 
0.662902 -0.614876 2.047 
0.752757 -0.61037 2.032 
0.852056 -0.613674 2.043 
0.961191 -0.622685 2.073 
1.05118 -0.618781 2.06 
1.15221 -0.621484 2.069 
1.26977 -0.631997 2.104 
1.35744 -0.627191 2.088 
1.47078 -0.6341 2.111 
1.57066 -0.634701 2.113 
1.68574 -0.641009 2.134 
1.78688 -0.641609 2.136 
1.90587 -0.648218 2.158 
2.0018 -0.646716 2.153 
2.17343 -0.668643 2.226 
-0.564999 -0.205592 0.688 
-0.529058 -0.204098 0.683 
-0.513239 -0.210672 0.705 
-0.497413 -0.218142 0.73 
-0.479257 -0.225613 0.755 
-0.458771 -0.233084 0.78 
-0.434329 -0.239658 0.802 
-0.427139 -0.257886 0.863 
-0.4044 -0.26954 0.902 
-0.374811 -0.278804 0.933 
-0.345883 -0.291056 0.974 
-0.313091 -0.304802 1.02 
-0.278826 -0.320042 1.071 
-0.238952 -0.334087 1.118 
-0.19737 -0.352913 1.181 
-0.151 -0.374428 1.253 
-0.0971791 -0.392955 1.315 
-0.0381516 -0.417758 1.398 
0.0286711 -0.443457 1.484 
0.105818 -0.479614 1.605 
0.183779 -0.487982 1.633 
0.309932 -0.565377 1.892 
0.413901 -0.587789 1.967 
0.515865 -0.599742 2.007 
0.615181 -0.60542 2.026 
0.715567 -0.6105 2.043 
0.810792 -0.6105 2.043 
0.910452 -0.613488 2.053 
1.01398 -0.618269 2.069 
1.12062 -0.623947 2.088 
1.23019 -0.630222 2.109 
1.32849 -0.630222 2.109 
1.42341 -0.628728 2.104 
1.53811 -0.635601 2.127 
1.64957 -0.640382 2.143 
1.74374 -0.638291 2.136 
1.85193 -0.641279 2.146 
1.94922 -0.640382 2.143 
2.09501 -0.654726 2.191 
-0.569848 -0.200956 0.676 
-0.53595 -0.200064 0.673 
-0.518077 -0.205415 0.691 
-0.502745 -0.212549 0.715 
-0.487801 -0.220873 0.743 
-0.467198 -0.22771 0.766 
-0.443887 -0.23425 0.788 
-0.429376 -0.247033 0.831 
-0.412267 -0.260707 0.877 
-0.388752 -0.272895 0.918 
-0.360662 -0.284489 0.957 
-0.329361 -0.297866 1.002 
-0.294505 -0.310352 1.044 
-0.256775 -0.328485 1.105 
-0.21233 -0.339781 1.143 
-0.164351 -0.363266 1.222 
-0.114249 -0.386453 1.3 
-0.0566269 -0.407857 1.372 
0.00770138 -0.428963 1.443 
0.0806743 -0.461663 1.553 
0.159072 -0.479796 1.614 
0.269416 -0.540142 1.817 
0.378663 -0.577599 1.943 
0.485648 -0.597813 2.011 
0.58111 -0.599597 2.017 
0.686504 -0.609704 2.051 
0.777144 -0.605839 2.038 
0.877699 -0.609704 2.051 
0.984686 -0.616838 2.075 
1.0814 -0.616838 2.075 
1.18323 -0.619514 2.084 
1.29265 -0.625459 2.104 
1.38345 -0.622189 2.093 
1.50506 -0.632297 2.127 
1.60948 -0.634377 2.134 
1.71455 -0.636458 2.141 
1.81604 -0.637053 2.143 
1.92934 -0.641512 2.158 
2.04968 -0.647755 2.179 
2.21344 -0.666483 2.242 
-0.549413 -0.200497 0.678 
-0.523921 -0.202862 0.686 
-0.507723 -0.209368 0.708 
-0.493497 -0.217648 0.736 
-0.475413 -0.225337 0.762 
-0.452597 -0.231843 0.784 
-0.428791 -0.23894 0.808 
-0.421626 -0.25757 0.871 
-0.397652 -0.268808 0.909 
-0.36779 -0.278271 0.941 
-0.339945 -0.293352 0.992 
-0.302886 -0.302519 1.023 
-0.269423 -0.319375 1.08 
-0.226465 -0.332683 1.125 
-0.182437 -0.359593 1.216 
-0.13124 -0.375266 1.269 
-0.0760118 -0.395671 1.338 
-0.014351 -0.416075 1.407 
0.055599 -0.451561 1.527 
0.134411 -0.478767 1.619 
0.237204 -0.528448 1.787 
0.345067 -0.568961 1.924 
0.451692 -0.59114 1.999 
0.548137 -0.594689 2.011 
0.652723 -0.604743 2.045 
0.74548 -0.602673 2.038 
0.847483 -0.6077 2.055 
0.95566 -0.615685 2.082 
1.04916 -0.613615 2.075 
1.15085 -0.616276 2.084 
1.27254 -0.6284 2.125 
1.36255 -0.62426 2.111 
1.47202 -0.628992 2.127 
1.56451 -0.62633 2.118 
1.68836 -0.635793 2.15 
1.78275 -0.633723 2.143 
1.89757 -0.638751 2.16 
1.99177 -0.636681 2.153 
2.15626 -0.656198 2.219 
-0.565137 -0.200914 0.683 
-0.527837 -0.198855 0.676 
-0.511746 -0.205032 0.697 
-0.495762 -0.212092 0.721 
-0.47818 -0.219446 0.746 
-0.459457 -0.227389 0.773 
-0.434383 -0.233272 0.793 
-0.427992 -0.251216 0.854 
-0.40546 -0.262394 0.892 
-0.378161 -0.27269 0.927 
-0.351213 -0.285928 0.972 
-0.316611 -0.2974 1.011 
-0.280684 -0.309755 1.053 
-0.2459 -0.328876 1.118 
-0.202456 -0.343584 1.168 
-0.156252 -0.362704 1.233 
-0.104791 -0.384767 1.308 
-0.0463372 -0.406829 1.383 
0.0191602 -0.430068 1.462 
0.0939329 -0.46272 1.573 
0.172461 -0.477134 1.622 
0.29124 -0.543615 1.848 
0.399226 -0.575091 1.955 
0.508157 -0.595977 2.026 
0.604969 -0.59833 2.034 
0.705623 -0.603331 2.051 
0.800439 -0.602742 2.049 
0.896819 -0.603331 2.051 
1.00645 -0.611862 2.08 
1.11136 -0.616274 2.095 
1.2142 -0.618921 2.104 
1.32224 -0.623628 2.12 
1.41167 -0.61951 2.106 
1.53134 -0.628335 2.136 
1.63854 -0.631276 2.146 
1.7418 -0.632453 2.15 
1.84202 -0.632453 2.15 
1.94494 -0.633336 2.153 
2.09564 -0.648926 2.206 
-0.570456 -0.196927 0.673 
-0.538042 -0.196927 0.673 
-0.518718 -0.201609 0.689 
-0.502848 -0.208339 0.712 
-0.486812 -0.215947 0.738 
-0.468352 -0.223554 0.764 
-0.445203 -0.229992 0.786 
-0.425201 -0.239355 0.818 
-0.414046 -0.256034 0.875 
-0.389472 -0.267153 0.913 
-0.360596 -0.277687 0.949 
-0.331698 -0.291147 0.995 
-0.296791 -0.302852 1.035 
-0.261276 -0.31836 1.088 
-0.219273 -0.331528 1.133 
-0.178512 -0.355522 1.215 
-0.1281 -0.373664 1.277 
-0.0721226 -0.392976 1.343 
-0.0100144 -0.413166 1.412 
0.0605415 -0.448279 1.532 
0.139442 -0.473736 1.619 
0.239577 -0.522017 1.784 
0.347695 -0.562397 1.922 
0.456618 -0.587269 2.007 
0.554825 -0.592244 2.024 
0.656541 -0.598974 2.047 
0.749381 -0.596925 2.04 
0.855229 -0.604533 2.066 
0.961658 -0.610971 2.088 
1.05594 -0.609215 2.082 
1.16129 -0.613604 2.097 
1.27704 -0.622383 2.127 
1.37036 -0.619749 2.118 
1.48156 -0.625016 2.136 
1.57298 -0.621797 2.125 
1.69799 -0.631453 2.158 
1.79441 -0.62999 2.153 
1.90532 -0.633502 2.165 
2.01087 -0.634965 2.17 
2.1597 -0.649303 2.219 
-0.560308 -0.19821 0.681 
-0.524686 -0.196754 0.676 
-0.511416 -0.204031 0.701 
-0.493084 -0.210143 0.722 
-0.475976 -0.217711 0.748 
-0.456444 -0.225278 0.774 
-0.432859 -0.231972 0.797 
-0.425997 -0.249727 0.858 
-0.403551 -0.261078 0.897 
-0.373437 -0.269519 0.926 
-0.347396 -0.283489 0.974 
-0.31378 -0.29455 1.012 
-0.277412 -0.306483 1.053 
-0.241341 -0.323946 1.113 
-0.198827 -0.339954 1.168 
-0.152792 -0.359746 1.236 
-0.10088 -0.381284 1.31 
-0.0419789 -0.40195 1.381 
0.0237355 -0.426107 1.464 
0.0989464 -0.458415 1.575 
0.177392 -0.471803 1.621 
0.293793 -0.537291 1.846 
0.403498 -0.570763 1.961 
0.513829 -0.592592 2.036 
0.61082 -0.594629 2.043 
0.710192 -0.598122 2.055 
0.805976 -0.598122 2.055 
0.903077 -0.598995 2.058 
1.01162 -0.606562 2.084 
1.1194 -0.612384 2.104 
1.22036 -0.613839 2.109 
1.32992 -0.619078 2.127 
1.42166 -0.615876 2.116 
1.53825 -0.623153 2.141 
1.6434 -0.62519 2.148 
1.75732 -0.630138 2.165 
1.85222 -0.628101 2.158 
1.96548 -0.632176 2.172 
2.10668 -0.6444 2.214 
-0.564591 -0.194257 0.671 
-0.533315 -0.194257 0.671 
-0.516255 -0.199757 0.69 
-0.500231 -0.206416 0.713 
-0.484027 -0.213943 0.739 
-0.464791 -0.22118 0.764 
-0.442663 -0.228129 0.788 
-0.424479 -0.238551 0.824 
-0.411842 -0.254473 0.879 
-0.385217 -0.264316 0.913 
-0.358049 -0.276186 0.954 
-0.327389 -0.288345 0.996 
-0.294223 -0.301952 1.043 
-0.25856 -0.317874 1.098 
-0.215504 -0.330323 1.141 
-0.172564 -0.351167 1.213 
-0.122721 -0.371433 1.283 
-0.0662062 -0.390829 1.35 
-0.00345733 -0.411674 1.422 
0.0679915 -0.445545 1.539 
0.146897 -0.468416 1.618 
0.253862 -0.517342 1.787 
0.365078 -0.560189 1.935 
0.478091 -0.58827 2.032 
0.575059 -0.590586 2.04 
0.676057 -0.595798 2.058 
0.767104 -0.592034 2.045 
0.873387 -0.599561 2.071 
0.98022 -0.60593 2.093 
1.07881 -0.606509 2.095 
1.18432 -0.610562 2.109 
1.29478 -0.616352 2.129 
1.38681 -0.613168 2.118 
1.50657 -0.621853 2.148 
1.60146 -0.619826 2.141 
1.72429 -0.628222 2.17 
1.81702 -0.625327 2.16 
1.93901 -0.632275 2.184 
2.04361 -0.633143 2.187 
2.174 -0.641539 2.216 
-0.548266 -0.194078 0.674 
-0.521451 -0.195806 0.68 
-0.507762 -0.203004 0.705 
-0.491069 -0.209915 0.729 
-0.474646 -0.217978 0.757 
-0.452131 -0.224313 0.779 
-0.429166 -0.231511 0.804 
-0.421897 -0.249364 0.866 
-0.398274 -0.260306 0.904 
-0.366775 -0.268081 0.931 
-0.341095 -0.282766 0.982 
-0.307053 -0.293996 1.021 
-0.271769 -0.309834 1.076 
-0.230267 -0.321928 1.118 
-0.188833 -0.34122 1.185 
-0.142055 -0.362816 1.26 
-0.0874927 -0.380957 1.323 
-0.0272719 -0.402265 1.397 
0.0400369 -0.425589 1.478 
0.118066 -0.461295 1.602 
0.19466 -0.465902 1.618 
0.325665 -0.541633 1.881 
0.43883 -0.575035 1.997 
0.542831 -0.586841 2.038 
0.640639 -0.589433 2.047 
0.740725 -0.593176 2.06 
0.840398 -0.595767 2.069 
0.939551 -0.597495 2.075 
1.04426 -0.602102 2.091 
1.15646 -0.609877 2.118 
1.26052 -0.612469 2.127 
1.36094 -0.613045 2.129 
1.46497 -0.61506 2.136 
1.5616 -0.613908 2.132 
1.68668 -0.623411 2.165 
1.79502 -0.626002 2.174 
1.88589 -0.622547 2.162 
2.0179 -0.632337 2.196 
2.1444 -0.639536 2.221 
-0.560395 -0.193604 0.676 
-0.525757 -0.192458 0.672 
-0.511358 -0.199045 0.695 
-0.493436 -0.205059 0.716 
-0.478697 -0.213365 0.745 
-0.458871 -0.220525 0.77 
-0.435615 -0.227112 0.793 
-0.424794 -0.242004 0.845 
-0.405477 -0.254606 0.889 
-0.375507 -0.262625 0.917 
-0.352361 -0.27809 0.971 
-0.318804 -0.288687 1.008 
-0.279351 -0.300143 1.048 
-0.24392 -0.317613 1.109 
-0.201589 -0.333078 1.163 
-0.154858 -0.349976 1.222 
-0.100726 -0.374606 1.308 
-0.0417662 -0.393508 1.374 
0.0236545 -0.417851 1.459 
0.0980669 -0.447064 1.561 
0.177392 -0.464248 1.621 
0.299854 -0.529259 1.848 
0.411889 -0.564773 1.972 
0.522965 -0.586252 2.047 
0.620189 -0.587971 2.053 
0.720413 -0.591694 2.066 
0.819477 -0.593699 2.073 
0.913007 -0.591694 2.066 
1.02249 -0.599426 2.093 
1.12861 -0.604009 2.109 
1.23215 -0.606586 2.118 
1.33967 -0.610596 2.132 
1.43701 -0.609737 2.129 
1.54851 -0.614605 2.146 
1.65392 -0.61661 2.153 
1.78197 -0.626348 2.187 
1.86496 -0.620047 2.165 
2.00582 -0.632648 2.209 
2.12024 -0.636085 2.221 
-0.561667 -0.190844 0.67 
-0.530438 -0.190844 0.67 
-0.514856 -0.196826 0.691 
-0.497317 -0.202808 0.712 
-0.482382 -0.210783 0.74 
-0.462417 -0.217619 0.764 
-0.440214 -0.224456 0.788 
-0.422431 -0.234995 0.825 
-0.410507 -0.251231 0.882 
-0.381123 -0.259206 0.91 
-0.355457 -0.272024 0.955 
-0.325596 -0.284842 1 
-0.290982 -0.29709 1.043 
-0.255845 -0.313611 1.101 
-0.214001 -0.328138 1.152 
-0.168377 -0.344659 1.21 
-0.11892 -0.366022 1.285 
-0.0616897 -0.382543 1.343 
0.00096335 -0.4059 1.425 
0.0728209 -0.438657 1.54 
0.152676 -0.463153 1.626 
0.266451 -0.511861 1.797 
0.383253 -0.555727 1.951 
0.498981 -0.584781 2.053 
0.596699 -0.586775 2.06 
0.695743 -0.589338 2.069 
0.792945 -0.589908 2.071 
0.891193 -0.591047 2.075 
0.995527 -0.595605 2.091 
1.10083 -0.599878 2.106 
1.20696 -0.603865 2.12 
1.31132 -0.606429 2.129 
1.41254 -0.607283 2.132 
1.53673 -0.617253 2.167 
1.62716 -0.613265 2.153 
1.758 -0.624089 2.191 
1.84824 -0.620101 2.177 
1.98464 -0.63121 2.216 
2.08133 -0.629216 2.209 
2.17935 -0.627792 2.204 
-0.538766 -0.189803 0.67 
-0.517385 -0.193486 0.683 
-0.501901 -0.200002 0.706 
-0.486266 -0.207367 0.732 
-0.468207 -0.214733 0.758 
-0.446011 -0.221248 0.781 
-0.424294 -0.22918 0.809 
-0.413824 -0.245328 0.866 
-0.390709 -0.256659 0.906 
-0.360788 -0.265725 0.938 
-0.333631 -0.279606 0.987 
-0.301323 -0.29292 1.034 
-0.264634 -0.306235 1.081 
-0.223365 -0.319266 1.127 
-0.180992 -0.338246 1.194 
-0.133107 -0.35921 1.268 
-0.0772735 -0.375074 1.324 
-0.016537 -0.398587 1.407 
0.0522505 -0.424649 1.499 
0.131162 -0.456094 1.61 
0.213121 -0.471392 1.664 
0.342991 -0.537115 1.896 
0.462306 -0.575642 2.032 
0.563323 -0.582158 2.055 
0.661352 -0.584141 2.062 
0.762238 -0.587824 2.075 
0.861024 -0.58924 2.08 
0.960737 -0.59094 2.086 
1.06811 -0.596606 2.106 
1.17901 -0.603121 2.129 
1.28124 -0.604538 2.134 
1.38071 -0.604538 2.134 
1.49821 -0.611903 2.16 
1.59149 -0.60907 2.15 
1.72081 -0.619552 2.187 
1.82441 -0.620118 2.189 
1.92468 -0.619552 2.187 
2.05627 -0.628617 2.219 
2.16944 -0.63145 2.229 
-0.552454 -0.189889 0.674 
-0.522585 -0.190453 0.676 
-0.509238 -0.197496 0.701 
-0.489481 -0.202849 0.72 
-0.474918 -0.211301 0.75 
-0.455799 -0.218908 0.777 
-0.430923 -0.224824 0.798 
-0.420371 -0.240038 0.852 
-0.399424 -0.251871 0.894 
-0.37016 -0.260605 0.925 
-0.343663 -0.273846 0.972 
-0.31217 -0.286524 1.017 
-0.274921 -0.297512 1.056 
-0.236601 -0.31188 1.107 
-0.194696 -0.328221 1.165 
-0.148951 -0.348224 1.236 
-0.0970313 -0.369918 1.313 
-0.0375239 -0.387385 1.375 
0.0282654 -0.412178 1.463 
0.102588 -0.438379 1.556 
0.183216 -0.458664 1.628 
0.301578 -0.518674 1.841 
0.415374 -0.556144 1.974 
0.528973 -0.57981 2.058 
0.627326 -0.582064 2.066 
0.729227 -0.586572 2.082 
0.830635 -0.589671 2.093 
0.923312 -0.586572 2.082 
1.03016 -0.592206 2.102 
1.13296 -0.594742 2.111 
1.23952 -0.598686 2.125 
1.33983 -0.59925 2.127 
1.45318 -0.605166 2.148 
1.56197 -0.608547 2.16 
1.6665 -0.609956 2.165 
1.7968 -0.620098 2.201 
1.87868 -0.613337 2.177 
2.02745 -0.627987 2.229 
2.13325 -0.62855 2.231 
-0.562505 -0.188001 0.671 
-0.529647 -0.187441 0.669 
-0.514111 -0.193325 0.69 
-0.49592 -0.198929 0.71 
-0.481731 -0.207054 0.739 
-0.460601 -0.213218 0.761 
-0.438538 -0.219942 0.785 
-0.419871 -0.229749 0.82 
-0.407714 -0.245439 0.876 
-0.380704 -0.254685 0.909 
-0.353968 -0.266452 0.951 
-0.324945 -0.279621 0.998 
-0.290703 -0.291949 1.042 
-0.253442 -0.307639 1.098 
-0.212396 -0.323049 1.153 
-0.166497 -0.339019 1.21 
-0.117378 -0.361434 1.29 
-0.0595587 -0.376003 1.342 
0.00317734 -0.399258 1.425 
0.074774 -0.428957 1.531 
0.155584 -0.456695 1.63 
0.251756 -0.491157 1.753 
0.367514 -0.54131 1.932 
0.48788 -0.577173 2.06 
0.587582 -0.580815 2.073 
0.685525 -0.581936 2.077 
0.786478 -0.585018 2.088 
0.88507 -0.585859 2.091 
0.983472 -0.586419 2.093 
1.09291 -0.592863 2.116 
1.19773 -0.595945 2.127 
1.30236 -0.598467 2.136 
1.40979 -0.601829 2.148 
1.5317 -0.610515 2.179 
1.62052 -0.605752 2.162 
1.75234 -0.616679 2.201 
1.85325 -0.616118 2.199 
1.97531 -0.622282 2.221 
2.08632 -0.624524 2.229 
2.19513 -0.625925 2.234 
-0.545825 -0.186959 0.671 
-0.519918 -0.188909 0.678 
-0.505601 -0.195596 0.702 
-0.487701 -0.201726 0.724 
-0.470884 -0.209249 0.751 
-0.45155 -0.216772 0.778 
-0.427565 -0.223181 0.801 
-0.415563 -0.237669 0.853 
-0.396511 -0.250765 0.9 
-0.366381 -0.259124 0.93 
-0.338664 -0.271662 0.975 
-0.309158 -0.286429 1.028 
-0.270391 -0.29646 1.064 
-0.229024 -0.31457 1.129 
-0.183588 -0.327387 1.175 
-0.136715 -0.347448 1.247 
-0.0830035 -0.366952 1.317 
-0.0229145 -0.388964 1.396 
0.0446899 -0.412369 1.48 
0.120816 -0.438281 1.573 
0.20339 -0.459178 1.648 
0.321337 -0.517133 1.856 
0.43839 -0.555862 1.995 
0.549223 -0.57453 2.062 
0.648151 -0.577037 2.071 
0.75331 -0.583724 2.095 
0.854615 -0.586232 2.104 
0.948607 -0.583724 2.095 
1.05525 -0.58874 2.113 
1.15755 -0.59069 2.12 
1.26585 -0.595148 2.136 
1.36541 -0.595148 2.136 
1.48623 -0.603786 2.167 
1.58577 -0.603228 2.165 
1.70148 -0.608522 2.184 
1.81979 -0.614095 2.204 
1.9077 -0.609358 2.187 
2.05006 -0.621618 2.231 
2.18398 -0.630255 2.262 
-0.558124 -0.186194 0.672 
-0.525234 -0.185639 0.67 
-0.512438 -0.192566 0.695 
-0.492476 -0.197554 0.713 
-0.478566 -0.205866 0.743 
-0.458274 -0.212516 0.767 
-0.434093 -0.218334 0.788 
-0.419552 -0.230525 0.832 
-0.402282 -0.243548 0.879 
-0.375698 -0.253245 0.914 
-0.346945 -0.263774 0.952 
-0.318463 -0.277628 1.002 
-0.282337 -0.288434 1.041 
-0.24004 -0.306721 1.107 
-0.197124 -0.320851 1.158 
-0.151556 -0.339692 1.226 
-0.100726 -0.362412 1.308 
-0.0415534 -0.37876 1.367 
0.0235572 -0.402588 1.453 
0.0966847 -0.426416 1.539 
0.179799 -0.455232 1.643 
0.28336 -0.498179 1.798 
0.399634 -0.542233 1.957 
0.51819 -0.572434 2.066 
0.619841 -0.577422 2.084 
0.720761 -0.580469 2.095 
0.82466 -0.584903 2.111 
0.916058 -0.580469 2.095 
1.02242 -0.585457 2.113 
1.1209 -0.585457 2.113 
1.22632 -0.588782 2.125 
1.32973 -0.590721 2.132 
1.45256 -0.600419 2.167 
1.56791 -0.60596 2.187 
1.65305 -0.599865 2.165 
1.78312 -0.609839 2.201 
1.88999 -0.611225 2.206 
2.02263 -0.620368 2.239 
2.12984 -0.621199 2.242 
-0.570456 -0.185425 0.673 
-0.535082 -0.184047 0.668 
-0.515263 -0.18818 0.683 
-0.498999 -0.194242 0.705 
-0.482008 -0.200854 0.729 
-0.462779 -0.207467 0.753 
-0.442448 -0.21463 0.779 
-0.42178 -0.222896 0.809 
-0.404011 -0.234468 0.851 
-0.387466 -0.249346 0.905 
-0.3594 -0.25954 0.942 
-0.329224 -0.270836 0.983 
-0.29984 -0.286541 1.04 
-0.258858 -0.295082 1.071 
-0.212887 -0.315746 1.146 
-0.162738 -0.333379 1.21 
-0.113985 -0.35735 1.297 
-0.0555125 -0.370574 1.345 
0.00763734 -0.394269 1.431 
0.0790119 -0.419066 1.521 
0.160945 -0.449924 1.633 
0.255883 -0.480507 1.744 
0.371584 -0.52955 1.922 
0.495721 -0.569224 2.066 
0.599181 -0.576112 2.091 
0.698642 -0.577766 2.097 
0.800942 -0.581072 2.109 
0.897111 -0.579694 2.104 
0.996125 -0.580245 2.106 
1.1052 -0.586031 2.127 
1.20717 -0.587409 2.132 
1.31206 -0.589888 2.141 
1.429 -0.597052 2.167 
1.54695 -0.603665 2.191 
1.63477 -0.59843 2.172 
1.75918 -0.60642 2.201 
1.87277 -0.610001 2.214 
1.99828 -0.616889 2.239 
2.11203 -0.619645 2.249 
2.22967 -0.623226 2.262 
-0.54212 -0.183284 0.669 
-0.518575 -0.186023 0.679 
-0.50342 -0.192324 0.702 
-0.48478 -0.198078 0.723 
-0.466679 -0.204927 0.748 
-0.447978 -0.212598 0.776 
-0.425076 -0.219447 0.801 
-0.410008 -0.23205 0.847 
-0.393715 -0.24657 0.9 
-0.363882 -0.255063 0.931 
-0.33529 -0.266843 0.974 
-0.307749 -0.283281 1.034 
-0.267336 -0.291774 1.065 
-0.227313 -0.311774 1.138 
-0.179173 -0.323828 1.182 
-0.130798 -0.341362 1.246 
-0.076865 -0.360814 1.317 
-0.0164077 -0.382457 1.396 
0.0516231 -0.405744 1.481 
0.128637 -0.432593 1.579 
0.215811 -0.461633 1.685 
0.322823 -0.50629 1.848 
0.442818 -0.548207 2.001 
0.555374 -0.567932 2.073 
0.655457 -0.570946 2.084 
0.763066 -0.578891 2.113 
0.866446 -0.582179 2.125 
0.959132 -0.578343 2.111 
1.06805 -0.584096 2.132 
1.16468 -0.582727 2.127 
1.27095 -0.586014 2.139 
1.3809 -0.590398 2.155 
1.50335 -0.599165 2.187 
1.60161 -0.597795 2.182 
1.70878 -0.599712 2.189 
1.82901 -0.60574 2.211 
1.93032 -0.605192 2.209 
2.05629 -0.612041 2.234 
2.20297 -0.624095 2.278 
-0.555421 -0.182517 0.67 
-0.524193 -0.182517 0.67 
-0.512094 -0.189599 0.696 
-0.490679 -0.193958 0.712 
-0.475484 -0.201585 0.74 
-0.455295 -0.208123 0.764 
-0.432319 -0.214389 0.787 
-0.415745 -0.225285 0.827 
-0.395899 -0.236454 0.868 
-0.374688 -0.249258 0.915 
-0.345466 -0.259337 0.952 
-0.31659 -0.272685 1.001 
-0.28072 -0.283582 1.041 
-0.241501 -0.299109 1.098 
-0.199336 -0.313275 1.15 
-0.154352 -0.331799 1.218 
-0.10415 -0.354137 1.3 
-0.0453991 -0.369119 1.355 
0.0189243 -0.393364 1.444 
0.0910665 -0.415429 1.525 
0.175119 -0.448664 1.647 
0.268862 -0.478902 1.758 
0.385524 -0.526301 1.932 
0.511268 -0.565801 2.077 
0.613933 -0.571249 2.097 
0.716426 -0.575063 2.111 
0.817522 -0.57697 2.118 
0.912349 -0.574519 2.109 
1.01832 -0.578877 2.125 
1.1221 -0.581329 2.134 
1.22156 -0.581329 2.134 
1.32846 -0.584598 2.146 
1.45378 -0.594949 2.184 
1.56768 -0.59958 2.201 
1.64978 -0.592225 2.174 
1.76884 -0.598218 2.196 
1.89505 -0.605846 2.224 
2.01938 -0.612111 2.247 
2.13357 -0.614836 2.257 
2.25761 -0.620011 2.276 
-0.539234 -0.180934 0.668 
-0.516465 -0.183913 0.679 
-0.501239 -0.190143 0.702 
-0.481866 -0.19556 0.722 
-0.464354 -0.202603 0.748 
-0.444993 -0.209916 0.775 
-0.423114 -0.217229 0.802 
-0.405933 -0.228605 0.844 
-0.390049 -0.243231 0.898 
-0.361764 -0.252711 0.933 
-0.333287 -0.264629 0.977 
-0.304831 -0.280339 1.035 
-0.260962 -0.288736 1.066 
-0.225545 -0.308238 1.138 
-0.178869 -0.319614 1.18 
-0.130168 -0.335865 1.24 
-0.0768066 -0.356451 1.316 
-0.0163607 -0.377036 1.392 
0.0514488 -0.399788 1.476 
0.128148 -0.426061 1.573 
0.215426 -0.455585 1.682 
0.319504 -0.495401 1.829 
0.441932 -0.540906 1.997 
0.557785 -0.563928 2.082 
0.658917 -0.56745 2.095 
0.766316 -0.574763 2.122 
0.872154 -0.579368 2.139 
0.963221 -0.574221 2.12 
1.07506 -0.581264 2.146 
1.16851 -0.578013 2.134 
1.27214 -0.579909 2.141 
1.39052 -0.587764 2.17 
1.5061 -0.593452 2.191 
1.61042 -0.594265 2.194 
1.71034 -0.593452 2.191 
1.83563 -0.601036 2.219 
1.9408 -0.601578 2.221 
2.05905 -0.605912 2.237 
2.20587 -0.61783 2.281 
-0.556671 -0.180165 0.669 
-0.524704 -0.179896 0.668 
-0.510562 -0.18609 0.691 
-0.490815 -0.190938 0.709 
-0.475847 -0.198478 0.737 
-0.454674 -0.204403 0.759 
-0.433107 -0.211135 0.784 
-0.413257 -0.220022 0.817 
-0.392167 -0.229987 0.854 
-0.376706 -0.245876 0.913 
-0.347692 -0.25584 0.95 
-0.318743 -0.268767 0.998 
-0.283136 -0.279539 1.038 
-0.246515 -0.293543 1.09 
-0.205585 -0.308355 1.145 
-0.160592 -0.325321 1.208 
-0.111452 -0.347673 1.291 
-0.0532639 -0.361138 1.341 
0.00985376 -0.385107 1.43 
0.0808401 -0.40692 1.511 
0.163181 -0.438968 1.63 
0.253095 -0.464552 1.725 
0.363077 -0.505755 1.878 
0.49788 -0.558809 2.075 
0.604912 -0.568504 2.111 
0.706305 -0.570927 2.12 
0.808537 -0.573351 2.129 
0.906065 -0.572274 2.125 
1.00842 -0.574159 2.132 
1.11871 -0.579814 2.153 
1.2151 -0.577929 2.146 
1.32064 -0.580353 2.155 
1.4435 -0.589509 2.189 
1.55612 -0.593549 2.204 
1.64756 -0.589509 2.189 
1.75759 -0.592202 2.199 
1.88292 -0.599474 2.226 
2.01702 -0.60863 2.26 
2.11766 -0.607284 2.255 
2.2484 -0.614286 2.281 
-0.542571 -0.17859 0.667 
-0.518384 -0.181 0.676 
-0.504161 -0.187426 0.7 
-0.483659 -0.192246 0.718 
-0.465868 -0.19894 0.743 
-0.446327 -0.205901 0.769 
-0.427031 -0.214201 0.8 
-0.407281 -0.22384 0.836 
-0.386772 -0.235889 0.881 
-0.361797 -0.246867 0.922 
-0.33542 -0.259719 0.97 
-0.306065 -0.27391 1.023 
-0.269243 -0.285423 1.066 
-0.231708 -0.301221 1.125 
-0.18469 -0.310324 1.159 
-0.138222 -0.328264 1.226 
-0.0863023 -0.349416 1.305 
-0.026901 -0.368962 1.378 
0.0395764 -0.391185 1.461 
0.113865 -0.413676 1.545 
0.200435 -0.446074 1.666 
0.29912 -0.479811 1.792 
0.416169 -0.521848 1.949 
0.542652 -0.55853 2.086 
0.644789 -0.562814 2.102 
0.751598 -0.569508 2.127 
0.857138 -0.573792 2.143 
0.949878 -0.569508 2.127 
1.06431 -0.577808 2.158 
1.15572 -0.573256 2.141 
1.25668 -0.573792 2.143 
1.37366 -0.581021 2.17 
1.49587 -0.589322 2.201 
1.60427 -0.591464 2.209 
1.69564 -0.587447 2.194 
1.81593 -0.593338 2.216 
1.92788 -0.596015 2.226 
2.04624 -0.600299 2.242 
2.18335 -0.609403 2.276 
-0.563548 -0.178619 0.671 
-0.526237 -0.177288 0.666 
-0.509322 -0.182346 0.685 
-0.492029 -0.187936 0.706 
-0.47668 -0.195123 0.733 
-0.455193 -0.200713 0.754 
-0.43509 -0.207901 0.781 
-0.412981 -0.215354 0.809 
-0.392437 -0.225204 0.846 
-0.378295 -0.24224 0.91 
-0.350275 -0.252622 0.949 
-0.321521 -0.265399 0.997 
-0.284982 -0.274983 1.033 
-0.249444 -0.289623 1.088 
-0.208595 -0.303998 1.142 
-0.163801 -0.320502 1.204 
-0.11439 -0.340467 1.279 
-0.0570454 -0.354576 1.332 
0.00536484 -0.377469 1.418 
0.0755905 -0.399297 1.5 
0.156952 -0.430708 1.618 
0.246011 -0.455997 1.713 
0.351725 -0.4922 1.849 
0.491432 -0.552361 2.075 
0.600337 -0.563807 2.118 
0.702028 -0.566203 2.127 
0.806441 -0.56993 2.141 
0.904118 -0.568599 2.136 
1.00603 -0.56993 2.141 
1.1208 -0.57765 2.17 
1.21518 -0.574455 2.158 
1.32004 -0.576319 2.165 
1.44458 -0.585902 2.201 
1.54927 -0.5867 2.204 
1.652 -0.5867 2.204 
1.75473 -0.5867 2.204 
1.87853 -0.593355 2.229 
2.01711 -0.603737 2.268 
2.10317 -0.598147 2.247 
2.24131 -0.607198 2.281 
-0.541978 -0.175988 0.665 
-0.518666 -0.178635 0.675 
-0.503805 -0.184722 0.698 
-0.483424 -0.189485 0.716 
-0.465765 -0.196101 0.741 
-0.446358 -0.202982 0.767 
-0.427739 -0.211451 0.799 
-0.406136 -0.219919 0.831 
-0.383762 -0.229711 0.868 
-0.362684 -0.242679 0.917 
-0.336341 -0.255117 0.964 
-0.30743 -0.269143 1.017 
-0.272044 -0.281582 1.064 
-0.233113 -0.295078 1.115 
-0.185847 -0.305664 1.155 
-0.139898 -0.323925 1.224 
-0.0878561 -0.343508 1.298 
-0.0288944 -0.362827 1.371 
0.0372809 -0.386381 1.46 
0.111248 -0.408082 1.542 
0.197609 -0.440368 1.664 
0.294186 -0.470802 1.779 
0.40975 -0.511558 1.933 
0.541221 -0.553901 2.093 
0.64488 -0.559193 2.113 
0.750756 -0.564751 2.134 
0.856597 -0.568985 2.15 
0.950579 -0.56528 2.136 
1.06784 -0.574808 2.172 
1.15885 -0.569779 2.153 
1.26037 -0.570309 2.155 
1.38102 -0.578777 2.187 
1.49788 -0.584599 2.209 
1.60591 -0.586452 2.216 
1.7038 -0.584599 2.209 
1.81903 -0.588569 2.224 
1.93134 -0.591215 2.234 
2.04458 -0.593862 2.244 
2.16641 -0.598625 2.262 
-0.558953 -0.175745 0.668 
-0.526237 -0.175218 0.666 
-0.506868 -0.18048 0.686 
-0.488738 -0.185742 0.706 
-0.475201 -0.193635 0.736 
-0.453476 -0.19916 0.757 
-0.432555 -0.206 0.783 
-0.409716 -0.213103 0.81 
-0.389412 -0.223101 0.848 
-0.375055 -0.239149 0.909 
-0.348424 -0.250462 0.952 
-0.320339 -0.26388 1.003 
-0.2815 -0.27151 1.032 
-0.246169 -0.288347 1.096 
-0.202738 -0.29966 1.139 
-0.158978 -0.31834 1.21 
-0.108514 -0.336756 1.28 
-0.0508369 -0.350437 1.332 
0.0120164 -0.374378 1.423 
0.0849126 -0.394636 1.5 
0.16804 -0.428312 1.628 
0.260852 -0.458041 1.741 
0.367145 -0.491716 1.869 
0.507001 -0.548807 2.086 
0.615527 -0.559068 2.125 
0.718273 -0.561962 2.136 
0.823193 -0.565645 2.15 
0.918681 -0.562751 2.139 
1.02933 -0.568802 2.162 
1.13428 -0.570907 2.17 
1.2286 -0.56775 2.158 
1.34212 -0.573275 2.179 
1.46356 -0.581167 2.209 
1.57148 -0.583009 2.216 
1.67326 -0.582483 2.214 
1.76602 -0.579063 2.201 
1.90087 -0.58906 2.239 
2.04016 -0.599321 2.278 
2.11713 -0.591165 2.247 
2.24263 -0.59669 2.268 
-0.535779 -0.173922 0.665 
-0.512999 -0.177845 0.68 
-0.49546 -0.183076 0.7 
-0.478702 -0.189353 0.724 
-0.458477 -0.195107 0.746 
-0.437905 -0.201645 0.771 
-0.417609 -0.209491 0.801 
-0.395941 -0.218122 0.834 
-0.375906 -0.229629 0.878 
-0.356036 -0.24506 0.937 
-0.327697 -0.257091 0.983 
-0.293063 -0.267291 1.022 
-0.258875 -0.281937 1.078 
-0.214991 -0.295275 1.129 
-0.171572 -0.312014 1.193 
-0.121993 -0.328229 1.255 
-0.0665834 -0.344183 1.316 
-0.00555907 -0.364844 1.395 
0.0627871 -0.385244 1.473 
0.142509 -0.417675 1.597 
0.230666 -0.44409 1.698 
0.325502 -0.466582 1.784 
0.464089 -0.529874 2.026 
0.584435 -0.554458 2.12 
0.686149 -0.556812 2.129 
0.792391 -0.561781 2.148 
0.894588 -0.563089 2.153 
0.995864 -0.563612 2.155 
1.11005 -0.570674 2.182 
1.20897 -0.569366 2.177 
1.31345 -0.570674 2.182 
1.43721 -0.579566 2.216 
1.53702 -0.578258 2.211 
1.65491 -0.583489 2.231 
1.74944 -0.580351 2.219 
1.87792 -0.588197 2.249 
2.00126 -0.593689 2.27 
2.08107 -0.586366 2.242 
2.21872 -0.595258 2.276 
-0.541799 -0.171849 0.661 
-0.51872 -0.174449 0.671 
-0.501973 -0.179648 0.691 
-0.484722 -0.185368 0.713 
-0.468586 -0.192388 0.74 
-0.448759 -0.198887 0.765 
-0.428763 -0.206427 0.794 
-0.405569 -0.213706 0.822 
-0.381999 -0.222286 0.855 
-0.364338 -0.237625 0.914 
-0.337576 -0.249324 0.959 
-0.309063 -0.263103 1.012 
-0.273021 -0.274282 1.055 
-0.234881 -0.287802 1.107 
-0.189906 -0.298201 1.147 
-0.145009 -0.31692 1.219 
-0.0927486 -0.333299 1.282 
-0.0348472 -0.352017 1.354 
0.0302671 -0.376976 1.45 
0.103318 -0.398034 1.531 
0.187115 -0.426373 1.64 
0.283001 -0.457831 1.761 
0.39452 -0.494748 1.903 
0.533751 -0.546485 2.102 
0.639239 -0.552984 2.127 
0.743934 -0.557144 2.143 
0.851301 -0.562084 2.162 
0.945907 -0.558444 2.148 
1.06258 -0.567284 2.182 
1.16002 -0.565204 2.174 
1.26019 -0.564684 2.172 
1.3796 -0.572223 2.201 
1.49431 -0.576903 2.219 
1.60134 -0.578203 2.224 
1.71267 -0.580803 2.234 
1.81924 -0.581583 2.237 
1.93382 -0.584702 2.249 
2.05315 -0.588862 2.265 
2.14348 -0.584702 2.249 
-0.563749 -0.173148 0.67 
-0.526237 -0.172114 0.666 
-0.507091 -0.176249 0.682 
-0.489241 -0.181418 0.702 
-0.47668 -0.189429 0.733 
-0.453382 -0.194081 0.751 
-0.433976 -0.201317 0.779 
-0.410939 -0.208036 0.805 
-0.38919 -0.216822 0.839 
-0.371083 -0.231553 0.896 
-0.349536 -0.245767 0.951 
-0.319651 -0.257396 0.996 
-0.280908 -0.264632 1.024 
-0.251397 -0.285306 1.104 
-0.203431 -0.292801 1.133 
-0.160459 -0.311925 1.207 
-0.109553 -0.327947 1.269 
-0.0527078 -0.342936 1.327 
0.00971595 -0.364386 1.41 
0.079128 -0.382217 1.479 
0.16148 -0.416847 1.613 
0.252948 -0.445533 1.724 
0.354764 -0.474218 1.835 
0.49788 -0.536241 2.075 
0.61093 -0.550972 2.132 
0.713302 -0.553298 2.141 
0.821069 -0.558725 2.162 
0.915872 -0.555107 2.148 
1.02971 -0.562601 2.177 
1.12962 -0.561826 2.174 
1.23265 -0.562601 2.177 
1.34454 -0.566995 2.194 
1.46131 -0.57268 2.216 
1.56671 -0.573455 2.219 
1.68745 -0.579399 2.242 
1.77117 -0.57268 2.216 
1.91337 -0.584568 2.262 
2.0429 -0.591545 2.289 
2.10076 -0.578107 2.237 
2.22277 -0.582759 2.255 
-0.530613 -0.170823 0.665 
-0.510135 -0.174419 0.679 
-0.493285 -0.179813 0.7 
-0.477768 -0.186492 0.726 
-0.454936 -0.191116 0.744 
-0.435509 -0.198051 0.771 
-0.414602 -0.205501 0.8 
-0.390991 -0.21295 0.829 
-0.369352 -0.223225 0.869 
-0.354255 -0.241463 0.94 
-0.323322 -0.251482 0.979 
-0.289603 -0.26227 1.021 
-0.256473 -0.27794 1.082 
-0.213658 -0.288215 1.122 
-0.170134 -0.303884 1.183 
-0.121215 -0.320324 1.247 
-0.0664822 -0.337535 1.314 
-0.00553516 -0.356801 1.389 
0.0622329 -0.375039 1.46 
0.141974 -0.40869 1.591 
0.231074 -0.436946 1.701 
0.321853 -0.453129 1.764 
0.456071 -0.51144 1.991 
0.586365 -0.546375 2.127 
0.687761 -0.548173 2.134 
0.794236 -0.553054 2.153 
0.894588 -0.553054 2.153 
1.00372 -0.557935 2.172 
1.11005 -0.560503 2.182 
1.21564 -0.562302 2.189 
1.32489 -0.565384 2.201 
1.44369 -0.571806 2.226 
1.54606 -0.571292 2.224 
1.67049 -0.578485 2.252 
1.76521 -0.575145 2.239 
1.89545 -0.583108 2.27 
2.02506 -0.590044 2.297 
2.08107 -0.575916 2.242 
2.21287 -0.583108 2.27 
-0.535419 -0.169023 0.662 
-0.514471 -0.172343 0.675 
-0.49732 -0.177449 0.695 
-0.480312 -0.183321 0.718 
-0.46116 -0.189194 0.741 
-0.44044 -0.195322 0.765 
-0.421715 -0.203492 0.797 
-0.397112 -0.21013 0.823 
-0.375316 -0.219832 0.861 
-0.358932 -0.235407 0.922 
-0.33035 -0.246131 0.964 
-0.299333 -0.258131 1.011 
-0.263685 -0.269876 1.057 
-0.225778 -0.284174 1.113 
-0.180932 -0.295663 1.158 
-0.133974 -0.312004 1.222 
-0.0779525 -0.332174 1.301 
-0.0182972 -0.351068 1.375 
0.0485228 -0.372005 1.457 
0.124985 -0.399324 1.564 
0.214078 -0.432005 1.692 
0.302465 -0.446048 1.747 
0.426084 -0.49507 1.939 
0.565205 -0.541794 2.122 
0.667867 -0.544858 2.134 
0.772368 -0.548432 2.148 
0.877361 -0.551496 2.16 
0.981209 -0.553283 2.167 
1.0922 -0.55839 2.187 
1.19905 -0.560688 2.196 
1.3103 -0.564518 2.211 
1.42486 -0.569113 2.229 
1.53767 -0.572433 2.242 
1.6473 -0.57422 2.249 
1.76069 -0.577028 2.26 
1.87924 -0.581114 2.276 
1.99405 -0.583667 2.286 
2.07855 -0.577539 2.262 
2.1975 -0.581114 2.276 
-0.537295 -0.16698 0.658 
-0.515095 -0.169771 0.669 
-0.498379 -0.174847 0.689 
-0.483183 -0.181191 0.714 
-0.466286 -0.187789 0.74 
-0.445799 -0.193879 0.764 
-0.425222 -0.200985 0.792 
-0.401544 -0.207836 0.819 
-0.38023 -0.21748 0.857 
-0.363315 -0.232198 0.915 
-0.335736 -0.24311 0.958 
-0.306275 -0.255799 1.008 
-0.269839 -0.266203 1.049 
-0.233793 -0.281683 1.11 
-0.18632 -0.288281 1.136 
-0.142997 -0.30909 1.218 
-0.0847813 -0.325331 1.282 
-0.0266277 -0.34614 1.364 
0.0392513 -0.367711 1.449 
0.113865 -0.392072 1.545 
0.199593 -0.421002 1.659 
0.290774 -0.442065 1.742 
0.408482 -0.485459 1.913 
0.552017 -0.538497 2.122 
0.656752 -0.543319 2.141 
0.760785 -0.546364 2.153 
0.864737 -0.548648 2.162 
0.966848 -0.549409 2.165 
1.07861 -0.554992 2.187 
1.18972 -0.559306 2.204 
1.29832 -0.561844 2.214 
1.40911 -0.564889 2.226 
1.53053 -0.571487 2.252 
1.62824 -0.568949 2.242 
1.75283 -0.575547 2.268 
1.86264 -0.576816 2.273 
1.98244 -0.580876 2.289 
2.07453 -0.576816 2.273 
2.18048 -0.576816 2.273 
-0.540562 -0.165705 0.657 
-0.516148 -0.167723 0.665 
-0.499743 -0.172767 0.685 
-0.483523 -0.178568 0.708 
-0.469613 -0.186135 0.738 
-0.448188 -0.191683 0.76 
-0.426885 -0.198241 0.786 
-0.404151 -0.205303 0.814 
-0.382857 -0.214635 0.851 
-0.364565 -0.228002 0.904 
-0.340263 -0.240613 0.954 
-0.310059 -0.252215 1 
-0.27346 -0.261799 1.038 
-0.240908 -0.280211 1.111 
-0.191166 -0.283237 1.123 
-0.149949 -0.305937 1.213 
-0.0972608 -0.318547 1.263 
-0.0406718 -0.337464 1.338 
0.0230222 -0.358145 1.42 
0.0942975 -0.378575 1.501 
0.176626 -0.407075 1.614 
0.269956 -0.436332 1.73 
0.37795 -0.470381 1.865 
0.527942 -0.534191 2.118 
0.635539 -0.541758 2.148 
0.736342 -0.542262 2.15 
0.844337 -0.547306 2.17 
0.941995 -0.545289 2.162 
1.05482 -0.551594 2.187 
1.16311 -0.554621 2.199 
1.26848 -0.555882 2.204 
1.37868 -0.558908 2.216 
1.49935 -0.565466 2.242 
1.59598 -0.562692 2.231 
1.72969 -0.572528 2.27 
1.82903 -0.57051 2.262 
1.96011 -0.578077 2.292 
2.05973 -0.576059 2.284 
2.13584 -0.567988 2.252 
2.24379 -0.568745 2.255 
-0.523866 -0.166188 0.663 
-0.506347 -0.1707 0.681 
-0.486453 -0.174962 0.698 
-0.472779 -0.182231 0.727 
-0.451571 -0.187495 0.748 
-0.431748 -0.194262 0.775 
-0.410939 -0.201782 0.805 
-0.386406 -0.208801 0.833 
-0.363853 -0.218577 0.872 
-0.351008 -0.237376 0.947 
-0.318534 -0.2464 0.983 
-0.283813 -0.256426 1.023 
-0.250442 -0.271967 1.085 
-0.206501 -0.280991 1.121 
-0.162782 -0.296532 1.183 
-0.111618 -0.312825 1.248 
-0.0563174 -0.32962 1.315 
0.00528918 -0.350424 1.398 
0.073726 -0.366717 1.463 
0.153945 -0.397799 1.587 
0.243857 -0.425623 1.698 
0.340122 -0.448182 1.788 
0.477222 -0.505082 2.015 
0.606856 -0.536666 2.141 
0.708959 -0.53842 2.148 
0.813598 -0.541428 2.16 
0.914276 -0.541428 2.16 
1.02952 -0.549199 2.191 
1.127 -0.546943 2.182 
1.2394 -0.551705 2.201 
1.34991 -0.554964 2.214 
1.46427 -0.559225 2.231 
1.56825 -0.559225 2.231 
1.70597 -0.570505 2.276 
1.78897 -0.563236 2.247 
1.94258 -0.577774 2.305 
2.05535 -0.579278 2.311 
2.10504 -0.563737 2.249 
2.2305 -0.569001 2.27 
-0.532776 -0.164411 0.66 
-0.512662 -0.167899 0.674 
-0.496241 -0.17313 0.695 
-0.476301 -0.17861 0.717 
-0.457089 -0.18434 0.74 
-0.437445 -0.190816 0.766 
-0.416951 -0.198041 0.795 
-0.39232 -0.204517 0.821 
-0.372597 -0.215229 0.864 
-0.354634 -0.229677 0.922 
-0.320607 -0.244125 0.98 
-0.286992 -0.254837 1.023 
-0.249836 -0.266047 1.068 
-0.207871 -0.278751 1.119 
-0.162369 -0.293947 1.18 
-0.113193 -0.30989 1.244 
-0.0581829 -0.32658 1.311 
0.00310822 -0.347256 1.394 
0.0713553 -0.363946 1.461 
0.150811 -0.39359 1.58 
0.240651 -0.421988 1.694 
0.335834 -0.443411 1.78 
0.468915 -0.496471 1.993 
0.604093 -0.533838 2.143 
0.706279 -0.535581 2.15 
0.809492 -0.537574 2.158 
0.913029 -0.539318 2.165 
1.02612 -0.545795 2.191 
1.12464 -0.544051 2.184 
1.23598 -0.548286 2.201 
1.35073 -0.553268 2.221 
1.46473 -0.557254 2.237 
1.5704 -0.557752 2.239 
1.70618 -0.568214 2.281 
1.78548 -0.559745 2.247 
1.94152 -0.57494 2.308 
2.05887 -0.57768 2.319 
2.10902 -0.562236 2.257 
2.23777 -0.568214 2.281 
-0.531968 -0.163138 0.659 
-0.511614 -0.166851 0.674 
-0.495873 -0.172298 0.696 
-0.476749 -0.177249 0.716 
-0.458238 -0.18319 0.74 
-0.438062 -0.189379 0.765 
-0.417134 -0.19631 0.793 
-0.393116 -0.202994 0.82 
-0.374372 -0.214134 0.865 
-0.354136 -0.227007 0.917 
-0.319735 -0.243098 0.982 
-0.285681 -0.253495 1.024 
-0.248177 -0.264388 1.068 
-0.20558 -0.27627 1.116 
-0.162232 -0.291866 1.179 
-0.11292 -0.307214 1.241 
-0.0580054 -0.323553 1.307 
0.00310376 -0.344595 1.392 
0.0714041 -0.361924 1.462 
0.150621 -0.39064 1.578 
0.23994 -0.418119 1.689 
0.335268 -0.439903 1.777 
0.467504 -0.49189 1.987 
0.605503 -0.531746 2.148 
0.707264 -0.532984 2.153 
0.809492 -0.534221 2.158 
0.913872 -0.536449 2.167 
1.02752 -0.543133 2.194 
1.12721 -0.541896 2.189 
1.23879 -0.546104 2.206 
1.3556 -0.551798 2.229 
1.468 -0.555016 2.242 
1.57391 -0.555511 2.244 
1.70992 -0.565908 2.286 
1.79183 -0.558234 2.255 
1.94573 -0.572592 2.313 
2.0562 -0.573335 2.316 
2.1165 -0.56071 2.265 
2.24267 -0.565908 2.286 
-0.531161 -0.161868 0.658 
-0.51114 -0.165312 0.672 
-0.496241 -0.17097 0.695 
-0.477194 -0.17589 0.715 
-0.458767 -0.181794 0.739 
-0.438677 -0.187944 0.764 
-0.417839 -0.194832 0.792 
-0.39439 -0.20172 0.82 
-0.375716 -0.21279 0.865 
-0.353234 -0.224106 0.911 
-0.320386 -0.242064 0.984 
-0.28409 -0.251904 1.024 
-0.246518 -0.262728 1.068 
-0.200019 -0.274044 1.114 
-0.156744 -0.293478 1.193 
-0.105631 -0.306516 1.246 
-0.0499973 -0.32226 1.31 
0.0118222 -0.3444 1.4 
0.0809855 -0.361866 1.471 
0.161546 -0.390894 1.589 
0.252958 -0.419676 1.706 
0.351184 -0.443292 1.802 
0.497965 -0.507252 2.062 
0.622309 -0.531361 2.16 
0.722988 -0.531361 2.16 
0.823666 -0.531361 2.16 
0.931619 -0.535542 2.177 
1.04211 -0.540217 2.196 
1.14863 -0.542184 2.204 
1.25988 -0.545874 2.219 
1.36638 -0.547105 2.224 
1.49053 -0.554731 2.255 
1.59139 -0.553254 2.249 
1.72412 -0.562356 2.286 
1.80985 -0.55596 2.26 
1.95841 -0.568507 2.311 
2.05093 -0.564325 2.294 
2.14092 -0.559896 2.276 
2.2628 -0.563833 2.292 
-0.526849 -0.16109 0.659 
-0.507426 -0.164757 0.674 
-0.49296 -0.170624 0.698 
-0.472959 -0.175268 0.717 
-0.454252 -0.181135 0.741 
-0.434441 -0.18749 0.767 
-0.414285 -0.194824 0.797 
-0.38944 -0.20118 0.823 
-0.368996 -0.211446 0.865 
-0.351334 -0.22978 0.94 
-0.317405 -0.241758 0.989 
-0.281457 -0.250802 1.026 
-0.240992 -0.265958 1.088 
-0.189476 -0.269625 1.103 
-0.148465 -0.29358 1.201 
-0.0964908 -0.306292 1.253 
-0.0401855 -0.323158 1.322 
0.0229411 -0.345892 1.415 
0.0929154 -0.361536 1.479 
0.177173 -0.395759 1.619 
0.268707 -0.420937 1.722 
0.374505 -0.451737 1.848 
0.533675 -0.52336 2.141 
0.64116 -0.529716 2.167 
0.742165 -0.529716 2.167 
0.845115 -0.530938 2.172 
0.950709 -0.533382 2.182 
1.05917 -0.536805 2.196 
1.17474 -0.542916 2.221 
1.28287 -0.544871 2.229 
1.38676 -0.544871 2.229 
1.52209 -0.55636 2.276 
1.61816 -0.552938 2.262 
1.74645 -0.560271 2.292 
1.84035 -0.55636 2.276 
1.97636 -0.564916 2.311 
2.05702 -0.557583 2.281 
2.17378 -0.560271 2.292 
2.2826 -0.56076 2.294 
-0.519445 -0.160309 0.66 
-0.50275 -0.164924 0.679 
-0.484978 -0.169782 0.699 
-0.469872 -0.17634 0.726 
-0.449246 -0.181684 0.748 
-0.430448 -0.188728 0.777 
-0.408945 -0.195772 0.806 
-0.383818 -0.20233 0.833 
-0.358659 -0.210345 0.866 
-0.346228 -0.228805 0.942 
-0.315285 -0.24095 0.992 
-0.278811 -0.249694 1.028 
-0.241003 -0.260624 1.073 
-0.174999 -0.269368 1.109 
-0.132329 -0.293172 1.207 
-0.0798523 -0.307745 1.267 
-0.0222087 -0.328634 1.353 
0.0434821 -0.349766 1.44 
0.117744 -0.372355 1.533 
0.205612 -0.40466 1.666 
0.294146 -0.420205 1.73 
0.409227 -0.458825 1.889 
0.565982 -0.52222 2.15 
0.668673 -0.524163 2.158 
0.777813 -0.529992 2.182 
0.882338 -0.531693 2.189 
0.977623 -0.528049 2.174 
1.08987 -0.533393 2.196 
1.20852 -0.54068 2.226 
1.32583 -0.546266 2.249 
1.43256 -0.546995 2.252 
1.55733 -0.554039 2.281 
1.66729 -0.555253 2.286 
1.77229 -0.554767 2.284 
1.88533 -0.55671 2.292 
2.0278 -0.566669 2.333 
