# .PCD v.7 - Point Cloud Data file format
VERSION .7
FIELDS x y z
SIZE 4 4 4
TYPE F F F
COUNT 1 1 1
WIDTH 1847
HEIGHT 1
VIEWPOINT 0 0 0 1 0 0 0
POINTS 1847
DATA ascii
1.36117 -0.711127 1.945 
1.46676 -0.718439 1.965 
1.55359 -0.716245 1.959 
1.67177 -0.727945 1.991 
1.75305 -0.723192 1.978 
1.8555 -0.727214 1.989 
1.95017 -0.727945 1.991 
-0.563726 -0.253753 0.697 
-0.535812 -0.255937 0.703 
-0.512347 -0.26067 0.716 
-0.497705 -0.270864 0.744 
-0.496012 -0.290159 0.797 
-0.473832 -0.299625 0.823 
-0.451346 -0.310547 0.853 
-0.428058 -0.324017 0.89 
-0.403514 -0.338216 0.929 
-0.372621 -0.349866 0.961 
-0.345226 -0.368433 1.012 
-0.316023 -0.390641 1.073 
-0.274439 -0.403019 1.107 
0.257985 -0.474376 1.303 
0.62442 -0.685533 1.883 
0.717861 -0.690994 1.898 
0.803778 -0.688809 1.892 
0.89715 -0.692814 1.903 
0.984296 -0.691722 1.9 
1.09149 -0.703736 1.933 
1.18159 -0.703736 1.933 
1.27563 -0.70592 1.939 
1.37305 -0.709561 1.949 
1.47892 -0.716842 1.969 
1.5675 -0.715386 1.965 
1.67936 -0.724123 1.989 
1.76226 -0.720119 1.978 
1.86852 -0.72558 1.993 
1.96339 -0.726308 1.995 
-0.562086 -0.253395 0.699 
-0.533293 -0.255207 0.704 
-0.510432 -0.260282 0.718 
-0.494902 -0.27007 0.745 
-0.492914 -0.289283 0.798 
-0.47171 -0.299434 0.826 
-0.448943 -0.310309 0.856 
-0.42577 -0.322997 0.891 
-0.400628 -0.336772 0.929 
-0.368908 -0.349098 0.963 
-0.340846 -0.367223 1.013 
-0.311021 -0.388974 1.073 
-0.270495 -0.403112 1.112 
0.262437 -0.469451 1.295 
0.628678 -0.684057 1.887 
0.722708 -0.689857 1.903 
0.810128 -0.68877 1.9 
0.902945 -0.692032 1.909 
0.988806 -0.689857 1.903 
1.09676 -0.702183 1.937 
1.18704 -0.702183 1.937 
1.28128 -0.704358 1.943 
1.37891 -0.707983 1.953 
1.48424 -0.714871 1.972 
1.57375 -0.713783 1.969 
1.68245 -0.721033 1.989 
1.76355 -0.716321 1.976 
1.87538 -0.723933 1.997 
1.9724 -0.725383 2.001 
-0.561282 -0.251948 0.698 
-0.532535 -0.253753 0.703 
-0.509721 -0.258806 0.717 
-0.493573 -0.268191 0.743 
-0.491679 -0.287322 0.796 
-0.471139 -0.297789 0.825 
-0.448943 -0.308979 0.856 
-0.42577 -0.321612 0.891 
-0.399765 -0.334607 0.927 
-0.367793 -0.347962 0.964 
-0.339272 -0.365649 1.013 
-0.309354 -0.387307 1.073 
-0.268526 -0.401023 1.111 
0.266872 -0.468161 1.297 
0.632614 -0.682208 1.89 
0.727953 -0.689066 1.909 
0.816076 -0.688344 1.907 
0.909233 -0.691593 1.916 
0.993848 -0.688344 1.907 
1.1009 -0.699895 1.939 
1.19374 -0.701339 1.943 
1.28694 -0.702783 1.947 
1.38477 -0.706392 1.957 
1.49032 -0.713251 1.976 
1.57922 -0.711807 1.972 
1.68723 -0.718665 1.991 
1.76662 -0.713251 1.976 
1.88036 -0.721553 1.999 
1.97946 -0.723718 2.005 
-0.560477 -0.250504 0.697 
-0.53102 -0.251942 0.701 
-0.50901 -0.257333 0.716 
-0.492245 -0.266318 0.741 
-0.489208 -0.284647 0.792 
-0.471139 -0.296508 0.825 
-0.448943 -0.307649 0.856 
-0.425292 -0.319869 0.89 
-0.399334 -0.332807 0.926 
-0.367412 -0.346105 0.963 
-0.338602 -0.363357 1.011 
-0.306876 -0.386718 1.076 
-0.265312 -0.399656 1.112 
0.255778 -0.47549 1.323 
0.597377 -0.679272 1.89 
0.686921 -0.680709 1.894 
0.780522 -0.685382 1.907 
0.874422 -0.689335 1.918 
0.963821 -0.689335 1.918 
1.05761 -0.69221 1.926 
1.15394 -0.696164 1.937 
1.26092 -0.705508 1.963 
1.35793 -0.708383 1.971 
1.45053 -0.708743 1.972 
1.54871 -0.711618 1.98 
1.65508 -0.717728 1.997 
1.74116 -0.714853 1.989 
1.85784 -0.724197 2.015 
1.96048 -0.727432 2.024 
-0.568785 -0.246916 0.69 
-0.54829 -0.252284 0.705 
-0.519085 -0.254073 0.71 
-0.500366 -0.261588 0.731 
-0.500156 -0.28127 0.786 
-0.474391 -0.290932 0.813 
-0.454751 -0.303098 0.847 
-0.431451 -0.314907 0.88 
-0.407294 -0.328506 0.918 
-0.374435 -0.34282 0.958 
-0.344584 -0.358207 1.001 
-0.313545 -0.378962 1.059 
-0.272951 -0.393992 1.101 
0.0271116 -0.546078 1.526 
0.540725 -0.675262 1.887 
0.633953 -0.677767 1.894 
0.730241 -0.685282 1.915 
0.819927 -0.685639 1.916 
0.913978 -0.689218 1.926 
0.992805 -0.681703 1.905 
1.10544 -0.696733 1.947 
1.19742 -0.697448 1.949 
1.29488 -0.701027 1.959 
1.39185 -0.70389 1.967 
1.49861 -0.711047 1.987 
1.58562 -0.708542 1.98 
1.69232 -0.714625 1.997 
1.77199 -0.709257 1.982 
1.886 -0.717488 2.005 
1.98736 -0.720351 2.013 
-0.559949 -0.247626 0.695 
-0.529505 -0.249051 0.699 
-0.507588 -0.254395 0.714 
-0.490252 -0.262946 0.738 
-0.487189 -0.287531 0.807 
-0.464616 -0.297151 0.834 
-0.442079 -0.308552 0.866 
-0.417022 -0.32031 0.899 
-0.389104 -0.333493 0.936 
-0.36061 -0.348101 0.977 
-0.329906 -0.36449 1.023 
-0.296502 -0.387293 1.087 
-0.251717 -0.396557 1.113 
0.104592 -0.539788 1.515 
0.567712 -0.673043 1.889 
0.660619 -0.678031 1.903 
0.757587 -0.685513 1.924 
0.848146 -0.686226 1.926 
0.944248 -0.690857 1.939 
1.02662 -0.685513 1.924 
1.12732 -0.692282 1.943 
1.22165 -0.69442 1.949 
1.32933 -0.703328 1.974 
1.42566 -0.705465 1.98 
1.52484 -0.708672 1.989 
1.61918 -0.709385 1.991 
1.71886 -0.712235 1.999 
1.83016 -0.719361 2.019 
1.92236 -0.718648 2.017 
-0.577826 -0.244063 0.688 
-0.556863 -0.249029 0.702 
-0.52489 -0.249384 0.703 
-0.503323 -0.25506 0.719 
-0.488106 -0.264992 0.747 
-0.475157 -0.287341 0.81 
-0.454143 -0.298338 0.841 
-0.432706 -0.311109 0.877 
-0.408359 -0.324234 0.914 
-0.381364 -0.338069 0.953 
-0.351087 -0.352259 0.993 
-0.319844 -0.369641 1.042 
-0.284814 -0.388088 1.094 
-0.242799 -0.402987 1.136 
0.111223 -0.524309 1.478 
0.573885 -0.670462 1.89 
0.667933 -0.676493 1.907 
0.764359 -0.683233 1.926 
0.855905 -0.684652 1.93 
0.954194 -0.690683 1.947 
1.03367 -0.683233 1.926 
1.13453 -0.689973 1.945 
1.23148 -0.693521 1.955 
1.33952 -0.702389 1.98 
1.43542 -0.704163 1.985 
1.53256 -0.706291 1.991 
1.6319 -0.709129 1.999 
1.73025 -0.711258 2.005 
1.84826 -0.720836 2.032 
1.93532 -0.717998 2.024 
-0.573784 -0.24264 0.687 
-0.555169 -0.248645 0.704 
-0.521613 -0.248291 0.703 
-0.500667 -0.254296 0.72 
-0.485922 -0.264538 0.749 
-0.473807 -0.286789 0.812 
-0.453677 -0.298444 0.845 
-0.430961 -0.310453 0.879 
-0.405963 -0.323167 0.915 
-0.3788 -0.336942 0.954 
-0.348703 -0.351422 0.995 
-0.317214 -0.368729 1.044 
-0.281671 -0.386741 1.095 
-0.236154 -0.401928 1.138 
0.111675 -0.524132 1.484 
0.566272 -0.668939 1.894 
0.660427 -0.674943 1.911 
0.755382 -0.680241 1.926 
0.847786 -0.68236 1.932 
0.944148 -0.686951 1.945 
1.0215 -0.678122 1.92 
1.12893 -0.68907 1.951 
1.22237 -0.690483 1.955 
1.33164 -0.700019 1.982 
1.42761 -0.701785 1.987 
1.52787 -0.705317 1.997 
1.61933 -0.704611 1.995 
1.7209 -0.708143 2.005 
1.83336 -0.71556 2.026 
1.92779 -0.71556 2.026 
-0.576986 -0.241573 0.687 
-0.555277 -0.246144 0.7 
-0.52265 -0.246144 0.7 
-0.502623 -0.252474 0.718 
-0.486146 -0.261616 0.744 
-0.480381 -0.282714 0.804 
-0.459433 -0.293263 0.834 
-0.43887 -0.306977 0.873 
-0.40985 -0.320339 0.911 
-0.381906 -0.332998 0.947 
-0.353103 -0.348118 0.99 
-0.319671 -0.362535 1.031 
-0.287159 -0.383282 1.09 
-0.237295 -0.399105 1.135 
0.0596419 -0.552418 1.571 
0.535594 -0.668106 1.9 
0.624482 -0.668458 1.901 
0.718715 -0.673732 1.916 
0.813924 -0.678655 1.93 
0.906224 -0.680413 1.935 
0.99075 -0.676545 1.924 
1.09784 -0.687446 1.955 
1.19383 -0.690259 1.963 
1.29645 -0.696237 1.98 
1.38874 -0.696237 1.98 
1.49674 -0.703621 2.001 
1.58365 -0.700808 1.993 
1.68495 -0.704324 2.003 
1.77476 -0.702918 1.999 
1.88476 -0.709247 2.017 
2.00133 -0.717335 2.04 
-0.559947 -0.241906 0.691 
-0.530794 -0.243306 0.695 
-0.509157 -0.248558 0.71 
-0.489474 -0.255559 0.73 
-0.471913 -0.267462 0.764 
-0.469287 -0.288467 0.824 
-0.445697 -0.30107 0.86 
-0.418346 -0.310522 0.887 
-0.391717 -0.323825 0.925 
-0.362546 -0.336778 0.962 
-0.331578 -0.351481 1.004 
-0.300666 -0.371086 1.06 
-0.260977 -0.385439 1.101 
0.00102825 -0.532473 1.521 
0.0930371 -0.545426 1.558 
0.536439 -0.666204 1.903 
0.626453 -0.667605 1.907 
0.718715 -0.670755 1.916 
0.816033 -0.677407 1.935 
0.906224 -0.677407 1.935 
0.99281 -0.674956 1.928 
1.10008 -0.685809 1.959 
1.19747 -0.68931 1.969 
1.29973 -0.694911 1.985 
1.39225 -0.694911 1.985 
1.49973 -0.701912 2.005 
1.58524 -0.698412 1.995 
1.68664 -0.701912 2.005 
1.78009 -0.701912 2.005 
1.88849 -0.707514 2.021 
2.00624 -0.715916 2.045 
-0.559947 -0.240832 0.691 
-0.530794 -0.242226 0.695 
-0.509157 -0.247454 0.71 
-0.488803 -0.254076 0.729 
-0.474165 -0.264881 0.76 
-0.471647 -0.284747 0.817 
-0.450021 -0.297294 0.853 
-0.423248 -0.306704 0.88 
-0.398302 -0.3196 0.917 
-0.37107 -0.333541 0.957 
-0.339427 -0.346785 0.995 
-0.307776 -0.364211 1.045 
-0.271712 -0.381986 1.096 
-0.226315 -0.394881 1.133 
0.0521196 -0.545445 1.565 
0.557722 -0.663945 1.905 
0.651605 -0.669172 1.92 
0.742641 -0.670567 1.924 
0.838808 -0.675794 1.939 
0.931102 -0.677189 1.943 
1.00379 -0.665339 1.909 
1.12826 -0.686947 1.971 
1.21889 -0.68625 1.969 
1.32531 -0.693918 1.991 
1.41953 -0.694615 1.993 
1.52912 -0.702283 2.015 
1.61338 -0.6981 2.003 
1.71355 -0.700888 2.011 
1.81627 -0.704374 2.021 
1.92087 -0.708208 2.032 
2.01558 -0.708208 2.032 
-0.555348 -0.241494 0.696 
-0.523658 -0.241841 0.697 
-0.503856 -0.248086 0.715 
-0.486981 -0.25676 0.74 
-0.470222 -0.266823 0.769 
-0.467141 -0.286947 0.827 
-0.44466 -0.297703 0.858 
-0.417874 -0.307419 0.886 
-0.392304 -0.320257 0.923 
-0.363663 -0.333442 0.961 
-0.331479 -0.346627 0.999 
-0.299461 -0.364322 1.05 
-0.262449 -0.381671 1.1 
-0.215859 -0.403183 1.162 
0.0595659 -0.544402 1.569 
0.564825 -0.662373 1.909 
0.659626 -0.668271 1.926 
0.750175 -0.668965 1.928 
0.846576 -0.67417 1.943 
0.940033 -0.676252 1.949 
1.01184 -0.663761 1.913 
1.13726 -0.68562 1.976 
1.22812 -0.684926 1.974 
1.33551 -0.692906 1.997 
1.42716 -0.692212 1.995 
1.53843 -0.70054 2.019 
1.62284 -0.696376 2.007 
1.72493 -0.699846 2.017 
1.83428 -0.705744 2.034 
1.93288 -0.707132 2.038 
2.0219 -0.70505 2.032 
-0.55369 -0.241103 0.698 
-0.521156 -0.241103 0.698 
-0.501923 -0.247666 0.717 
-0.485492 -0.256647 0.743 
-0.471492 -0.268391 0.777 
-0.464059 -0.287735 0.833 
-0.440547 -0.298097 0.863 
-0.414239 -0.30846 0.893 
-0.388472 -0.321586 0.931 
-0.355827 -0.331603 0.96 
-0.323456 -0.346456 1.003 
-0.294076 -0.37029 1.072 
-0.251169 -0.380998 1.103 
0.00574697 -0.524693 1.519 
0.113268 -0.542309 1.57 
0.5862 -0.660098 1.911 
0.681279 -0.66597 1.928 
0.777143 -0.671151 1.943 
0.869494 -0.672533 1.947 
0.966162 -0.676678 1.959 
1.05161 -0.669078 1.937 
1.17373 -0.687731 1.991 
1.26272 -0.685659 1.985 
1.36889 -0.692567 2.005 
1.45797 -0.690494 1.999 
1.55115 -0.690494 1.999 
1.65913 -0.696712 2.017 
1.7627 -0.700512 2.028 
1.88012 -0.709147 2.053 
1.96619 -0.705693 2.043 
-0.565488 -0.235892 0.686 
-0.53788 -0.238299 0.693 
-0.512875 -0.241738 0.703 
-0.49445 -0.248959 0.724 
-0.475976 -0.257212 0.748 
-0.470597 -0.274405 0.798 
-0.455127 -0.28816 0.838 
-0.434438 -0.300883 0.875 
-0.407151 -0.311199 0.905 
-0.380293 -0.324266 0.943 
-0.349053 -0.342491 0.996 
-0.314783 -0.356245 1.036 
-0.280385 -0.374814 1.09 
-0.236109 -0.385474 1.121 
0.0200775 -0.526803 1.532 
0.135319 -0.550186 1.6 
0.593377 -0.658504 1.915 
0.688696 -0.66435 1.932 
0.786406 -0.670883 1.951 
0.876443 -0.670195 1.949 
0.972249 -0.673634 1.959 
1.05982 -0.667445 1.941 
1.18466 -0.687389 1.999 
1.27144 -0.68395 1.989 
1.37787 -0.690827 2.009 
1.46711 -0.688764 2.003 
1.55736 -0.687389 1.999 
1.6687 -0.694954 2.021 
1.77249 -0.698736 2.032 
1.8865 -0.705958 2.053 
1.97833 -0.704582 2.049 
-0.564177 -0.235169 0.687 
-0.535254 -0.236538 0.691 
-0.511783 -0.240646 0.703 
-0.493325 -0.247834 0.724 
-0.475448 -0.256392 0.749 
-0.468769 -0.272823 0.797 
-0.453825 -0.286858 0.838 
-0.432089 -0.298839 0.873 
-0.405744 -0.309793 0.905 
-0.379631 -0.323485 0.945 
-0.345611 -0.340601 0.995 
-0.310852 -0.355663 1.039 
-0.276063 -0.374148 1.093 
-0.230473 -0.383048 1.119 
0.0249677 -0.527161 1.54 
0.0995118 -0.542223 1.584 
0.5519 -0.659294 1.926 
0.64467 -0.662375 1.935 
0.733722 -0.661348 1.932 
0.832727 -0.668537 1.953 
0.923757 -0.668537 1.953 
1.00439 -0.66169 1.933 
1.1389 -0.682914 1.995 
1.22818 -0.68086 1.989 
1.3262 -0.683598 1.997 
1.41928 -0.683598 1.997 
1.54038 -0.696264 2.034 
1.61991 -0.68976 2.015 
1.72149 -0.692841 2.024 
1.83287 -0.699345 2.043 
1.93376 -0.701399 2.049 
2.03521 -0.703452 2.055 
-0.55563 -0.236827 0.695 
-0.522483 -0.236487 0.694 
-0.504966 -0.243643 0.715 
-0.486152 -0.251139 0.737 
-0.467739 -0.259999 0.763 
-0.467293 -0.281126 0.825 
-0.442874 -0.290327 0.852 
-0.417831 -0.30089 0.883 
-0.393311 -0.31418 0.922 
-0.364776 -0.327129 0.96 
-0.325596 -0.340759 1 
-0.29243 -0.363249 1.066 
-0.250258 -0.374494 1.099 
0.00573183 -0.51625 1.515 
0.0797228 -0.539081 1.582 
0.529606 -0.658346 1.932 
0.619978 -0.658687 1.933 
0.71081 -0.659369 1.935 
0.815075 -0.670954 1.969 
0.898561 -0.664821 1.951 
0.993555 -0.667547 1.959 
1.12142 -0.680496 1.997 
1.22071 -0.680496 1.997 
1.31247 -0.679814 1.995 
1.4111 -0.68254 2.003 
1.52624 -0.692422 2.032 
1.60579 -0.685948 2.013 
1.7106 -0.690378 2.026 
1.82018 -0.69617 2.043 
1.92103 -0.698215 2.049 
2.02932 -0.702645 2.062 
-0.558607 -0.23473 0.692 
-0.527113 -0.235069 0.693 
-0.507665 -0.241175 0.711 
-0.487206 -0.24762 0.73 
-0.470562 -0.257118 0.758 
-0.463941 -0.274078 0.808 
-0.446855 -0.287307 0.847 
-0.420843 -0.296805 0.875 
-0.398736 -0.31139 0.918 
-0.369907 -0.323602 0.954 
-0.332909 -0.33717 0.994 
-0.300705 -0.353791 1.043 
-0.265384 -0.372447 1.098 
-0.215859 -0.394157 1.162 
0.0494658 -0.528482 1.558 
0.125454 -0.543068 1.601 
0.567451 -0.653988 1.928 
0.662429 -0.659076 1.943 
0.750668 -0.657041 1.937 
0.84703 -0.661789 1.951 
0.946621 -0.667895 1.969 
1.04709 -0.661789 1.951 
1.19024 -0.684855 2.019 
1.26908 -0.676714 1.995 
1.37982 -0.685534 2.021 
1.46526 -0.681463 2.009 
1.56666 -0.684855 2.019 
1.6764 -0.6913 2.038 
1.77313 -0.691979 2.04 
1.88836 -0.699441 2.062 
1.99313 -0.702494 2.071 
-0.563711 -0.229603 0.68 
-0.540622 -0.233317 0.691 
-0.513565 -0.235681 0.698 
-0.496882 -0.243447 0.721 
-0.477412 -0.250875 0.743 
-0.464234 -0.263031 0.779 
-0.456842 -0.281601 0.834 
-0.432502 -0.291393 0.863 
-0.407732 -0.302873 0.897 
-0.382649 -0.316717 0.938 
-0.350963 -0.332249 0.984 
-0.318121 -0.346431 1.026 
-0.284261 -0.364326 1.079 
-0.235267 -0.377157 1.117 
0.00804829 -0.509179 1.508 
0.0822846 -0.53484 1.584 
0.51186 -0.652681 1.933 
0.602581 -0.653356 1.935 
0.695636 -0.656057 1.943 
0.79753 -0.665511 1.971 
0.884886 -0.662135 1.961 
0.980272 -0.664836 1.969 
1.10281 -0.67429 1.997 
1.21937 -0.676991 2.005 
1.30627 -0.673615 1.995 
1.41329 -0.680368 2.015 
1.52441 -0.688134 2.038 
1.60272 -0.681043 2.017 
1.71271 -0.687459 2.036 
1.82714 -0.694887 2.058 
1.92494 -0.695562 2.06 
2.03175 -0.699276 2.071 
-0.560467 -0.231571 0.689 
-0.52912 -0.231908 0.69 
-0.508482 -0.237285 0.706 
-0.487462 -0.244343 0.727 
-0.471046 -0.253754 0.755 
-0.457215 -0.26619 0.792 
-0.446584 -0.283667 0.844 
-0.418602 -0.294422 0.876 
-0.391029 -0.30921 0.92 
-0.363663 -0.32299 0.961 
-0.32982 -0.334081 0.994 
-0.29832 -0.351558 1.046 
-0.262449 -0.369708 1.1 
-0.215302 -0.389537 1.159 
0.0347178 -0.52028 1.548 
0.114855 -0.535068 1.592 
0.546588 -0.651694 1.939 
0.64025 -0.655055 1.949 
0.728093 -0.652366 1.941 
0.833323 -0.664129 1.976 
0.922147 -0.661777 1.969 
1.01547 -0.662785 1.972 
1.16481 -0.676565 2.013 
1.24738 -0.670515 1.995 
1.35112 -0.675893 2.011 
1.44198 -0.674549 2.007 
1.56766 -0.688665 2.049 
1.64936 -0.682951 2.032 
1.75094 -0.68564 2.04 
1.87227 -0.695387 2.069 
1.96871 -0.695387 2.069 
-0.571743 -0.226486 0.677 
-0.552954 -0.231839 0.693 
-0.520653 -0.231839 0.693 
-0.503151 -0.238865 0.714 
-0.485665 -0.246894 0.738 
-0.466554 -0.255257 0.763 
-0.458954 -0.273323 0.817 
-0.437358 -0.284028 0.849 
-0.411002 -0.29741 0.889 
-0.382241 -0.313468 0.937 
-0.351575 -0.325512 0.973 
-0.3207 -0.340901 1.019 
-0.285805 -0.356624 1.066 
-0.244979 -0.370006 1.106 
-0.202697 -0.387737 1.159 
0.0346505 -0.516871 1.545 
0.12289 -0.535271 1.6 
0.555625 -0.648681 1.939 
0.650667 -0.653365 1.953 
0.739418 -0.651358 1.947 
0.840828 -0.659721 1.972 
0.934636 -0.661059 1.976 
1.0257 -0.66039 1.974 
1.15313 -0.672099 2.009 
1.23932 -0.668085 1.997 
1.33774 -0.670761 2.005 
1.43691 -0.673437 2.013 
1.56115 -0.686819 2.053 
1.63667 -0.678456 2.028 
1.744 -0.683474 2.043 
1.86443 -0.692841 2.071 
1.96474 -0.694179 2.075 
2.05749 -0.692841 2.071 
-0.555382 -0.230429 0.692 
-0.523127 -0.230429 0.692 
-0.504351 -0.236756 0.711 
-0.486454 -0.244415 0.734 
-0.467645 -0.25274 0.759 
-0.455049 -0.266059 0.799 
-0.441339 -0.281044 0.844 
-0.414147 -0.293365 0.881 
-0.384531 -0.308016 0.925 
-0.355811 -0.321003 0.964 
-0.323456 -0.33399 1.003 
-0.290776 -0.350972 1.054 
-0.251966 -0.365957 1.099 
-0.211335 -0.38527 1.157 
-0.00128223 -0.486499 1.461 
0.0722119 -0.525792 1.579 
0.513449 -0.645669 1.939 
0.606941 -0.648999 1.949 
0.6985 -0.649665 1.951 
0.800362 -0.658655 1.978 
0.88985 -0.656657 1.972 
0.986744 -0.659987 1.982 
1.10744 -0.677303 2.034 
1.21053 -0.676637 2.032 
1.28405 -0.665648 1.999 
1.40891 -0.680966 2.045 
1.49761 -0.677969 2.036 
1.59407 -0.678635 2.038 
1.71061 -0.687293 2.064 
1.80156 -0.685295 2.058 
1.91777 -0.69262 2.08 
2.03409 -0.69928 2.1 
-0.563482 -0.225709 0.681 
-0.535645 -0.227366 0.686 
-0.512481 -0.231343 0.698 
-0.494386 -0.238303 0.719 
-0.476898 -0.246589 0.744 
-0.460052 -0.256532 0.774 
-0.452459 -0.273767 0.826 
-0.42699 -0.285036 0.86 
-0.404451 -0.297962 0.899 
-0.373758 -0.313208 0.945 
-0.338732 -0.326134 0.984 
-0.306559 -0.34138 1.03 
-0.277126 -0.365906 1.104 
-0.228734 -0.370878 1.119 
-0.186992 -0.392753 1.185 
0.0370509 -0.51207 1.545 
0.13608 -0.533282 1.609 
0.565246 -0.643319 1.941 
0.662473 -0.649948 1.961 
0.752338 -0.648622 1.957 
0.85002 -0.653594 1.972 
0.9491 -0.658565 1.987 
1.04381 -0.659891 1.991 
1.15543 -0.667182 2.013 
1.24181 -0.663205 2.001 
1.34175 -0.66652 2.011 
1.44476 -0.670828 2.024 
1.56647 -0.68276 2.06 
1.63667 -0.672154 2.028 
1.74912 -0.679114 2.049 
1.86803 -0.687732 2.075 
1.97705 -0.69204 2.088 
2.06146 -0.687732 2.075 
-0.554579 -0.227949 0.691 
-0.522371 -0.227949 0.691 
-0.503641 -0.234217 0.71 
-0.485791 -0.241804 0.733 
-0.467029 -0.250051 0.758 
-0.451632 -0.261597 0.793 
-0.438985 -0.277762 0.842 
-0.415405 -0.288648 0.875 
-0.386635 -0.301183 0.913 
-0.359183 -0.317018 0.961 
-0.326168 -0.328894 0.997 
-0.294286 -0.346047 1.049 
-0.257556 -0.363201 1.101 
-0.210239 -0.379696 1.151 
-0.0146774 -0.474702 1.439 
0.0571646 -0.517917 1.57 
0.229318 -0.583563 1.769 
0.565828 -0.640963 1.943 
0.663824 -0.648221 1.965 
0.754644 -0.647561 1.963 
0.851744 -0.651849 1.976 
0.950055 -0.656138 1.989 
1.04905 -0.660096 2.001 
1.16086 -0.665374 2.017 
1.24492 -0.660096 2.001 
1.34755 -0.664715 2.015 
1.44933 -0.668343 2.026 
1.5712 -0.680219 2.062 
1.6382 -0.668343 2.026 
1.75401 -0.67659 2.051 
1.87125 -0.684508 2.075 
1.98694 -0.691105 2.095 
2.06966 -0.686157 2.08 
-0.553506 -0.226876 0.691 
-0.520543 -0.226547 0.69 
-0.502538 -0.233114 0.71 
-0.484652 -0.240666 0.733 
-0.466466 -0.249202 0.759 
-0.4504 -0.260365 0.793 
-0.437942 -0.275797 0.84 
-0.415405 -0.287288 0.875 
-0.388192 -0.29878 0.91 
-0.362149 -0.314211 0.957 
-0.329156 -0.325703 0.992 
-0.298034 -0.343104 1.045 
-0.263165 -0.362147 1.103 
-0.216745 -0.370684 1.129 
-0.0362112 -0.46196 1.407 
0.0316447 -0.497748 1.516 
0.105815 -0.514821 1.568 
0.485834 -0.635974 1.937 
0.577903 -0.637944 1.943 
0.676724 -0.645824 1.967 
0.77036 -0.647466 1.972 
0.864899 -0.649436 1.978 
0.962416 -0.653047 1.989 
1.06573 -0.659614 2.009 
1.17117 -0.664539 2.024 
1.25113 -0.656987 2.001 
1.35985 -0.664539 2.024 
1.4585 -0.666509 2.03 
1.58067 -0.678329 2.066 
1.64612 -0.665852 2.028 
1.7621 -0.674061 2.053 
1.8777 -0.681284 2.075 
2.00201 -0.690805 2.104 
-0.569848 -0.2209 0.676 
-0.549488 -0.225475 0.69 
-0.518077 -0.225802 0.691 
-0.501338 -0.232991 0.713 
-0.483862 -0.240834 0.737 
-0.463538 -0.24835 0.76 
-0.44783 -0.259787 0.795 
-0.43506 -0.275145 0.842 
-0.412737 -0.286909 0.878 
-0.385365 -0.297366 0.91 
-0.360285 -0.312398 0.956 
-0.328276 -0.324815 0.994 
-0.295069 -0.341808 1.046 
-0.259267 -0.35978 1.101 
-0.214181 -0.370564 1.134 
-0.0381243 -0.456506 1.397 
0.0289996 -0.490491 1.501 
0.103379 -0.512385 1.568 
0.417878 -0.6395 1.957 
0.532004 -0.641461 1.963 
0.626359 -0.644402 1.972 
0.716453 -0.642768 1.967 
0.816352 -0.649304 1.987 
0.909882 -0.649957 1.989 
1.00965 -0.654532 2.003 
1.16744 -0.692765 2.12 
1.21727 -0.665969 2.038 
1.29102 -0.655186 2.005 
1.42107 -0.672505 2.058 
1.5133 -0.670871 2.053 
1.61291 -0.672505 2.058 
1.72295 -0.67806 2.075 
1.81967 -0.67806 2.075 
1.94132 -0.686883 2.102 
2.05288 -0.691458 2.116 
-0.561131 -0.221802 0.682 
-0.530119 -0.222127 0.683 
-0.509957 -0.22733 0.699 
-0.492401 -0.234485 0.721 
-0.474703 -0.242616 0.746 
-0.455854 -0.251397 0.773 
-0.445351 -0.266682 0.82 
-0.425501 -0.278715 0.857 
-0.402652 -0.291074 0.895 
-0.37747 -0.304408 0.936 
-0.346326 -0.315791 0.971 
-0.31626 -0.331727 1.02 
-0.281429 -0.351565 1.081 
-0.24002 -0.365225 1.123 
-0.192224 -0.377583 1.161 
-0.00125854 -0.466369 1.434 
0.0720289 -0.512225 1.575 
0.215732 -0.568488 1.748 
0.444462 -0.639712 1.967 
0.551425 -0.639712 1.967 
0.646703 -0.643289 1.978 
0.737404 -0.641989 1.974 
0.835716 -0.646867 1.989 
0.929357 -0.647517 1.991 
1.0314 -0.653371 2.009 
1.18328 -0.687194 2.113 
1.237 -0.661502 2.034 
1.31675 -0.654022 2.011 
1.44134 -0.668332 2.055 
1.54536 -0.671909 2.066 
1.63291 -0.668332 2.055 
1.74384 -0.674186 2.073 
1.85999 -0.68134 2.095 
1.97446 -0.687194 2.113 
2.06216 -0.683617 2.102 
-0.554525 -0.221066 0.683 
-0.523456 -0.221389 0.684 
-0.504511 -0.227215 0.702 
-0.485904 -0.234012 0.723 
-0.469717 -0.243075 0.751 
-0.452078 -0.252785 0.781 
-0.444416 -0.270263 0.835 
-0.420551 -0.280297 0.866 
-0.397308 -0.29292 0.905 
-0.368467 -0.303925 0.939 
-0.337841 -0.316224 0.977 
-0.30786 -0.333055 1.029 
-0.27682 -0.354741 1.096 
-0.231914 -0.364451 1.126 
-0.182963 -0.379016 1.171 
-0.0358509 -0.45087 1.393 
0.0311229 -0.48259 1.491 
0.105545 -0.506218 1.564 
0.242373 -0.570951 1.764 
0.454552 -0.637951 1.971 
0.549484 -0.637951 1.971 
0.644281 -0.640864 1.98 
0.736569 -0.640864 1.98 
0.832625 -0.643777 1.989 
0.927194 -0.645071 1.993 
1.02828 -0.65025 2.009 
1.1867 -0.687796 2.125 
1.2426 -0.659636 2.038 
1.32381 -0.652839 2.017 
1.44665 -0.66611 2.058 
1.55231 -0.670317 2.071 
1.63849 -0.66611 2.058 
1.74875 -0.671612 2.075 
1.86503 -0.678733 2.097 
1.98243 -0.68553 2.118 
2.06935 -0.681646 2.106 
-0.552957 -0.220649 0.685 
-0.521028 -0.220649 0.685 
-0.502667 -0.226769 0.704 
-0.482534 -0.232889 0.723 
-0.467458 -0.242552 0.753 
-0.451883 -0.253504 0.787 
-0.440524 -0.268966 0.835 
-0.418438 -0.28024 0.87 
-0.393959 -0.292158 0.907 
-0.365254 -0.303432 0.942 
-0.33431 -0.315673 0.98 
-0.304242 -0.332745 1.033 
-0.268061 -0.352716 1.095 
-0.222572 -0.361735 1.123 
-0.178566 -0.379451 1.178 
-0.0482055 -0.442908 1.375 
0.016727 -0.466422 1.448 
0.0916053 -0.507331 1.575 
0.210457 -0.556292 1.727 
0.391311 -0.631667 1.961 
0.480252 -0.628446 1.951 
0.575873 -0.6336 1.967 
0.673664 -0.639398 1.985 
0.770818 -0.643263 1.997 
0.864764 -0.643907 1.999 
0.956021 -0.642619 1.995 
1.06268 -0.650994 2.021 
1.16949 -0.654537 2.032 
1.25736 -0.650994 2.021 
1.35891 -0.654537 2.032 
1.46436 -0.659369 2.047 
1.58491 -0.669999 2.08 
1.65356 -0.658725 2.045 
1.76684 -0.665489 2.066 
1.87125 -0.668388 2.075 
2.01254 -0.683528 2.122 
2.09553 -0.678374 2.106 
-0.548965 -0.220546 0.688 
-0.516897 -0.220546 0.688 
-0.499627 -0.227278 0.709 
-0.481059 -0.23433 0.731 
-0.462273 -0.242344 0.756 
-0.447936 -0.254205 0.793 
-0.434295 -0.26863 0.838 
-0.414101 -0.281453 0.878 
-0.386353 -0.29139 0.909 
-0.358365 -0.303571 0.947 
-0.329156 -0.317997 0.992 
-0.297464 -0.334345 1.043 
-0.257322 -0.352617 1.1 
-0.213169 -0.364799 1.138 
-0.167443 -0.381468 1.19 
-0.0503052 -0.440451 1.374 
0.0189898 -0.464493 1.449 
0.0939926 -0.504563 1.574 
0.174481 -0.526041 1.641 
0.285498 -0.592397 1.848 
0.407921 -0.626056 1.953 
0.500483 -0.627979 1.959 
0.593001 -0.629262 1.963 
0.694958 -0.638878 1.993 
0.791015 -0.641443 2.001 
0.88605 -0.642725 2.005 
0.976572 -0.640802 1.999 
1.09329 -0.654906 2.043 
1.18644 -0.652021 2.034 
1.27054 -0.646572 2.017 
1.38485 -0.656189 2.047 
1.48315 -0.657471 2.051 
1.60415 -0.668049 2.084 
1.67598 -0.658112 2.053 
1.7872 -0.663882 2.071 
1.89556 -0.668049 2.084 
2.03859 -0.683436 2.132 
-0.564597 -0.215649 0.676 
-0.540185 -0.21852 0.685 
-0.511967 -0.220115 0.69 
-0.495104 -0.227133 0.712 
-0.478785 -0.235428 0.738 
-0.458839 -0.243084 0.762 
-0.441099 -0.253292 0.794 
-0.432081 -0.270837 0.849 
-0.408691 -0.282003 0.884 
-0.380011 -0.296039 0.928 
-0.349095 -0.306885 0.962 
-0.318172 -0.320922 1.006 
-0.282608 -0.33432 1.048 
-0.244599 -0.357288 1.12 
-0.198924 -0.369411 1.158 
-0.153039 -0.394931 1.238 
-0.0619194 -0.430022 1.348 
0.0121093 -0.457457 1.434 
0.0867112 -0.502437 1.575 
0.164392 -0.515835 1.617 
0.265709 -0.571661 1.792 
0.381001 -0.62366 1.955 
0.475505 -0.628126 1.969 
0.57045 -0.631635 1.98 
0.665751 -0.634506 1.989 
0.763798 -0.638972 2.003 
0.857158 -0.638972 2.003 
0.951468 -0.63961 2.005 
1.05117 -0.643438 2.017 
1.16768 -0.654284 2.051 
1.25958 -0.65237 2.045 
1.34894 -0.649499 2.036 
1.45731 -0.65556 2.055 
1.57199 -0.663536 2.08 
1.6577 -0.659069 2.066 
1.76758 -0.664174 2.082 
1.87448 -0.667683 2.093 
2.00595 -0.679167 2.129 
2.09431 -0.675658 2.118 
-0.550566 -0.217773 0.686 
-0.51708 -0.217138 0.684 
-0.500804 -0.224122 0.706 
-0.479164 -0.229519 0.723 
-0.463949 -0.239043 0.753 
-0.449923 -0.250788 0.79 
-0.436109 -0.264756 0.834 
-0.415812 -0.277137 0.873 
-0.389731 -0.287931 0.907 
-0.355797 -0.300946 0.948 
-0.32706 -0.315867 0.995 
-0.294505 -0.331422 1.044 
-0.257322 -0.349199 1.1 
-0.213543 -0.361897 1.14 
-0.167865 -0.378722 1.193 
-0.115649 -0.403484 1.271 
-0.0419485 -0.438086 1.38 
0.0236707 -0.463483 1.46 
0.0988836 -0.499672 1.574 
0.179799 -0.521577 1.643 
0.288837 -0.587607 1.851 
0.394973 -0.618717 1.949 
0.490303 -0.624432 1.967 
0.586423 -0.629193 1.982 
0.683942 -0.633955 1.997 
0.78247 -0.6384 2.011 
0.876204 -0.6384 2.011 
0.968972 -0.637765 2.009 
1.07478 -0.645066 2.032 
1.17294 -0.646971 2.038 
1.26918 -0.647606 2.04 
1.36895 -0.649828 2.047 
1.47223 -0.65332 2.058 
1.59101 -0.662843 2.088 
1.67297 -0.656812 2.069 
1.78223 -0.661574 2.084 
1.88568 -0.663796 2.091 
2.02393 -0.677446 2.134 
2.10747 -0.672367 2.118 
-0.547369 -0.216707 0.686 
-0.515394 -0.216707 0.686 
-0.498218 -0.223341 0.707 
-0.479084 -0.229975 0.728 
-0.460439 -0.237873 0.753 
-0.446806 -0.249877 0.791 
-0.433777 -0.264408 0.837 
-0.412215 -0.276097 0.874 
-0.379192 -0.292524 0.926 
-0.348369 -0.303264 0.96 
-0.317539 -0.317164 1.004 
-0.282338 -0.330747 1.047 
-0.247589 -0.350649 1.11 
-0.203439 -0.364233 1.153 
-0.159175 -0.387294 1.226 
-0.106659 -0.412566 1.306 
-0.0482405 -0.434679 1.376 
0.0166692 -0.455844 1.443 
0.0916634 -0.497859 1.576 
0.169836 -0.512074 1.621 
0.273246 -0.5702 1.805 
0.385492 -0.615058 1.947 
0.482358 -0.622955 1.972 
0.580389 -0.629589 1.993 
0.674634 -0.630853 1.997 
0.773097 -0.635275 2.011 
0.86683 -0.635275 2.011 
0.96343 -0.637171 2.017 
1.06321 -0.640645 2.028 
1.16858 -0.646648 2.047 
1.27079 -0.650122 2.058 
1.36206 -0.647911 2.051 
1.46548 -0.651386 2.062 
1.57976 -0.658968 2.086 
1.66976 -0.656125 2.077 
1.77847 -0.660547 2.091 
1.88401 -0.66339 2.1 
2.01587 -0.674763 2.136 
2.10156 -0.67034 2.122 
-0.550024 -0.215013 0.684 
-0.517385 -0.214699 0.683 
-0.500479 -0.2213 0.704 
-0.478959 -0.226644 0.721 
-0.463883 -0.236074 0.751 
-0.448866 -0.247076 0.786 
-0.434783 -0.260593 0.829 
-0.413824 -0.272224 0.866 
-0.388619 -0.28637 0.911 
-0.354698 -0.298315 0.949 
-0.325841 -0.313089 0.996 
-0.292883 -0.328178 1.044 
-0.252883 -0.346724 1.103 
-0.205944 -0.360555 1.147 
-0.160291 -0.383503 1.22 
-0.106333 -0.409279 1.302 
-0.0483457 -0.433484 1.379 
0.0167039 -0.454545 1.446 
0.0916053 -0.495096 1.575 
0.169417 -0.508298 1.617 
0.277274 -0.56991 1.813 
0.38732 -0.610146 1.941 
0.486406 -0.621149 1.976 
0.585242 -0.628379 1.999 
0.679094 -0.629007 2.001 
0.776993 -0.632779 2.013 
0.871685 -0.633408 2.015 
0.969918 -0.636237 2.024 
1.06846 -0.638752 2.032 
1.17062 -0.642838 2.045 
1.2777 -0.648811 2.064 
1.37124 -0.647554 2.06 
1.4701 -0.648811 2.064 
1.58452 -0.656355 2.088 
1.67862 -0.655098 2.084 
1.78513 -0.658556 2.095 
1.89087 -0.661385 2.104 
2.02202 -0.672387 2.139 
2.10783 -0.667986 2.125 
-0.548159 -0.213637 0.683 
-0.516324 -0.213637 0.683 
-0.500095 -0.220519 0.705 
-0.477838 -0.225524 0.721 
-0.462716 -0.234907 0.751 
-0.447645 -0.245855 0.786 
-0.432972 -0.258992 0.828 
-0.412002 -0.270566 0.865 
-0.385639 -0.285893 0.914 
-0.355797 -0.296528 0.948 
-0.326402 -0.310603 0.993 
-0.293659 -0.325617 1.041 
-0.252653 -0.344698 1.102 
-0.203984 -0.35846 1.146 
-0.158786 -0.382546 1.223 
-0.0928097 -0.410071 1.311 
-0.0336866 -0.43572 1.393 
0.0335964 -0.468564 1.498 
0.109218 -0.494838 1.582 
0.19001 -0.513919 1.643 
0.309399 -0.585235 1.871 
0.413989 -0.610884 1.953 
0.513294 -0.620894 1.985 
0.608257 -0.623396 1.993 
0.70678 -0.628401 2.009 
0.80042 -0.628401 2.009 
0.898511 -0.631529 2.019 
0.992617 -0.631529 2.019 
1.10287 -0.640912 2.049 
1.19487 -0.639036 2.043 
1.29514 -0.641538 2.051 
1.40091 -0.64623 2.066 
1.50083 -0.647794 2.071 
1.61047 -0.653111 2.088 
1.7078 -0.653111 2.088 
1.82327 -0.65968 2.109 
1.92157 -0.65968 2.109 
2.05052 -0.669689 2.141 
-0.56481 -0.210086 0.675 
-0.536509 -0.211331 0.679 
-0.511552 -0.214132 0.688 
-0.493423 -0.220357 0.708 
-0.477331 -0.228449 0.734 
-0.458211 -0.23623 0.759 
-0.440104 -0.245879 0.79 
-0.428296 -0.26113 0.839 
-0.406817 -0.272957 0.877 
-0.376325 -0.286029 0.919 
-0.347643 -0.298167 0.958 
-0.317223 -0.312173 1.003 
-0.281799 -0.325245 1.045 
-0.238952 -0.347965 1.118 
-0.193025 -0.359481 1.155 
-0.148469 -0.383447 1.232 
-0.0812032 -0.411147 1.321 
-0.0143816 -0.438847 1.41 
0.0577816 -0.473706 1.522 
0.133543 -0.491447 1.579 
0.225113 -0.534086 1.716 
0.349951 -0.596957 1.918 
0.45401 -0.616876 1.982 
0.549424 -0.6203 1.993 
0.641029 -0.619054 1.989 
0.740377 -0.624657 2.007 
0.835586 -0.625902 2.011 
0.931168 -0.627147 2.015 
1.03272 -0.631815 2.03 
1.15344 -0.646444 2.077 
1.24904 -0.645821 2.075 
1.33733 -0.641775 2.062 
1.43831 -0.643954 2.069 
1.54439 -0.648 2.082 
1.64143 -0.648 2.082 
1.75517 -0.654225 2.102 
1.86901 -0.659827 2.12 
1.98268 -0.664807 2.136 
2.08516 -0.66574 2.139 
-0.55468 -0.209967 0.678 
-0.523849 -0.210276 0.679 
-0.504524 -0.215541 0.696 
-0.484971 -0.221425 0.715 
-0.471226 -0.231025 0.746 
-0.449911 -0.238148 0.769 
-0.430221 -0.247439 0.799 
-0.418555 -0.263542 0.851 
-0.39759 -0.276549 0.893 
-0.366113 -0.288936 0.933 
-0.337841 -0.302563 0.977 
-0.305167 -0.315879 1.02 
-0.26596 -0.326099 1.053 
-0.226062 -0.347777 1.123 
-0.180834 -0.362022 1.169 
-0.134021 -0.38401 1.24 
-0.077507 -0.411262 1.328 
-0.0165017 -0.434798 1.404 
0.0527734 -0.468864 1.514 
0.129126 -0.490851 1.585 
0.216963 -0.524607 1.694 
0.345705 -0.591809 1.911 
0.45002 -0.612558 1.978 
0.546876 -0.617822 1.995 
0.63858 -0.616584 1.991 
0.737993 -0.622158 2.009 
0.833289 -0.623397 2.013 
0.929879 -0.625255 2.019 
1.03159 -0.6299 2.034 
1.15021 -0.643217 2.077 
1.24702 -0.643217 2.077 
1.33671 -0.63981 2.066 
1.43648 -0.641358 2.071 
1.54411 -0.646004 2.086 
1.64134 -0.646004 2.086 
1.75524 -0.652198 2.106 
1.86748 -0.657153 2.122 
1.98214 -0.662417 2.139 
2.08184 -0.662417 2.139 
-0.55468 -0.208913 0.678 
-0.523849 -0.209221 0.679 
-0.503799 -0.214152 0.695 
-0.484292 -0.220006 0.714 
-0.470594 -0.229558 0.745 
-0.449911 -0.236953 0.769 
-0.430221 -0.246197 0.799 
-0.417572 -0.261604 0.849 
-0.39759 -0.275162 0.893 
-0.36952 -0.285638 0.927 
-0.3418 -0.299196 0.971 
-0.309063 -0.311829 1.012 
-0.270433 -0.321998 1.045 
-0.23679 -0.343875 1.116 
-0.19123 -0.355892 1.155 
-0.146198 -0.378694 1.229 
-0.0944125 -0.402112 1.305 
-0.0359281 -0.430152 1.396 
0.0312481 -0.461273 1.497 
0.107097 -0.489005 1.587 
0.185518 -0.501022 1.626 
0.315382 -0.576823 1.872 
0.420488 -0.602398 1.955 
0.522079 -0.614723 1.995 
0.61815 -0.617804 2.005 
0.715152 -0.620885 2.015 
0.809875 -0.621502 2.017 
0.907921 -0.624275 2.026 
1.00532 -0.626124 2.032 
1.11844 -0.6366 2.066 
1.21239 -0.635368 2.062 
1.31294 -0.637525 2.069 
1.41823 -0.64153 2.082 
1.51964 -0.643379 2.088 
1.62393 -0.646152 2.097 
1.72742 -0.648309 2.104 
1.85152 -0.657553 2.134 
1.95555 -0.659094 2.139 
2.0591 -0.660326 2.143 
-0.560615 -0.20694 0.675 
-0.529153 -0.20694 0.675 
-0.508014 -0.211232 0.689 
-0.488332 -0.216751 0.707 
-0.474057 -0.225641 0.736 
-0.456482 -0.234226 0.764 
-0.435745 -0.242503 0.791 
-0.42056 -0.255686 0.834 
-0.403655 -0.270402 0.882 
-0.376931 -0.281132 0.917 
-0.345793 -0.293395 0.957 
-0.316294 -0.308111 1.005 
-0.279103 -0.319148 1.041 
-0.2452 -0.339382 1.107 
-0.199024 -0.348886 1.138 
-0.156244 -0.373412 1.218 
-0.105271 -0.395179 1.289 
-0.0485561 -0.424611 1.385 
0.0168425 -0.446991 1.458 
0.0906165 -0.477649 1.558 
0.167217 -0.489299 1.596 
0.260227 -0.527008 1.719 
0.401984 -0.594455 1.939 
0.507597 -0.61285 1.999 
0.608284 -0.620514 2.024 
0.700888 -0.618981 2.019 
0.795781 -0.619594 2.021 
0.895705 -0.62358 2.034 
0.993433 -0.625419 2.04 
1.09812 -0.630938 2.058 
1.18998 -0.628792 2.051 
1.30376 -0.637682 2.08 
1.40812 -0.641055 2.091 
1.50342 -0.640135 2.088 
1.61454 -0.645653 2.106 
1.71677 -0.647186 2.111 
1.83666 -0.654851 2.136 
1.93894 -0.65577 2.139 
2.04722 -0.65853 2.148 
-0.564182 -0.205281 0.673 
-0.532813 -0.205281 0.673 
-0.509641 -0.208637 0.684 
-0.492427 -0.215042 0.705 
-0.475864 -0.222668 0.73 
-0.45818 -0.230903 0.757 
-0.439656 -0.240054 0.787 
-0.420383 -0.250425 0.821 
-0.404456 -0.265066 0.869 
-0.382798 -0.278792 0.914 
-0.350275 -0.289468 0.949 
-0.321521 -0.304109 0.997 
-0.286638 -0.31692 1.039 
-0.251966 -0.335222 1.099 
-0.206221 -0.344373 1.129 
-0.163121 -0.365724 1.199 
-0.11287 -0.384941 1.262 
-0.0586729 -0.417883 1.37 
0.00539133 -0.43466 1.425 
0.0773039 -0.467907 1.534 
0.154139 -0.484684 1.589 
0.243426 -0.517016 1.695 
0.369457 -0.582902 1.911 
0.478205 -0.607914 1.993 
0.57855 -0.615844 2.019 
0.670657 -0.614014 2.013 
0.765243 -0.614624 2.015 
0.868969 -0.62164 2.038 
0.967272 -0.623775 2.045 
1.06571 -0.625605 2.051 
1.16753 -0.62896 2.062 
1.28387 -0.639026 2.095 
1.3769 -0.636891 2.088 
1.46646 -0.633536 2.077 
1.58509 -0.642381 2.106 
1.68885 -0.644517 2.113 
1.79749 -0.648177 2.125 
1.90635 -0.651532 2.136 
2.01906 -0.655802 2.15 
2.11533 -0.654582 2.146 
-0.547058 -0.206057 0.679 
-0.516169 -0.20636 0.68 
-0.498011 -0.212126 0.699 
-0.477415 -0.217588 0.717 
-0.463192 -0.226996 0.748 
-0.443789 -0.23519 0.775 
-0.421868 -0.243384 0.802 
-0.409416 -0.259164 0.854 
-0.390385 -0.273731 0.902 
-0.361859 -0.284352 0.937 
-0.331769 -0.296491 0.977 
-0.296777 -0.307416 1.013 
-0.261452 -0.324107 1.068 
-0.222374 -0.340494 1.122 
-0.178718 -0.357792 1.179 
-0.129748 -0.37509 1.236 
-0.077507 -0.403009 1.328 
-0.0163725 -0.422735 1.393 
0.0523202 -0.45551 1.501 
0.130103 -0.484643 1.597 
0.216614 -0.5071 1.671 
0.3371 -0.575381 1.896 
0.442528 -0.598444 1.972 
0.545013 -0.61028 2.011 
0.638746 -0.61028 2.011 
0.734665 -0.6121 2.017 
0.835662 -0.617259 2.034 
0.930467 -0.617259 2.034 
1.03283 -0.621811 2.049 
1.14871 -0.63304 2.086 
1.24475 -0.632433 2.084 
1.33738 -0.630309 2.077 
1.44385 -0.634557 2.091 
1.56122 -0.642751 2.118 
1.65602 -0.641234 2.113 
1.76447 -0.644875 2.125 
1.88369 -0.651855 2.148 
1.99951 -0.657014 2.165 
2.07907 -0.650338 2.143 
-0.555144 -0.204096 0.676 
-0.522861 -0.203794 0.675 
-0.502319 -0.208323 0.69 
-0.483785 -0.214361 0.71 
-0.468466 -0.222815 0.738 
-0.450536 -0.231268 0.766 
-0.429455 -0.23942 0.793 
-0.411301 -0.250893 0.831 
-0.399019 -0.268706 0.89 
-0.370392 -0.278368 0.922 
-0.340834 -0.291048 0.964 
-0.309408 -0.304332 1.008 
-0.270755 -0.313994 1.04 
-0.238097 -0.336336 1.114 
-0.193192 -0.349016 1.156 
-0.146782 -0.367735 1.218 
-0.0953316 -0.389473 1.29 
-0.0378787 -0.419061 1.388 
0.0284972 -0.445328 1.475 
0.103709 -0.474915 1.573 
0.181641 -0.487294 1.614 
0.278992 -0.529261 1.753 
0.397531 -0.583304 1.932 
0.5055 -0.60474 2.003 
0.608727 -0.614703 2.036 
0.701552 -0.612892 2.03 
0.794602 -0.611684 2.026 
0.89825 -0.618024 2.047 
0.994632 -0.618628 2.049 
1.10184 -0.62527 2.071 
1.19548 -0.623761 2.066 
1.30553 -0.630403 2.088 
1.4136 -0.635233 2.104 
1.51311 -0.635837 2.106 
1.62198 -0.640064 2.12 
1.7281 -0.642781 2.129 
1.85222 -0.651537 2.158 
1.95281 -0.651537 2.158 
2.04578 -0.649122 2.15 
-0.564591 -0.201544 0.671 
-0.533315 -0.201544 0.671 
-0.508773 -0.204247 0.68 
-0.493215 -0.211155 0.703 
-0.475512 -0.218064 0.726 
-0.458707 -0.226474 0.754 
-0.439292 -0.234884 0.782 
-0.417782 -0.243595 0.811 
-0.404345 -0.259214 0.863 
-0.383529 -0.27303 0.909 
-0.35317 -0.282642 0.941 
-0.32443 -0.296459 0.987 
-0.28971 -0.308473 1.027 
-0.255499 -0.325894 1.085 
-0.212104 -0.337308 1.123 
-0.168296 -0.35533 1.183 
-0.119278 -0.374553 1.247 
-0.0668928 -0.409696 1.364 
-0.00340871 -0.421109 1.402 
0.0669312 -0.45505 1.515 
0.145444 -0.481182 1.602 
0.233164 -0.50401 1.678 
0.351828 -0.569489 1.896 
0.461329 -0.596822 1.987 
0.564259 -0.607935 2.024 
0.656971 -0.606434 2.019 
0.751822 -0.607034 2.021 
0.857742 -0.615444 2.049 
0.952316 -0.614844 2.047 
1.05438 -0.618749 2.06 
1.1638 -0.625957 2.084 
1.26517 -0.62806 2.091 
1.36068 -0.627159 2.088 
1.4601 -0.62806 2.091 
1.58959 -0.640975 2.134 
1.6851 -0.639474 2.129 
1.78685 -0.640375 2.132 
1.9048 -0.646682 2.153 
2.01633 -0.650287 2.165 
2.1055 -0.646682 2.153 
-0.553861 -0.202294 0.677 
-0.51922 -0.201099 0.673 
-0.500175 -0.206179 0.69 
-0.482258 -0.212454 0.711 
-0.466173 -0.220522 0.738 
-0.448741 -0.229187 0.767 
-0.426452 -0.236657 0.792 
-0.407735 -0.247713 0.829 
-0.396254 -0.265941 0.89 
-0.368324 -0.2761 0.924 
-0.338984 -0.287754 0.963 
-0.30662 -0.300005 1.004 
-0.269657 -0.31136 1.042 
-0.236154 -0.332575 1.113 
-0.191893 -0.34632 1.159 
-0.144295 -0.362456 1.213 
-0.093255 -0.385166 1.289 
-0.0355678 -0.412955 1.382 
0.0304967 -0.436561 1.461 
0.105815 -0.468534 1.568 
0.184947 -0.48437 1.621 
0.28268 -0.525606 1.759 
0.40074 -0.577599 1.933 
0.509628 -0.599711 2.007 
0.61189 -0.608376 2.036 
0.708178 -0.609572 2.04 
0.799325 -0.606584 2.03 
0.903192 -0.612859 2.051 
1.00074 -0.614054 2.055 
1.11093 -0.622122 2.082 
1.20681 -0.621524 2.08 
1.31065 -0.624811 2.091 
1.42293 -0.631385 2.113 
1.5279 -0.634074 2.122 
1.63217 -0.636166 2.129 
1.73954 -0.639154 2.139 
1.86933 -0.649612 2.174 
1.96704 -0.648417 2.17 
2.04912 -0.642441 2.15 
-0.562908 -0.198864 0.669 
-0.53252 -0.199162 0.67 
-0.508025 -0.201837 0.679 
-0.491812 -0.208376 0.701 
-0.474857 -0.215511 0.725 
-0.458099 -0.223834 0.753 
-0.438169 -0.23186 0.78 
-0.415722 -0.239886 0.807 
-0.403408 -0.255937 0.861 
-0.382685 -0.269611 0.907 
-0.35242 -0.279123 0.939 
-0.323773 -0.292797 0.985 
-0.287833 -0.304985 1.026 
-0.250941 -0.327576 1.102 
-0.204104 -0.335008 1.127 
-0.159644 -0.352843 1.187 
-0.110821 -0.37484 1.261 
-0.056338 -0.405754 1.365 
0.00756796 -0.421509 1.418 
0.0793756 -0.454207 1.528 
0.158678 -0.478582 1.61 
0.244172 -0.499985 1.682 
0.363995 -0.564192 1.898 
0.476539 -0.594215 1.999 
0.579118 -0.604024 2.032 
0.67383 -0.604024 2.032 
0.766273 -0.602241 2.026 
0.8743 -0.611753 2.058 
0.968809 -0.610861 2.055 
1.07185 -0.615023 2.069 
1.17788 -0.620076 2.086 
1.27633 -0.620671 2.088 
1.38155 -0.624238 2.1 
1.48225 -0.625427 2.104 
1.61186 -0.637911 2.146 
1.7079 -0.636425 2.141 
1.80347 -0.634939 2.136 
1.92441 -0.642073 2.16 
2.02322 -0.641478 2.158 
2.1238 -0.641478 2.158 
-0.548842 -0.199895 0.676 
-0.515038 -0.199008 0.673 
-0.497324 -0.204626 0.692 
-0.479855 -0.211131 0.714 
-0.462837 -0.21882 0.74 
-0.44629 -0.227986 0.771 
-0.42153 -0.234196 0.792 
-0.403069 -0.245433 0.83 
-0.391162 -0.263471 0.891 
-0.364151 -0.274412 0.928 
-0.334037 -0.285648 0.966 
-0.298884 -0.295407 0.999 
-0.264697 -0.309896 1.048 
-0.219058 -0.329412 1.114 
-0.177036 -0.348929 1.18 
-0.128034 -0.366079 1.238 
-0.0756709 -0.393875 1.332 
-0.014147 -0.410139 1.387 
0.053742 -0.436457 1.476 
0.132833 -0.473124 1.6 
0.215058 -0.49057 1.659 
0.324637 -0.544684 1.842 
0.437904 -0.581055 1.965 
0.545391 -0.598502 2.024 
0.641627 -0.600276 2.03 
0.739873 -0.603233 2.04 
0.841097 -0.607668 2.055 
0.935969 -0.607077 2.053 
1.03819 -0.610921 2.066 
1.15316 -0.620975 2.1 
1.24687 -0.618905 2.093 
1.35149 -0.622158 2.104 
1.46196 -0.62748 2.122 
1.57632 -0.63369 2.143 
1.67307 -0.632507 2.139 
1.78023 -0.635169 2.148 
1.91186 -0.645814 2.184 
2.01182 -0.645222 2.182 
2.08253 -0.63576 2.15 
-0.556643 -0.198256 0.674 
-0.521331 -0.196785 0.669 
-0.502604 -0.201786 0.686 
-0.482979 -0.207081 0.704 
-0.468709 -0.215611 0.733 
-0.449364 -0.222965 0.758 
-0.429327 -0.231201 0.786 
-0.40768 -0.240025 0.816 
-0.396329 -0.260027 0.884 
-0.368383 -0.269734 0.917 
-0.339136 -0.280912 0.955 
-0.308197 -0.293855 0.999 
-0.271847 -0.305326 1.038 
-0.228413 -0.326211 1.109 
-0.186602 -0.344448 1.171 
-0.137433 -0.358567 1.219 
-0.0857733 -0.381511 1.297 
-0.026901 -0.405337 1.378 
0.0392242 -0.425927 1.448 
0.115633 -0.461519 1.569 
0.196344 -0.480051 1.632 
0.29912 -0.527114 1.792 
0.415315 -0.572119 1.945 
0.524182 -0.592709 2.015 
0.624544 -0.598887 2.036 
0.724743 -0.603299 2.051 
0.81874 -0.602122 2.047 
0.919064 -0.605358 2.058 
1.01893 -0.607711 2.066 
1.13196 -0.61683 2.097 
1.22971 -0.61683 2.097 
1.33504 -0.620359 2.109 
1.44422 -0.625066 2.125 
1.55489 -0.629772 2.141 
1.65468 -0.629772 2.141 
1.7684 -0.634773 2.158 
1.9019 -0.64595 2.196 
1.99969 -0.64448 2.191 
2.05865 -0.631243 2.146 
-0.556877 -0.195453 0.668 
-0.526528 -0.195746 0.669 
-0.504972 -0.19955 0.682 
-0.48706 -0.205402 0.702 
-0.472461 -0.213594 0.73 
-0.45285 -0.220617 0.754 
-0.432663 -0.228517 0.781 
-0.40996 -0.236417 0.808 
-0.398102 -0.252802 0.864 
-0.370018 -0.267432 0.914 
-0.341387 -0.278843 0.953 
-0.310678 -0.291717 0.997 
-0.274278 -0.302836 1.035 
-0.234881 -0.323903 1.107 
-0.192555 -0.340288 1.163 
-0.142867 -0.351407 1.201 
-0.0927486 -0.375107 1.282 
-0.0353104 -0.40144 1.372 
0.0299748 -0.420166 1.436 
0.10487 -0.454693 1.554 
0.185518 -0.475759 1.626 
0.28509 -0.519063 1.774 
0.401155 -0.566171 1.935 
0.512167 -0.590164 2.017 
0.613994 -0.597772 2.043 
0.713385 -0.601283 2.055 
0.803263 -0.596894 2.04 
0.907155 -0.602746 2.06 
1.00755 -0.605379 2.069 
1.12053 -0.61445 2.1 
1.21841 -0.61445 2.1 
1.32319 -0.617668 2.111 
1.42765 -0.620301 2.12 
1.54302 -0.627031 2.143 
1.64291 -0.627031 2.143 
1.75824 -0.63259 2.162 
1.88653 -0.641953 2.194 
1.97973 -0.639027 2.184 
2.04531 -0.627909 2.146 
-0.560575 -0.193542 0.665 
-0.533561 -0.194998 0.67 
-0.507581 -0.197035 0.677 
-0.490791 -0.203147 0.698 
-0.473357 -0.209841 0.721 
-0.456219 -0.217699 0.748 
-0.438254 -0.22643 0.778 
-0.413875 -0.233124 0.801 
-0.398165 -0.246512 0.847 
-0.376467 -0.264557 0.909 
-0.348065 -0.275616 0.947 
-0.316442 -0.286967 0.986 
-0.282554 -0.299773 1.03 
-0.249575 -0.318981 1.096 
-0.204104 -0.328004 1.127 
-0.158837 -0.34372 1.181 
-0.110645 -0.366421 1.259 
-0.0558014 -0.393488 1.352 
0.00755195 -0.411823 1.415 
0.0787522 -0.441219 1.516 
0.159368 -0.470614 1.617 
0.24185 -0.484875 1.666 
0.361118 -0.548031 1.883 
0.48083 -0.58703 2.017 
0.582253 -0.594597 2.043 
0.678804 -0.595762 2.047 
0.772702 -0.594597 2.043 
0.879822 -0.602747 2.071 
0.975409 -0.602164 2.069 
1.08065 -0.607112 2.086 
1.18692 -0.611769 2.102 
1.28184 -0.610314 2.097 
1.39339 -0.616425 2.118 
1.50479 -0.621664 2.136 
1.61862 -0.627194 2.155 
1.71907 -0.627194 2.155 
1.82543 -0.629231 2.162 
1.94402 -0.635052 2.182 
2.02697 -0.629231 2.162 
2.1425 -0.633597 2.177 
-0.541655 -0.194246 0.671 
-0.51114 -0.194536 0.672 
-0.494098 -0.200325 0.692 
-0.477194 -0.206984 0.715 
-0.459388 -0.214221 0.74 
-0.443844 -0.223774 0.773 
-0.418366 -0.229564 0.793 
-0.396314 -0.238538 0.824 
-0.384897 -0.260249 0.899 
-0.355966 -0.270092 0.933 
-0.32028 -0.283408 0.979 
-0.28615 -0.295277 1.02 
-0.251006 -0.31062 1.073 
-0.20886 -0.322779 1.115 
-0.166317 -0.342174 1.182 
-0.117717 -0.362149 1.251 
-0.0638238 -0.389071 1.344 
-0.00123133 -0.406151 1.403 
0.0683246 -0.432494 1.494 
0.147841 -0.46347 1.601 
0.230801 -0.480839 1.661 
0.344406 -0.537289 1.856 
0.461794 -0.575791 1.989 
0.569556 -0.591423 2.043 
0.666733 -0.59316 2.049 
0.763726 -0.594318 2.053 
0.870719 -0.602134 2.08 
0.962551 -0.59895 2.069 
1.06667 -0.603292 2.084 
1.17497 -0.609082 2.104 
1.27304 -0.609082 2.104 
1.38609 -0.61574 2.127 
1.49501 -0.619793 2.141 
1.60523 -0.623846 2.155 
1.70568 -0.623846 2.155 
1.81031 -0.625293 2.16 
1.93488 -0.633109 2.187 
2.02098 -0.628188 2.17 
2.13386 -0.631662 2.182 
-0.546868 -0.193204 0.671 
-0.514055 -0.192628 0.669 
-0.497309 -0.198386 0.689 
-0.480048 -0.204721 0.711 
-0.462622 -0.211919 0.736 
-0.445194 -0.220269 0.765 
-0.42185 -0.226892 0.788 
-0.400272 -0.235818 0.819 
-0.390836 -0.254534 0.884 
-0.362684 -0.264035 0.917 
-0.330007 -0.27728 0.963 
-0.296076 -0.287934 1 
-0.260941 -0.301179 1.046 
-0.223953 -0.317879 1.104 
-0.183276 -0.337747 1.173 
-0.134303 -0.352719 1.225 
-0.0811758 -0.370859 1.288 
-0.0225206 -0.395045 1.372 
0.0433915 -0.413761 1.437 
0.119434 -0.447737 1.555 
0.202526 -0.4725 1.641 
0.311419 -0.5226 1.815 
0.425254 -0.561183 1.949 
0.538076 -0.585082 2.032 
0.636836 -0.588825 2.045 
0.738957 -0.594296 2.064 
0.837183 -0.595735 2.069 
0.93362 -0.595735 2.069 
1.03205 -0.596887 2.073 
1.14936 -0.607828 2.111 
1.25071 -0.609268 2.116 
1.36209 -0.615027 2.136 
1.4637 -0.615891 2.139 
1.5751 -0.620498 2.155 
1.67943 -0.621937 2.16 
1.78835 -0.624817 2.17 
1.91213 -0.632303 2.196 
2.00623 -0.629712 2.187 
2.07058 -0.618482 2.148 
-0.552934 -0.191016 0.667 
-0.521063 -0.190729 0.666 
-0.502529 -0.195598 0.683 
-0.485166 -0.201612 0.704 
-0.469059 -0.209058 0.73 
-0.44874 -0.215644 0.753 
-0.428474 -0.223377 0.78 
-0.407702 -0.232254 0.811 
-0.391338 -0.245714 0.858 
-0.371412 -0.259747 0.907 
-0.339954 -0.271775 0.949 
-0.308808 -0.283803 0.991 
-0.272688 -0.294685 1.029 
-0.239358 -0.313873 1.096 
-0.196003 -0.32676 1.141 
-0.148078 -0.338788 1.183 
-0.0992231 -0.361698 1.263 
-0.0429104 -0.384609 1.343 
0.0208453 -0.407233 1.422 
0.0938648 -0.438735 1.532 
0.175844 -0.4668 1.63 
0.265414 -0.492001 1.718 
0.384705 -0.547845 1.913 
0.506073 -0.585075 2.043 
0.604241 -0.587939 2.053 
0.703 -0.590516 2.062 
0.79756 -0.589371 2.058 
0.903036 -0.595671 2.08 
0.998543 -0.594812 2.077 
1.11328 -0.604549 2.111 
1.21283 -0.605122 2.113 
1.31876 -0.608558 2.125 
1.42248 -0.610563 2.132 
1.54041 -0.618009 2.158 
1.63871 -0.61715 2.155 
1.75853 -0.624023 2.179 
1.87716 -0.62975 2.199 
1.97516 -0.628318 2.194 
2.0547 -0.621445 2.17 
2.15783 -0.622018 2.172 
-0.529815 -0.189125 0.664 
-0.50713 -0.192258 0.675 
-0.490466 -0.198239 0.696 
-0.472503 -0.204506 0.718 
-0.45439 -0.212196 0.745 
-0.436001 -0.220456 0.774 
-0.411809 -0.227007 0.797 
-0.392994 -0.238115 0.836 
-0.381977 -0.256914 0.902 
-0.350618 -0.268307 0.942 
-0.318107 -0.278276 0.977 
-0.284007 -0.289953 1.018 
-0.249339 -0.305619 1.073 
-0.206942 -0.317297 1.114 
-0.163924 -0.335526 1.178 
-0.115218 -0.354609 1.245 
-0.0609088 -0.37768 1.326 
0.000947801 -0.399327 1.402 
0.0703621 -0.423822 1.488 
0.14939 -0.453159 1.591 
0.236533 -0.469109 1.647 
0.356324 -0.529208 1.858 
0.482975 -0.577059 2.026 
0.585673 -0.585319 2.055 
0.683778 -0.587312 2.062 
0.781401 -0.588452 2.066 
0.890018 -0.596712 2.095 
0.979181 -0.591585 2.077 
1.08998 -0.599275 2.104 
1.19087 -0.600699 2.109 
1.29712 -0.604402 2.122 
1.40852 -0.609814 2.141 
1.52029 -0.614656 2.158 
1.62088 -0.614656 2.158 
1.73104 -0.618074 2.17 
1.83978 -0.620637 2.179 
1.95916 -0.626334 2.199 
2.05041 -0.622916 2.187 
2.15923 -0.62491 2.194 
-0.533137 -0.18781 0.663 
-0.508295 -0.190076 0.671 
-0.491948 -0.196025 0.692 
-0.474973 -0.20254 0.715 
-0.457089 -0.209622 0.74 
-0.439729 -0.21812 0.77 
-0.414853 -0.224069 0.791 
-0.393754 -0.233417 0.824 
-0.38424 -0.252396 0.891 
-0.357711 -0.263444 0.93 
-0.325518 -0.272792 0.963 
-0.292581 -0.284406 1.004 
-0.25729 -0.29772 1.051 
-0.218807 -0.312733 1.104 
-0.175536 -0.331429 1.17 
-0.127207 -0.348426 1.23 
-0.0730008 -0.364006 1.285 
-0.0140552 -0.39035 1.378 
