# .PCD v.7 - Point Cloud Data file format
VERSION .7
FIELDS x y z
SIZE 4 4 4
TYPE F F F
COUNT 1 1 1
WIDTH 1855
HEIGHT 1
VIEWPOINT 0 0 0 1 0 0 0
POINTS 1855
DATA ascii
1.03188 -0.081025 2.335 
1.22668 -0.082413 2.375 
1.36384 -0.0840439 2.422 
1.34504 -0.0765487 2.206 
1.59947 -0.0845644 2.437 
3.00408 -0.131444 3.788 
4.20592 -0.17128 4.936 
4.3587 -0.168296 4.85 
4.20947 -0.15452 4.453 
-0.393106 -0.018993 0.573 
-0.369596 -0.0191587 0.578 
-0.292751 -0.0198548 0.599 
-0.207275 -0.016971 0.512 
-0.202833 -0.0205509 0.62 
-0.364228 -0.0618846 1.867 
-0.267061 -0.0650667 1.963 
-0.183257 -0.0679173 2.049 
-0.0871099 -0.0674201 2.034 
0.0933494 -0.0595643 1.797 
0.137381 -0.0253902 0.766 
0.850312 -0.0742151 2.239 
1.17692 -0.0783584 2.364 
1.31052 -0.0797837 2.407 
1.4038 -0.078723 2.375 
1.54064 -0.080082 2.416 
1.70184 -0.0824354 2.487 
3.06293 -0.125559 3.788 
4.23803 -0.162783 4.911 
4.46693 -0.162783 4.911 
4.32675 -0.149988 4.525 
-0.378817 -0.0182291 0.577 
-0.295542 -0.0189241 0.599 
-0.207275 -0.0161755 0.512 
-0.204429 -0.019556 0.619 
-0.374328 -0.059205 1.874 
-0.29035 -0.0599001 1.896 
-0.216666 -0.0652077 2.064 
-0.120579 -0.0652708 2.066 
0.0498696 -0.0617009 1.953 
0.123725 -0.0255586 0.809 
0.839264 -0.0734218 2.324 
1.11598 -0.0740537 2.344 
1.25085 -0.0756017 2.393 
1.39996 -0.0776868 2.459 
1.35259 -0.0693779 2.196 
1.62438 -0.0772761 2.446 
2.99273 -0.119927 3.796 
4.18039 -0.155563 4.924 
4.34363 -0.153225 4.85 
4.16643 -0.139704 4.422 
-0.381507 -0.0173326 0.577 
-0.296968 -0.0180235 0.6 
-0.271692 -0.0182037 0.606 
-0.208276 -0.0185943 0.619 
-0.427876 -0.0572246 1.905 
-0.33677 -0.0568341 1.892 
-0.236681 -0.0613701 2.043 
-0.143533 -0.0622712 2.073 
-0.0262947 -0.0593574 1.976 
0.121809 -0.0542207 1.805 
0.139214 -0.0229199 0.763 
1.02243 -0.0707423 2.355 
1.1765 -0.0714332 2.378 
1.31441 -0.0729351 2.428 
1.41347 -0.0722142 2.404 
1.51283 -0.0716134 2.384 
1.70024 -0.0749778 2.496 
3.01669 -0.112286 3.738 
4.24194 -0.146081 4.863 
4.41347 -0.144278 4.803 
-0.391798 -0.0163792 0.575 
-0.305358 -0.0170913 0.6 
-0.275458 -0.0172622 0.606 
-0.213355 -0.0175756 0.617 
-0.153236 -0.0180598 0.634 
-0.354574 -0.05304 1.862 
-0.277838 -0.0556322 1.953 
-0.188606 -0.0580535 2.038 
-0.0941193 -0.0583668 2.049 
0.0411632 -0.0561734 1.972 
0.120844 -0.0232157 0.815 
0.840082 -0.0674252 2.367 
1.05591 -0.0662003 2.324 
1.23111 -0.0683082 2.398 
1.39614 -0.0700459 2.459 
1.35135 -0.0624972 2.194 
1.66706 -0.0708435 2.487 
2.99833 -0.107276 3.766 
4.24769 -0.139209 4.887 
4.45349 -0.138525 4.863 
2.41498 -0.0697895 2.45 
-0.289959 -0.0161322 0.599 
-0.219708 -0.01659 0.616 
-0.158616 -0.0169132 0.628 
-0.347195 -0.0503356 1.869 
-0.270662 -0.0529749 1.967 
-0.185257 -0.0548332 2.036 
-0.0910246 -0.0552372 2.051 
0.0411632 -0.0531096 1.972 
0.120018 -0.0220302 0.818 
0.255761 -0.0334763 1.243 
1.05952 -0.0625896 2.324 
1.24601 -0.0645825 2.398 
1.40424 -0.0646633 2.401 
1.6632 -0.0669795 2.487 
2.98663 -0.101425 3.766 
4.25051 -0.131939 4.899 
4.46788 -0.131616 4.887 
2.46427 -0.0673296 2.5 
-0.286714 -0.0152269 0.6 
-0.213966 -0.0156329 0.616 
-0.153735 -0.016039 0.632 
-0.284224 -0.0471019 1.856 
-0.217849 -0.0518983 2.045 
-0.124089 -0.0525582 2.071 
-0.00490883 -0.0512385 2.019 
0.0928819 -0.0453761 1.788 
0.139848 -0.0192874 0.76 
1.03838 -0.0598417 2.358 
1.24539 -0.0610091 2.404 
1.38342 -0.0621765 2.45 
1.37588 -0.0559842 2.206 
2.97538 -0.0957772 3.774 
4.12244 -0.121891 4.803 
4.45581 -0.124962 4.924 
4.53688 -0.121003 4.768 
-0.286714 -0.0142947 0.6 
-0.211438 -0.0146997 0.617 
-0.145356 -0.0151047 0.634 
-0.283458 -0.0440991 1.851 
-0.197911 -0.0485066 2.036 
-0.104226 -0.0490784 2.06 
-0.0017781 -0.0482684 2.026 
0.0956064 -0.0425743 1.787 
0.136305 -0.0181066 0.76 
1.10932 -0.055511 2.33 
1.32253 -0.0582032 2.443 
1.35291 -0.0521994 2.191 
2.97538 -0.0899136 3.774 
2.99515 -0.0854584 3.587 
4.41692 -0.117907 4.949 
4.36023 -0.110617 4.643 
-0.292794 -0.0133848 0.601 
-0.216485 -0.0136965 0.615 
-0.149061 -0.0140974 0.633 
-0.12069 -0.014231 0.639 
-0.235059 -0.0440071 1.976 
-0.142495 -0.0458333 2.058 
-0.0465028 -0.0457665 2.055 
0.072275 -0.0442075 1.985 
0.126373 -0.0182175 0.818 
0.902112 -0.0540067 2.425 
1.30188 -0.0484167 2.174 
1.70417 -0.0561001 2.519 
2.99926 -0.0821347 3.688 
4.21927 -0.108303 4.863 
4.43405 -0.108013 4.85 
2.53884 -0.0577259 2.592 
-0.266103 -0.0125131 0.604 
-0.155937 -0.0130311 0.629 
-0.128431 -0.0132175 0.638 
-0.0983146 -0.0133004 0.642 
-0.166604 -0.0422629 2.04 
-0.0722907 -0.0427187 2.062 
0.0413719 -0.0410613 1.982 
0.118338 -0.0170709 0.824 
0.906123 -0.0506741 2.446 
1.33705 -0.0503012 2.428 
1.39491 -0.0457641 2.209 
2.99416 -0.0754103 3.64 
4.34284 -0.102778 4.961 
4.37492 -0.0983028 4.745 
2.58773 -0.0542167 2.617 
-0.221857 -0.0117664 0.614 
-0.152511 -0.0120921 0.631 
-0.119697 -0.0122454 0.639 
-0.0900535 -0.0122646 0.64 
-0.142287 -0.0393809 2.055 
-0.017586 -0.0389785 2.034 
0.0901039 -0.0342642 1.788 
0.137124 -0.0145259 0.758 
1.07576 -0.0456857 2.384 
1.28937 -0.0415847 2.17 
2.99929 -0.0705407 3.681 
4.14426 -0.0913713 4.768 
4.42053 -0.092502 4.827 
2.60978 -0.0508981 2.656 
-0.217441 -0.01083 0.615 
-0.155937 -0.0110765 0.629 
-0.128229 -0.0112174 0.637 
-0.0930365 -0.0112703 0.64 
-0.129705 -0.0362409 2.058 
-0.0207462 -0.0358183 2.034 
0.0761184 -0.0353076 2.005 
0.145772 -0.0132778 0.754 
0.341156 -0.0144048 0.818 
1.29816 -0.0429678 2.44 
1.28759 -0.0381604 2.167 
2.99339 -0.0651914 3.702 
3.29679 -0.0678857 3.855 
4.44079 -0.0862703 4.899 
4.77684 -0.0882602 5.012 
-0.212052 -0.00989056 0.616 
-0.157891 -0.0100993 0.629 
-0.130004 -0.0102117 0.636 
-0.0950252 -0.0102759 0.64 
-0.094303 -0.0329632 2.053 
0.0013737 -0.032626 2.032 
0.118913 -0.0132944 0.828 
0.325647 -0.0138243 0.861 
0.345387 -0.0130536 0.813 
1.30035 -0.0391287 2.437 
1.28304 -0.0347614 2.165 
3.00501 -0.0591025 3.681 
3.5442 -0.0659424 4.107 
4.44176 -0.0782735 4.875 
4.83755 -0.0810993 5.051 
-0.209181 -0.00893349 0.616 
-0.1618 -0.00912202 0.629 
-0.133957 -0.00922354 0.636 
-0.100309 -0.00931055 0.642 
-0.0567153 -0.00970212 0.669 
-0.0400391 -0.0297445 2.051 
0.0602408 -0.0289323 1.995 
0.321784 -0.0125446 0.865 
0.341171 -0.0118195 0.815 
1.2587 -0.0353424 2.437 
1.33569 -0.0343997 2.372 
2.98189 -0.053688 3.702 
3.13655 -0.0533834 3.681 
4.48158 -0.0719465 4.961 
4.76126 -0.0726861 5.012 
-0.218995 -0.00795053 0.614 
-0.174496 -0.00805412 0.622 
-0.147843 -0.00818361 0.632 
-0.115907 -0.0082872 0.64 
-0.0864795 -0.00832604 0.643 
-0.0419114 -0.00861091 0.665 
0.00137776 -0.0263895 2.038 
0.129204 -0.0107216 0.828 
0.333614 -0.0110582 0.854 
1.07675 -0.0314396 2.428 
1.17963 -0.0311676 2.407 
1.30309 -0.0314396 2.428 
1.26914 -0.0280988 2.17 
1.49963 -0.0306756 2.369 
3.02809 -0.0471334 3.64 
4.41863 -0.0648991 5.012 
4.50187 -0.0628014 4.85 
4.76745 -0.0631251 4.875 
-0.213619 -0.00700797 0.615 
-0.183863 -0.00707634 0.621 
-0.15496 -0.0071675 0.629 
-0.12684 -0.00723587 0.635 
-0.0980083 -0.00729284 0.64 
-0.0555926 -0.0076119 0.668 
-0.0239299 -0.0232004 2.036 
0.122366 -0.00950349 0.834 
0.324472 -0.00985673 0.865 
0.342854 -0.00923 0.81 
1.14081 -0.0273937 2.404 
1.27162 -0.027804 2.44 
1.33085 -0.02671 2.344 
1.36146 -0.0252515 2.216 
1.88799 -0.0284079 2.493 
3.06178 -0.0413983 3.633 
4.52742 -0.0577046 5.064 
4.65528 -0.0563942 4.949 
-0.432412 -0.00562927 0.572 
-0.216734 -0.00603277 0.613 
-0.19031 -0.00610166 0.62 
-0.162778 -0.00619023 0.629 
-0.134733 -0.00624928 0.635 
-0.105632 -0.00627881 0.638 
-0.063234 -0.00661341 0.672 
-0.031532 -0.00653468 0.664 
0.12595 -0.00818804 0.832 
0.325816 -0.0085128 0.865 
0.34243 -0.00796168 0.809 
1.13708 -0.0236587 2.404 
1.26627 -0.0239835 2.437 
1.32381 -0.0230092 2.338 
1.35189 -0.0217101 2.206 
1.62903 -0.0241409 2.453 
2.97625 -0.0363639 3.695 
4.52742 -0.0498368 5.064 
4.69102 -0.049079 4.987 
-0.434189 -0.00474057 0.572 
-0.219591 -0.00508037 0.613 
-0.1932 -0.00513838 0.62 
-0.165709 -0.00521297 0.629 
-0.137476 -0.00525441 0.634 
-0.108606 -0.00528756 0.638 
-0.0653222 -0.00556934 0.672 
-0.0335953 -0.00550304 0.664 
0.133239 -0.00626551 0.756 
0.334622 -0.00712743 0.86 
0.349871 -0.00665503 0.803 
1.17133 -0.0199983 2.413 
1.29816 -0.020222 2.44 
1.3031 -0.0185148 2.234 
1.48016 -0.0194264 2.344 
1.80275 -0.0205287 2.477 
1.93292 -0.0206861 2.496 
4.52831 -0.0413308 4.987 
4.80944 -0.0417535 5.038 
-1.08766 -0.0128957 1.915 
-0.208841 -0.00414143 0.615 
-0.180677 -0.0041751 0.62 
-0.153737 -0.00422898 0.628 
-0.125854 -0.00427611 0.635 
-0.0968623 -0.00430305 0.639 
-0.0521648 -0.0044714 0.664 
-0.0213114 -0.0044916 0.667 
0.146544 -0.00502359 0.746 
0.338586 -0.00565659 0.84 
1.10589 -0.0163906 2.434 
1.2028 -0.0161684 2.401 
1.2961 -0.0159395 2.367 
1.31345 -0.0146937 2.182 
1.55524 -0.0161482 2.398 
1.83265 -0.0167071 2.481 
4.3554 -0.0333267 4.949 
4.62129 -0.0335826 4.987 
4.74473 -0.0328284 4.875 
-0.216734 -0.00317556 0.613 
-0.190003 -0.00320664 0.619 
-0.163755 -0.00325845 0.629 
-0.135506 -0.00328435 0.634 
-0.102176 -0.00328953 0.635 
-0.0586183 -0.0034553 0.667 
-0.0274054 -0.00343976 0.664 
0.0214945 -0.0035071 0.677 
0.14519 -0.00385937 0.745 
0.333879 -0.00448101 0.865 
0.346944 -0.00415465 0.802 
1.16672 -0.0125313 2.419 
1.29217 -0.0126556 2.443 
1.31705 -0.0117594 2.27 
1.48697 -0.0121687 2.349 
1.67708 -0.012754 2.462 
1.91436 -0.0128836 2.487 
4.54381 -0.0258345 4.987 
4.7638 -0.0257671 4.974 
-59.0114 -0.237675 65.535 
-0.214829 -0.00222316 0.613 
-0.18808 -0.00224492 0.619 
-0.161543 -0.00227756 0.628 
-0.127625 -0.00229932 0.634 
-0.0986932 -0.00231382 0.638 
-0.0574093 -0.00241174 0.665 
-0.0263738 -0.00240812 0.664 
0.00458234 -0.00241174 0.665 
0.0363807 -0.00246614 0.68 
0.291867 -0.00330028 0.91 
0.324996 -0.00315521 0.87 
0.339487 -0.00291948 0.805 
1.14275 -0.00876207 2.416 
1.28995 -0.00887087 2.446 
1.32697 -0.00827247 2.281 
1.46408 -0.00845017 2.33 
1.68455 -0.00903044 2.49 
1.90277 -0.00901956 2.487 
4.57073 -0.0183184 5.051 
4.74526 -0.0180863 4.987 
-59.5205 -0.135855 65.535 
-0.242104 -0.00125417 0.605 
-0.202481 -0.00127697 0.616 
-0.17518 -0.00128734 0.621 
-0.147883 -0.00130185 0.628 
-0.11374 -0.00132465 0.639 
-0.0836123 -0.00133502 0.644 
-0.0376082 -0.00137233 0.662 
-0.006793 -0.00138062 0.666 
0.0278466 -0.0014055 0.678 
0.136535 -0.00153817 0.742 
0.312761 -0.00187607 0.905 
0.337686 -0.00178486 0.861 
1.10174 -0.00507887 2.45 
1.1931 -0.00498351 2.404 
1.33551 -0.0047845 2.308 
1.56328 -0.00502082 2.422 
1.81979 -0.00512862 2.474 
4.28565 -0.0101308 4.887 
4.5707 -0.0102593 4.949 
4.65973 -0.00995665 4.803 
-0.255686 -0.000314714 0.606 
-0.218638 -0.00031835 0.613 
-0.191617 -0.000320946 0.618 
-0.165446 -0.00032614 0.628 
-0.137042 -0.000328217 0.632 
-0.100518 -0.000330813 0.637 
-0.0550933 -0.000343797 0.662 
-0.0243471 -0.000345355 0.665 
0.00663874 -0.000344835 0.664 
0.0383805 -0.000352106 0.678 
0.119331 -0.000436238 0.84 
0.295343 -0.000473629 0.912 
0.323404 -0.000453375 0.873 
0.338643 -0.000417022 0.803 
1.17048 -0.00125626 2.419 
1.34523 -0.00119134 2.294 
1.60326 -0.00126561 2.437 
4.27216 -0.0025255 4.863 
4.57839 -0.00257017 4.949 
4.62152 -0.00246994 4.756 
-0.253803 0.000626814 0.606 
-0.217686 0.000634054 0.613 
-0.190656 0.000639226 0.618 
-0.164208 0.000648535 0.627 
-0.128982 0.000652672 0.631 
-0.0996845 0.000659913 0.638 
-0.056037 0.000683703 0.661 
-0.0253421 0.000686806 0.664 
0.00559865 0.000685771 0.663 
0.037272 0.000700252 0.677 
0.0691565 0.000693012 0.67 
0.276315 0.000941255 0.91 
0.315228 0.000930912 0.9 
0.339318 0.000884366 0.855 
1.11172 0.00250519 2.422 
1.30525 0.00250829 2.425 
1.55021 0.0025145 2.431 
1.79785 0.00254966 2.465 
4.56288 0.00514484 4.974 
4.59614 0.00493176 4.768 
-58.9096 0.169606 65.535 
-0.215781 0.00158646 0.613 
-0.183935 0.0015994 0.618 
-0.157389 0.00162269 0.627 
-0.123087 0.00164598 0.636 
-0.0927458 0.00165116 0.638 
-0.0452826 0.00169257 0.654 
-0.015071 0.00172362 0.666 
0.0160194 0.0017288 0.668 
0.0495256 0.00173915 0.672 
0.119331 0.00217394 0.84 
0.276315 0.0023551 0.91 
0.314878 0.00232663 0.899 
0.339053 0.00220241 0.851 
1.14229 0.00629148 2.431 
1.36597 0.00612585 2.367 
1.62572 0.00641053 2.477 
4.53115 0.0131394 5.077 
4.69454 0.0129375 4.999 
4.67718 0.0122802 4.745 
-0.248028 0.00251815 0.608 
-0.189389 0.00255543 0.617 
-0.163234 0.00259685 0.627 
-0.129551 0.00260513 0.629 
-0.0986932 0.0026424 0.638 
-0.0452133 0.00270453 0.653 
-0.012982 0.00275423 0.665 
0.0181493 0.00277494 0.67 
0.0516138 0.00278322 0.672 
0.120492 0.00347489 0.839 
0.283384 0.00376895 0.91 
0.315775 0.00365298 0.882 
0.3349 0.00332578 0.803 
1.16672 0.0100188 2.419 
1.3772 0.00965016 2.33 
1.68449 0.0104081 2.513 
4.83437 0.0222409 5.37 
4.6974 0.020547 4.961 
4.74782 0.0197932 4.779 
-0.237637 0.00346279 0.608 
-0.159338 0.003571 0.627 
-0.130528 0.00358239 0.629 
-0.093737 0.00363365 0.638 
-0.0372674 0.00373617 0.656 
-0.0067624 0.00377603 0.663 
0.0245407 0.00383868 0.674 
0.0578782 0.00382729 0.672 
0.121796 0.00477842 0.839 
0.284798 0.00518279 0.91 
0.317794 0.00501193 0.88 
0.339014 0.00454491 0.798 
1.17736 0.0137259 2.41 
1.5689 0.0142555 2.503 
1.6923 0.0143125 2.513 
4.61949 0.0295305 5.185 
4.66334 0.0283288 4.974 
4.68063 0.0270872 4.756 
-0.23992 0.00441467 0.609 
-0.212577 0.00443642 0.612 
-0.185555 0.00447267 0.617 
-0.159338 0.00454516 0.627 
-0.130528 0.00455965 0.629 
-0.0917545 0.0046249 0.638 
-0.0342619 0.00476263 0.657 
-0.0036666 0.00479887 0.662 
0.0277233 0.00489311 0.675 
0.0611012 0.00487861 0.673 
0.135799 0.0053498 0.738 
0.294248 0.00661839 0.913 
0.324886 0.00635742 0.877 
0.350788 0.005734 0.791 
1.26946 0.0181444 2.503 
1.60193 0.0181661 2.506 
1.79539 0.0177312 2.446 
5.08324 0.0410731 5.666 
4.6974 0.0359626 4.961 
4.80643 0.0350709 4.838 
-0.232545 0.00538727 0.612 
-0.205019 0.00541368 0.615 
-0.168968 0.0054841 0.623 
-0.141502 0.00554572 0.63 
-0.101667 0.00561614 0.638 
-0.0431842 0.00574818 0.653 
-0.0129234 0.00582741 0.662 
0.0180681 0.00587142 0.667 
0.0505697 0.00591543 0.672 
0.0833542 0.00602107 0.684 
0.166701 0.00632036 0.718 
0.305333 0.00799288 0.908 
0.334638 0.00769359 0.874 
1.14652 0.0214787 2.44 
1.35184 0.0219188 2.49 
1.63757 0.0233448 2.652 
1.68542 0.0222885 2.532 
4.19837 0.0420682 4.779 
4.61261 0.0436703 4.961 
4.58803 0.041364 4.699 
-0.24221 0.00631741 0.61 
-0.214478 0.00633812 0.612 
-0.187168 0.00637955 0.616 
-0.161286 0.00649347 0.627 
-0.132482 0.00651418 0.629 
-0.0492715 0.00676273 0.653 
-0.0191235 0.0068663 0.663 
0.0117436 0.00684558 0.661 
0.0624238 0.00700093 0.676 
0.13905 0.00763267 0.737 
0.284954 0.0093829 0.906 
0.318155 0.00912399 0.881 
0.343848 0.00820227 0.792 
1.20501 0.0251454 2.428 
1.41335 0.0259221 2.503 
1.61827 0.0272788 2.634 
1.68348 0.0262535 2.535 
1.84709 0.0252075 2.434 
4.99882 0.0580062 5.601 
4.68906 0.0511192 4.936 
-59.1132 0.780527 65.535 
-0.227581 0.00731279 0.614 
-0.199286 0.0073247 0.615 
-0.159083 0.00745571 0.626 
-0.128573 0.00749144 0.629 
-0.0534931 0.0078011 0.655 
-0.0232438 0.00789638 0.663 
0.00762417 0.00786065 0.66 
0.0645244 0.00805122 0.676 
0.153955 0.00858717 0.721 
0.279959 0.0107072 0.899 
0.316133 0.0105166 0.883 
0.340586 0.00944469 0.793 
1.1811 0.0287033 2.41 
1.34871 0.02993 2.513 
1.45068 0.0296204 2.487 
1.61547 0.0303945 2.552 
1.75402 0.0293941 2.468 
1.8729 0.0290963 2.443 
5.50849 0.0716391 6.015 
4.58848 0.0562394 4.722 
-0.240708 0.00822636 0.611 
-0.212577 0.00823982 0.612 
-0.185254 0.00829368 0.616 
-0.13715 0.00845524 0.628 
-0.0916107 0.00857641 0.637 
-0.0331905 0.00883223 0.656 
-0.00263408 0.00889954 0.661 
0.0506449 0.00906111 0.673 
0.164241 0.00965351 0.717 
0.2987 0.0121847 0.905 
0.328271 0.0107172 0.796 
1.15173 0.032892 2.443 
1.30652 0.0339556 2.522 
1.42577 0.033996 2.525 
1.58869 0.0349923 2.599 
1.68742 0.0341306 2.535 
1.84668 0.0336594 2.5 
4.22691 0.0646664 4.803 
4.68048 0.0657974 4.887 
-0.245455 0.00917565 0.611 
-0.210675 0.00919067 0.612 
-0.18334 0.00925074 0.616 
-0.157138 0.00940091 0.626 
-0.093737 0.00958112 0.638 
-0.0331905 0.00985144 0.656 
-0.00263408 0.00992652 0.661 
0.0410505 0.0100617 0.67 
0.0730346 0.0101668 0.677 
0.172187 0.0107074 0.713 
0.303403 0.0134256 0.894 
0.337739 0.0131403 0.875 
0.355902 0.0116836 0.778 
1.31044 0.037874 2.522 
1.43535 0.0380692 2.535 
1.59518 0.0390904 2.603 
1.70116 0.0380241 2.532 
1.83286 0.0377388 2.513 
1.901 0.0362821 2.416 
4.66914 0.0735704 4.899 
-0.245455 0.0101249 0.611 
-0.206594 0.0101747 0.614 
-0.178845 0.0102244 0.617 
-0.152518 0.0103901 0.627 
-0.0271991 0.0109204 0.659 
0.0035278 0.0109535 0.661 
0.049673 0.0111689 0.674 
0.123363 0.0104895 0.633 
0.272055 0.0145494 0.878 
0.317145 0.0146157 0.882 
0.341752 0.0130912 0.79 
1.19679 0.0400855 2.419 
1.36043 0.0416432 2.513 
1.49285 0.0420741 2.539 
1.63035 0.0419581 2.532 
1.74837 0.0419581 2.532 
1.87943 0.0420741 2.539 
7.25219 0.131674 7.946 
4.64059 0.0790111 4.768 
-0.19642 0.0111467 0.615 
-0.169936 0.0112917 0.623 
-0.0412812 0.0118717 0.655 
-0.0108335 0.0119624 0.66 
0.0200501 0.0120349 0.664 
0.0741958 0.0122886 0.678 
0.166881 0.0129411 0.714 
0.299617 0.0161492 0.891 
0.336935 0.0159498 0.88 
0.353181 0.0141373 0.78 
1.28655 0.0454207 2.506 
1.42184 0.0460188 2.539 
1.5602 0.046617 2.572 
1.63893 0.0454751 2.509 
1.79297 0.0464357 2.562 
1.85237 0.0440614 2.431 
6.91386 0.135229 7.461 
4.79349 0.0881408 4.863 
-0.185254 0.0121219 0.616 
-0.159083 0.0123187 0.626 
-0.0342619 0.0129288 0.657 
-0.0036666 0.0130271 0.662 
0.0507954 0.013283 0.675 
0.0831104 0.0134207 0.682 
0.266131 0.0171596 0.872 
0.316786 0.0173367 0.881 
0.337269 0.0155657 0.791 
1.18029 0.0475432 2.416 
1.36367 0.0495701 2.519 
1.49872 0.0501604 2.549 
1.65815 0.0514198 2.613 
1.72476 0.0498259 2.532 
1.8668 0.0504753 2.565 
1.87546 0.0470906 2.393 
4.6561 0.0952044 4.838 
-0.196739 0.013079 0.616 
-0.169936 0.0132276 0.623 
-0.137042 0.0134187 0.632 
-0.0271991 0.013992 0.659 
0.00353314 0.0140557 0.662 
0.0593607 0.0143742 0.677 
0.124346 0.0134399 0.633 
0.280878 0.0186843 0.88 
0.321895 0.0186843 0.88 
0.343336 0.0167309 0.788 
1.30602 0.0532077 2.506 
1.45292 0.054333 2.559 
1.58878 0.0549063 2.586 
1.66701 0.0535475 2.522 
1.83693 0.0551186 2.596 
1.92248 0.0541207 2.549 
4.70346 0.104271 4.911 
-0.198331 0.0140133 0.615 
-0.166598 0.0142411 0.625 
-0.138786 0.0143779 0.631 
-0.0302707 0.0150159 0.659 
0.000447535 0.0150842 0.662 
0.0582227 0.0154032 0.676 
0.123557 0.0144462 0.634 
0.301383 0.0201427 0.884 
0.328667 0.0180236 0.791 
0.351672 0.01734 0.761 
1.5221 0.0582178 2.555 
1.63373 0.0572608 2.513 
1.84188 0.0593115 2.603 
1.93228 0.0583773 2.562 
4.66362 0.110238 4.838 
-0.174334 0.0150418 0.618 
-0.146164 0.0153095 0.629 
-0.0383449 0.015991 0.657 
-0.00776898 0.0160884 0.661 
0.0518442 0.0164292 0.675 
0.0842935 0.0166239 0.683 
0.340224 0.0215405 0.885 
1.51653 0.0622848 2.559 
1.66696 0.0612382 2.516 
1.85585 0.0636965 2.617 
1.9304 0.0620414 2.549 
4.65973 0.116903 4.803 
-0.158363 0.016235 0.627 
-0.13058 0.0164163 0.634 
-0.0240908 0.0170377 0.658 
0.0128093 0.0171672 0.663 
0.0764152 0.0175815 0.679 
0.343814 0.0201449 0.778 
1.7043 0.0653803 2.525 
1.89054 0.0678401 2.62 
7.47178 0.2109 8.145 
4.75974 0.124054 4.791 
-0.0322694 0.01806 0.658 
0.0634741 0.0185541 0.676 
0.350551 0.0206126 0.751 
1.88743 0.0721029 2.627 
1.97716 0.0707854 2.579 
4.72997 0.131498 4.791 
-0.000580999 0.0191983 0.662 
0.268947 0.0210544 0.726 
0.372543 0.0218374 0.753 
1.96827 0.0753724 2.599 
4.71019 0.137926 4.756 
0.0634741 0.0206546 0.676 
0.336722 0.0230379 0.754 
0.379227 0.0231295 0.757 
1.97406 0.0793187 2.596 
-1.73017 0.0704447 2.194 
0.0677754 0.021737 0.677 
0.340805 0.0239204 0.745 
0.392578 0.0246267 0.767 
3.12202 0.106566 3.319 
-1.74253 0.0740891 2.201 
-0.0138676 0.0221493 0.658 
0.341963 0.0250779 0.745 
0.395476 0.0258521 0.768 
1.95632 0.0878567 2.61 
4.85765 0.168274 4.999 
-0.026056 0.0231012 0.656 
0.266692 0.0255663 0.726 
0.355218 0.0264466 0.751 
0.426875 0.0272214 0.773 
1.89651 0.0921583 2.617 
3.13754 0.117267 3.33 
-1.40879 0.0633161 1.722 
-0.0169603 0.0242307 0.659 
0.27833 0.0266207 0.724 
0.35898 0.0277238 0.754 
0.428629 0.0284591 0.774 
1.88647 0.0963345 2.62 
3.17523 0.123911 3.37 
-1.40507 0.0660681 1.724 
-0.0280945 0.0251396 0.656 
0.265198 0.0277839 0.725 
0.340805 0.0285503 0.745 
0.41804 0.0295084 0.77 
0.474346 0.0297383 0.776 
4.95398 0.195062 5.09 
-1.30021 0.0876879 2.199 
-0.0209919 0.0261987 0.657 
0.27083 0.0289103 0.725 
0.357809 0.0300667 0.754 
0.423924 0.0307845 0.772 
0.480404 0.0310237 0.778 
3.17376 0.132788 3.33 
-7.17724 0.462772 11.17 
0.249084 0.0299953 0.724 
0.314931 0.030161 0.728 
0.372543 0.0311967 0.753 
0.439452 0.0320668 0.774 
0.495545 0.0322739 0.779 
3.28942 0.142063 3.429 
-1.30731 0.0950368 2.211 
0.254708 0.0311201 0.724 
0.318762 0.0313351 0.729 
0.369712 0.0323237 0.752 
0.461106 0.0331833 0.772 
0.502241 0.0335272 0.78 
3.33606 0.149239 3.472 
-1.29825 0.0988282 2.219 
0.267451 0.0322895 0.725 
0.334856 0.032824 0.737 
0.458707 0.0343828 0.772 
0.499176 0.0346945 0.779 
0.540297 0.0350063 0.786 
-1.4234 0.0797374 1.73 
-1.27756 0.102276 2.219 
0.253934 0.033416 0.725 
0.318501 0.0336925 0.731 
0.364553 0.0346143 0.751 
0.477986 0.0358588 0.778 
0.516232 0.035997 0.781 
0.564217 0.0362736 0.787 
-1.32536 0.105962 2.224 
-1.1227 0.105104 2.206 
0.264436 0.03459 0.726 
0.344044 0.0353523 0.742 
0.460503 0.0368293 0.773 
0.499744 0.0370675 0.778 
0.541518 0.0374487 0.786 
0.579625 0.037544 0.788 
-1.22575 0.10676 2.17 
-0.0210558 0.0324217 0.659 
0.332352 0.0361116 0.734 
0.38392 0.0375875 0.764 
0.502162 0.0382763 0.778 
0.543269 0.0386207 0.785 
0.581335 0.0387191 0.787 
-1.31103 0.113126 2.229 
-1.11483 0.111857 2.204 
0.324623 0.0371505 0.732 
0.38123 0.0386223 0.761 
0.509512 0.0395866 0.78 
0.550767 0.0399418 0.787 
0.583717 0.0396881 0.782 
0.672529 0.0405001 0.798 
-1.23761 0.113974 2.179 
-0.0311521 0.0343125 0.656 
0.347284 0.0389154 0.744 
0.494842 0.0405892 0.776 
0.535802 0.0409553 0.783 
0.576683 0.0412692 0.789 
0.632946 0.041583 0.795 
0.672529 0.0417399 0.798 
-1.25009 0.117898 2.189 
-1.13621 0.119514 2.219 
0.358649 0.0401791 0.746 
0.512592 0.0420641 0.781 
0.553915 0.0424412 0.788 
0.585108 0.0419564 0.779 
0.651888 0.0427643 0.794 
0.765374 0.0434645 0.807 
-1.21675 0.119692 2.16 
-1.145 0.122795 2.216 
0.494842 0.0430005 0.776 
0.534433 0.0432776 0.781 
0.576683 0.0437209 0.789 
0.627895 0.0442196 0.798 
0.673372 0.044275 0.799 
-1.30514 0.126409 2.219 
-1.11669 0.117465 2.062 
-0.0281373 0.0374271 0.657 
0.515019 0.044491 0.781 
0.55707 0.0449467 0.789 
0.586775 0.0443201 0.778 
0.636651 0.0452885 0.795 
0.750513 0.0463709 0.814 
-1.96893 0.184222 3.148 
-1.15189 0.122366 2.091 
-1.12402 0.130442 2.229 
0.505788 0.0455289 0.778 
0.544838 0.0457629 0.782 
0.582773 0.04588 0.784 
0.630375 0.0466993 0.798 
0.675058 0.0468748 0.801 
-1.96226 0.189414 3.153 
-1.15845 0.125975 2.097 
-1.12849 0.134025 2.231 
0.48096 0.0465574 0.775 
0.521086 0.0469178 0.781 
0.564627 0.0475186 0.791 
0.593891 0.0469178 0.781 
0.64482 0.0479992 0.799 
0.765678 0.0484197 0.806 
-1.26063 0.133855 2.172 
-1.1279 0.130219 2.113 
-1.06887 0.135211 2.194 
0.483368 0.0477615 0.775 
0.523513 0.0481313 0.781 
0.567084 0.0487475 0.791 
0.600136 0.0484394 0.786 
0.649734 0.0494254 0.802 
0.766628 0.0497336 0.807 
-1.19939 0.135271 2.141 
-1.14223 0.140515 2.224 
-0.273466 0.109493 1.733 
0.492431 0.0490288 0.776 
0.529963 0.0491551 0.778 
0.574959 0.0499133 0.79 
0.625278 0.0506083 0.801 
0.660131 0.0504188 0.798 
0.769135 0.0509874 0.807 
-1.16337 0.135944 2.1 
-1.13348 0.144618 2.234 
-0.764953 0.147855 2.284 
0.479755 0.0501697 0.775 
0.518541 0.0504286 0.779 
0.561973 0.051076 0.789 
0.627767 0.0518528 0.801 
0.667591 0.0518528 0.801 
0.759285 0.0529533 0.818 
-1.22063 0.142852 2.155 
-1.15085 0.146763 2.214 
-0.96044 0.164197 2.477 
-0.279655 0.11521 1.738 
0.483947 0.0513075 0.774 
0.524054 0.0517052 0.78 
0.567595 0.0523681 0.79 
0.632406 0.0529647 0.799 
0.679702 0.0535613 0.808 
0.735137 0.0542242 0.818 
-27.7803 2.04023 30.073 
-1.12804 0.140909 2.077 
-1.11166 0.151899 2.239 
-0.895708 0.165332 2.437 
-0.256568 0.117232 1.728 
0.493637 0.0526457 0.776 
0.529806 0.0526457 0.776 
0.576916 0.0536634 0.791 
0.645553 0.0544775 0.803 
0.709804 0.0559022 0.824 
0.750033 0.055563 0.819 
0.783611 0.0548845 0.809 
-1.15348 0.144899 2.088 
-1.13152 0.155239 2.237 
-0.933943 0.17127 2.468 
-0.273466 0.120263 1.733 
0.490592 0.053782 0.775 
0.528754 0.0539902 0.778 
0.573732 0.0548229 0.79 
0.644306 0.0557251 0.803 
0.729402 0.057113 0.823 
0.767762 0.057113 0.823 
-1.23622 0.152755 2.153 
-1.15591 0.155451 2.191 
-1.06141 0.157083 2.214 
-0.267771 0.122814 1.731 
0.501516 0.055128 0.777 
0.561771 0.0558375 0.787 
0.641011 0.0569017 0.802 
0.737679 0.0580369 0.818 
0.781497 0.0584626 0.824 
-1.16775 0.152402 2.102 
-1.13848 0.16219 2.237 
-0.891922 0.176691 2.437 
-0.205796 0.125431 1.73 
0.556483 0.0567702 0.783 
0.702549 0.0596704 0.823 
0.754058 0.0595978 0.822 
-27.7803 2.22712 30.073 
-1.15158 0.160704 2.17 
-0.96548 0.184402 2.49 
-0.259553 0.128119 1.73 
-0.217484 0.197214 2.663 
0.693599 0.060949 0.823 
0.73018 0.0608009 0.821 
0.772191 0.0610971 0.825 
-28.1195 2.30938 30.543 
-1.14927 0.164227 2.172 
-0.928526 0.187061 2.474 
-0.240877 0.130882 1.731 
0.0110045 0.12075 1.597 
0.694441 0.0623033 0.824 
0.73107 0.0621521 0.822 
0.772191 0.0623789 0.825 
-27.4971 2.28538 29.617 
-1.14242 0.164669 2.134 
-0.989965 0.193143 2.503 
-0.233078 0.133726 1.733 
-0.00634013 0.122769 1.591 
0.608711 0.0612686 0.794 
0.73068 0.0635064 0.823 
0.771844 0.0637379 0.826 
-28.9517 2.44247 31.028 
-1.16786 0.166883 2.12 
-1.07757 0.177509 2.255 
-0.24654 0.136419 1.733 
-0.226098 0.209941 2.667 
0.537552 0.0610066 0.775 
0.732219 0.0644702 0.819 
0.777918 0.0650999 0.827 
0.819426 0.0653361 0.83 
-57.8914 5.26062 65.535 
-1.14681 0.171461 2.136 
-1.08457 0.181013 2.255 
-0.249377 0.139191 1.734 
-0.239781 0.215209 2.681 
0.0992913 0.120889 1.506 
0.546183 0.0623712 0.777 
0.707633 0.0658229 0.82 
0.748401 0.0658229 0.82 
0.793337 0.0663848 0.827 
-38.1608 3.40312 41.59 
-1.24336 0.175761 2.148 
-1.14893 0.177152 2.165 
-1.09158 0.184517 2.255 
-0.241573 0.142049 1.736 
-0.230242 0.218229 2.667 
0.0970802 0.123393 1.508 
0.524676 0.0631693 0.772 
0.581012 0.0638239 0.78 
0.727807 0.0676697 0.827 
0.7645 0.0675061 0.825 
0.806847 0.0678334 0.829 
-59.1132 5.46426 65.535 
-1.22382 0.178682 2.143 
-1.14204 0.1821 2.184 
-0.288284 0.143829 1.725 
-0.207158 0.143329 1.719 
-0.00140949 0.133907 1.606 
0.116592 0.12657 1.518 
0.314697 0.0791269 0.949 
0.525876 0.0643687 0.772 
0.607013 0.0656194 0.787 
0.728123 0.0686211 0.823 
0.769277 0.0688712 0.826 
0.812979 0.0692047 0.83 
-58.5023 5.56608 65.535 
-1.22782 0.182606 2.15 
-1.11405 0.185918 2.189 
-0.281218 0.147019 1.731 
-0.193353 0.14566 1.715 
-0.0441336 0.155003 1.825 
0.102306 0.128758 1.516 
0.295047 0.0812808 0.957 
0.337219 0.0803465 0.946 
0.533251 0.0657381 0.774 
0.604699 0.0665874 0.784 
0.724287 0.0698998 0.823 
0.765782 0.0700696 0.825 
0.810399 0.0704943 0.83 
-58.1968 5.6679 65.535 
-1.24404 0.184389 2.132 
-1.16169 0.187676 2.17 
-0.574646 0.129211 1.494 
-0.242686 0.150833 1.744 
-0.158251 0.147892 1.71 
0.0308736 0.138206 1.598 
0.152816 0.138465 1.601 
0.314213 0.0823352 0.952 
0.508654 0.0670271 0.775 
0.54548 0.0671136 0.776 
0.704584 0.0704865 0.815 
0.754416 0.0710055 0.821 
0.797511 0.0714379 0.826 
-59.215 5.76972 65.535 
-1.20991 0.175992 1.999 
-1.20274 0.190607 2.165 
-1.09966 0.191399 2.174 
-0.248959 0.15407 1.75 
-0.163756 0.150725 1.712 
0.0235279 0.141305 1.605 
0.128018 0.135758 1.542 
0.302797 0.0843425 0.958 
0.343098 0.0832861 0.946 
0.532736 0.0682312 0.775 
0.609008 0.0693757 0.788 
0.743671 0.072105 0.819 
0.786618 0.0725451 0.824 
-59.826 5.87154 65.535 
-1.22421 0.178919 1.997 
-1.23592 0.195494 2.182 
-1.12642 0.19415 2.167 
-0.56222 0.134212 1.498 
-0.193353 0.153654 1.715 
-0.0572885 0.160642 1.793 
0.0458275 0.14335 1.6 
0.207083 0.0793802 0.886 
0.314873 0.0854726 0.954 
0.506246 0.0694353 0.775 
0.543068 0.0695249 0.776 
0.711859 0.0733774 0.819 
0.770561 0.0740046 0.826 
0.812979 0.0743629 0.83 
-1.23969 0.18111 1.987 
-1.2608 0.199066 2.184 
-1.16166 0.199522 2.189 
-1.00401 0.198611 2.179 
-0.222436 0.15805 1.734 
-0.138184 0.154222 1.692 
0.00865138 0.14775 1.621 
0.0969989 0.140732 1.544 
0.293015 0.0879574 0.965 
0.33204 0.0864079 0.948 
0.519351 0.0704571 0.773 
0.581012 0.0710951 0.78 
0.763574 0.0751056 0.824 
0.814268 0.0756525 0.83 
-1.22085 0.188925 2.038 
-1.1838 0.199771 2.155 
-1.06406 0.207095 2.234 
-0.257595 0.164267 1.772 
-0.169076 0.158705 1.712 
-0.0513997 0.165194 1.782 
0.0509263 0.148693 1.604 
0.149859 0.147951 1.596 
0.307051 0.0891786 0.962 
0.346769 0.0878808 0.948 
0.683057 0.0749953 0.809 
0.743305 0.076015 0.82 
0.784385 0.0762931 0.823 
-1.24633 0.182383 1.935 
-1.19608 0.202931 2.153 
-1.04171 0.208869 2.216 
-0.21423 0.163344 1.733 
-0.130451 0.159668 1.694 
-0.00413567 0.160328 1.701 
0.0794204 0.148546 1.576 
0.207283 0.0830386 0.881 
0.315033 0.0903905 0.959 
0.514547 0.0728591 0.773 
0.573263 0.0736131 0.781 
0.719779 0.0768178 0.815 
0.767064 0.0777603 0.825 
0.809423 0.0781373 0.829 
-1.26415 0.206468 2.155 
-1.17397 0.208288 2.174 
-0.248252 0.170923 1.784 
-0.157881 0.163449 1.706 
-0.0375143 0.170539 1.78 
0.0535849 0.154156 1.609 
0.127542 0.152911 1.596 
0.30414 0.0926469 0.967 
0.522572 0.0743475 0.776 
0.710587 0.0784673 0.819 
0.769277 0.0791379 0.826 
0.814879 0.0793295 0.828 
-1.26591 0.210108 2.158 
-1.17289 0.211471 2.172 
-0.960075 0.237272 2.437 
-0.171836 0.166782 1.713 
-0.0603357 0.167561 1.721 
0.0408813 0.155877 1.601 
0.114494 0.154514 1.587 
0.220218 0.0854841 0.878 
0.34007 0.0928836 0.954 
0.759733 0.0802265 0.824 
-1.18933 0.19437 1.965 
-1.18165 0.211581 2.139 
-0.99495 0.215043 2.174 
-0.222783 0.173894 1.758 
-0.135795 0.167663 1.695 
-0.0232474 0.172806 1.747 
0.0613882 0.159947 1.617 
0.136165 0.159255 1.61 
0.293022 0.0964431 0.975 
0.348232 0.094168 0.952 
0.791739 0.0815068 0.824 
-1.23441 0.20757 2.066 
-1.17328 0.215809 2.148 
-0.978475 0.217014 2.16 
-0.213247 0.17552 1.747 
-0.127895 0.170296 1.695 
-0.0314441 0.175822 1.75 
0.0511168 0.161756 1.61 
0.125768 0.161254 1.605 
0.222185 0.0879109 0.875 
0.757173 0.082787 0.824 
0.796545 0.0828875 0.825 
-1.18082 0.200068 1.961 
-1.18165 0.218228 2.139 
-0.981439 0.221799 2.174 
-0.246518 0.184866 1.812 
-0.15258 0.174052 1.706 
-0.0714781 0.170277 1.669 
0.0163369 0.166706 1.634 
0.0892148 0.160789 1.576 
0.20087 0.0888623 0.871 
0.306341 0.0993707 0.974 
0.789499 0.0839652 0.823 
-1.26474 0.221551 2.139 
-1.16435 0.222691 2.15 
-0.967847 0.251485 2.428 
-0.223432 0.184885 1.785 
-0.133397 0.175874 1.698 
-0.054317 0.176081 1.7 
0.0311827 0.167173 1.614 
0.104038 0.163445 1.578 
0.288376 0.102023 0.985 
0.770208 0.0856582 0.827 
0.810711 0.0858653 0.829 
-1.22351 0.228344 2.172 
-1.04202 0.233811 2.224 
-0.25521 0.19281 1.834 
-0.158159 0.179668 1.709 
-0.0769399 0.176094 1.675 
0.00113709 0.17683 1.682 
0.0802267 0.167368 1.592 
0.214028 0.0919893 0.875 
0.315097 0.102292 0.973 
0.784385 0.0865225 0.823 
-1.25633 0.227878 2.136 
-1.15507 0.228198 2.139 
-1.01326 0.236199 2.214 
-0.240437 0.195232 1.83 
-0.144713 0.18211 1.707 
-0.0638897 0.17859 1.674 
0.0140093 0.176989 1.659 
0.0891582 0.168028 1.575 
0.220068 0.0930288 0.872 
0.321144 0.103804 0.973 
0.792057 0.0878012 0.823 
-1.25103 0.230222 2.127 
-1.14724 0.231954 2.143 
-0.997239 0.239098 2.209 
-0.293719 0.207601 1.918 
-0.163756 0.185304 1.712 
-0.082439 0.181948 1.681 
-0.00409677 0.182381 1.685 
0.0731722 0.173181 1.6 
0.217608 0.0944918 0.873 
0.320289 0.105532 0.975 
0.790778 0.0890799 0.823 
-16.6207 2.00578 18.269 
-1.17558 0.234295 2.134 
-1.04061 0.243847 2.221 
-0.930971 0.26361 2.401 
-0.232161 0.201138 1.832 
-0.136676 0.187305 1.706 
-0.0565897 0.185438 1.689 
0.0215585 0.180607 1.645 
0.100943 0.172153 1.568 
0.293264 0.108255 0.986 
1.27565 0.301049 2.742 
0.786942 0.0903586 0.823 
-12.119 1.47065 13.208 
-1.19878 0.237611 2.134 
-1.07081 0.243958 2.191 
-1.04313 0.266449 2.393 
-0.308666 0.215676 1.937 
-0.172137 0.191069 1.716 
-0.090489 0.187617 1.685 
-0.00927727 0.186504 1.675 
0.075138 0.176928 1.589 
0.217504 0.17626 1.583 
0.295095 0.109898 0.987 
1.28042 0.304418 2.734 
1.23149 0.201758 1.812 
0.817151 0.0923053 0.829 
-1.20112 0.238104 2.109 
-1.12217 0.242281 2.146 
-1.01757 0.248491 2.201 
-0.920676 0.269151 2.384 
-0.271005 0.217444 1.926 
-0.150281 0.193057 1.71 
-0.0692565 0.189445 1.678 
0.00888621 0.187977 1.665 
0.0886487 0.1768 1.566 
0.165703 0.173413 1.536 
0.28801 0.111657 0.989 
1.26713 0.309569 2.742 
1.19437 0.208412 1.846 
-10.0705 1.24982 10.92 
-1.1811 0.244013 2.132 
-1.06897 0.246417 2.153 
-0.991558 0.252254 2.204 
-0.920972 0.268621 2.347 
-0.283325 0.223068 1.949 
-0.14231 0.195714 1.71 
-0.061655 0.192738 1.684 
0.0244954 0.191251 1.671 
0.100428 0.178546 1.56 
0.220658 0.181751 1.588 
0.294157 0.113194 0.989 
1.28515 0.311998 2.726 
1.20167 0.211051 1.844 
-4.90723 0.818657 7.057 
-1.18322 0.245702 2.118 
-1.08317 0.249182 2.148 
-0.999526 0.253358 2.184 
-0.91368 0.272267 2.347 
-0.284198 0.226793 1.955 
-0.125926 0.197675 1.704 
-0.0462568 0.196631 1.695 
0.053485 0.186306 1.606 
0.122108 0.177258 1.528 
1.06717 0.708683 6.109 
0.303069 0.114614 0.988 
1.16273 0.215192 1.855 
1.22225 0.210552 1.815 
-8.13012 1.05416 8.967 
-1.23715 0.236648 2.013 
-1.17447 0.250638 2.132 
-1.07472 0.258515 2.199 
-0.992173 0.265686 2.26 
-0.78869 0.275561 2.344 
-0.29511 0.231241 1.967 
-0.131375 0.200558 1.706 
-0.0513414 0.198559 1.689 
0.0559105 0.188566 1.604 
0.124156 0.179162 1.524 
0.237928 0.186685 1.588 
0.306449 0.116267 0.989 
1.16875 0.218662 1.86 
1.23452 0.215017 1.829 
0.793801 0.0955763 0.813 
-7.291 0.966132 8.111 
-4.93861 0.849758 7.134 
-1.17833 0.253355 2.127 
-1.07618 0.263122 2.209 
-0.98427 0.267053 2.242 
-0.892484 0.275272 2.311 
-0.352283 0.200707 1.685 
-0.174701 0.20428 1.715 
-0.0932174 0.200945 1.687 
0.00114385 0.20154 1.692 
0.090442 0.185222 1.555 
0.16093 0.182959 1.536 
0.212926 0.103033 0.865 
1.26397 0.324704 2.726 
1.1991 0.224529 1.885 
1.25692 0.219288 1.841 
0.785338 0.0981497 0.824 
-7.98874 1.05777 8.766 
-4.64317 0.791578 6.56 
-1.20827 0.252557 2.093 
-1.14627 0.260642 2.16 
-1.01789 0.2639 2.187 
-0.956367 0.27657 2.292 
-0.84914 0.281155 2.33 
-0.341609 0.203204 1.684 
-0.157881 0.205859 1.706 
-0.0772614 0.202963 1.682 
0.0116936 0.204773 1.697 
0.104668 0.187155 1.551 
0.222985 0.191499 1.587 
0.311059 0.11934 0.989 
1.18172 0.226372 1.876 
1.2536 0.223597 1.853 
1.24623 0.207065 1.716 
-5.86843 0.925947 7.576 
-5.1302 0.911892 7.461 
-1.17819 0.257764 2.109 
-1.07849 0.26632 2.179 
-0.972093 0.267786 2.191 
-0.897367 0.27622 2.26 
-0.779406 0.285753 2.338 
-0.3083 0.243587 1.993 
-0.120348 0.207776 1.7 
-0.0405304 0.204843 1.676 
0.149802 0.606339 4.961 
0.178444 0.191154 1.564 
0.311059 0.120877 0.989 
1.1501 0.225376 1.844 
1.24879 0.227698 1.863 
1.22737 0.209243 1.712 
-7.20578 0.995645 8.044 
-4.96078 0.883009 7.134 
-1.19852 0.259061 2.093 
-1.13515 0.267106 2.158 
-1.05692 0.274656 2.219 
-0.955321 0.28233 2.281 
-0.860001 0.288395 2.33 
-0.350081 0.208808 1.687 
-0.160249 0.210788 1.703 
-0.0798272 0.208065 1.681 
-0.0014876 0.209798 1.695 
0.154372 0.190861 1.542 
0.293144 0.12328 0.996 
1.08271 0.223785 1.808 
1.22829 0.235543 1.903 
1.27132 0.227374 1.837 
-7.87945 1.07444 8.573 
-4.67375 0.822155 6.56 
-1.26306 0.266323 2.125 
-1.18702 0.271587 2.167 
-1.08852 0.272213 2.172 
-1.00865 0.278104 2.219 
-0.880589 0.283493 2.262 
-0.787335 0.289258 2.308 
-0.304898 0.249529 1.991 
-0.117361 0.212432 1.695 
-0.0378811 0.2098 1.674 
0.172507 0.620251 4.949 
0.234275 0.198019 1.58 
0.305221 0.124075 0.99 
1.09978 0.227221 1.813 
1.23393 0.236745 1.889 
1.27579 0.228474 1.823 
-7.62652 1.06911 8.426 
-1.25876 0.25922 2.043 
-1.19274 0.266452 2.1 
-1.11623 0.271655 2.141 
-1.05347 0.281551 2.219 
-0.93201 0.288784 2.276 
-0.843343 0.294874 2.324 
-0.355533 0.214177 1.688 
-0.180884 0.215446 1.698 
-0.10114 0.214177 1.688 
-0.0222893 0.212528 1.675 
0.144601 0.195398 1.54 
0.225866 0.108865 0.858 
1.4646 0.351337 2.769 
1.11915 0.230545 1.817 
1.24425 0.238285 1.878 
1.2474 0.223186 1.759 
-6.77229 0.969305 7.547 
-1.22967 0.271385 2.113 
-1.17561 0.282045 2.196 
-1.08205 0.284357 2.214 
-0.990572 0.295017 2.297 
-0.870046 0.290522 2.262 
-0.780163 0.29643 2.308 
-0.310966 0.209736 1.633 
-0.146502 0.217956 1.697 
-0.0666891 0.215644 1.679 
0.0116936 0.217956 1.697 
0.177139 0.202158 1.574 
0.289835 0.129206 1.006 
1.04338 0.232212 1.808 
1.1501 0.236836 1.844 
1.26622 0.242615 1.889 
1.24284 0.220267 1.715 
-1.24214 0.266089 2.047 
-1.18763 0.275578 2.12 
-1.0996 0.278307 2.141 
-1.0395 0.289357 2.226 
-0.937844 0.295466 2.273 
-0.835758 0.300666 2.313 
-0.402962 0.220982 1.7 
-0.319335 0.25309 1.947 
-0.172358 0.219942 1.692 
-0.0930516 0.218902 1.684 
-0.014508 0.218122 1.678 
0.23402 0.643318 4.949 
0.474579 0.302096 2.324 
0.307379 0.12895 0.992 
1.08832 0.235021 1.808 
1.24264 0.24906 1.916 
1.27007 0.237491 1.827 
-1.25691 0.268348 2.04 
-1.20226 0.277688 2.111 
-1.1159 0.280713 2.134 
-1.0593 0.292552 2.224 
-0.99173 0.303602 2.308 
-0.859503 0.297551 2.262 
-0.759591 0.302549 2.3 
-0.354901 0.22165 1.685 
-0.211378 0.219414 1.668 
-0.135715 0.222834 1.694 
-0.0561541 0.220466 1.676 
0.111554 0.654296 4.974 
0.177589 0.207575 1.578 
0.287564 0.132727 1.009 
1.05461 0.23783 1.808 
1.19873 0.250327 1.903 
1.27254 0.247433 1.881 
-1.24484 0.274446 2.062 
-1.18663 0.284295 2.136 
-1.09318 0.285892 2.148 
-1.04346 0.3004 2.257 
-0.940334 0.301065 2.262 
-0.835292 0.305058 2.292 
-0.76738 0.332742 2.5 
-0.364693 0.225466 1.694 
-0.208536 0.221739 1.666 
-0.132926 0.2252 1.692 
-0.0535502 0.22307 1.676 
0.127342 0.663754 4.987 
0.191812 0.209494 1.574 
0.296762 0.133496 1.003 
1.08271 0.240639 1.808 
1.24314 0.256345 1.926 
-6.16576 0.9268 6.883 
-1.2538 0.281824 2.093 
-1.18663 0.289229 2.148 
-1.08904 0.289903 2.153 
-1.04517 0.306465 2.276 
-0.931243 0.303906 2.257 
-0.833105 0.307811 2.286 
-0.762274 0.336088 2.496 
-0.360778 0.22729 1.688 
-0.210998 0.224193 1.665 
-0.135715 0.228098 1.694 
-0.0561541 0.225674 1.676 
0.111846 0.671502 4.987 
0.184944 0.212479 1.578 
0.294524 0.135458 1.006 
1.05753 0.244121 1.813 
1.19684 0.255836 1.9 
1.26916 0.252604 1.876 
-7.81775 1.31151 9.629 
-1.25921 0.287799 2.113 
-1.18764 0.294473 2.162 
-1.08335 0.29352 2.155 
-1.04539 0.31218 2.292 
-0.922182 0.306732 2.252 
-0.825925 0.310001 2.276 
-0.763243 0.336969 2.474 
-0.366674 0.230321 1.691 
-0.213713 0.226916 1.666 
-0.138184 0.230458 1.692 
-0.058723 0.228142 1.675 
0.112407 0.682655 5.012 
0.184944 0.21493 1.578 
0.293543 0.137294 1.008 
1.04569 0.246802 1.812 
1.14823 0.250752 1.841 
1.26957 0.257971 1.894 
-7.87176 1.33308 9.677 
-1.24093 0.281715 2.045 
-1.19827 0.294664 2.139 
-1.09703 0.294251 2.136 
-1.05771 0.312022 2.265 
-0.9534 0.312435 2.268 
-0.847688 0.312435 2.268 
-0.757679 0.319047 2.316 
-0.390623 0.231571 1.681 
-0.302659 0.226336 1.643 
-0.16146 0.232535 1.688 
-0.0820957 0.230607 1.674 
-0.00405787 0.229918 1.669 
0.167995 0.217657 1.58 
0.280557 0.139411 1.012 
1.60993 0.416855 3.026 
1.09601 0.247 1.793 
1.26708 0.265322 1.926 
-7.58651 1.22664 8.805 
-1.31514 0.290047 2.082 
-1.23526 0.297291 2.134 
-1.10522 0.297987 2.139 
-1.06616 0.315959 2.268 
-0.96934 0.318884 2.289 
-0.853605 0.315541 2.265 
-0.764875 0.322646 2.316 
-0.393021 0.232511 1.669 
-0.312017 0.230143 1.652 
-0.166311 0.234601 1.684 
-0.0871409 0.23279 1.671 
-0.00925512 0.23279 1.671 
0.255789 0.68597 4.924 
0.486519 0.315123 2.262 
1.60236 0.418353 3.003 
1.10437 0.249786 1.793 
1.26943 0.266921 1.916 
-7.9319 1.36315 9.677 
-1.26461 0.286238 2.032 
-1.21868 0.300606 2.134 
-1.09216 0.302297 2.146 
-1.06056 0.323145 2.294 
-0.93493 0.316806 2.249 
-0.841915 0.321314 2.281 
-0.760428 0.33216 2.358 
-0.380176 0.236794 1.681 
-0.191731 0.233132 1.655 
-0.116461 0.236935 1.682 
-0.0379943 0.236513 1.679 
0.167349 0.707848 5.025 
0.23094 0.221722 1.574 
0.289991 0.142556 1.012 
1.0517 0.25398 1.803 
1.18991 0.266094 1.889 
1.26037 0.262432 1.863 
-5.77117 1.18464 8.318 
-1.24517 0.296801 2.084 
-1.15507 0.304634 2.139 
-1.07264 0.309619 2.174 
-1.03966 0.331409 2.327 
-0.899188 0.320015 2.247 
-0.802586 0.323291 2.27 
-0.7462 0.34622 2.431 
-0.189046 0.235561 1.654 
-0.11378 0.239406 1.681 
-0.0354278 0.239406 1.681 
0.160367 0.719358 5.051 
0.20747 0.222601 1.563 
0.283982 0.14427 1.013 
1.28042 0.389373 2.734 
1.10067 0.254503 1.787 
1.27208 0.273444 1.92 
-7.56653 1.26206 8.766 
-1.26652 0.292264 2.03 
-1.20827 0.301335 2.093 
-1.12668 0.312996 2.174 
-1.07959 0.329553 2.289 
-0.977572 0.331137 2.3 
-0.862043 0.32797 2.278 
-0.781414 0.339055 2.355 
-0.688189 0.347406 2.413 
-0.153684 0.24317 1.689 
-0.0509158 0.241154 1.675 
0.0269457 0.239282 1.662 
0.194504 0.226901 1.576 
0.474132 0.326818 2.27 
0.311387 0.145412 1.01 
1.07111 0.256847 1.784 
1.24225 0.276427 1.92 
1.23944 0.255551 1.775 
-1.28793 0.298183 2.049 
-1.20639 0.301676 2.073 
-1.13914 0.316083 2.172 
-1.0876 0.331218 2.276 
-1.00135 0.337912 2.322 
-0.8762 0.331509 2.278 
-0.797064 0.343151 2.358 
-0.706682 0.352901 2.425 
-0.173539 0.244193 1.678 
-0.0708357 0.2407 1.654 
0.00628421 0.241719 1.661 
0.180269 0.229932 1.58 
0.254746 0.228476 1.57 
0.297159 0.147709 1.015 
1.45463 0.385499 2.649 
1.24998 0.267041 1.835 
-1.26091 0.297249 2.021 
-1.18633 0.302249 2.055 
-1.14045 0.322693 2.194 
-1.08835 0.338284 2.3 
-0.985838 0.339902 2.311 
-0.872802 0.337843 2.297 
-0.796741 0.351521 2.39 
-0.694519 0.356228 2.422 
-0.184017 0.243417 1.655 
-0.0858893 0.242241 1.647 
-0.00922189 0.244888 1.665 
0.225736 0.725987 4.936 
0.247585 0.231063 1.571 
0.291137 0.149433 1.016 
1.44449 0.387997 2.638 
1.12173 0.265185 1.803 
-1.24966 0.299199 2.013 
-1.17765 0.304848 2.051 
-1.11318 0.326102 2.194 
-1.0722 0.34587 2.327 
-0.941376 0.337844 2.273 
-0.861526 0.348397 2.344 
-0.772491 0.357761 2.407 
-0.6806 0.36876 2.481 
-0.161365 0.250745 1.687 
-0.0608129 0.24688 1.661 
0.0166168 0.247029 1.662 
0.215717 0.233355 1.57 
0.216954 0.124704 0.839 
0.318897 0.149228 1.004 
1.07795 0.264122 1.777 
1.26308 0.261298 1.758 
-1.23157 0.301726 2.009 
-1.12201 0.309386 2.06 
-1.09622 0.330562 2.201 
-1.05548 0.351138 2.338 
-0.921401 0.341826 2.276 
-0.843616 0.353691 2.355 
-0.758466 0.365556 2.434 
-0.63981 0.366908 2.443 
-0.14023 0.253066 1.685 
-0.045902 0.252615 1.682 
0.0321101 0.249611 1.662 
0.229032 0.234442 1.561 
0.223205 0.125857 0.838 
1.84182 0.719547 4.791 
1.06594 0.267333 1.78 
1.2471 0.267634 1.782 
-1.30648 0.304848 2.009 
-1.203 0.303937 2.003 
-1.15251 0.332464 2.191 
-1.09977 0.348094 2.294 
-1.00366 0.351887 2.319 
-0.894415 0.351432 2.316 
-0.819404 0.366151 2.413 
-0.715723 0.370703 2.443 
-0.173332 0.254318 1.676 
-0.0805754 0.24931 1.643 
-0.00404085 0.252194 1.662 
0.197828 0.240206 1.583 
0.265607 0.234895 1.548 
0.298623 0.154776 1.02 
1.0469 0.271616 1.79 
1.20752 0.286639 1.889 
1.26854 0.266761 1.758 
-1.27408 0.309195 2.017 
-1.16904 0.312108 2.036 
-1.1105 0.338628 2.209 
-1.06774 0.358863 2.341 
-0.937333 0.350891 2.289 
-0.871285 0.36806 2.401 
-0.767913 0.372199 2.428 
-0.476508 0.360089 2.349 
-0.0960082 0.25217 1.645 
-0.0196752 0.256615 1.674 
0.0576882 0.253703 1.655 
0.246525 0.237453 1.549 
0.283523 0.155901 1.017 
1.82557 0.730909 4.768 
1.07147 0.272864 1.78 
1.22967 0.290647 1.896 
-1.29687 0.309542 1.999 
-1.18102 0.313413 2.024 
-1.1344 0.345157 2.229 
-1.07364 0.362035 2.338 
-0.947747 0.355687 2.297 
-0.88204 0.373184 2.41 
-0.775458 0.375972 2.428 
-0.36552 0.237228 1.532 
-0.103802 0.255035 1.647 
-0.0275105 0.259526 1.676 
0.0500346 0.256584 1.657 
0.232684 0.240479 1.553 
0.222406 0.129298 0.835 
1.8094 0.734755 4.745 
1.09083 0.27563 1.78 
1.25754 0.295296 1.907 
-1.29428 0.312022 1.995 
-1.1865 0.317183 2.028 
-1.11889 0.325942 2.084 
-1.10625 0.356284 2.278 
-1.01193 0.360507 2.305 
-0.906846 0.361445 2.311 
-0.842011 0.382559 2.446 
-0.726856 0.388033 2.481 
-0.148019 0.258845 1.655 
-0.0459566 0.263381 1.684 
0.0320521 0.259471 1.659 
0.212853 0.247897 1.585 
0.211774 0.130439 0.834 
0.310995 0.159374 1.019 
1.04703 0.280742 1.795 
1.18487 0.294192 1.881 
1.30368 0.292003 1.867 
-1.92788 0.401997 2.545 
-1.24656 0.316385 2.003 
-1.17627 0.327126 2.071 
-1.1449 0.346871 2.196 
-1.09168 0.368037 2.33 
-0.970425 0.363298 2.3 
-0.900002 0.378778 2.398 
-0.792608 0.38636 2.446 
-0.350225 0.242936 1.538 
-0.0612156 0.264102 1.672 
0.0166168 0.262522 1.662 
0.318899 0.52773 3.341 
0.210478 0.131735 0.834 
0.307829 0.160957 1.019 
2.00191 0.718067 4.546 
1.08347 0.280687 1.777 
1.2503 0.300906 1.905 
1.26187 0.275633 1.745 
-1.92695 0.406589 2.549 
-1.26278 0.320454 2.009 
-1.19442 0.330025 2.069 
-1.13141 0.340074 2.132 
-1.09238 0.364638 2.286 
-0.984966 0.364319 2.284 
-0.90358 0.379313 2.378 
-0.807296 0.391755 2.456 
-0.357626 0.245485 1.539 
-0.0809677 0.26335 1.651 
0.00629556 0.265424 1.664 
0.287976 0.543129 3.405 
0.268012 0.24692 1.548 
0.303377 0.1627 1.02 
1.85614 0.723375 4.535 
1.92482 0.673449 4.222 
1.1526 0.294773 1.848 
1.29236 0.307534 1.928 
0.626547 0.108945 0.683 
-1.93715 0.411033 2.552 
-1.27661 0.325508 2.021 
-1.20077 0.335011 2.08 
-1.1277 0.342259 2.125 
-1.08384 0.36062 2.239 
-0.99916 0.367868 2.284 
-0.889573 0.384941 2.39 
-0.403843 0.248359 1.542 
-0.11383 0.264788 1.644 
-0.0120144 0.272841 1.694 
0.0649675 0.264788 1.644 
0.239683 0.247393 1.536 
0.287247 0.164123 1.019 
1.70983 0.71061 4.412 
2.0134 0.744272 4.621 
1.07767 0.285404 1.772 
1.25063 0.306181 1.901 
0.62973 0.110006 0.683 
-1.93943 0.415486 2.555 
-1.27598 0.330112 2.03 
-1.19755 0.341007 2.097 
-1.13285 0.351252 2.16 
-1.07135 0.364587 2.242 
-0.980222 0.369628 2.273 
-0.876776 0.396297 2.437 
-0.389831 0.249454 1.534 
-0.129784 0.268643 1.652 
-0.0539016 0.274334 1.687 
0.0573396 0.267504 1.645 
0.232085 0.251893 1.549 
0.224943 0.134972 0.83 
1.75283 0.744459 4.578 
2.00357 0.758607 4.665 
1.06294 0.288645 1.775 
1.22507 0.308647 1.898 
0.622302 0.111067 0.683 
-1.84018 0.355757 2.167 
-1.29066 0.328177 1.999 
-1.21515 0.339176 2.066 
-1.12861 0.342131 2.084 
-1.08938 0.361339 2.201 
-1.04328 0.382024 2.327 
-0.870352 0.380711 2.319 
-0.355927 0.253151 1.542 
-0.083887 0.272195 1.658 
0.0217288 0.272195 1.658 
0.291286 0.555224 3.382 
0.264062 0.252658 1.539 
0.304443 0.166305 1.013 
1.78928 0.725961 4.422 
1.87266 0.681307 4.15 
1.13382 0.299939 1.827 
1.23003 0.28106 1.712 
-1.8183 0.341723 2.062 
-1.87892 0.391772 2.364 
-1.28292 0.337414 2.036 
-1.17281 0.345037 2.082 
-1.11865 0.358793 2.165 
-1.09892 0.3926 2.369 
-0.905249 0.363599 2.194 
-0.832219 0.408013 2.462 
-0.253323 0.394092 2.378 
-0.0620211 0.280737 1.694 
0.0624512 0.272616 1.645 
0.223751 0.258198 1.558 
0.21952 0.137385 0.829 
1.78141 0.78056 4.71 
2.00103 0.774926 4.676 
1.06055 0.293497 1.771 
1.25195 0.315373 1.903 
1.28419 0.285708 1.724 
-1.83176 0.362156 2.165 
-1.30099 0.337065 2.015 
-1.21919 0.350447 2.095 
-1.13278 0.35396 2.116 
-1.07228 0.367007 2.194 
-0.987285 0.380222 2.273 
-0.804567 0.347101 2.075 
-0.361187 0.258277 1.544 
-0.0935661 0.275506 1.647 
0.01148 0.278685 1.666 
0.104789 0.279019 1.668 
0.270707 0.256939 1.536 
0.30257 0.169285 1.012 
1.755 0.728327 4.354 
1.85784 0.683999 4.089 
1.18717 0.316824 1.894 
1.25642 0.28755 1.719 
-1.80869 0.34813 2.062 
-1.93808 0.433728 2.569 
-1.27659 0.343741 2.036 
-1.19926 0.354546 2.1 
-1.12655 0.36265 2.148 
-1.05558 0.372949 2.209 
-0.950284 0.378858 2.244 
-0.82044 0.367546 2.177 
-0.457823 0.386962 2.292 
-0.0867759 0.280935 1.664 
-0.00671472 0.284481 1.685 
0.0811233 0.280429 1.661 
0.267272 0.258312 1.53 
0.299425 0.170857 1.012 
2.02074 0.791482 4.688 
1.0728 0.297819 1.764 
1.23197 0.287013 1.7 
0.636097 0.115312 0.683 
-1.82575 0.366328 2.15 
-1.28101 0.347245 2.038 
-1.19103 0.357298 2.097 
-1.12249 0.366839 2.153 
-1.06771 0.383196 2.249 
