# .PCD v.7 - Point Cloud Data file format
VERSION .7
FIELDS x y z
SIZE 4 4 4
TYPE F F F
COUNT 1 1 1
WIDTH 1823
HEIGHT 1
VIEWPOINT 0 0 0 1 0 0 0
POINTS 1823
DATA ascii
-0.293912 -0.246355 0.737 
-0.263811 -0.245686 0.735 
-0.236104 -0.247357 0.74 
-0.206601 -0.247357 0.74 
-0.177578 -0.248026 0.742 
-0.148195 -0.24836 0.743 
-0.699483 -7.09648 21.23 
0.154511 -7.46351 22.328 
0.251842 -0.249363 0.746 
0.284225 -0.251703 0.753 
0.309655 -0.248026 0.742 
0.333751 -0.244015 0.73 
0.337504 -0.226967 0.679 
0.336654 -0.209585 0.627 
0.343771 -0.199223 0.596 
0.35036 -0.189195 0.566 
0.373584 -0.189529 0.567 
0.398285 -0.190532 0.57 
0.421748 -0.190866 0.571 
0.44607 -0.191535 0.573 
0.467278 -0.190866 0.571 
0.490042 -0.190866 0.571 
0.512807 -0.190866 0.571 
0.536509 -0.191201 0.572 
0.559314 -0.191201 0.572 
-0.597746 -0.240311 0.724 
-0.570453 -0.240975 0.726 
-0.542255 -0.241307 0.727 
-0.512565 -0.240975 0.726 
-0.484953 -0.241639 0.728 
-0.457182 -0.242303 0.73 
-0.442152 -0.250269 0.754 
-0.405533 -0.246286 0.742 
-0.370884 -0.242967 0.732 
-0.342635 -0.24363 0.734 
-0.313799 -0.243962 0.735 
-0.284883 -0.244294 0.736 
-0.25554 -0.244294 0.736 
-0.226812 -0.244958 0.738 
-0.198727 -0.246618 0.743 
-0.168877 -0.246286 0.742 
-0.139483 -0.246618 0.743 
-0.212978 -5.96994 17.986 
0.238164 -0.247945 0.747 
0.270098 -0.249937 0.753 
0.298126 -0.248277 0.748 
0.325316 -0.246286 0.742 
0.338636 -0.235 0.708 
0.337813 -0.215417 0.649 
0.340151 -0.201476 0.607 
0.343479 -0.189195 0.57 
0.364276 -0.188199 0.567 
0.387563 -0.188531 0.568 
0.411653 -0.189195 0.57 
0.435901 -0.189859 0.572 
0.457904 -0.189527 0.571 
0.480669 -0.189527 0.571 
0.502551 -0.189195 0.57 
0.526198 -0.189527 0.571 
0.549924 -0.189859 0.572 
-0.606236 -0.238613 0.724 
-0.578966 -0.239272 0.726 
-0.55078 -0.239602 0.727 
-0.521796 -0.239602 0.727 
-0.492134 -0.239272 0.726 
-0.465742 -0.240591 0.73 
-0.448003 -0.246853 0.749 
-0.414234 -0.244546 0.742 
-0.382578 -0.243227 0.738 
-0.35172 -0.242239 0.735 
-0.321978 -0.241909 0.734 
-0.293912 -0.242898 0.737 
-0.263452 -0.241909 0.734 
-0.235784 -0.243557 0.739 
-0.206601 -0.243886 0.74 
-0.177578 -0.244546 0.742 
-0.148195 -0.244875 0.743 
-0.723172 -7.23387 21.949 
0.228872 -0.247512 0.751 
0.258469 -0.247182 0.75 
0.289139 -0.247841 0.752 
0.3153 -0.244875 0.743 
0.336566 -0.238943 0.725 
0.336737 -0.220157 0.668 
0.336714 -0.204008 0.619 
0.344461 -0.19445 0.59 
0.353638 -0.18687 0.567 
0.376907 -0.187199 0.568 
0.400959 -0.187858 0.57 
0.423683 -0.187858 0.57 
0.447974 -0.188518 0.572 
0.469956 -0.188188 0.571 
0.49272 -0.188188 0.571 
0.515485 -0.188188 0.571 
0.539192 -0.188518 0.572 
0.561997 -0.188518 0.572 
-0.59435 -0.236915 0.724 
-0.566267 -0.237243 0.725 
-0.538104 -0.23757 0.726 
-0.508458 -0.237243 0.725 
-0.4822 -0.238551 0.729 
-0.453758 -0.238879 0.73 
-0.438034 -0.246405 0.753 
-0.400969 -0.242151 0.74 
-0.367451 -0.239533 0.732 
-0.339192 -0.240188 0.734 
-0.310773 -0.240842 0.736 
-0.280283 -0.23986 0.733 
-0.252088 -0.240842 0.736 
-0.22335 -0.241497 0.738 
-0.195242 -0.243133 0.743 
-0.165397 -0.242805 0.742 
-0.135815 -0.242805 0.742 
-0.0505804 -6.72656 20.556 
0.247585 -0.245096 0.749 
0.278928 -0.246405 0.753 
0.304845 -0.243133 0.743 
0.331316 -0.240842 0.736 
0.338608 -0.226117 0.691 
0.337012 -0.208119 0.636 
0.342692 -0.196011 0.599 
0.348319 -0.18554 0.567 
0.372233 -0.186195 0.569 
0.394918 -0.186195 0.569 
0.418336 -0.186522 0.57 
0.442609 -0.187176 0.572 
0.465413 -0.187176 0.572 
0.487364 -0.186849 0.571 
0.510129 -0.186849 0.571 
0.532893 -0.186849 0.571 
0.555658 -0.186849 0.571 
-0.60284 -0.235217 0.724 
-0.574768 -0.235542 0.725 
-0.54737 -0.236192 0.727 
-0.518386 -0.236192 0.727 
-0.488729 -0.235867 0.726 
-0.462318 -0.237167 0.73 
-0.446863 -0.244639 0.753 
-0.409646 -0.240416 0.74 
-0.377575 -0.238791 0.735 
-0.348273 -0.238791 0.735 
-0.318102 -0.238141 0.733 
-0.289667 -0.238791 0.735 
-0.26001 -0.238466 0.734 
-0.232004 -0.239766 0.738 
-0.20313 -0.240416 0.74 
-0.174097 -0.241065 0.742 
-0.14471 -0.24139 0.743 
-0.443264 -6.78589 20.887 
0.234975 -0.243015 0.748 
0.265858 -0.243989 0.751 
0.295011 -0.24334 0.749 
0.32227 -0.24139 0.743 
0.338157 -0.231969 0.714 
0.337868 -0.213775 0.658 
0.338094 -0.198505 0.611 
0.34347 -0.188109 0.579 
0.35959 -0.184535 0.568 
0.382235 -0.184535 0.568 
0.406306 -0.185185 0.57 
0.42903 -0.185185 0.57 
0.452548 -0.18551 0.571 
0.475312 -0.18551 0.571 
0.496332 -0.18486 0.569 
0.520841 -0.18551 0.571 
0.543606 -0.18551 0.571 
0.568354 -0.18616 0.573 
-0.587559 -0.23352 0.724 
-0.557923 -0.233197 0.723 
-0.532025 -0.234487 0.727 
-0.500965 -0.23352 0.724 
-0.475361 -0.235132 0.729 
-0.451195 -0.237713 0.737 
-0.425819 -0.23997 0.744 
-0.394027 -0.23868 0.74 
-0.360584 -0.2361 0.732 
-0.332307 -0.236745 0.734 
-0.303456 -0.237067 0.735 
-0.272661 -0.235777 0.731 
-0.24485 -0.237067 0.735 
-0.216427 -0.238035 0.738 
-0.188018 -0.239325 0.742 
-0.158436 -0.239325 0.742 
-0.129028 -0.239648 0.743 
-0.0027685 -7.73517 23.982 
0.240238 -0.24126 0.748 
0.270781 -0.241906 0.75 
0.298677 -0.240293 0.745 
0.326616 -0.239003 0.741 
0.338374 -0.227069 0.704 
0.337292 -0.209006 0.648 
0.340449 -0.195137 0.605 
0.343479 -0.183848 0.57 
0.365561 -0.183526 0.569 
0.387563 -0.183203 0.568 
0.411653 -0.183848 0.57 
0.435139 -0.184171 0.571 
0.457904 -0.184171 0.571 
0.479827 -0.183848 0.57 
0.502551 -0.183848 0.57 
0.526198 -0.184171 0.571 
0.548962 -0.184171 0.571 
-0.609631 -0.231822 0.724 
-0.580767 -0.231822 0.724 
-0.553427 -0.232462 0.726 
-0.525205 -0.232782 0.727 
-0.494856 -0.232142 0.725 
-0.469166 -0.233743 0.73 
-0.449104 -0.238546 0.745 
-0.417151 -0.237265 0.741 
-0.387086 -0.236945 0.74 
-0.354201 -0.234703 0.733 
-0.324978 -0.234703 0.733 
-0.296562 -0.235344 0.735 
-0.265804 -0.234063 0.731 
-0.238279 -0.235664 0.736 
-0.20922 -0.235984 0.737 
-0.181058 -0.237585 0.742 
-0.15168 -0.237905 0.743 
-0.122058 -0.237905 0.743 
0.229712 -0.239506 0.748 
0.260228 -0.240147 0.75 
0.290515 -0.240467 0.751 
0.317042 -0.237905 0.743 
0.335467 -0.230221 0.719 
0.336784 -0.21293 0.665 
0.337763 -0.19628 0.613 
0.343294 -0.186034 0.581 
0.358258 -0.181871 0.568 
0.380903 -0.181871 0.568 
0.404258 -0.182191 0.569 
0.427694 -0.182511 0.57 
0.451209 -0.182832 0.571 
0.473973 -0.182832 0.571 
0.494998 -0.182191 0.569 
0.518592 -0.182511 0.57 
0.542267 -0.182832 0.571 
0.567011 -0.183472 0.573 
-0.586747 -0.229806 0.723 
-0.557923 -0.229806 0.723 
-0.532025 -0.231077 0.727 
-0.501657 -0.230442 0.725 
-0.474709 -0.231395 0.728 
-0.451195 -0.234256 0.737 
-0.425819 -0.236481 0.744 
-0.39456 -0.235527 0.741 
-0.360584 -0.232667 0.732 
-0.331854 -0.232984 0.733 
-0.303043 -0.233302 0.734 
-0.272288 -0.232031 0.73 
-0.244517 -0.233302 0.734 
-0.216427 -0.234574 0.738 
-0.188018 -0.235845 0.742 
-0.158436 -0.235845 0.742 
-0.129028 -0.236163 0.743 
0.220646 -0.237434 0.747 
0.251433 -0.238388 0.75 
0.282084 -0.239024 0.752 
0.307915 -0.235845 0.742 
0.333404 -0.232984 0.733 
0.338386 -0.21741 0.684 
0.335429 -0.197703 0.622 
0.342852 -0.188167 0.592 
0.351598 -0.180539 0.568 
0.374902 -0.180857 0.569 
0.397586 -0.180857 0.569 
0.42101 -0.181175 0.57 
0.444513 -0.181493 0.571 
0.468096 -0.18181 0.572 
0.488326 -0.180857 0.569 
0.512807 -0.181493 0.571 
0.536509 -0.18181 0.572 
0.560292 -0.182128 0.573 
-0.596048 -0.228426 0.724 
-0.564833 -0.227479 0.721 
-0.54055 -0.229372 0.727 
-0.510159 -0.228741 0.725 
-0.479927 -0.22811 0.723 
-0.45547 -0.230319 0.73 
-0.4398 -0.237575 0.753 
-0.401511 -0.233789 0.741 
-0.367451 -0.23095 0.732 
-0.33873 -0.231265 0.733 
-0.309084 -0.23095 0.732 
-0.279519 -0.230634 0.731 
-0.251403 -0.231581 0.734 
-0.22335 -0.232843 0.738 
-0.194979 -0.234105 0.742 
-0.165397 -0.234105 0.742 
-0.135998 -0.23442 0.743 
0.209854 -0.235367 0.746 
0.240559 -0.236313 0.749 
0.27042 -0.236313 0.749 
0.298677 -0.235051 0.745 
0.327056 -0.234105 0.742 
0.337893 -0.2218 0.703 
0.336772 -0.204132 0.647 
0.340151 -0.191512 0.607 
0.343942 -0.180785 0.573 
0.363586 -0.179207 0.568 
0.386231 -0.179207 0.568 
0.410316 -0.179838 0.57 
0.433041 -0.179838 0.57 
0.457364 -0.180469 0.572 
0.47849 -0.179838 0.57 
0.500335 -0.179522 0.569 
0.523939 -0.179838 0.57 
0.547623 -0.180154 0.571 
-0.609631 -0.226728 0.724 
-0.579163 -0.226102 0.722 
-0.553427 -0.227354 0.726 
-0.524483 -0.227354 0.726 
-0.492809 -0.226102 0.722 
-0.469166 -0.228607 0.73 
-0.449104 -0.233304 0.745 
-0.412494 -0.232365 0.742 
-0.380331 -0.230799 0.737 
-0.348568 -0.229233 0.732 
-0.318948 -0.22892 0.731 
-0.290201 -0.229233 0.732 
-0.261018 -0.229233 0.732 
-0.233418 -0.230799 0.737 
-0.204866 -0.231738 0.74 
-0.175838 -0.232365 0.742 
-0.14665 -0.232991 0.744 
-0.116674 -0.232365 0.742 
0.226506 -0.234557 0.749 
0.256025 -0.234244 0.748 
0.287375 -0.235496 0.752 
0.313558 -0.232678 0.743 
0.335327 -0.227354 0.726 
0.337241 -0.209504 0.669 
0.335626 -0.19322 0.617 
0.343877 -0.184451 0.589 
0.354262 -0.177875 0.568 
0.376907 -0.177875 0.568 
0.400255 -0.178188 0.569 
0.42294 -0.178188 0.569 
0.447191 -0.178814 0.571 
0.469133 -0.178501 0.57 
0.490995 -0.178188 0.569 
0.514582 -0.178501 0.57 
0.539192 -0.179128 0.572 
0.562979 -0.179441 0.573 
-0.595171 -0.225341 0.725 
-0.563143 -0.224098 0.721 
-0.538845 -0.225962 0.727 
-0.507757 -0.22503 0.724 
-0.476908 -0.224098 0.721 
-0.453758 -0.226895 0.73 
-0.438034 -0.234044 0.753 
-0.395092 -0.230625 0.742 
-0.360092 -0.227206 0.731 
-0.331401 -0.227517 0.732 
-0.302218 -0.227517 0.732 
-0.272661 -0.227206 0.731 
-0.244517 -0.228138 0.734 
-0.216427 -0.229381 0.738 
-0.188018 -0.230625 0.742 
-0.158436 -0.230625 0.742 
-0.129028 -0.230935 0.743 
0.208941 -0.2328 0.749 
0.238483 -0.23249 0.748 
0.267587 -0.231868 0.746 
0.297329 -0.231868 0.746 
0.325316 -0.230625 0.742 
0.336723 -0.218814 0.704 
0.336251 -0.200786 0.646 
0.341012 -0.188354 0.606 
0.344081 -0.177475 0.571 
0.364918 -0.176543 0.568 
0.387563 -0.176543 0.568 
0.41093 -0.176854 0.569 
0.434377 -0.177165 0.57 
0.458706 -0.177786 0.572 
0.479827 -0.177165 0.57 
0.502551 -0.177165 0.57 
0.525276 -0.177165 0.57 
0.549924 -0.177786 0.572 
-0.608773 -0.223641 0.725 
-0.57667 -0.222407 0.721 
-0.552485 -0.224258 0.727 
-0.52206 -0.223641 0.725 
-0.489755 -0.222098 0.72 
-0.467454 -0.225183 0.73 
-0.448558 -0.230427 0.747 
-0.413605 -0.229502 0.744 
-0.379815 -0.227034 0.736 
-0.348568 -0.2258 0.732 
-0.318948 -0.225491 0.731 
-0.290201 -0.2258 0.732 
-0.261018 -0.2258 0.732 
-0.233418 -0.227342 0.737 
-0.204866 -0.228268 0.74 
-0.175838 -0.228885 0.742 
-0.14665 -0.229502 0.744 
-0.116674 -0.228885 0.742 
-0.0753079 -0.224874 0.729 
0.22475 -0.231044 0.749 
0.253591 -0.230118 0.746 
0.285611 -0.231969 0.752 
0.311815 -0.229193 0.743 
0.335003 -0.224874 0.729 
0.336784 -0.205132 0.665 
0.335434 -0.1894 0.614 
0.3435 -0.180763 0.586 
0.355594 -0.175211 0.568 
0.378239 -0.175211 0.568 
0.400884 -0.175211 0.568 
0.424274 -0.175519 0.569 
0.44853 -0.176136 0.571 
0.47047 -0.175828 0.57 
0.492329 -0.175519 0.569 
0.515919 -0.175828 0.57 
0.539589 -0.176136 0.571 
0.565308 -0.177062 0.574 
-0.588443 -0.221328 0.723 
-0.560392 -0.221634 0.724 
-0.532996 -0.222246 0.726 
-0.501969 -0.221328 0.723 
-0.475108 -0.222246 0.726 
-0.45108 -0.224695 0.734 
-0.425784 -0.228675 0.747 
-0.393352 -0.227144 0.742 
-0.357887 -0.223471 0.73 
-0.329234 -0.223777 0.731 
-0.30009 -0.223777 0.731 
-0.271318 -0.224083 0.732 
-0.242796 -0.224695 0.734 
-0.214988 -0.226226 0.739 
-0.186278 -0.227144 0.742 
-0.156696 -0.227144 0.742 
-0.127286 -0.227451 0.743 
-0.0972693 -0.226532 0.74 
0.202993 -0.230512 0.753 
0.231776 -0.229287 0.749 
0.260589 -0.228369 0.746 
0.291887 -0.229593 0.75 
0.318785 -0.227451 0.743 
0.335746 -0.219185 0.716 
0.334782 -0.20143 0.658 
0.335228 -0.187042 0.611 
0.343109 -0.178471 0.583 
0.356926 -0.173879 0.568 
0.379571 -0.173879 0.568 
0.401508 -0.173573 0.567 
0.425609 -0.174185 0.569 
0.449869 -0.174797 0.571 
0.471806 -0.174491 0.57 
0.493663 -0.174185 0.569 
0.517256 -0.174491 0.57 
0.540928 -0.174797 0.571 
0.566654 -0.175716 0.574 
-0.586747 -0.219633 0.723 
-0.559466 -0.22024 0.725 
-0.531293 -0.220544 0.726 
-0.500274 -0.219633 0.723 
-0.474057 -0.220848 0.727 
-0.451195 -0.223885 0.737 
-0.423465 -0.226619 0.746 
-0.391612 -0.225404 0.742 
-0.356175 -0.221759 0.73 
-0.32752 -0.222063 0.731 
-0.298376 -0.222063 0.731 
-0.269969 -0.22267 0.733 
-0.241075 -0.222974 0.734 
-0.213254 -0.224493 0.739 
-0.184538 -0.225404 0.742 
-0.155165 -0.225708 0.743 
-0.125543 -0.225708 0.743 
-0.0952757 -0.224189 0.738 
0.187348 -0.22905 0.754 
0.221532 -0.227835 0.75 
0.250092 -0.226619 0.746 
0.281709 -0.228138 0.751 
0.308745 -0.226012 0.744 
0.332949 -0.222367 0.732 
0.33987 -0.208696 0.687 
0.335044 -0.189558 0.624 
0.344348 -0.181356 0.597 
0.349649 -0.172243 0.567 
0.372911 -0.172547 0.568 
0.394859 -0.172243 0.567 
0.419673 -0.173154 0.57 
0.442398 -0.173154 0.57 
0.465939 -0.173458 0.571 
0.486991 -0.17285 0.569 
0.511468 -0.173458 0.571 
0.533297 -0.173154 0.57 
0.558948 -0.174066 0.573 
-0.598572 -0.21854 0.725 
-0.56731 -0.217636 0.722 
-0.541509 -0.218841 0.726 
-0.510447 -0.217937 0.723 
-0.478958 -0.216731 0.719 
-0.457182 -0.220047 0.73 
-0.442152 -0.227281 0.754 
-0.403137 -0.224267 0.744 
-0.365945 -0.219746 0.729 
-0.337806 -0.220348 0.731 
-0.308662 -0.220348 0.731 
-0.280283 -0.220951 0.733 
-0.251403 -0.221253 0.734 
-0.22335 -0.222458 0.738 
-0.194716 -0.223363 0.741 
-0.165174 -0.223363 0.741 
-0.135998 -0.223966 0.743 
-0.10609 -0.223363 0.741 
-0.0755145 -0.220348 0.731 
0.0607365 -0.223363 0.741 
0.209778 -0.226679 0.752 
0.237846 -0.22487 0.746 
0.267587 -0.22487 0.746 
0.298126 -0.225473 0.748 
0.324878 -0.223363 0.741 
0.337201 -0.212511 0.705 
0.335254 -0.195028 0.647 
0.339286 -0.183272 0.608 
0.343197 -0.173023 0.574 
0.361616 -0.170913 0.567 
0.384899 -0.171215 0.568 
0.407544 -0.171215 0.568 
0.430946 -0.171516 0.569 
0.455226 -0.172119 0.571 
0.477153 -0.171818 0.57 
0.499001 -0.171516 0.569 
0.522603 -0.171818 0.57 
0.547241 -0.17242 0.572 
-0.613018 -0.217139 0.726 
-0.580856 -0.215942 0.722 
-0.55513 -0.217139 0.726 
-0.524011 -0.216241 0.723 
-0.493817 -0.215643 0.721 
-0.470233 -0.218036 0.729 
-0.449641 -0.222223 0.743 
-0.418777 -0.22342 0.747 
-0.383788 -0.220429 0.737 
-0.351039 -0.218335 0.73 
-0.322377 -0.218634 0.731 
-0.293634 -0.218933 0.732 
-0.265174 -0.219531 0.734 
-0.236232 -0.21983 0.735 
-0.208337 -0.221326 0.74 
-0.178834 -0.221326 0.74 
-0.149938 -0.222223 0.743 
-0.120154 -0.221924 0.742 
-0.0898394 -0.22013 0.736 
0.0452791 -0.222522 0.744 
0.1871 -0.225214 0.753 
0.216832 -0.224915 0.752 
0.244844 -0.22312 0.746 
0.275689 -0.224018 0.749 
0.304327 -0.22312 0.746 
0.330038 -0.220429 0.737 
0.33845 -0.207568 0.694 
0.335952 -0.189622 0.634 
0.342427 -0.179753 0.601 
0.34699 -0.169583 0.567 
0.370246 -0.169883 0.568 
0.3922 -0.169583 0.567 
0.416268 -0.170182 0.569 
0.439724 -0.170481 0.57 
0.462449 -0.170481 0.57 
0.485174 -0.170481 0.57 
0.50879 -0.17078 0.571 
0.530623 -0.170481 0.57 
0.55626 -0.171378 0.573 
-0.601972 -0.215139 0.725 
-0.570697 -0.214249 0.722 
-0.544164 -0.215139 0.725 
-0.513838 -0.214546 0.723 
-0.483672 -0.213952 0.721 
-0.460606 -0.216623 0.73 
-0.444506 -0.223151 0.752 
-0.407173 -0.221074 0.745 
-0.369364 -0.216326 0.729 
-0.340767 -0.216623 0.73 
-0.312518 -0.217217 0.732 
-0.283721 -0.217513 0.733 
-0.255193 -0.218107 0.735 
-0.226504 -0.2187 0.737 
-0.197924 -0.21959 0.74 
-0.168422 -0.21959 0.74 
-0.139483 -0.220481 0.743 
-0.109417 -0.21959 0.74 
-0.0793751 -0.218107 0.735 
0.0400447 -0.220777 0.744 
0.172284 -0.222558 0.75 
0.203263 -0.223745 0.754 
0.231157 -0.221668 0.747 
0.260589 -0.221371 0.746 
0.291887 -0.222558 0.75 
0.318785 -0.220481 0.743 
0.336215 -0.212765 0.717 
0.33376 -0.192884 0.65 
0.336987 -0.180717 0.609 
0.344657 -0.172408 0.581 
0.360287 -0.168254 0.567 
0.383567 -0.168551 0.568 
0.405497 -0.168254 0.567 
0.428857 -0.168551 0.568 
0.453092 -0.169144 0.57 
0.475817 -0.169144 0.57 
0.498541 -0.169144 0.57 
0.521266 -0.169144 0.57 
0.544945 -0.169441 0.571 
0.570692 -0.170331 0.574 
-0.582549 -0.212556 0.722 
-0.556065 -0.213439 0.725 
-0.525707 -0.21285 0.723 
-0.496882 -0.21285 0.723 
-0.471942 -0.214617 0.729 
-0.450776 -0.218444 0.742 
-0.420529 -0.219916 0.747 
-0.38604 -0.217266 0.738 
-0.352268 -0.214617 0.729 
-0.324091 -0.215205 0.731 
-0.295351 -0.2155 0.732 
-0.266531 -0.215794 0.733 
-0.237956 -0.216383 0.735 
-0.209788 -0.217561 0.739 
-0.180082 -0.217266 0.738 
-0.15168 -0.218738 0.743 
-0.12173 -0.218149 0.741 
-0.0916898 -0.216972 0.737 
-0.0627299 -0.218444 0.742 
0.0400447 -0.219033 0.744 
0.0696127 -0.218738 0.743 
0.190632 -0.221682 0.753 
0.220066 -0.221093 0.751 
0.248343 -0.219621 0.746 
0.279575 -0.220799 0.75 
0.308238 -0.219916 0.747 
0.332137 -0.216089 0.734 
0.338259 -0.202252 0.687 
0.335719 -0.184882 0.628 
0.343522 -0.17605 0.598 
0.349032 -0.16663 0.566 
0.372911 -0.167218 0.568 
0.394163 -0.16663 0.566 
0.418201 -0.167218 0.568 
0.442398 -0.167807 0.57 
0.465123 -0.167807 0.57 
0.487847 -0.167807 0.57 
0.511468 -0.168102 0.571 
0.532361 -0.167513 0.569 
0.558948 -0.16869 0.573 
-0.595225 -0.211155 0.723 
-0.5664 -0.211155 0.723 
-0.538319 -0.211447 0.724 
-0.510159 -0.211739 0.725 
-0.481254 -0.211739 0.725 
-0.45547 -0.213199 0.73 
-0.441552 -0.220792 0.756 
-0.401392 -0.217288 0.744 
-0.363736 -0.212615 0.728 
-0.335631 -0.213199 0.73 
-0.307368 -0.213783 0.732 
-0.278184 -0.213783 0.732 
-0.250362 -0.214951 0.736 
-0.22162 -0.215536 0.738 
-0.192197 -0.215536 0.738 
-0.163216 -0.21612 0.74 
-0.134075 -0.216704 0.742 
-0.103789 -0.215243 0.737 
-0.0746078 -0.215828 0.739 
0.0156174 -0.217288 0.744 
0.04534 -0.21758 0.745 
0.0748401 -0.216996 0.743 
0.142988 -0.217288 0.744 
0.181078 -0.21904 0.75 
0.211542 -0.219624 0.752 
0.239595 -0.217872 0.746 
0.269698 -0.218164 0.747 
0.301083 -0.219332 0.751 
0.325734 -0.215828 0.739 
0.337893 -0.205314 0.703 
0.336198 -0.18779 0.643 
0.340449 -0.176692 0.605 
0.34566 -0.165594 0.567 
0.368265 -0.165594 0.567 
0.390181 -0.165302 0.566 
0.414204 -0.165886 0.568 
0.438388 -0.166471 0.57 
0.461112 -0.166471 0.57 
0.483837 -0.166471 0.57 
0.50745 -0.166763 0.571 
0.528358 -0.166178 0.569 
0.553948 -0.167055 0.572 
-0.600312 -0.209459 0.723 
-0.571487 -0.209459 0.723 
-0.543413 -0.209749 0.724 
-0.514549 -0.209749 0.724 
-0.486355 -0.210039 0.725 
-0.461237 -0.211777 0.731 
-0.443324 -0.217281 0.75 
-0.407173 -0.215833 0.745 
-0.368858 -0.210908 0.728 
-0.340767 -0.211487 0.73 
-0.312091 -0.211777 0.731 
-0.283334 -0.212067 0.732 
-0.255193 -0.212936 0.735 
-0.226504 -0.213515 0.737 
-0.197389 -0.213805 0.738 
-0.167967 -0.213805 0.738 
-0.139483 -0.215253 0.743 
-0.108974 -0.213515 0.737 
-0.0800231 -0.214674 0.741 
-0.034982 -0.215543 0.744 
0.0277936 -0.215253 0.743 
0.0574928 -0.215543 0.744 
0.0961363 -0.216122 0.746 
0.144539 -0.215253 0.743 
0.17756 -0.217281 0.75 
0.208014 -0.217861 0.752 
0.236096 -0.216122 0.746 
0.265838 -0.216122 0.746 
0.297956 -0.217861 0.752 
0.322704 -0.214384 0.74 
0.336976 -0.205114 0.708 
0.336251 -0.187152 0.646 
0.340151 -0.175853 0.607 
0.34505 -0.163975 0.566 
0.368265 -0.164265 0.567 
0.390181 -0.163975 0.566 
0.413475 -0.164265 0.567 
0.438388 -0.165134 0.57 
0.460303 -0.164844 0.569 
0.483837 -0.165134 0.57 
0.50745 -0.165423 0.571 
0.528358 -0.164844 0.569 
0.553948 -0.165713 0.572 
-0.599444 -0.208051 0.724 
-0.5664 -0.207764 0.723 
-0.538319 -0.208051 0.724 
-0.510159 -0.208338 0.725 
-0.482582 -0.208913 0.727 
-0.456094 -0.210063 0.731 
-0.441552 -0.217247 0.756 
-0.401392 -0.213798 0.744 
-0.361531 -0.208913 0.727 
-0.33392 -0.209775 0.73 
-0.305651 -0.21035 0.732 
-0.276468 -0.21035 0.732 
-0.248298 -0.211212 0.735 
-0.219591 -0.211787 0.737 
-0.190208 -0.211787 0.737 
-0.16148 -0.212649 0.74 
-0.131978 -0.212649 0.74 
-0.101783 -0.211212 0.735 
-0.0731706 -0.213224 0.742 
-0.034935 -0.213511 0.743 
0.0156174 -0.213798 0.744 
0.04534 -0.214086 0.745 
0.0749409 -0.213798 0.744 
0.12554 -0.213798 0.744 
0.155202 -0.213798 0.744 
0.186852 -0.216097 0.752 
0.216256 -0.215522 0.75 
0.244844 -0.214373 0.746 
0.276057 -0.215522 0.75 
0.306366 -0.21581 0.751 
0.32959 -0.211499 0.736 
0.335304 -0.195694 0.681 
0.336375 -0.181614 0.632 
0.342692 -0.172131 0.599 
0.347705 -0.162648 0.566 
0.370924 -0.162935 0.567 
0.392835 -0.162648 0.566 
0.416135 -0.162935 0.567 
0.441061 -0.163797 0.57 
0.463786 -0.163797 0.57 
0.486511 -0.163797 0.57 
0.510129 -0.164084 0.571 
0.53196 -0.163797 0.57 
0.556631 -0.164372 0.572 
-0.593529 -0.206068 0.723 
-0.565486 -0.206353 0.724 
-0.536621 -0.206353 0.724 
-0.508458 -0.206638 0.725 
-0.481539 -0.207493 0.728 
-0.455001 -0.208633 0.732 
-0.439779 -0.215474 0.756 
-0.399647 -0.212053 0.744 
-0.360321 -0.207493 0.728 
-0.332208 -0.208063 0.73 
-0.303934 -0.208633 0.732 
-0.274751 -0.208633 0.732 
-0.246574 -0.209488 0.735 
-0.217862 -0.210058 0.737 
-0.187968 -0.209488 0.735 
-0.159745 -0.210913 0.74 
-0.12989 -0.210343 0.738 
-0.100332 -0.210058 0.737 
-0.0715268 -0.211768 0.743 
-0.034935 -0.211768 0.743 
-0.00537037 -0.214049 0.751 
0.0260512 -0.211768 0.743 
0.0559728 -0.212908 0.747 
0.0854097 -0.212053 0.744 
0.128856 -0.211768 0.743 
0.158692 -0.212053 0.744 
0.190126 -0.214049 0.751 
0.21948 -0.213479 0.749 
0.24801 -0.212338 0.745 
0.279575 -0.213764 0.75 
0.309476 -0.213764 0.75 
0.332137 -0.209203 0.734 
0.334923 -0.192957 0.677 
0.335719 -0.178991 0.628 
0.343522 -0.170441 0.598 
0.349032 -0.16132 0.566 
0.372254 -0.161605 0.567 
0.394163 -0.16132 0.566 
0.417464 -0.161605 0.567 
0.442398 -0.16246 0.57 
0.465123 -0.16246 0.57 
0.487847 -0.16246 0.57 
0.511468 -0.162745 0.571 
0.533297 -0.16246 0.57 
0.558948 -0.163315 0.573 
-0.595225 -0.204372 0.723 
-0.567184 -0.204655 0.724 
-0.539063 -0.204938 0.725 
-0.510159 -0.204938 0.725 
-0.483246 -0.205786 0.728 
-0.456718 -0.206917 0.732 
-0.441552 -0.213701 0.756 
-0.399647 -0.210309 0.744 
-0.360321 -0.205786 0.728 
-0.332208 -0.206351 0.73 
-0.303934 -0.206917 0.732 
-0.274751 -0.206917 0.732 
-0.246574 -0.207765 0.735 
-0.217862 -0.20833 0.737 
-0.187968 -0.207765 0.735 
-0.159745 -0.209178 0.74 
-0.12989 -0.208613 0.738 
-0.100332 -0.20833 0.737 
-0.0715268 -0.210026 0.743 
-0.0419049 -0.210026 0.743 
-0.0123822 -0.211722 0.749 
0.0173622 -0.210309 0.744 
0.0472767 -0.211439 0.748 
0.0766857 -0.210309 0.744 
0.106633 -0.210874 0.746 
0.135826 -0.210026 0.743 
0.166116 -0.210874 0.746 
0.196908 -0.212005 0.75 
0.225599 -0.210874 0.746 
0.255341 -0.210874 0.746 
0.286993 -0.212287 0.751 
0.31398 -0.210309 0.744 
0.336713 -0.206069 0.729 
0.334758 -0.186847 0.661 
0.334679 -0.17243 0.61 
0.343697 -0.165081 0.584 
0.355669 -0.159993 0.566 
0.378903 -0.160276 0.567 
0.4008 -0.159993 0.566 
0.424113 -0.160276 0.567 
0.449082 -0.161124 0.57 
0.472634 -0.161406 0.571 
0.494531 -0.161124 0.57 
0.517256 -0.161124 0.57 
0.53998 -0.161124 0.57 
0.565667 -0.161972 0.573 
-0.585861 -0.202957 0.724 
-0.556227 -0.202677 0.723 
-0.528861 -0.203238 0.725 
-0.500647 -0.203518 0.726 
-0.474301 -0.204639 0.73 
-0.451297 -0.207442 0.74 
-0.419403 -0.208844 0.745 
-0.380143 -0.204639 0.73 
-0.350558 -0.204359 0.729 
-0.321936 -0.204639 0.73 
-0.293634 -0.2052 0.732 
-0.264451 -0.2052 0.732 
-0.236232 -0.206041 0.735 
-0.206929 -0.206041 0.735 
-0.177868 -0.206321 0.736 
-0.149736 -0.208003 0.742 
-0.119344 -0.206602 0.737 
-0.0903276 -0.207442 0.74 
-0.061072 -0.208283 0.743 
-0.0314501 -0.208283 0.743 
-0.00184546 -0.210246 0.75 
0.0277936 -0.208283 0.743 
0.0579564 -0.210246 0.75 
0.0872717 -0.208844 0.745 
0.116659 -0.208283 0.743 
0.146281 -0.208283 0.743 
0.177323 -0.209965 0.749 
0.207185 -0.209965 0.749 
0.236096 -0.209124 0.746 
0.26655 -0.209685 0.748 
0.297956 -0.210806 0.752 
0.322704 -0.207442 0.74 
0.333087 -0.194267 0.693 
0.33613 -0.17941 0.64 
0.34045 -0.168197 0.6 
0.34505 -0.158665 0.566 
0.368265 -0.158946 0.567 
0.39087 -0.158946 0.567 
0.414204 -0.159226 0.568 
0.437618 -0.159506 0.569 
0.461112 -0.159787 0.57 
0.483837 -0.159787 0.57 
0.50745 -0.160067 0.571 
0.529286 -0.159787 0.57 
0.553948 -0.160347 0.572 
-0.600272 -0.201537 0.725 
-0.571368 -0.201537 0.725 
-0.543212 -0.201815 0.726 
-0.512142 -0.200981 0.723 
-0.485992 -0.202093 0.727 
-0.460151 -0.203483 0.732 
-0.442154 -0.208765 0.751 
-0.40422 -0.207375 0.746 
-0.363736 -0.202371 0.728 
-0.335172 -0.202649 0.729 
-0.306948 -0.203205 0.731 
-0.277804 -0.203205 0.731 
-0.249681 -0.204039 0.734 
-0.221019 -0.204595 0.736 
-0.191155 -0.204039 0.734 
-0.163216 -0.205707 0.74 
-0.133352 -0.205151 0.738 
-0.103929 -0.205151 0.738 
-0.0750117 -0.206541 0.743 
-0.0453898 -0.206541 0.743 
-0.0158316 -0.207375 0.746 
0.0138726 -0.206819 0.744 
0.0437684 -0.207931 0.748 
0.0733928 -0.207375 0.746 
0.103134 -0.207375 0.746 
0.132341 -0.206541 0.743 
0.162399 -0.207097 0.745 
0.19339 -0.208487 0.75 
0.2221 -0.207375 0.746 
0.251504 -0.207097 0.745 
0.28347 -0.208765 0.751 
0.311325 -0.207375 0.746 
0.334208 -0.203205 0.731 
0.336328 -0.182079 0.655 
0.338728 -0.168735 0.607 
0.342273 -0.157894 0.568 
0.364276 -0.157616 0.567 
0.386881 -0.157616 0.567 
0.409486 -0.157616 0.567 
0.432853 -0.157894 0.568 
0.457102 -0.15845 0.57 
0.479827 -0.15845 0.57 
0.503433 -0.158728 0.571 
0.525276 -0.15845 0.57 
0.549924 -0.159006 0.572 
-0.607073 -0.199837 0.725 
-0.578966 -0.200113 0.726 
-0.549264 -0.199837 0.725 
-0.518925 -0.199286 0.723 
-0.492134 -0.200113 0.726 
-0.465742 -0.201215 0.73 
-0.445012 -0.205074 0.744 
-0.412968 -0.205625 0.746 
-0.372272 -0.200664 0.728 
-0.34372 -0.20094 0.729 
-0.315088 -0.201215 0.73 
-0.286768 -0.201767 0.732 
-0.257584 -0.201767 0.732 
-0.229337 -0.202593 0.735 
-0.199762 -0.202318 0.734 
-0.171428 -0.20342 0.738 
-0.142775 -0.204523 0.742 
-0.112583 -0.20342 0.738 
-0.0836113 -0.204523 0.742 
-0.0541021 -0.204799 0.743 
-0.0245132 -0.205074 0.744 
0.00517622 -0.206177 0.748 
0.0348571 -0.20535 0.745 
0.0649919 -0.206728 0.75 
0.0943868 -0.205625 0.746 
0.123629 -0.204799 0.743 
0.153457 -0.205074 0.744 
0.18435 -0.206452 0.749 
0.213925 -0.206177 0.748 
0.242768 -0.20535 0.745 
0.274299 -0.206728 0.75 
0.305011 -0.207279 0.752 
0.327864 -0.202869 0.736 
0.334025 -0.185228 0.672 
0.33435 -0.170895 0.62 
0.343659 -0.162902 0.591 
0.351687 -0.156011 0.566 
0.374913 -0.156286 0.567 
0.397519 -0.156286 0.567 
0.420124 -0.156286 0.567 
0.445071 -0.157113 0.57 
0.467796 -0.157113 0.57 
0.48966 -0.156838 0.569 
0.513246 -0.157113 0.57 
0.53691 -0.157389 0.571 
0.560655 -0.157665 0.572 
-0.594289 -0.19841 0.726 
-0.564567 -0.198137 0.725 
-0.53714 -0.198683 0.727 
-0.506758 -0.198137 0.725 
-0.479831 -0.198957 0.728 
-0.454523 -0.200596 0.734 
-0.425214 -0.203876 0.746 
-0.390702 -0.201416 0.737 
-0.355687 -0.19923 0.729 
-0.327072 -0.199503 0.73 
-0.298376 -0.199777 0.731 
-0.269233 -0.199777 0.731 
-0.240746 -0.200323 0.733 
-0.2121 -0.20087 0.735 
-0.183295 -0.201416 0.737 
-0.154747 -0.20251 0.741 
-0.124529 -0.201416 0.737 
-0.095663 -0.20251 0.741 
-0.0662994 -0.203056 0.743 
-0.0366775 -0.203056 0.743 
-0.0071126 -0.204696 0.749 
0.0225966 -0.203329 0.744 
0.0528905 -0.205789 0.753 
0.0821403 -0.203876 0.746 
0.111732 -0.203603 0.745 
0.141054 -0.203056 0.743 
0.171365 -0.203876 0.746 
0.201915 -0.204696 0.749 
0.230848 -0.203876 0.746 
0.260589 -0.203876 0.746 
0.291887 -0.204969 0.75 
0.318356 -0.202783 0.742 
0.335072 -0.192398 0.704 
0.336772 -0.17682 0.647 
0.339608 -0.164249 0.601 
0.343 -0.154957 0.567 
0.365606 -0.154957 0.567 
0.388211 -0.154957 0.567 
0.41154 -0.15523 0.568 
0.434185 -0.15523 0.568 
0.458439 -0.155777 0.57 
0.481164 -0.155777 0.57 
0.504772 -0.15605 0.571 
0.525689 -0.155503 0.569 
0.550301 -0.15605 0.571 
-0.607933 -0.196166 0.724 
-0.581469 -0.196978 0.727 
-0.550965 -0.196437 0.725 
-0.52134 -0.196166 0.724 
-0.493836 -0.196708 0.726 
-0.467454 -0.197791 0.73 
-0.446156 -0.201314 0.743 
-0.411218 -0.202126 0.746 
-0.370565 -0.197249 0.728 
-0.34201 -0.19752 0.729 
-0.313376 -0.197791 0.73 
-0.285051 -0.198333 0.732 
-0.255868 -0.198333 0.732 
-0.227613 -0.199146 0.735 
-0.198041 -0.198875 0.734 
-0.170157 -0.200501 0.74 
-0.140845 -0.200772 0.741 
-0.111153 -0.200501 0.74 
-0.0818712 -0.201043 0.742 
-0.0523597 -0.201314 0.743 
-0.022799 -0.201856 0.745 
0.00691187 -0.202126 0.746 
0.0366533 -0.202126 0.746 
0.0669288 -0.203752 0.752 
0.0961363 -0.202126 0.746 
0.12554 -0.201585 0.744 
0.155411 -0.201856 0.745 
0.186106 -0.202939 0.749 
0.215102 -0.202126 0.746 
0.244515 -0.201856 0.745 
0.276426 -0.203481 0.751 
0.306774 -0.203752 0.752 
0.329142 -0.199146 0.735 
0.336173 -0.181534 0.67 
0.332906 -0.16582 0.612 
0.341742 -0.157962 0.583 
0.354342 -0.153356 0.566 
0.377573 -0.153627 0.567 
0.400178 -0.153627 0.567 
0.422783 -0.153627 0.567 
0.446959 -0.154169 0.569 
0.471295 -0.154711 0.571 
0.492329 -0.154169 0.569 
0.515014 -0.154169 0.569 
0.538644 -0.15444 0.57 
0.563338 -0.154982 0.572 
-0.595992 -0.195005 0.726 
-0.565486 -0.194468 0.724 
-0.538845 -0.195274 0.727 
-0.507757 -0.194468 0.724 
-0.481539 -0.195542 0.728 
-0.455001 -0.196617 0.732 
-0.426964 -0.200377 0.746 
-0.393495 -0.198497 0.739 
-0.359107 -0.195811 0.729 
-0.330496 -0.196079 0.73 
-0.301392 -0.196079 0.73 
-0.272661 -0.196348 0.731 
-0.244184 -0.196885 0.733 
-0.215548 -0.197422 0.735 
-0.186245 -0.197422 0.735 
-0.158009 -0.198765 0.74 
-0.127986 -0.19796 0.737 
-0.0992724 -0.199303 0.742 
-0.0696904 -0.199303 0.742 
-0.0401624 -0.199571 0.743 
-0.0105831 -0.200377 0.746 
0.0191327 -0.200108 0.745 
0.0492276 -0.20172 0.751 
0.0787467 -0.200646 0.747 
0.108383 -0.200377 0.746 
0.137569 -0.199571 0.743 
0.167641 -0.200108 0.745 
0.198137 -0.200914 0.748 
0.227349 -0.200377 0.746 
0.25709 -0.200377 0.746 
0.288754 -0.20172 0.751 
0.3153 -0.199571 0.743 
0.336566 -0.194736 0.725 
0.336325 -0.17674 0.658 
0.336434 -0.16331 0.608 
0.34185 -0.154177 0.574 
0.360287 -0.152297 0.567 
0.382892 -0.152297 0.567 
0.405497 -0.152297 0.567 
0.428857 -0.152566 0.568 
0.452297 -0.152834 0.569 
0.475817 -0.153103 0.57 
0.497667 -0.152834 0.569 
0.520351 -0.152834 0.569 
0.544945 -0.153372 0.571 
0.569698 -0.153909 0.573 
-0.588288 -0.193569 0.727 
-0.556996 -0.19277 0.724 
-0.529591 -0.193302 0.726 
-0.499268 -0.19277 0.724 
-0.474301 -0.194367 0.73 
-0.451297 -0.19703 0.74 
-0.417656 -0.198361 0.745 
-0.377394 -0.193835 0.728 
-0.349327 -0.194367 0.73 
-0.320224 -0.194367 0.73 
-0.291519 -0.194634 0.731 
-0.262734 -0.1949 0.732 
-0.234189 -0.195432 0.734 
-0.204926 -0.195432 0.734 
-0.17662 -0.196497 0.738 
-0.147796 -0.197296 0.741 
-0.117935 -0.196764 0.739 
-0.0887119 -0.197296 0.741 
-0.0593295 -0.197829 0.743 
-0.0297476 -0.198095 0.744 
-8.61188e-05 -0.198627 0.746 
0.0296554 -0.198627 0.746 
0.0598745 -0.200225 0.752 
0.0891383 -0.198627 0.746 
0.11872 -0.198361 0.745 
0.148422 -0.198361 0.745 
0.178363 -0.198627 0.746 
0.208383 -0.198894 0.747 
0.237846 -0.198627 0.746 
0.268663 -0.199426 0.749 
0.29972 -0.200225 0.752 
0.323563 -0.196497 0.738 
0.333375 -0.185581 0.697 
0.336291 -0.172801 0.649 
0.337611 -0.161085 0.605 
0.342001 -0.152299 0.572 
0.361616 -0.150968 0.567 
0.384221 -0.150968 0.567 
0.407544 -0.151234 0.568 
0.430189 -0.151234 0.568 
0.453631 -0.1515 0.569 
0.477153 -0.151766 0.57 
0.499001 -0.1515 0.569 
0.521686 -0.1515 0.569 
0.546284 -0.152033 0.571 
-0.613876 -0.190808 0.723 
-0.587479 -0.1916 0.726 
-0.556996 -0.191072 0.724 
-0.529591 -0.1916 0.726 
-0.498578 -0.190808 0.723 
-0.474301 -0.192655 0.73 
-0.451297 -0.195294 0.74 
-0.41884 -0.19635 0.744 
-0.379101 -0.192128 0.728 
-0.351039 -0.192655 0.73 
-0.321936 -0.192655 0.73 
-0.293233 -0.192919 0.731 
-0.264451 -0.193183 0.732 
-0.235589 -0.193447 0.733 
-0.206647 -0.193711 0.734 
-0.178109 -0.194503 0.737 
-0.149534 -0.195558 0.741 
-0.119668 -0.195031 0.739 
-0.0904497 -0.195558 0.741 
-0.061072 -0.196086 0.743 
-0.0314924 -0.19635 0.744 
-0.00183562 -0.196878 0.746 
0.0279059 -0.196878 0.746 
0.0579564 -0.197934 0.75 
0.0873888 -0.196878 0.746 
0.11713 -0.196878 0.746 
0.146675 -0.196614 0.745 
0.176613 -0.196878 0.746 
0.206631 -0.197142 0.747 
0.236096 -0.196878 0.746 
0.266907 -0.19767 0.749 
0.297956 -0.198461 0.752 
0.321832 -0.194767 0.738 
0.334596 -0.18553 0.703 
0.336832 -0.172334 0.653 
0.337611 -0.159666 0.605 
0.342001 -0.150957 0.572 
0.361616 -0.149638 0.567 
0.384221 -0.149638 0.567 
0.407544 -0.149902 0.568 
0.430189 -0.149902 0.568 
0.453631 -0.150166 0.569 
0.476316 -0.150166 0.569 
0.498124 -0.149902 0.568 
0.521686 -0.150166 0.569 
0.545327 -0.15043 0.57 
-0.613876 -0.189112 0.723 
-0.58667 -0.189636 0.725 
-0.556227 -0.189112 0.723 
-0.529591 -0.189897 0.726 
-0.498578 -0.189112 0.723 
-0.474301 -0.190943 0.73 
-0.451297 -0.193559 0.74 
-0.420585 -0.194605 0.744 
-0.381332 -0.190682 0.729 
-0.352268 -0.190682 0.729 
-0.323648 -0.190943 0.73 
-0.294544 -0.190943 0.73 
-0.266168 -0.191467 0.732 
-0.237308 -0.191728 0.733 
-0.208653 -0.192251 0.735 
-0.179838 -0.192774 0.737 
-0.151068 -0.193559 0.74 
-0.121565 -0.193559 0.74 
-0.0921875 -0.193821 0.741 
-0.0628144 -0.194344 0.743 
-0.0332372 -0.194605 0.744 
-0.00358031 -0.194867 0.745 
0.0261564 -0.195128 0.746 
0.0561976 -0.196175 0.75 
0.0856393 -0.195128 0.746 
0.115381 -0.195128 0.746 
0.144928 -0.194867 0.745 
0.174629 -0.194867 0.745 
0.205154 -0.195652 0.748 
0.234347 -0.195128 0.746 
0.26515 -0.195913 0.749 
0.295799 -0.196436 0.751 
0.320969 -0.193559 0.74 
0.333895 -0.184404 0.705 
0.337355 -0.171849 0.657 
0.337611 -0.158248 0.605 
0.341403 -0.149354 0.571 
0.361616 -0.148308 0.567 
0.384221 -0.148308 0.567 
0.407544 -0.14857 0.568 
0.430189 -0.14857 0.568 
0.453631 -0.148831 0.569 
0.476316 -0.148831 0.569 
0.498124 -0.14857 0.568 
0.521686 -0.148831 0.569 
0.545327 -0.149093 0.57 
-0.613027 -0.187158 0.722 
-0.58667 -0.187935 0.725 
-0.556227 -0.187417 0.723 
-0.529591 -0.188195 0.726 
-0.498578 -0.187417 0.723 
-0.474301 -0.189231 0.73 
-0.451297 -0.191824 0.74 
-0.420585 -0.192861 0.744 
-0.381332 -0.188972 0.729 
-0.352268 -0.188972 0.729 
-0.323648 -0.189231 0.73 
-0.294544 -0.189231 0.73 
-0.266168 -0.18975 0.732 
-0.237308 -0.190009 0.733 
-0.208653 -0.190528 0.735 
-0.179594 -0.190787 0.736 
-0.151068 -0.191824 0.74 
-0.121401 -0.191564 0.739 
-0.0923119 -0.192342 0.742 
-0.0628144 -0.192601 0.743 
-0.0331926 -0.192601 0.743 
-0.0035755 -0.192861 0.744 
0.0261564 -0.193379 0.746 
0.0560477 -0.193897 0.748 
0.0856393 -0.193379 0.746 
0.115381 -0.193379 0.746 
0.144928 -0.19312 0.745 
0.174629 -0.19312 0.745 
0.205154 -0.193897 0.748 
0.234347 -0.193379 0.746 
0.26515 -0.194157 0.749 
0.295405 -0.194416 0.75 
0.320969 -0.191824 0.74 
0.334596 -0.182232 0.703 
0.337864 -0.16979 0.655 
0.337349 -0.156051 0.602 
0.341541 -0.147497 0.569 
0.362306 -0.146719 0.566 
0.384871 -0.146719 0.566 
0.408156 -0.146978 0.567 
0.431521 -0.147238 0.568 
0.454966 -0.147497 0.569 
0.476811 -0.147238 0.568 
0.499456 -0.147238 0.568 
0.52302 -0.147497 0.569 
0.546664 -0.147756 0.57 
-0.60964 -0.185464 0.722 
-0.58166 -0.185721 0.723 
-0.552836 -0.185721 0.723 
-0.525461 -0.186235 0.725 
-0.495187 -0.185721 0.723 
-0.470878 -0.187519 0.73 
-0.449641 -0.190859 0.743 
-0.416534 -0.190859 0.743 
-0.376357 -0.186492 0.726 
-0.349327 -0.187519 0.73 
-0.320224 -0.187519 0.73 
-0.29112 -0.187519 0.73 
-0.262734 -0.188033 0.732 
-0.234189 -0.188547 0.734 
-0.204926 -0.188547 0.734 
-0.176142 -0.189061 0.736 
-0.147796 -0.190345 0.741 
-0.118094 -0.190088 0.74 
-0.0888317 -0.190602 0.742 
-0.0593295 -0.190859 0.743 
-0.0297076 -0.190859 0.743 
-8.58879e-05 -0.191116 0.744 
0.0296554 -0.191629 0.746 
0.0594764 -0.191886 0.747 
0.0890188 -0.191373 0.745 
0.119039 -0.191886 0.747 
0.148422 -0.191373 0.745 
0.178124 -0.191373 0.745 
0.208662 -0.192143 0.748 
0.237846 -0.191629 0.746 
0.269022 -0.192657 0.75 
0.298923 -0.192657 0.75 
0.323124 -0.189318 0.737 
0.335288 -0.18007 0.701 
0.337845 -0.167483 0.652 
0.339882 -0.153869 0.599 
0.34433 -0.145649 0.567 
0.366288 -0.145392 0.566 
0.388853 -0.145392 0.566 
0.412145 -0.145649 0.567 
0.434751 -0.145649 0.567 
0.458969 -0.146162 0.569 
0.480807 -0.145906 0.568 
0.503452 -0.145906 0.568 
0.527023 -0.146162 0.569 
0.550674 -0.146419 0.57 
-0.604561 -0.183771 0.722 
-0.573183 -0.184026 0.723 
-0.545111 -0.18428 0.724 
-0.516247 -0.18428 0.724 
-0.489402 -0.185044 0.727 
-0.462318 -0.185807 0.73 
-0.442709 -0.18988 0.746 
-0.409565 -0.189116 0.743 
-0.368858 -0.185298 0.728 
-0.340767 -0.185807 0.73 
-0.311664 -0.185807 0.73 
-0.282947 -0.186062 0.731 
-0.254845 -0.186826 0.734 
-0.226504 -0.187589 0.737 
-0.195784 -0.186317 0.732 
-0.167739 -0.187589 0.737 
-0.139107 -0.188607 0.741 
-0.109565 -0.188607 0.741 
-0.0801311 -0.188862 0.742 
-0.0506172 -0.189116 0.743 
-0.0209953 -0.189116 0.743 
0.00863815 -0.189371 0.744 
0.0383514 -0.189625 0.745 
0.0682357 -0.190135 0.747 
0.0977546 -0.189625 0.745 
0.127627 -0.18988 0.746 
0.157158 -0.189625 0.745 
0.186859 -0.189625 0.745 
0.217724 -0.190644 0.749 
0.246263 -0.189625 0.745 
0.278187 -0.191153 0.751 
0.307307 -0.190644 0.749 
0.329515 -0.186317 0.732 
0.337138 -0.175117 0.688 
0.331114 -0.156282 0.614 
0.342273 -0.150428 0.591 
0.351687 -0.144064 0.566 
0.374252 -0.144064 0.566 
0.396818 -0.144064 0.566 
0.420124 -0.144319 0.567 
0.44351 -0.144573 0.568 
0.466975 -0.144828 0.569 
0.487939 -0.144319 0.567 
0.512345 -0.144828 0.569 
0.53503 -0.144828 0.569 
0.558695 -0.145083 0.57 
-0.591887 -0.181826 0.721 
-0.559761 -0.181826 0.721 
-0.533226 -0.182582 0.724 
-0.503665 -0.18233 0.723 
-0.478781 -0.183843 0.729 
-0.452185 -0.184852 0.733 
-0.429886 -0.187878 0.745 
-0.39911 -0.187374 0.743 
-0.360816 -0.183843 0.729 
-0.332208 -0.184096 0.73 
-0.303519 -0.184348 0.731 
-0.274751 -0.1846 0.732 
-0.246239 -0.185104 0.734 
-0.217862 -0.185861 0.737 
-0.187713 -0.185104 0.734 
-0.159313 -0.186113 0.738 
-0.130242 -0.186617 0.74 
-0.101012 -0.187122 0.742 
-0.0715268 -0.187374 0.743 
-0.0419049 -0.187374 0.743 
-0.012283 -0.187374 0.743 
0.0173855 -0.187878 0.745 
0.0470871 -0.187878 0.745 
0.0768918 -0.18813 0.746 
0.106633 -0.18813 0.746 
0.136192 -0.187878 0.745 
0.165894 -0.187878 0.745 
0.19612 -0.188383 0.747 
0.226506 -0.188887 0.749 
0.255341 -0.18813 0.746 
0.286611 -0.189139 0.75 
0.313558 -0.187374 0.743 
0.332556 -0.181574 0.72 
0.336675 -0.169217 0.671 
0.336434 -0.153329 0.608 
0.341403 -0.143998 0.571 
0.360979 -0.142737 0.566 
0.383544 -0.142737 0.566 
0.406827 -0.142989 0.567 
0.430189 -0.143241 0.568 
0.452834 -0.143241 0.568 
0.475479 -0.143241 0.568 
0.497247 -0.142989 0.567 
0.521686 -0.143494 0.569 
0.544371 -0.143494 0.569 
-0.613876 -0.180635 0.723 
-0.579247 -0.179885 0.72 
-0.552071 -0.180385 0.722 
-0.525461 -0.181134 0.725 
-0.495187 -0.180635 0.723 
-0.470233 -0.182134 0.729 
-0.449641 -0.185631 0.743 
-0.420019 -0.185631 0.743 
-0.379101 -0.181884 0.728 
-0.350558 -0.182134 0.729 
-0.321936 -0.182384 0.73 
-0.292832 -0.182384 0.73 
-0.264812 -0.183133 0.733 
-0.235911 -0.183383 0.734 
-0.206647 -0.183383 0.734 
-0.177868 -0.183883 0.736 
-0.149534 -0.185132 0.741 
-0.119506 -0.184382 0.738 
-0.0905718 -0.185382 0.742 
-0.061072 -0.185631 0.743 
-0.0314501 -0.185631 0.743 
-0.00182824 -0.185631 0.743 
0.0278684 -0.186131 0.745 
0.0576473 -0.186381 0.746 
0.0872717 -0.186131 0.745 
0.11713 -0.186381 0.746 
0.146675 -0.186131 0.745 
0.176613 -0.186381 0.746 
0.207461 -0.18738 0.75 
0.236096 -0.186381 0.746 
0.266907 -0.18713 0.749 
0.295975 -0.186631 0.747 
0.321396 -0.184132 0.737 
0.334596 -0.175638 0.703 
0.337845 -0.162896 0.652 
0.34212 -0.149405 0.598 
0.35036 -0.14141 0.566 
0.373584 -0.14166 0.567 
0.39549 -0.14141 0.566 
0.418794 -0.14166 0.567 
0.441399 -0.14166 0.567 
0.464823 -0.141909 0.568 
0.487468 -0.141909 0.568 
0.511011 -0.142159 0.569 
0.533695 -0.142159 0.569 
0.557358 -0.142409 0.57 
-0.595269 -0.178444 0.721 
-0.562362 -0.178197 0.72 
-0.53588 -0.178939 0.723 
-0.508458 -0.179434 0.725 
-0.481539 -0.180177 0.728 
-0.453758 -0.180672 0.73 
-0.433962 -0.184631 0.746 
-0.402595 -0.183889 0.743 
-0.365443 -0.180177 0.728 
-0.337343 -0.180672 0.73 
-0.309084 -0.181167 0.732 
-0.279901 -0.181167 0.732 
-0.251403 -0.181662 0.734 
-0.222745 -0.182157 0.736 
-0.192614 -0.181414 0.733 
-0.164505 -0.182652 0.738 
-0.135266 -0.182899 0.739 
-0.105803 -0.182899 0.739 
-0.0766508 -0.183641 0.742 
-0.0470688 -0.183641 0.742 
-0.0174868 -0.183641 0.742 
0.0121115 -0.183889 0.743 
0.0418457 -0.184384 0.745 
0.0716433 -0.184631 0.746 
0.101385 -0.184631 0.746 
0.13095 -0.184384 0.745 
0.160652 -0.184384 0.745 
0.190609 -0.184631 0.746 
0.221237 -0.185374 0.749 
0.250092 -0.184631 0.746 
0.281334 -0.185621 0.75 
0.309575 -0.184631 0.746 
0.331584 -0.180424 0.729 
0.336407 -0.168297 0.68 
0.332703 -0.150725 0.609 
0.340504 -0.142062 0.574 
0.358324 -0.140082 0.566 
0.380889 -0.140082 0.566 
0.403454 -0.140082 0.566 
0.426772 -0.14033 0.567 
0.449377 -0.14033 0.567 
0.471983 -0.14033 0.567 
0.494588 -0.14033 0.567 
0.519017 -0.140825 0.569 
0.541702 -0.140825 0.569 
0.565379 -0.141072 0.57 
-0.583501 -0.176263 0.719 
-0.556379 -0.176753 0.721 
-0.529098 -0.177244 0.723 
-0.500274 -0.177244 0.723 
-0.474709 -0.178469 0.728 
-0.451195 -0.180676 0.737 
-0.425247 -0.182147 0.743 
-0.394027 -0.181411 0.74 
-0.357397 -0.178714 0.729 
-0.328784 -0.17896 0.73 
-0.300501 -0.17945 0.732 
-0.271688 -0.179695 0.733 
-0.242465 -0.179695 0.733 
-0.213824 -0.180185 0.735 
-0.184772 -0.18043 0.736 
-0.156274 -0.181411 0.74 
-0.126258 -0.180676 0.737 
-0.0974008 -0.181656 0.741 
-0.0679502 -0.181901 0.742 
-0.0383682 -0.181901 0.742 
-0.00878625 -0.181901 0.742 
0.0208518 -0.182392 0.744 
0.0505814 -0.182637 0.745 
0.080283 -0.182637 0.745 
0.110132 -0.182882 0.746 
0.139499 -0.182392 0.744 
0.169615 -0.182882 0.746 
0.200158 -0.183617 0.749 
0.230019 -0.183617 0.749 
0.25884 -0.182882 0.746 
0.288968 -0.183127 0.747 
0.316616 -0.181901 0.742 
0.334067 -0.175527 0.716 
0.336277 -0.16278 0.664 
0.335008 -0.149051 0.608 
0.340504 -0.140716 0.574 
0.358324 -0.138755 0.566 
0.380889 -0.138755 0.566 
0.403454 -0.138755 0.566 
0.426772 -0.139 0.567 
0.449377 -0.139 0.567 
0.471983 -0.139 0.567 
0.494588 -0.139 0.567 
0.519017 -0.13949 0.569 
0.541702 -0.13949 0.569 
0.564387 -0.13949 0.569 
-0.583501 -0.174577 0.719 
-0.556379 -0.175062 0.721 
-0.529098 -0.175548 0.723 
-0.500274 -0.175548 0.723 
-0.474709 -0.176762 0.728 
-0.450583 -0.178704 0.736 
-0.425247 -0.180404 0.743 
-0.394027 -0.179676 0.74 
-0.357397 -0.177005 0.729 
-0.328784 -0.177248 0.73 
-0.300501 -0.177733 0.732 
-0.272059 -0.178219 0.734 
-0.242465 -0.177976 0.733 
-0.213824 -0.178462 0.735 
-0.184772 -0.178704 0.736 
-0.156274 -0.179676 0.74 
-0.126086 -0.178704 0.736 
-0.0974008 -0.179918 0.741 
-0.0679502 -0.180161 0.742 
-0.0383682 -0.180161 0.742 
-0.00878625 -0.180161 0.742 
0.0208238 -0.180404 0.743 
0.0505814 -0.18089 0.745 
0.080283 -0.18089 0.745 
0.109985 -0.18089 0.745 
0.139686 -0.18089 0.745 
0.169615 -0.181132 0.746 
0.200158 -0.181861 0.749 
0.229712 -0.181618 0.748 
0.259187 -0.181375 0.747 
0.288968 -0.181375 0.747 
0.316616 -0.180161 0.742 
0.334533 -0.174091 0.717 
0.335264 -0.160737 0.662 
0.336748 -0.14714 0.606 
0.34185 -0.13937 0.574 
0.359651 -0.137428 0.566 
0.381541 -0.137185 0.565 
0.404782 -0.137428 0.566 
0.428102 -0.13767 0.567 
0.450707 -0.13767 0.567 
0.473312 -0.13767 0.567 
0.495917 -0.13767 0.567 
0.521266 -0.138399 0.57 
0.543991 -0.138399 0.57 
0.565721 -0.138156 0.569 
-0.578442 -0.172891 0.719 
-0.552071 -0.173612 0.722 
-0.525461 -0.174333 0.725 
-0.494502 -0.173612 0.722 
-0.469587 -0.175055 0.728 
-0.448431 -0.178181 0.741 
-0.419454 -0.178421 0.742 
-0.383567 -0.175536 0.73 
-0.353978 -0.175295 0.729 
-0.32536 -0.175536 0.73 
-0.297068 -0.176017 0.732 
-0.268616 -0.176497 0.734 
-0.239027 -0.176257 0.733 
-0.210376 -0.176738 0.735 
-0.18132 -0.176978 0.736 
-0.152803 -0.17794 0.74 
-0.122301 -0.176497 0.734 
-0.094052 -0.178421 0.742 
-0.06447 -0.178421 0.742 
-0.034888 -0.178421 0.742 
-0.00530601 -0.178421 0.742 
0.0243087 -0.178662 0.743 
0.0540757 -0.179143 0.745 
0.0836649 -0.178902 0.744 
0.113631 -0.179383 0.746 
0.142988 -0.178902 0.744 
0.173114 -0.179383 0.746 
0.203671 -0.180104 0.749 
0.233221 -0.179864 0.748 
0.263394 -0.180104 0.749 
0.292472 -0.179623 0.747 
0.319233 -0.17794 0.74 
0.33554 -0.171207 0.712 
0.336325 -0.158223 0.658 
0.33791 -0.144997 0.603 
0.343 -0.136341 0.567 
0.364961 -0.1361 0.566 
0.386157 -0.135619 0.564 
0.410091 -0.1361 0.566 
0.433421 -0.136341 0.567 
0.456026 -0.136341 0.567 
0.479475 -0.136581 0.568 
0.501236 -0.136341 0.567 
0.525689 -0.136822 0.569 
0.548374 -0.136822 0.569 
-0.602033 -0.171681 0.721 
-0.571698 -0.171204 0.719 
-0.546054 -0.172157 0.723 
-0.520091 -0.173109 0.727 
-0.487729 -0.171919 0.722 
-0.462123 -0.173109 0.727 
-0.442671 -0.176919 0.743 
-0.413049 -0.176919 0.743 
-0.374655 -0.172871 0.726 
-0.347139 -0.173586 0.729 
-0.318948 -0.174062 0.731 
-0.290201 -0.1743 0.732 
-0.261731 -0.174776 0.734 
-0.232468 -0.174776 0.734 
-0.202928 -0.174538 0.733 
-0.174416 -0.175252 0.736 
-0.145861 -0.176205 0.74 
-0.115101 -0.1743 0.732 
-0.0870915 -0.176681 0.742 
-0.0575095 -0.176681 0.742 
-0.0279275 -0.176681 0.742 
0.00165446 -0.176681 0.742 
0.0313207 -0.177157 0.744 
0.0611463 -0.177633 0.746 
0.090766 -0.177395 0.745 
0.120629 -0.177633 0.746 
0.150169 -0.177395 0.745 
0.180112 -0.177633 0.746 
0.210698 -0.178348 0.749 
0.239916 -0.177872 0.747 
0.270781 -0.178586 0.75 
0.300281 -0.178348 0.749 
0.323971 -0.175014 0.735 
0.336451 -0.16668 0.7 
0.336251 -0.153822 0.646 
0.339882 -0.142631 0.599 
0.34505 -0.134773 0.566 
0.367615 -0.134773 0.566 
0.388802 -0.134297 0.564 
0.412746 -0.134773 0.566 
0.43608 -0.135011 0.567 
0.458685 -0.135011 0.567 
0.482139 -0.135249 0.568 
0.503896 -0.135011 0.567 
0.528358 -0.135487 0.569 
0.551043 -0.135487 0.569 
-0.602886 -0.169754 0.72 
-0.573384 -0.169518 0.719 
-0.546992 -0.170226 0.722 
-0.521796 -0.171404 0.727 
-0.488744 -0.16999 0.721 
-0.46319 -0.171169 0.726 
-0.443816 -0.174941 0.742 
-0.414234 -0.174941 0.742 
-0.375839 -0.170933 0.725 
-0.348849 -0.171876 0.729 
-0.320662 -0.172347 0.731 
-0.291918 -0.172583 0.732 
-0.263452 -0.173055 0.734 
-0.234189 -0.173055 0.734 
-0.204926 -0.173055 0.734 
-0.176142 -0.173526 0.736 
-0.147597 -0.174469 0.74 
-0.116818 -0.172583 0.732 
-0.0888317 -0.174941 0.742 
-0.0592497 -0.174941 0.742 
-0.0296677 -0.174941 0.742 
-8.5657e-05 -0.174941 0.742 
0.0295758 -0.175412 0.744 
0.0593172 -0.175648 0.745 
0.0890188 -0.175648 0.745 
0.11888 -0.175884 0.746 
0.148422 -0.175648 0.745 
0.178363 -0.175884 0.746 
0.208662 -0.176356 0.748 
0.238164 -0.17612 0.747 
0.269022 -0.176827 0.75 
0.298524 -0.176591 0.749 
0.322247 -0.173291 0.735 
0.336245 -0.165746 0.703 
0.335773 -0.152779 0.648 
0.337349 -0.141933 0.602 
0.343 -0.133681 0.567 
0.364961 -0.133446 0.566 
0.386157 -0.132974 0.564 
0.410091 -0.133446 0.566 
0.433421 -0.133681 0.567 
0.456026 -0.133681 0.567 
0.479475 -0.133917 0.568 
0.501236 -0.133681 0.567 
0.525689 -0.134153 0.569 
0.548374 -0.134153 0.569 
-0.605414 -0.168299 0.721 
-0.57507 -0.167832 0.719 
-0.548685 -0.168532 0.722 
-0.52278 -0.169466 0.726 
-0.490435 -0.168299 0.721 
-0.465533 -0.169699 0.727 
-0.445556 -0.173201 0.742 
-0.415974 -0.173201 0.742 
-0.377539 -0.169233 0.725 
-0.350078 -0.169933 0.728 
-0.321936 -0.1704 0.73 
-0.293634 -0.170867 0.732 
-0.265174 -0.171333 0.734 
-0.235911 -0.171333 0.734 
-0.206929 -0.171567 0.735 
-0.177626 -0.171567 0.735 
-0.149332 -0.172734 0.74 
-0.118534 -0.170867 0.732 
-0.0904497 -0.172967 0.741 
-0.0609076 -0.172967 0.741 
-0.0314078 -0.173201 0.742 
-0.00182824 -0.173434 0.743 
0.0277936 -0.173434 0.743 
0.0575701 -0.173901 0.745 
0.0872717 -0.173901 0.745 
0.116973 -0.173901 0.745 
0.146675 -0.173901 0.745 
0.176613 -0.174134 0.746 
0.206631 -0.174368 0.747 
0.236729 -0.174601 0.748 
0.267263 -0.175068 0.75 
0.296768 -0.174835 0.749 
0.321396 -0.172034 0.737 
0.335548 -0.164564 0.705 
0.335254 -0.151025 0.647 
0.337053 -0.140988 0.604 
0.341541 -0.132818 0.569 
0.362306 -0.132118 0.566 
0.383511 -0.131651 0.564 
0.407436 -0.132118 0.566 
0.430761 -0.132352 0.567 
0.453367 -0.132352 0.567 
