# .PCD v.7 - Point Cloud Data file format
VERSION .7
FIELDS x y z
SIZE 4 4 4
TYPE F F F
COUNT 1 1 1
WIDTH 1894
HEIGHT 1
VIEWPOINT 0 0 0 1 0 0 0
POINTS 1894
DATA ascii
0.100713 0.237835 0.632 
0.12571 0.237458 0.631 
0.151823 0.238964 0.635 
0.176861 0.238587 0.634 
0.203412 0.240092 0.638 
0.228848 0.240092 0.638 
0.255878 0.241598 0.642 
0.281035 0.241221 0.641 
0.308025 0.24235 0.644 
0.328518 0.238587 0.634 
0.336495 0.226921 0.603 
0.340207 0.214126 0.569 
0.342483 0.202084 0.537 
0.345596 0.191923 0.51 
0.350761 0.18101 0.481 
0.359939 0.176118 0.468 
0.379406 0.176494 0.469 
0.399802 0.177247 0.471 
0.41858 0.177247 0.471 
0.439215 0.178 0.473 
0.460009 0.178752 0.475 
-0.47201 0.221519 0.585 
-0.450988 0.222655 0.588 
-0.443542 0.230986 0.61 
-0.354694 0.224549 0.593 
-0.296968 0.227199 0.6 
-0.273047 0.227199 0.6 
-0.250372 0.228335 0.603 
-0.227083 0.229093 0.605 
-0.203969 0.230229 0.608 
-0.179434 0.22985 0.607 
-0.155745 0.230607 0.609 
-0.132329 0.232122 0.613 
-0.10877 0.234015 0.618 
-0.0839956 0.233637 0.617 
-0.0594933 0.234015 0.618 
-0.0350805 0.23553 0.622 
-0.0102662 0.235151 0.621 
0.0145152 0.23553 0.622 
0.0395026 0.236666 0.625 
0.0646262 0.237423 0.627 
0.0899093 0.238181 0.629 
0.1159 0.240074 0.634 
0.140954 0.239695 0.633 
0.16619 0.239695 0.633 
0.192939 0.241589 0.638 
0.218374 0.241589 0.638 
0.244574 0.242346 0.64 
0.270934 0.243103 0.642 
0.297915 0.244239 0.645 
0.319616 0.24121 0.637 
0.335262 0.234394 0.619 
0.338426 0.220383 0.582 
0.341745 0.208266 0.55 
0.344497 0.197285 0.521 
0.352649 0.190469 0.503 
0.353053 0.17873 0.472 
0.36872 0.177216 0.468 
0.389033 0.177973 0.47 
0.408639 0.178352 0.471 
0.428324 0.17873 0.472 
0.448089 0.179109 0.473 
0.468921 0.179866 0.475 
-0.458291 0.222891 0.585 
-0.446121 0.228607 0.6 
-0.363199 0.225177 0.591 
-0.304902 0.228225 0.599 
-0.28149 0.228607 0.6 
-0.258857 0.22975 0.603 
-0.235595 0.230512 0.605 
-0.211825 0.230893 0.606 
-0.188284 0.231655 0.608 
-0.164045 0.231655 0.608 
-0.140955 0.23356 0.613 
-0.117086 0.234703 0.616 
-0.0926774 0.235084 0.617 
-0.0680789 0.235084 0.617 
-0.0436918 0.236227 0.62 
-0.0190349 0.236989 0.622 
0.00574445 0.236227 0.62 
0.03061 0.23737 0.623 
0.0558037 0.238894 0.627 
0.0808009 0.238894 0.627 
0.106979 0.241561 0.634 
0.13163 0.240418 0.631 
0.157532 0.241561 0.634 
0.183385 0.242323 0.636 
0.209397 0.243085 0.638 
0.235201 0.243466 0.639 
0.262308 0.24499 0.643 
0.287048 0.244228 0.641 
0.311628 0.243466 0.639 
0.331828 0.239656 0.629 
0.337045 0.22632 0.594 
0.341294 0.214128 0.562 
0.342991 0.201936 0.53 
0.347632 0.192791 0.506 
0.351814 0.184409 0.484 
0.358842 0.178313 0.468 
0.378307 0.178694 0.469 
0.398698 0.179456 0.471 
0.417475 0.179456 0.471 
0.438106 0.180218 0.473 
0.457929 0.180599 0.474 
-0.473052 0.225413 0.588 
-0.450374 0.225797 0.589 
-0.444286 0.234997 0.613 
-0.351704 0.228097 0.595 
-0.28149 0.230014 0.6 
-0.257443 0.231164 0.603 
-0.234177 0.23193 0.605 
-0.210057 0.23193 0.605 
-0.186858 0.23308 0.608 
-0.162886 0.233464 0.609 
-0.139517 0.234997 0.613 
-0.115641 0.236147 0.616 
-0.0912304 0.236531 0.617 
-0.0666319 0.236531 0.617 
-0.0422378 0.237681 0.62 
-0.0175762 0.238447 0.622 
0.00721007 0.238064 0.621 
0.032071 0.238831 0.623 
0.0572741 0.240364 0.627 
0.0824025 0.240748 0.628 
0.108466 0.243048 0.634 
0.132899 0.241514 0.63 
0.159019 0.243048 0.634 
0.184876 0.243814 0.636 
0.210893 0.244581 0.638 
0.2367 0.244965 0.639 
0.264227 0.246881 0.644 
0.288551 0.245731 0.641 
0.313126 0.244965 0.639 
0.332773 0.240748 0.628 
0.337299 0.226947 0.592 
0.340783 0.214296 0.559 
0.343584 0.202795 0.529 
0.348129 0.193595 0.505 
0.350761 0.184394 0.481 
0.359939 0.179411 0.468 
0.379406 0.179794 0.469 
0.399802 0.180561 0.471 
0.41858 0.180561 0.471 
0.439215 0.181327 0.473 
0.459041 0.181711 0.474 
-0.470294 0.226792 0.588 
-0.449131 0.227949 0.591 
-0.444291 0.237978 0.617 
-0.350897 0.229878 0.596 
-0.261251 0.232192 0.602 
-0.238433 0.233349 0.605 
-0.214313 0.233349 0.605 
-0.191136 0.234506 0.608 
-0.166896 0.234506 0.608 
-0.14383 0.236435 0.613 
-0.119586 0.236821 0.614 
-0.0954164 0.237592 0.616 
-0.0709728 0.237978 0.617 
-0.0465246 0.238749 0.619 
-0.021917 0.23952 0.621 
0.00283187 0.238749 0.619 
0.0276879 0.240292 0.623 
0.0528628 0.241835 0.627 
0.07786 0.241835 0.627 
0.103841 0.244149 0.633 
0.128466 0.242992 0.63 
0.154558 0.244535 0.634 
0.180118 0.24492 0.635 
0.206405 0.246077 0.638 
0.232204 0.246463 0.639 
0.259696 0.248392 0.644 
0.283598 0.246849 0.64 
0.309597 0.247234 0.641 
0.329401 0.242992 0.63 
0.337073 0.231035 0.599 
0.340465 0.217921 0.565 
0.343717 0.20635 0.535 
0.346623 0.195936 0.508 
0.353877 0.188994 0.49 
0.356647 0.180508 0.468 
0.376107 0.180894 0.469 
0.395647 0.18128 0.47 
0.415266 0.181665 0.471 
0.435887 0.182437 0.473 
0.454745 0.182437 0.473 
-0.473856 0.228559 0.589 
-0.451139 0.228947 0.59 
-0.368743 0.229335 0.591 
-0.260817 0.233216 0.601 
-0.238433 0.234768 0.605 
-0.213959 0.23438 0.604 
-0.191136 0.235932 0.608 
-0.166896 0.235932 0.608 
-0.14383 0.237872 0.613 
-0.119586 0.23826 0.614 
-0.0954164 0.239037 0.616 
-0.0708578 0.239037 0.616 
-0.0465246 0.240201 0.619 
-0.021917 0.240977 0.621 
0.00283644 0.240589 0.62 
0.0276879 0.241753 0.623 
0.0528628 0.243305 0.627 
0.07786 0.243305 0.627 
0.103841 0.245633 0.633 
0.12867 0.244857 0.631 
0.154558 0.246021 0.634 
0.180118 0.246409 0.635 
0.206405 0.247574 0.638 
0.232204 0.247962 0.639 
0.259696 0.249902 0.644 
0.283598 0.24835 0.64 
0.309597 0.248738 0.641 
0.329401 0.244469 0.63 
0.33651 0.232052 0.598 
0.340465 0.219246 0.565 
0.343717 0.207605 0.535 
0.346623 0.197128 0.508 
0.353877 0.190143 0.49 
0.356647 0.181606 0.468 
0.376107 0.181994 0.469 
0.395647 0.182382 0.47 
0.415266 0.18277 0.471 
0.434966 0.183158 0.472 
0.454745 0.183546 0.473 
-0.472475 0.229941 0.589 
-0.450517 0.230721 0.591 
-0.445738 0.240872 0.617 
-0.352506 0.231893 0.594 
-0.289933 0.234235 0.6 
-0.259408 0.234625 0.601 
-0.237014 0.236187 0.605 
-0.21219 0.235406 0.603 
-0.18971 0.237358 0.608 
-0.165743 0.237748 0.609 
-0.142392 0.23931 0.613 
-0.118338 0.240091 0.615 
-0.0939718 0.240481 0.616 
-0.0695258 0.240872 0.617 
-0.045073 0.241652 0.619 
-0.0204606 0.242433 0.621 
0.00429737 0.242433 0.621 
0.0291957 0.243604 0.624 
0.0542466 0.244385 0.626 
0.0793305 0.244776 0.627 
0.10516 0.246727 0.632 
0.13015 0.246337 0.631 
0.156045 0.247508 0.634 
0.181893 0.248289 0.636 
0.207901 0.24907 0.638 
0.233702 0.24946 0.639 
0.2608 0.251022 0.643 
0.284654 0.24946 0.639 
0.310615 0.249851 0.64 
0.330353 0.245556 0.629 
0.336782 0.232673 0.596 
0.339976 0.2194 0.562 
0.344327 0.208469 0.534 
0.34713 0.197929 0.507 
0.352852 0.190121 0.487 
0.357744 0.182703 0.468 
0.377207 0.183094 0.469 
0.396749 0.183484 0.47 
0.415487 0.183484 0.47 
0.436072 0.184265 0.472 
0.455854 0.184655 0.473 
-0.471094 0.231322 0.589 
-0.449891 0.2325 0.592 
-0.445011 0.242711 0.618 
-0.350672 0.234857 0.598 
-0.310002 0.234857 0.598 
-0.287118 0.235642 0.6 
-0.263198 0.235642 0.6 
-0.240473 0.23682 0.603 
-0.216433 0.23682 0.603 
-0.193988 0.238784 0.608 
-0.169748 0.238784 0.608 
-0.146705 0.240748 0.613 
-0.122465 0.24114 0.614 
-0.0978269 0.240748 0.613 
-0.0738668 0.242319 0.617 
-0.0493481 0.242711 0.618 
-0.0233357 0.243497 0.62 
0.00138243 0.243497 0.62 
0.0261847 0.244282 0.622 
0.0513105 0.245853 0.626 
0.0763896 0.246246 0.627 
0.102034 0.247817 0.631 
0.127392 0.24821 0.632 
0.153071 0.248995 0.634 
0.178629 0.249388 0.635 
0.204908 0.250566 0.638 
0.230705 0.250959 0.639 
0.257384 0.252137 0.642 
0.281656 0.250959 0.639 
0.308574 0.252137 0.642 
0.327923 0.247424 0.63 
0.335668 0.235249 0.599 
0.339741 0.222289 0.566 
0.343743 0.2109 0.537 
0.345432 0.19951 0.508 
0.353448 0.192834 0.491 
0.357744 0.183801 0.468 
0.377207 0.184194 0.469 
0.396749 0.184586 0.47 
0.415487 0.184586 0.47 
0.436072 0.185372 0.472 
0.455854 0.185764 0.473 
-0.473856 0.232703 0.589 
-0.451903 0.233493 0.591 
-0.445736 0.242975 0.615 
-0.353099 0.235074 0.595 
-0.331039 0.236259 0.598 
-0.307711 0.236654 0.599 
-0.284304 0.237049 0.6 
-0.260383 0.237049 0.6 
-0.237645 0.238234 0.603 
-0.213605 0.238234 0.603 
-0.191136 0.24021 0.608 
-0.167171 0.240605 0.609 
-0.14383 0.242185 0.613 
-0.11978 0.242975 0.615 
-0.0951066 0.24258 0.614 
-0.0709728 0.243766 0.617 
-0.0464495 0.244161 0.618 
-0.0175197 0.244951 0.62 
0.00722168 0.245741 0.622 
0.0321225 0.246531 0.624 
0.0571828 0.247321 0.626 
0.0824025 0.248111 0.628 
0.107953 0.249297 0.631 
0.13332 0.249692 0.632 
0.159019 0.250482 0.634 
0.185167 0.251667 0.637 
0.210893 0.252062 0.638 
0.236329 0.252062 0.638 
0.263406 0.253643 0.642 
0.288101 0.252852 0.64 
0.312636 0.252062 0.638 
0.332243 0.247716 0.627 
0.337299 0.233888 0.592 
0.340173 0.220456 0.558 
0.343448 0.207418 0.525 
0.350072 0.197936 0.501 
0.352692 0.186874 0.473 
0.367622 0.184898 0.468 
0.387106 0.185293 0.469 
0.406669 0.185688 0.47 
0.425407 0.185688 0.47 
0.44698 0.186874 0.473 
0.466822 0.187269 0.474 
-0.461823 0.232892 0.586 
-0.448935 0.238456 0.6 
-0.363199 0.234879 0.591 
-0.344235 0.238059 0.599 
-0.318215 0.236469 0.595 
-0.296473 0.238059 0.599 
-0.273047 0.238456 0.6 
-0.249542 0.238854 0.601 
-0.226332 0.239649 0.603 
-0.203633 0.241238 0.607 
-0.179729 0.241636 0.608 
-0.156001 0.24243 0.61 
-0.132329 0.243623 0.613 
-0.10789 0.243623 0.613 
-0.0841317 0.24561 0.618 
-0.0594933 0.24561 0.618 
-0.0349113 0.246007 0.619 
-0.0102662 0.246802 0.621 
0.0145152 0.2472 0.622 
0.0395026 0.248392 0.625 
0.0645232 0.248789 0.626 
0.0899093 0.249982 0.629 
0.115535 0.251174 0.632 
0.140954 0.251571 0.633 
0.16619 0.251571 0.633 
0.192636 0.253161 0.637 
0.218717 0.253956 0.639 
0.24381 0.253558 0.638 
0.270934 0.255148 0.642 
0.296529 0.255148 0.642 
0.318612 0.252366 0.635 
0.334179 0.245212 0.617 
0.33979 0.231303 0.582 
0.342447 0.217393 0.547 
0.3444 0.202688 0.51 
0.35186 0.195534 0.492 
0.354109 0.186393 0.469 
0.372012 0.185996 0.468 
0.391505 0.186393 0.469 
0.411078 0.186791 0.47 
0.43073 0.187188 0.471 
0.451417 0.187983 0.473 
0.471269 0.18838 0.474 
-0.454768 0.233467 0.584 
-0.447001 0.241862 0.605 
-0.356872 0.236665 0.592 
-0.337211 0.239464 0.599 
-0.312284 0.238664 0.597 
-0.289933 0.239863 0.6 
-0.266012 0.239863 0.6 
-0.242898 0.240663 0.602 
-0.218898 0.240663 0.602 
-0.19684 0.243062 0.608 
-0.172884 0.243461 0.609 
-0.149336 0.244661 0.612 
-0.125549 0.24586 0.615 
-0.100538 0.244661 0.612 
-0.0768851 0.247059 0.618 
-0.0522467 0.247059 0.618 
-0.027653 0.247459 0.619 
-0.00298439 0.248259 0.621 
0.0217736 0.248259 0.621 
0.0469062 0.250257 0.626 
0.0719783 0.250657 0.627 
0.0972849 0.251457 0.629 
0.123334 0.253456 0.634 
0.148376 0.253056 0.633 
0.173887 0.253456 0.634 
0.20042 0.255055 0.638 
0.226564 0.255854 0.64 
0.252079 0.255854 0.64 
0.277595 0.255854 0.64 
0.305004 0.257453 0.644 
0.324004 0.252256 0.631 
0.335327 0.242262 0.606 
0.340504 0.229469 0.574 
0.343766 0.216277 0.541 
0.345941 0.202685 0.507 
0.353877 0.195888 0.49 
0.357744 0.187093 0.468 
0.377207 0.187493 0.469 
0.395905 0.187493 0.469 
0.414603 0.187493 0.469 
0.436072 0.188692 0.472 
0.455854 0.189092 0.473 
-0.476619 0.236847 0.589 
-0.453137 0.236847 0.589 
-0.444244 0.244889 0.609 
-0.352295 0.239662 0.596 
-0.329085 0.240064 0.597 
-0.306306 0.240868 0.599 
-0.282897 0.24127 0.6 
-0.258976 0.24127 0.6 
-0.235447 0.241673 0.601 
-0.21219 0.242477 0.603 
-0.18971 0.244487 0.608 
-0.165743 0.244889 0.609 
-0.142392 0.246498 0.613 
-0.118146 0.2469 0.614 
-0.0936667 0.2469 0.614 
-0.0694132 0.247704 0.616 
-0.0450002 0.248509 0.618 
-0.0203947 0.248911 0.619 
0.00430429 0.250117 0.622 
0.0290553 0.249715 0.621 
0.05416 0.251323 0.625 
0.079457 0.25253 0.628 
0.10466 0.252932 0.629 
0.130975 0.255345 0.635 
0.155799 0.25454 0.633 
0.181893 0.255747 0.636 
0.207901 0.256551 0.638 
0.233702 0.256953 0.639 
0.259989 0.257757 0.641 
0.285099 0.257355 0.64 
0.310615 0.257355 0.64 
0.329828 0.25253 0.628 
0.336782 0.239662 0.596 
0.339472 0.224784 0.559 
0.343638 0.213524 0.531 
0.346945 0.203069 0.505 
0.353268 0.195429 0.486 
0.358842 0.188191 0.468 
0.378307 0.188593 0.469 
0.397005 0.188593 0.469 
0.416589 0.188995 0.47 
0.437179 0.189799 0.472 
0.456963 0.190202 0.473 
-0.473052 0.237824 0.588 
-0.451903 0.239037 0.591 
-0.442837 0.247127 0.611 
-0.350086 0.241464 0.597 
-0.326285 0.241464 0.597 
-0.303497 0.242273 0.599 
-0.280083 0.242678 0.6 
-0.256162 0.242678 0.6 
-0.232628 0.243082 0.601 
-0.210057 0.2447 0.605 
-0.186858 0.245913 0.608 
-0.162886 0.246318 0.609 
-0.139289 0.247531 0.612 
-0.115266 0.24834 0.614 
-0.0910826 0.249149 0.616 
-0.0665239 0.249149 0.616 
-0.0421015 0.249958 0.618 
-0.0175197 0.250767 0.62 
0.00721007 0.251171 0.621 
0.0320195 0.251576 0.622 
0.0571828 0.253194 0.626 
0.0824025 0.254002 0.628 
0.107611 0.254407 0.629 
0.133953 0.256834 0.635 
0.158768 0.256025 0.633 
0.184876 0.257238 0.636 
0.210893 0.258047 0.638 
0.236329 0.258047 0.638 
0.262996 0.259261 0.641 
0.288101 0.258856 0.64 
0.312636 0.258047 0.638 
0.332243 0.253598 0.627 
0.337299 0.239442 0.592 
0.340258 0.224881 0.556 
0.342869 0.212747 0.526 
0.34793 0.203445 0.503 
0.354084 0.19576 0.484 
0.361037 0.189288 0.468 
0.380506 0.189693 0.469 
0.399204 0.189693 0.469 
0.418793 0.190097 0.47 
0.439393 0.190906 0.472 
0.459182 0.191311 0.473 
-0.471673 0.239203 0.588 
-0.451279 0.24083 0.592 
-0.442126 0.248966 0.612 
-0.349499 0.242457 0.596 
-0.326285 0.242864 0.597 
-0.303497 0.243678 0.599 
-0.280083 0.244085 0.6 
-0.256162 0.244085 0.6 
-0.232628 0.244491 0.601 
-0.210057 0.246119 0.605 
-0.186858 0.247339 0.608 
-0.162886 0.247746 0.609 
-0.139289 0.248966 0.612 
-0.115078 0.249373 0.613 
-0.0909347 0.250187 0.615 
-0.0665239 0.250594 0.616 
-0.0421015 0.251407 0.618 
-0.0175197 0.252221 0.62 
0.00721007 0.252628 0.621 
0.0320195 0.253034 0.622 
0.0571828 0.254662 0.626 
0.0824025 0.255475 0.628 
0.107611 0.255882 0.629 
0.133953 0.258323 0.635 
0.158768 0.257509 0.633 
0.184876 0.25873 0.636 
0.210893 0.259543 0.638 
0.236329 0.259543 0.638 
0.262996 0.260764 0.641 
0.288551 0.260764 0.641 
0.312636 0.259543 0.638 
0.332243 0.255068 0.627 
0.337299 0.24083 0.592 
0.339646 0.225778 0.555 
0.34214 0.21276 0.523 
0.34911 0.204624 0.503 
0.353751 0.196081 0.482 
0.362134 0.190386 0.468 
0.381606 0.190793 0.469 
0.400304 0.190793 0.469 
0.419896 0.1912 0.47 
0.4405 0.192013 0.472 
0.460291 0.19242 0.473 
-0.469494 0.240173 0.587 
-0.452171 0.243446 0.595 
-0.440682 0.252038 0.616 
-0.348686 0.244264 0.597 
-0.320684 0.244264 0.597 
-0.296473 0.245083 0.599 
-0.273047 0.245492 0.6 
-0.249127 0.245492 0.6 
-0.225581 0.245901 0.601 
-0.203298 0.247947 0.606 
-0.179729 0.248765 0.608 
-0.156001 0.249583 0.61 
-0.132329 0.250811 0.613 
-0.10789 0.250811 0.613 
-0.0838594 0.252038 0.616 
-0.059397 0.252447 0.617 
-0.0348549 0.252856 0.618 
-0.0102496 0.253675 0.62 
0.0145152 0.254493 0.622 
0.0394394 0.255311 0.624 
0.0646262 0.256539 0.627 
0.0897664 0.256948 0.628 
0.115352 0.258175 0.631 
0.141177 0.259403 0.634 
0.166453 0.259403 0.634 
0.192334 0.260221 0.636 
0.218374 0.26104 0.638 
0.24381 0.26104 0.638 
0.270512 0.262267 0.641 
0.296991 0.263085 0.643 
0.31811 0.259403 0.634 
0.334721 0.252856 0.618 
0.339589 0.238945 0.584 
0.341124 0.224625 0.549 
0.342401 0.211123 0.516 
0.351015 0.204167 0.499 
0.352326 0.193938 0.474 
0.366525 0.191484 0.468 
0.386006 0.191893 0.469 
0.404704 0.191893 0.469 
0.425207 0.192711 0.471 
0.444928 0.19312 0.472 
0.465711 0.193938 0.474 
-0.461616 0.240315 0.584 
-0.451093 0.24731 0.601 
-0.365971 0.243195 0.591 
-0.345886 0.245664 0.597 
-0.322084 0.245664 0.597 
-0.299283 0.246487 0.599 
-0.275862 0.246899 0.6 
-0.251941 0.246899 0.6 
-0.22802 0.246899 0.6 
-0.20614 0.249368 0.606 
-0.182581 0.250191 0.608 
-0.158602 0.250602 0.609 
-0.135204 0.252248 0.613 
-0.110765 0.252248 0.613 
-0.0867487 0.253483 0.616 
-0.062291 0.253894 0.617 
-0.0377536 0.254306 0.618 
-0.0131576 0.255129 0.62 
0.0115791 0.25554 0.621 
0.0364541 0.256363 0.623 
0.061587 0.257598 0.626 
0.0868208 0.258421 0.628 
0.112214 0.259244 0.63 
0.138421 0.261301 0.635 
0.163479 0.26089 0.634 
0.189351 0.261713 0.636 
0.215382 0.262536 0.638 
0.240818 0.262536 0.638 
0.267505 0.26377 0.641 
0.293975 0.264593 0.643 
0.316131 0.261713 0.636 
0.33397 0.255952 0.622 
0.339157 0.241961 0.588 
0.340456 0.226324 0.55 
0.342617 0.213979 0.52 
0.350072 0.206161 0.501 
0.353057 0.196696 0.478 
0.363551 0.19217 0.467 
0.383806 0.192993 0.469 
0.402504 0.192993 0.469 
0.422998 0.193816 0.471 
0.442714 0.194227 0.472 
0.463487 0.19505 0.474 
-0.468694 0.242512 0.586 
-0.452931 0.246651 0.596 
-0.438524 0.254514 0.615 
-0.351704 0.246237 0.595 
-0.327982 0.246237 0.595 
-0.305795 0.247478 0.598 
-0.282426 0.247892 0.599 
-0.258976 0.248306 0.6 
-0.235056 0.248306 0.6 
-0.212894 0.250375 0.605 
-0.190022 0.252031 0.609 
-0.165743 0.252031 0.609 
-0.141928 0.252858 0.611 
-0.117761 0.253272 0.612 
-0.0936667 0.2541 0.614 
-0.0695258 0.255341 0.617 
-0.0450002 0.255755 0.618 
-0.0204277 0.256583 0.62 
0.00429045 0.256583 0.62 
0.0291021 0.257411 0.622 
0.05416 0.258652 0.625 
0.079457 0.259894 0.628 
0.104494 0.259894 0.628 
0.131387 0.263618 0.637 
0.155799 0.261963 0.633 
0.181607 0.26279 0.635 
0.207575 0.263618 0.637 
0.233702 0.264446 0.639 
0.259584 0.26486 0.64 
0.28599 0.265687 0.642 
0.310129 0.264446 0.639 
0.329828 0.259894 0.628 
0.336217 0.246237 0.595 
0.339976 0.23258 0.562 
0.341748 0.219337 0.53 
0.346445 0.209405 0.506 
0.352128 0.201128 0.486 
0.358075 0.193265 0.467 
0.378307 0.194092 0.469 
0.396158 0.193679 0.468 
0.417475 0.19492 0.471 
0.436253 0.19492 0.471 
0.456963 0.195748 0.473 
-0.478 0.245135 0.589 
-0.453746 0.244719 0.588 
-0.44494 0.253043 0.608 
-0.365971 0.245967 0.591 
-0.344727 0.247632 0.595 
-0.322084 0.248464 0.597 
-0.298783 0.248881 0.598 
-0.275862 0.249713 0.6 
-0.251941 0.249713 0.6 
-0.22802 0.249713 0.6 
-0.20614 0.25221 0.606 
-0.182581 0.253043 0.608 
-0.158602 0.253459 0.609 
-0.134984 0.254707 0.612 
-0.110765 0.255124 0.613 
-0.0866078 0.255956 0.615 
-0.062291 0.256788 0.617 
-0.0377536 0.257204 0.618 
-0.0131364 0.257621 0.619 
0.0115978 0.258869 0.622 
0.0364541 0.259285 0.623 
0.0616854 0.26095 0.627 
0.0868208 0.261366 0.628 
0.112036 0.261783 0.629 
0.138421 0.26428 0.635 
0.163479 0.263863 0.634 
0.189053 0.26428 0.635 
0.215382 0.265528 0.638 
0.241195 0.265944 0.639 
0.267923 0.267193 0.642 
0.293975 0.267609 0.643 
0.316131 0.264696 0.636 
0.33397 0.258869 0.622 
0.33858 0.244303 0.587 
0.339782 0.22932 0.551 
0.342054 0.216834 0.521 
0.349593 0.208927 0.502 
0.352673 0.199354 0.479 
0.366525 0.194776 0.468 
0.386006 0.195192 0.469 
0.404704 0.195192 0.469 
0.425207 0.196025 0.471 
0.444928 0.196441 0.472 
0.465711 0.197273 0.474 
-0.465945 0.245261 0.586 
-0.453157 0.25112 0.6 
-0.434223 0.256561 0.613 
-0.359041 0.247353 0.591 
-0.336615 0.24819 0.593 
-0.315084 0.249865 0.597 
-0.292259 0.250702 0.599 
-0.268826 0.25112 0.6 
-0.244905 0.25112 0.6 
-0.221353 0.251539 0.601 
-0.199363 0.25405 0.607 
-0.175452 0.254468 0.608 
-0.151461 0.254887 0.609 
-0.127807 0.256143 0.612 
-0.103746 0.25698 0.614 
-0.0793964 0.257398 0.615 
-0.0550561 0.258235 0.617 
-0.0305563 0.259072 0.619 
-0.0058781 0.259072 0.619 
0.0189216 0.260746 0.623 
0.0438296 0.261165 0.624 
0.0690375 0.262421 0.627 
0.0941847 0.262839 0.628 
0.120361 0.26535 0.634 
0.145637 0.26535 0.634 
0.171183 0.265769 0.635 
0.196499 0.265769 0.635 
0.222863 0.267024 0.638 
0.248688 0.267443 0.639 
0.275451 0.268699 0.642 
0.301984 0.269536 0.644 
0.321045 0.264095 0.631 
0.335777 0.256143 0.612 
0.338989 0.241075 0.576 
0.341216 0.227264 0.543 
0.344153 0.215545 0.515 
0.351939 0.208011 0.497 
0.353009 0.196292 0.469 
0.370915 0.195874 0.468 
0.389573 0.195874 0.468 
0.409103 0.196292 0.469 
0.429626 0.197129 0.471 
0.450308 0.197966 0.473 
0.470157 0.198385 0.474 
-0.461035 0.246214 0.585 
-0.45118 0.25379 0.603 
-0.433491 0.25842 0.614 
-0.360427 0.248739 0.591 
-0.338005 0.249581 0.593 
-0.315954 0.250844 0.596 
-0.293173 0.251686 0.598 
-0.270233 0.252527 0.6 
-0.246312 0.252527 0.6 
-0.222392 0.252527 0.6 
-0.200456 0.255053 0.606 
-0.176877 0.255894 0.608 
-0.152889 0.256315 0.609 
-0.127599 0.257157 0.611 
-0.103746 0.25842 0.614 
-0.0793964 0.25884 0.615 
-0.0550561 0.259682 0.617 
-0.0305563 0.260524 0.619 
-0.0058781 0.260524 0.619 
0.0189216 0.262207 0.623 
0.0437593 0.262207 0.623 
0.0690375 0.263891 0.627 
0.0941847 0.264312 0.628 
0.120361 0.266837 0.634 
0.145637 0.266837 0.634 
0.171183 0.267258 0.635 
0.196499 0.267258 0.635 
0.222863 0.268521 0.638 
0.248688 0.268942 0.639 
0.275451 0.270204 0.642 
0.301984 0.271046 0.644 
0.320536 0.265154 0.63 
0.336325 0.257999 0.613 
0.338401 0.242005 0.575 
0.341216 0.228537 0.543 
0.344153 0.216753 0.515 
0.351939 0.209177 0.497 
0.351557 0.197813 0.47 
0.36872 0.196971 0.468 
0.388206 0.197392 0.469 
0.406904 0.197392 0.469 
0.427417 0.198234 0.471 
0.447142 0.198655 0.472 
0.467934 0.199497 0.474 
-0.458291 0.247586 0.585 
-0.449839 0.25605 0.605 
-0.430612 0.25986 0.614 
-0.366736 0.249702 0.59 
-0.346122 0.251818 0.595 
-0.322401 0.251818 0.595 
-0.299683 0.252665 0.597 
-0.276807 0.253511 0.599 
-0.253348 0.253934 0.6 
-0.229427 0.253934 0.6 
-0.206534 0.255204 0.603 
-0.184007 0.25732 0.608 
-0.16003 0.257743 0.609 
-0.136196 0.25859 0.611 
-0.112203 0.259436 0.613 
-0.0877638 0.259436 0.613 
-0.0636347 0.260706 0.616 
-0.0392029 0.261552 0.618 
-0.0145881 0.261976 0.619 
0.0101554 0.263669 0.623 
0.0349931 0.263669 0.623 
0.0601189 0.264938 0.626 
0.0852121 0.265361 0.627 
0.110385 0.265785 0.628 
0.136716 0.268324 0.634 
0.161992 0.268324 0.634 
0.187564 0.268747 0.635 
0.213551 0.269594 0.637 
0.239697 0.27044 0.639 
0.266417 0.27171 0.642 
0.292467 0.272133 0.643 
0.314639 0.26917 0.636 
0.33358 0.264092 0.624 
0.338352 0.249279 0.589 
0.340456 0.232773 0.55 
0.341958 0.219653 0.519 
0.349373 0.211612 0.5 
0.350842 0.201031 0.475 
0.363551 0.197646 0.467 
0.382988 0.198069 0.468 
0.401646 0.198069 0.468 
0.422998 0.199338 0.471 
0.441776 0.199338 0.471 
0.462509 0.200185 0.473 
-0.466741 0.249809 0.587 
-0.453157 0.255341 0.6 
-0.439251 0.261299 0.614 
-0.377059 0.251511 0.591 
-0.354694 0.252362 0.593 
-0.331052 0.252362 0.593 
-0.308966 0.253639 0.596 
-0.286161 0.25449 0.598 
-0.263198 0.255341 0.6 
-0.238878 0.254916 0.599 
-0.215715 0.255767 0.601 
-0.193669 0.25832 0.607 
-0.169748 0.258746 0.608 
-0.145987 0.259597 0.61 
-0.121668 0.259597 0.61 
-0.0978269 0.260874 0.613 
-0.073747 0.262151 0.616 
-0.0478988 0.263002 0.618 
-0.0233357 0.263853 0.62 
0.00138466 0.264278 0.621 
0.0262689 0.265555 0.624 
0.0512285 0.265981 0.625 
0.0763896 0.266832 0.627 
0.101549 0.267257 0.628 
0.127997 0.270236 0.635 
0.153071 0.269811 0.634 
0.178629 0.270236 0.635 
0.204266 0.270662 0.636 
0.230344 0.271513 0.638 
0.256181 0.271939 0.639 
0.28342 0.273641 0.643 
0.307613 0.272364 0.64 
0.327403 0.267683 0.629 
0.336228 0.255341 0.6 
0.339741 0.240872 0.566 
0.341748 0.225552 0.53 
0.345761 0.214912 0.505 
0.351403 0.206401 0.485 
0.357744 0.199166 0.468 
0.376402 0.199166 0.468 
0.395061 0.199166 0.468 
0.415487 0.200017 0.47 
0.434225 0.200017 0.47 
0.455854 0.201294 0.473 
-0.475809 0.251614 0.588 
-0.453906 0.252469 0.59 
-0.444244 0.2606 0.609 
-0.424102 0.263167 0.615 
-0.362585 0.252469 0.59 
-0.340787 0.253753 0.593 
-0.318215 0.254609 0.595 
-0.295978 0.255893 0.598 
-0.273047 0.256749 0.6 
-0.248711 0.256321 0.599 
-0.225206 0.256749 0.6 
-0.202291 0.258032 0.603 
-0.179729 0.260172 0.608 
-0.155489 0.260172 0.608 
-0.131897 0.261456 0.611 
-0.107714 0.261884 0.612 
-0.0835871 0.262739 0.614 
-0.0592045 0.263167 0.615 
-0.0305563 0.264879 0.619 
-0.0058781 0.264879 0.619 
0.018952 0.267018 0.624 
0.0437593 0.266591 0.623 
0.0689274 0.267874 0.626 
0.0940347 0.268302 0.627 
0.119981 0.270442 0.632 
0.145407 0.27087 0.633 
0.171183 0.271726 0.635 
0.196499 0.271726 0.635 
0.222514 0.272581 0.637 
0.248688 0.273437 0.639 
0.275451 0.274721 0.642 
0.301984 0.275577 0.644 
0.320536 0.269586 0.63 
0.336325 0.262311 0.613 
0.338401 0.246051 0.575 
0.341859 0.230218 0.538 
0.3444 0.218236 0.51 
0.351145 0.210106 0.491 
0.353354 0.200264 0.468 
0.372012 0.200264 0.468 
0.39067 0.200264 0.468 
0.410203 0.200692 0.469 
0.43073 0.201548 0.471 
0.450462 0.201976 0.472 
0.470274 0.202403 0.473 
-0.459074 0.252132 0.586 
-0.449839 0.260307 0.605 
-0.42991 0.263749 0.613 
-0.375038 0.253853 0.59 
-0.353899 0.255574 0.594 
-0.329661 0.255144 0.593 
-0.307568 0.256435 0.596 
-0.284759 0.257295 0.598 
-0.26179 0.258156 0.6 
-0.237473 0.257725 0.599 
-0.214306 0.258586 0.601 
-0.191928 0.260737 0.606 
-0.168322 0.261598 0.608 
-0.144556 0.262458 0.61 
-0.120237 0.262458 0.61 
-0.0962321 0.263319 0.612 
-0.0723024 0.26504 0.616 
-0.0478988 0.2659 0.618 
-0.0233357 0.266761 0.62 
0.00138689 0.267621 0.622 
0.0262268 0.268052 0.623 
0.0511465 0.268482 0.624 
0.0763896 0.269773 0.627 
0.101387 0.269773 0.627 
0.127795 0.272784 0.634 
0.15283 0.272354 0.633 
0.178347 0.272784 0.634 
0.204266 0.273645 0.636 
0.230344 0.274506 0.638 
0.256181 0.274936 0.639 
0.282979 0.276227 0.642 
0.308093 0.275796 0.641 
0.327403 0.270633 0.629 
0.336228 0.258156 0.6 
0.339741 0.243527 0.566 
0.343102 0.230619 0.536 
0.345432 0.218572 0.508 
0.351288 0.209967 0.488 
0.355549 0.201361 0.468 
0.374207 0.201361 0.468 
0.392866 0.201361 0.468 
0.412403 0.201792 0.469 
0.43202 0.202222 0.47 
0.452676 0.203082 0.472 
-0.47913 0.253939 0.587 
-0.454951 0.253506 0.586 
-0.447792 0.263024 0.608 
-0.421285 0.265187 0.613 
-0.368119 0.255237 0.59 
-0.347518 0.2574 0.595 
-0.323252 0.256967 0.594 
-0.301083 0.258265 0.597 
-0.278211 0.25913 0.599 
-0.254755 0.259563 0.6 
-0.230449 0.25913 0.599 
-0.207258 0.259995 0.601 
-0.185128 0.262591 0.607 
-0.161193 0.263024 0.608 
-0.137404 0.263889 0.61 
-0.11327 0.264321 0.611 
-0.0892014 0.265187 0.613 
-0.064868 0.265619 0.614 
-0.0406522 0.26735 0.618 
-0.0160397 0.267782 0.619 
0.00870829 0.269945 0.624 
0.0334782 0.26908 0.622 
0.0586508 0.270811 0.626 
0.0837417 0.271243 0.627 
0.108912 0.271676 0.628 
0.134803 0.273406 0.632 
0.160505 0.274271 0.634 
0.186075 0.274704 0.635 
0.212057 0.275569 0.637 
0.237825 0.276002 0.638 
0.264499 0.2773 0.641 
0.290054 0.2773 0.641 
0.31364 0.275569 0.637 
0.332117 0.269945 0.624 
0.337543 0.255237 0.59 
0.34087 0.240961 0.557 
0.341565 0.226685 0.524 
0.34793 0.2176 0.503 
0.350815 0.206785 0.478 
0.361361 0.202026 0.467 
0.380793 0.202459 0.468 
0.399451 0.202459 0.468 
0.419896 0.203324 0.47 
0.439567 0.203757 0.471 
0.460291 0.204622 0.473 
-0.471673 0.25575 0.588 
-0.453566 0.258795 0.595 
-0.443571 0.267059 0.614 
-0.39217 0.258795 0.595 
-0.359041 0.257055 0.591 
-0.336615 0.257925 0.593 
-0.314029 0.258795 0.595 
-0.291283 0.259665 0.597 
-0.268826 0.26097 0.6 
-0.244497 0.260535 0.599 
-0.220984 0.26097 0.6 
-0.197721 0.26184 0.602 
-0.175452 0.264449 0.608 
-0.151212 0.264449 0.608 
-0.127599 0.265754 0.611 
-0.103239 0.265754 0.611 
-0.0795256 0.267929 0.616 
-0.0547884 0.267059 0.614 
-0.0305563 0.269234 0.619 
-0.0058876 0.269669 0.62 
0.018952 0.271409 0.624 
0.0436891 0.270539 0.622 
0.0688173 0.271844 0.625 
0.0940347 0.272714 0.627 
0.119791 0.274453 0.631 
0.144948 0.274453 0.631 
0.170644 0.275323 0.633 
0.196808 0.276628 0.636 
0.222863 0.277498 0.638 
0.248688 0.277933 0.639 
0.275451 0.279238 0.642 
0.301984 0.280108 0.644 
0.320536 0.274018 0.63 
0.335777 0.266189 0.612 
0.337812 0.249661 0.574 
0.341845 0.236613 0.544 
0.344153 0.223999 0.515 
0.350523 0.2153 0.495 
0.351159 0.203557 0.468 
0.369027 0.203122 0.467 
0.388475 0.203557 0.468 
0.408003 0.203991 0.469 
0.427611 0.204426 0.47 
0.448249 0.205296 0.472 
0.468056 0.205731 0.473 
-0.461234 0.256692 0.587 
-0.449766 0.263689 0.603 
-0.432786 0.268062 0.613 
-0.370887 0.258004 0.59 
-0.350308 0.260191 0.595 
-0.325489 0.259316 0.593 
-0.303884 0.261065 0.597 
-0.280552 0.261502 0.598 
-0.257569 0.262377 0.6 
-0.233648 0.262377 0.6 
-0.210077 0.262814 0.601 
-0.187355 0.264563 0.605 
-0.164045 0.265875 0.608 
-0.140265 0.26675 0.61 
-0.115945 0.26675 0.61 
-0.0920766 0.268062 0.613 
-0.0677479 0.268499 0.614 
-0.0434804 0.269811 0.617 
-0.0189431 0.270686 0.619 
0.00578151 0.272872 0.624 
0.0305608 0.271997 0.622 
0.0557147 0.273747 0.626 
0.0808009 0.274184 0.627 
0.105967 0.274621 0.628 
0.13163 0.275933 0.631 
0.157035 0.27637 0.632 
0.182808 0.277245 0.634 
0.209069 0.278557 0.637 
0.234833 0.278994 0.638 
0.261084 0.279869 0.64 
0.2866 0.279869 0.64 
0.31114 0.278994 0.638 
0.330773 0.274184 0.627 
0.33591 0.258879 0.592 
0.339472 0.244448 0.559 
0.342285 0.230454 0.527 
0.346751 0.219959 0.503 
0.349303 0.209464 0.479 
0.35917 0.204217 0.467 
0.378597 0.204654 0.468 
0.397256 0.204654 0.468 
0.417691 0.205529 0.47 
0.436429 0.205529 0.47 
0.458072 0.206841 0.473 
-0.474431 0.258508 0.588 
-0.453289 0.259827 0.591 
-0.445724 0.269499 0.613 
-0.409293 0.267301 0.608 
-0.358261 0.260267 0.592 
-0.335224 0.260707 0.593 
-0.312633 0.261586 0.595 
-0.289883 0.262465 0.597 
-0.267419 0.263784 0.6 
-0.243092 0.263344 0.599 
-0.219943 0.264224 0.601 
-0.196309 0.264663 0.602 
-0.173739 0.266862 0.607 
-0.150032 0.267741 0.609 
-0.126166 0.26862 0.611 
-0.101806 0.26862 0.611 
-0.0779542 0.270379 0.615 
-0.0534354 0.270379 0.615 
-0.0290577 0.271698 0.618 
-0.00443359 0.272577 0.62 
0.0203827 0.273896 0.623 
0.0451478 0.273456 0.622 
0.0701706 0.274335 0.624 
0.0955051 0.275654 0.627 
0.121079 0.276973 0.63 
0.146196 0.276973 0.63 
0.172128 0.278292 0.633 
0.1983 0.279611 0.636 
0.224359 0.28049 0.638 
0.249795 0.28049 0.638 
0.276094 0.28137 0.64 
0.303023 0.282689 0.643 
0.322013 0.276973 0.63 
0.335559 0.267741 0.609 
0.337976 0.251474 0.572 
0.34249 0.238725 0.543 
0.34402 0.225535 0.513 
0.351419 0.216743 0.493 
0.352257 0.205752 0.468 
0.370915 0.205752 0.468 
0.389573 0.205752 0.468 
0.408231 0.205752 0.468 
0.428714 0.206631 0.47 
0.449356 0.20751 0.472 
0.469165 0.20795 0.473 
-0.454951 0.259003 0.586 
-0.448528 0.269169 0.609 
-0.420654 0.269611 0.61 
-0.365971 0.261213 0.591 
-0.343568 0.262097 0.593 
-0.321005 0.262981 0.595 
-0.298283 0.263865 0.597 
-0.275402 0.264749 0.599 
-0.251521 0.264749 0.599 
-0.22802 0.265191 0.6 
-0.204439 0.265633 0.601 
-0.18198 0.267843 0.606 
-0.158341 0.268727 0.608 
-0.134543 0.269611 0.61 
-0.110223 0.269611 0.61 
-0.086467 0.271379 0.614 
-0.0618872 0.270937 0.613 
-0.0376925 0.272705 0.617 
-0.0131364 0.273589 0.619 
0.0116351 0.275799 0.624 
0.0363371 0.274473 0.621 
0.0614886 0.276241 0.625 
0.0866826 0.277125 0.627 
0.112036 0.278009 0.629 
0.137331 0.278451 0.63 
0.162963 0.279335 0.632 
0.189053 0.280661 0.635 
0.215044 0.281545 0.637 
0.240818 0.281987 0.638 
0.267088 0.282871 0.64 
0.293061 0.283313 0.641 
0.315634 0.280661 0.635 
0.333433 0.274473 0.621 
0.336849 0.258119 0.584 
0.339782 0.243534 0.551 
0.34271 0.230716 0.522 
0.3482 0.220993 0.5 
0.349733 0.208617 0.472 
0.364646 0.206407 0.467 
0.384085 0.206849 0.468 
0.402743 0.206849 0.468 
0.423202 0.207733 0.47 
0.442881 0.208175 0.471 
0.463619 0.209059 0.473 
-0.464778 0.261266 0.588 
-0.451093 0.267043 0.601 
-0.409293 0.270153 0.608 
-0.360427 0.262599 0.591 
-0.338005 0.263488 0.593 
-0.315424 0.264377 0.595 
-0.292683 0.265265 0.597 
-0.270233 0.266598 0.6 
-0.245902 0.266154 0.599 
-0.222762 0.267043 0.601 
-0.198802 0.267043 0.601 
-0.176586 0.269709 0.607 
-0.152889 0.270597 0.609 
-0.129032 0.271486 0.611 
-0.104501 0.271042 0.61 
-0.0808387 0.273263 0.615 
-0.0562284 0.272819 0.614 
-0.0319563 0.274596 0.618 
-0.00732977 0.275041 0.619 
0.0174606 0.276818 0.623 
0.0421625 0.275929 0.621 
0.0672438 0.277262 0.624 
0.0925643 0.278595 0.627 
0.118124 0.279928 0.63 
0.143241 0.279928 0.63 
0.168892 0.280817 0.632 
0.195317 0.282594 0.636 
0.221367 0.283483 0.638 
0.246803 0.283483 0.638 
0.273092 0.284372 0.64 
0.300007 0.285704 0.643 
0.320071 0.280817 0.632 
0.335434 0.272819 0.614 
0.337052 0.25549 0.575 
0.342447 0.243049 0.547 
0.343611 0.229275 0.516 
0.350068 0.220388 0.496 
0.351159 0.207947 0.468 
0.369027 0.207502 0.467 
0.388475 0.207947 0.468 
0.407134 0.207947 0.468 
0.427611 0.208835 0.47 
0.447299 0.20928 0.471 
0.468056 0.210168 0.473 
-0.455547 0.261305 0.585 
-0.449218 0.271579 0.608 
-0.405773 0.271132 0.607 
-0.356084 0.264879 0.593 
-0.332443 0.264879 0.593 
-0.309842 0.265772 0.595 
-0.287564 0.267112 0.598 
-0.264605 0.268005 0.6 
-0.240684 0.268005 0.6 
-0.217486 0.268899 0.602 
-0.193485 0.268899 0.602 
-0.170892 0.271132 0.607 
-0.147176 0.272025 0.609 
-0.123502 0.273365 0.612 
-0.0991026 0.273365 0.612 
-0.0749475 0.274259 0.614 
-0.050633 0.275152 0.616 
-0.026159 0.276046 0.618 
-0.00152804 0.277386 0.621 
0.0232673 0.277832 0.622 
0.0481425 0.278279 0.623 
0.0732145 0.279172 0.625 
0.098446 0.280066 0.627 
0.124034 0.281406 0.63 
0.149151 0.281406 0.63 
0.175097 0.282746 0.633 
0.201283 0.284086 0.636 
0.227352 0.284979 0.638 
0.252788 0.284979 0.638 
0.279095 0.285872 0.64 
0.305087 0.286319 0.641 
0.324968 0.281406 0.63 
0.334821 0.268005 0.6 
0.33662 0.251478 0.563 
0.343121 0.240312 0.538 
0.344241 0.226911 0.508 
0.352296 0.219318 0.491 
0.35698 0.208598 0.467 
0.375598 0.208598 0.467 
0.395061 0.209044 0.468 
0.414603 0.209491 0.469 
0.434225 0.209938 0.47 
0.45489 0.210831 0.472 
-0.470294 0.264024 0.588 
-0.452931 0.267616 0.596 
-0.440682 0.276597 0.616 
-0.389288 0.268065 0.597 
-0.351704 0.267167 0.595 
-0.32688 0.266269 0.593 
-0.304261 0.267167 0.595 
-0.281954 0.268514 0.598 
-0.258545 0.268963 0.599 
-0.235056 0.269412 0.6 
-0.21219 0.27076 0.603 
-0.18815 0.27076 0.603 
-0.16547 0.273005 0.608 
-0.141463 0.273454 0.609 
-0.117761 0.274801 0.612 
-0.0935142 0.27525 0.613 
-0.0691878 0.275699 0.614 
-0.0447817 0.276148 0.615 
-0.0203618 0.277495 0.618 
0.00429737 0.278842 0.621 
0.0290553 0.278842 0.621 
0.0540733 0.280189 0.624 
0.0792039 0.281087 0.626 
0.104494 0.281985 0.628 
0.129737 0.282434 0.629 
0.15506 0.282883 0.63 
0.181321 0.284679 0.634 
0.207575 0.286026 0.637 
0.233337 0.286475 0.638 
0.258772 0.286475 0.638 
0.285099 0.287373 0.64 
0.309644 0.286475 0.638 
0.329828 0.281985 0.628 
0.334522 0.26582 0.592 
0.337556 0.250554 0.558 
0.341748 0.237981 0.53 
0.345076 0.226306 0.504 
0.348573 0.214632 0.478 
0.35917 0.209693 0.467 
0.377788 0.209693 0.467 
0.397256 0.210142 0.468 
0.416803 0.210591 0.469 
0.437358 0.211489 0.471 
0.457104 0.211938 0.472 
-0.466741 0.264952 0.587 
-0.453157 0.27082 0.6 
-0.440682 0.278041 0.616 
-0.396124 0.271271 0.601 
-0.357475 0.26766 0.593 
-0.333833 0.26766 0.593 
-0.311238 0.268563 0.595 
-0.288483 0.269465 0.597 
-0.265568 0.270368 0.599 
-0.242091 0.27082 0.6 
-0.218898 0.271722 0.602 
-0.194897 0.271722 0.602 
-0.171748 0.273076 0.605 
-0.148604 0.274882 0.609 
-0.125141 0.276687 0.613 
-0.100702 0.276687 0.613 
-0.0762631 0.276687 0.613 
-0.0520777 0.278041 0.616 
-0.0276084 0.278944 0.618 
-0.00297959 0.279847 0.62 
0.0218087 0.28075 0.622 
0.0466065 0.28075 0.622 
0.0718635 0.282555 0.626 
0.0969755 0.283006 0.627 
0.122362 0.283909 0.629 
0.147673 0.284361 0.63 
0.173338 0.285263 0.632 
0.199477 0.286617 0.635 
0.225856 0.287971 0.638 
0.250897 0.28752 0.637 
0.277161 0.288423 0.639 
0.303584 0.289326 0.641 
0.323491 0.284361 0.63 
0.334774 0.273076 0.605 
0.33649 0.255022 0.565 
0.343766 0.244189 0.541 
0.344241 0.229294 0.508 
0.352296 0.221621 0.491 
0.35698 0.210788 0.467 
0.375598 0.210788 0.467 
0.395061 0.211239 0.468 
0.414603 0.211691 0.469 
0.434225 0.212142 0.47 
0.453926 0.212593 0.471 
-0.472247 0.266328 0.587 
-0.453432 0.269051 0.593 
-0.447185 0.27994 0.617 
-0.388636 0.270412 0.596 
-0.361813 0.268143 0.591 
-0.339396 0.269051 0.593 
-0.316819 0.269958 0.595 
-0.293591 0.270412 0.596 
-0.271187 0.271773 0.599 
-0.247719 0.272227 0.6 
-0.224545 0.273134 0.602 
-0.200544 0.273134 0.602 
-0.17713 0.274042 0.604 
-0.154317 0.27631 0.609 
-0.130464 0.277218 0.611 
-0.106279 0.277671 0.612 
-0.0820134 0.278125 0.613 
-0.0577622 0.279032 0.615 
-0.0334056 0.280394 0.618 
-0.00878143 0.280847 0.619 
0.0159739 0.282208 0.622 
0.0407062 0.281755 0.621 
0.0658858 0.283569 0.625 
0.0910938 0.284477 0.627 
0.116276 0.284931 0.628 
0.141538 0.285384 0.629 
0.167145 0.286292 0.631 
0.193521 0.288107 0.635 
0.219526 0.289014 0.637 
0.244922 0.289014 0.637 
0.271167 0.289921 0.639 
0.298035 0.291283 0.642 
0.318589 0.286745 0.632 
0.335082 0.279486 0.616 
0.336466 0.26043 0.574 
0.341845 0.246819 0.544 
0.343349 0.2323 0.512 
0.351683 0.224587 0.495 
0.352257 0.212337 0.468 
0.36933 0.211429 0.466 
0.389573 0.212337 0.468 
0.408231 0.212337 0.468 
0.428714 0.213244 0.47 
0.448404 0.213698 0.471 
0.468173 0.214152 0.472 
-0.456326 0.267249 0.586 
-0.449265 0.278194 0.61 
-0.409293 0.277282 0.608 
-0.366736 0.269073 0.59 
-0.346122 0.271354 0.595 
-0.321859 0.270897 0.594 
-0.298679 0.271354 0.595 
-0.276807 0.273178 0.599 
-0.252926 0.273178 0.599 
-0.229809 0.27409 0.601 
-0.206534 0.275002 0.603 
-0.182796 0.275458 0.604 
-0.159767 0.277282 0.608 
-0.135973 0.278194 0.61 
-0.111837 0.27865 0.611 
-0.0877638 0.279563 0.613 
-0.0635314 0.280475 0.615 
-0.039076 0.280931 0.616 
-0.0145645 0.281843 0.618 
0.0101228 0.283211 0.621 
0.0348808 0.283211 0.621 
0.0599268 0.284579 0.624 
0.0852121 0.285947 0.627 
0.110385 0.286403 0.628 
0.135422 0.286403 0.628 
0.160715 0.286859 0.629 
0.187564 0.289596 0.635 
0.213551 0.290508 0.637 
0.238946 0.290508 0.637 
0.264757 0.290964 0.638 
0.292012 0.292788 0.642 
0.314145 0.289596 0.635 
0.332511 0.283667 0.622 
0.33548 0.266337 0.584 
0.339166 0.250831 0.55 
0.34271 0.238061 0.522 
0.3482 0.228028 0.5 
0.349364 0.215715 0.473 
0.362772 0.212522 0.466 
0.382988 0.213434 0.468 
0.401646 0.213434 0.468 
0.421202 0.21389 0.469 
0.441776 0.214803 0.471 
0.460554 0.214803 0.471 
-0.466741 0.269082 0.587 
-0.453912 0.275499 0.601 
-0.424978 0.278708 0.608 
-0.377059 0.270915 0.591 
-0.35589 0.272749 0.595 
-0.33161 0.27229 0.594 
-0.308447 0.272749 0.595 
-0.286161 0.274124 0.598 
-0.262759 0.274583 0.599 
-0.239277 0.275041 0.6 
-0.216433 0.276416 0.603 
-0.192392 0.276416 0.603 
-0.168911 0.277333 0.605 
-0.145748 0.279167 0.609 
-0.122067 0.280542 0.612 
-0.0979865 0.281459 0.614 
-0.0733879 0.281 0.613 
-0.0491884 0.282375 0.616 
-0.0247097 0.283292 0.618 
-7.15733e-05 0.284209 0.62 
0.024726 0.285126 0.622 
0.0495239 0.285126 0.622 
0.0747997 0.286959 0.626 
0.0999164 0.287418 0.627 
0.125113 0.287876 0.628 
0.150389 0.288335 0.629 
0.176582 0.290168 0.633 
0.202137 0.290627 0.634 
0.228489 0.292002 0.637 
0.253885 0.292002 0.637 
0.280158 0.292919 0.639 
0.305634 0.292919 0.639 
0.325927 0.288335 0.629 
0.334821 0.275041 0.6 
0.335539 0.256246 0.559 
0.342462 0.245245 0.535 
0.344072 0.231951 0.506 
0.348614 0.217741 0.475 
0.359813 0.213157 0.465 
0.379979 0.214074 0.467 
0.399451 0.214532 0.468 
0.419002 0.21499 0.469 
0.438634 0.215449 0.47 
0.458345 0.215907 0.471 
-0.468694 0.269998 0.586 
-0.455211 0.275987 0.599 
-0.434239 0.281516 0.611 
-0.386679 0.273223 0.593 
-0.361813 0.272301 0.591 
-0.339968 0.273684 0.594 
-0.316819 0.274144 0.595 
-0.294083 0.275066 0.597 
-0.271187 0.275987 0.599 
-0.247719 0.276448 0.6 
-0.224545 0.27737 0.602 
-0.200544 0.27737 0.602 
-0.176837 0.27783 0.603 
-0.154064 0.280134 0.608 
-0.130251 0.281055 0.61 
-0.106626 0.282898 0.614 
-0.0820134 0.282438 0.613 
-0.0578562 0.28382 0.616 
-0.0334056 0.284741 0.618 
-0.00878143 0.285202 0.619 
0.0159482 0.286124 0.621 
0.0407062 0.286124 0.621 
0.0658858 0.287967 0.625 
0.0910938 0.288888 0.627 
0.116276 0.289349 0.628 
0.141538 0.28981 0.629 
0.166615 0.28981 0.629 
0.193521 0.292574 0.635 
0.219526 0.293496 0.637 
0.244922 0.293496 0.637 
0.271167 0.294417 0.639 
0.298035 0.295799 0.642 
0.318589 0.291192 0.632 
0.33345 0.282438 0.613 
0.335704 0.264929 0.575 
0.341216 0.250185 0.543 
0.343349 0.235902 0.512 
0.350263 0.227148 0.493 
0.353694 0.215169 0.467 
0.371515 0.214708 0.466 
0.390931 0.215169 0.467 
0.410426 0.215629 0.468 
0.430001 0.21609 0.469 
0.449656 0.216551 0.47 
-0.477498 0.270909 0.585 
-0.456504 0.272298 0.588 
-0.451474 0.283875 0.613 
-0.414314 0.281097 0.607 
-0.366736 0.273224 0.59 
-0.346122 0.27554 0.595 
-0.322401 0.27554 0.595 
-0.299181 0.276003 0.596 
-0.276807 0.277392 0.599 
-0.252926 0.277392 0.599 
-0.229809 0.278318 0.601 
-0.206191 0.278781 0.602 
-0.182494 0.279244 0.603 
-0.159504 0.281097 0.607 
-0.13575 0.282023 0.609 
-0.111837 0.282949 0.611 
-0.0877638 0.283875 0.613 
-0.0634281 0.284338 0.614 
-0.0391394 0.285728 0.617 
-0.0145645 0.286191 0.618 
0.0101065 0.287117 0.62 
0.0348808 0.28758 0.621 
0.0598308 0.288506 0.623 
0.0852121 0.290359 0.627 
0.110209 0.290359 0.627 
0.135422 0.290822 0.628 
0.160715 0.291285 0.629 
0.187564 0.294063 0.635 
0.21288 0.294063 0.635 
0.238946 0.29499 0.637 
0.264757 0.295453 0.638 
0.292467 0.297768 0.643 
0.314145 0.294063 0.635 
0.331442 0.287117 0.62 
0.334905 0.269983 0.583 
0.33849 0.255164 0.551 
0.341486 0.241734 0.522 
0.347028 0.231546 0.5 
0.348991 0.219506 0.474 
0.360903 0.215338 0.465 
0.381074 0.216264 0.467 
0.400548 0.216727 0.468 
0.420102 0.21719 0.469 
0.439736 0.217653 0.47 
0.458474 0.217653 0.47 
-0.46732 0.272746 0.586 
-0.454564 0.279262 0.6 
-0.444259 0.289036 0.621 
-0.37227 0.274608 0.59 
-0.352886 0.277866 0.597 
-0.327982 0.276935 0.595 
-0.304261 0.276935 0.595 
-0.281954 0.278331 0.598 
-0.258545 0.278797 0.599 
-0.235056 0.279262 0.6 
-0.211487 0.279728 0.601 
-0.188462 0.281124 0.604 
-0.164654 0.281589 0.605 
-0.141463 0.283451 0.609 
-0.117376 0.283917 0.61 
-0.0935142 0.285313 0.613 
-0.0690751 0.285313 0.613 
-0.0449273 0.287175 0.617 
-0.0203618 0.28764 0.618 
0.00428353 0.288106 0.619 
0.0290553 0.289036 0.621 
0.0539 0.289502 0.622 
0.0793305 0.291829 0.627 
0.104328 0.291829 0.627 
0.129531 0.292294 0.628 
0.154814 0.29276 0.629 
0.181321 0.295087 0.634 
0.206597 0.295087 0.634 
0.232971 0.296483 0.637 
0.258367 0.296483 0.637 
0.285545 0.298345 0.641 
0.309159 0.296483 0.637 
0.329302 0.291829 0.627 
0.333957 0.275073 0.591 
0.336951 0.259248 0.557 
0.341103 0.246216 0.529 
0.345076 0.23458 0.504 
0.34923 0.224341 0.482 
0.355451 0.216428 0.465 
0.37399 0.216428 0.465 
0.395061 0.217825 0.468 
0.413719 0.217825 0.468 
0.433301 0.21829 0.469 
0.452963 0.218755 0.47 
-0.470638 0.273653 0.585 
-0.455726 0.278798 0.596 
-0.453708 0.292832 0.626 
-0.363199 0.276459 0.591 
-0.341361 0.277863 0.594 
-0.31875 0.278798 0.596 
-0.295483 0.279266 0.597 
-0.272592 0.280202 0.599 
-0.248711 0.280202 0.599 
-0.225581 0.281137 0.601 
-0.20162 0.281137 0.601 
-0.178251 0.282073 0.603 
-0.155234 0.283944 0.607 
-0.131466 0.284879 0.609 
-0.107714 0.286283 0.612 
-0.083451 0.28675 0.613 
-0.0592045 0.287686 0.615 
-0.0348549 0.289089 0.618 
-0.0102331 0.289557 0.619 
0.0144685 0.290025 0.62 
0.0391866 0.290025 0.62 
0.064317 0.291896 0.624 
0.0896234 0.293299 0.627 
0.114621 0.293299 0.627 
0.13984 0.293767 0.628 
0.16514 0.294235 0.629 
0.191729 0.296574 0.634 
0.21769 0.297509 0.636 
0.243428 0.297977 0.637 
0.269668 0.298913 0.639 
0.296991 0.300784 0.643 
0.317107 0.295638 0.632 
0.333096 0.287686 0.615 
0.3361 0.270378 0.578 
0.339293 0.254474 0.544 
0.342945 0.240908 0.515 
0.349362 0.231552 0.495 
0.350455 0.219858 0.47 
0.365266 0.217519 0.465 
0.385455 0.218454 0.467 
0.404938 0.218922 0.468 
0.423597 0.218922 0.468 
0.444145 0.219858 0.47 
0.462883 0.219858 0.47 
-0.463197 0.275495 0.586 
-0.453345 0.283957 0.604 
-0.368119 0.277375 0.59 
-0.347518 0.279726 0.595 
-0.323796 0.279726 0.595 
-0.301083 0.280666 0.597 
-0.277747 0.281136 0.598 
-0.25433 0.281606 0.599 
-0.231219 0.282547 0.601 
-0.207258 0.282547 0.601 
-0.183908 0.283487 0.603 
-0.160928 0.285367 0.607 
-0.137178 0.286308 0.609 
-0.113084 0.286778 0.61 
-0.0890559 0.287718 0.612 
-0.0647623 0.288188 0.613 
-0.0405864 0.290069 0.617 
-0.0160138 0.290539 0.618 
0.00863851 0.291009 0.619 
0.0333706 0.291479 0.62 
0.0582761 0.292419 0.622 
0.0836082 0.2943 0.626 
0.108565 0.2943 0.626 
0.133949 0.29524 0.628 
0.15924 0.29571 0.629 
0.185782 0.298061 0.634 
0.211058 0.298061 0.634 
0.237453 0.299471 0.637 
0.263261 0.299941 0.638 
0.290959 0.302292 0.643 
0.313148 0.299001 0.636 
0.33052 0.291949 0.621 
0.33411 0.274554 0.584 
0.33781 0.25951 0.552 
0.341486 0.245406 0.522 
0.347028 0.235064 0.5 
0.348614 0.223311 0.475 
0.359813 0.218609 0.465 
0.378352 0.218609 0.465 
0.399451 0.22002 0.468 
0.418109 0.22002 0.468 
0.4377 0.22049 0.469 
0.457372 0.22096 0.47 
-0.465945 0.276869 0.586 
-0.453912 0.283956 0.601 
-0.370258 0.278286 0.589 
-0.351486 0.282066 0.597 
-0.326587 0.281121 0.595 
-0.303884 0.282066 0.597 
-0.280552 0.282539 0.598 
-0.25714 0.283011 0.599 
-0.233648 0.283484 0.6 
-0.210077 0.283956 0.601 
-0.186736 0.284901 0.603 
-0.163505 0.286318 0.606 
-0.140035 0.287736 0.609 
-0.115755 0.287736 0.609 
-0.0917761 0.288681 0.611 
-0.0676375 0.289626 0.613 
-0.0434804 0.291516 0.617 
-0.0189125 0.291988 0.618 
0.00573519 0.292461 0.619 
0.0304134 0.292461 0.619 
0.0552697 0.293405 0.621 
0.080672 0.295768 0.626 
0.105461 0.295295 0.625 
0.131004 0.296713 0.628 
0.156538 0.297658 0.63 
0.182808 0.299548 0.634 
0.208084 0.299548 0.634 
0.234465 0.300965 0.637 
0.260269 0.301437 0.638 
0.287496 0.303327 0.642 
0.310652 0.300965 0.637 
0.330245 0.295768 0.626 
0.334776 0.278759 0.59 
0.338257 0.263167 0.557 
0.340402 0.248521 0.526 
0.345571 0.237654 0.503 
0.348906 0.226787 0.48 
0.356541 0.2197 0.465 
0.37508 0.2197 0.465 
0.396158 0.221117 0.468 
0.414816 0.221117 0.468 
0.434401 0.22159 0.469 
0.455031 0.222535 0.471 
-0.469266 0.277768 0.585 
-0.455853 0.283941 0.598 
-0.371639 0.279668 0.589 
-0.352295 0.282991 0.596 
-0.327982 0.282517 0.595 
-0.305284 0.283466 0.597 
-0.281954 0.283941 0.598 
-0.258113 0.283941 0.598 
-0.235056 0.284891 0.6 
-0.211135 0.284891 0.6 
-0.18815 0.286315 0.603 
-0.164926 0.28774 0.606 
-0.141463 0.289164 0.609 
-0.117184 0.289164 0.609 
-0.0930565 0.289639 0.61 
-0.0690751 0.291063 0.613 
-0.0449273 0.292963 0.617 
-0.0203288 0.292963 0.617 
0.00428353 0.293912 0.619 
0.0289618 0.293912 0.619 
0.0538133 0.294862 0.621 
0.0790774 0.296761 0.625 
0.103828 0.296286 0.624 
0.129325 0.297711 0.627 
0.15506 0.299135 0.63 
0.181035 0.30056 0.633 
0.206272 0.30056 0.633 
0.232971 0.302459 0.637 
0.258772 0.302934 0.638 
0.28599 0.304833 0.642 
0.309159 0.302459 0.637 
0.329302 0.297711 0.627 
0.333957 0.280617 0.591 
0.337556 0.264948 0.558 
0.340458 0.250704 0.528 
0.344391 0.238833 0.503 
0.348231 0.226013 0.476 
0.358723 0.22079 0.465 
0.377261 0.22079 0.465 
0.398353 0.222215 0.468 
0.417011 0.222215 0.468 
0.4366 0.22269 0.469 
0.45724 0.223639 0.471 
-0.466522 0.27914 0.585 
-0.454564 0.286298 0.6 
-0.364733 0.281049 0.589 
-0.345306 0.284389 0.596 
-0.321005 0.283912 0.595 
-0.298283 0.284866 0.597 
-0.274942 0.285343 0.598 
-0.251101 0.285343 0.598 
-0.22802 0.286298 0.6 
-0.20478 0.287252 0.602 
-0.180779 0.287252 0.602 
-0.158081 0.289638 0.607 
-0.134322 0.290592 0.609 
-0.108793 0.291069 0.61 
-0.0848886 0.292501 0.613 
-0.060351 0.292024 0.612 
-0.0361868 0.293932 0.616 
-0.0116659 0.294887 0.618 
0.0129935 0.295364 0.619 
0.0376109 0.294887 0.618 
0.0627529 0.297272 0.623 
0.0880124 0.298704 0.626 
0.112609 0.29775 0.624 
0.138588 0.300135 0.629 
0.163925 0.300613 0.63 
0.189942 0.302044 0.633 
0.216198 0.303476 0.636 
0.241934 0.303953 0.637 
0.26775 0.30443 0.638 
0.295483 0.306816 0.643 
0.315625 0.301567 0.632 
0.332732 0.29441 0.617 
0.335323 0.276277 0.579 
0.337979 0.260531 0.546 
0.34064 0.246693 0.517 
0.348674 0.238104 0.499 
0.350061 0.223312 0.468 
0.366356 0.221881 0.465 
0.38655 0.222835 0.467 
0.406036 0.223312 0.468 
0.424694 0.223312 0.468 
0.446194 0.224744 0.471 
0.465959 0.225221 0.472 
-0.460641 0.281951 0.588 
-0.450582 0.290582 0.606 
-0.358261 0.283869 0.592 
-0.33692 0.285787 0.596 
-0.313159 0.285787 0.596 
-0.289883 0.286266 0.597 
-0.266528 0.286746 0.598 
-0.243092 0.287225 0.599 
-0.219577 0.287705 0.6 
-0.196635 0.289143 0.603 
-0.172022 0.288184 0.601 
-0.149293 0.290582 0.606 
