# .PCD v.7 - Point Cloud Data file format
VERSION .7
FIELDS x y z
SIZE 4 4 4
TYPE F F F
COUNT 1 1 1
WIDTH 1904
HEIGHT 1
VIEWPOINT 0 0 0 1 0 0 0
POINTS 1904
DATA ascii
-0.264453 0.0813126 0.797 
-0.235576 0.0842713 0.826 
-0.205903 0.0880461 0.863 
-0.16967 0.0909028 0.891 
-0.134899 0.0956979 0.938 
-0.094095 0.0987586 0.968 
-0.051759 0.10437 1.023 
-0.00425996 0.109063 1.069 
0.0473993 0.11345 1.112 
0.10512 0.120183 1.178 
0.165732 0.124468 1.22 
0.228618 0.127835 1.253 
0.310614 0.138344 1.356 
0.394218 0.145893 1.43 
0.498256 0.157728 1.546 
1.46403 0.3933 3.855 
1.61855 0.387281 3.796 
1.82339 0.3933 3.855 
2.05192 0.40289 3.949 
2.24957 0.405339 3.973 
2.42985 0.404522 3.965 
2.60938 0.403706 3.957 
2.86301 0.413705 4.055 
3.32072 0.450127 4.412 
3.82705 0.482876 4.733 
3.64999 0.435436 4.268 
3.80749 0.42707 4.186 
4.20053 0.448188 4.393 
-0.464846 0.0606961 0.586 
-0.449479 0.0623534 0.602 
-0.43052 0.0636999 0.615 
-0.415576 0.065875 0.636 
-0.394427 0.067325 0.65 
-0.375895 0.0695002 0.671 
-0.354891 0.0715717 0.691 
-0.332023 0.0736432 0.711 
-0.309609 0.0768541 0.742 
-0.285032 0.0796507 0.769 
-0.25891 0.082758 0.799 
-0.229714 0.0857618 0.828 
-0.19943 0.0894905 0.864 
-0.165238 0.0929086 0.897 
-0.12962 0.0975695 0.942 
-0.0884431 0.100677 0.972 
-0.0458895 0.107099 1.034 
0.00239694 0.111345 1.075 
0.0545054 0.115592 1.116 
0.113013 0.122635 1.184 
0.17445 0.127193 1.228 
0.239612 0.131543 1.27 
0.3221 0.141797 1.369 
0.405924 0.149151 1.44 
0.512791 0.161684 1.561 
1.47612 0.400947 3.871 
1.63386 0.395457 3.818 
1.84789 0.403329 3.894 
2.08776 0.414929 4.006 
2.26483 0.413169 3.989 
2.45075 0.413169 3.989 
2.6314 0.41234 3.981 
2.91814 0.427152 4.124 
3.37358 0.4633 4.473 
3.81234 0.49023 4.733 
3.66058 0.444967 4.296 
3.97406 0.458018 4.422 
4.01663 0.440099 4.249 
-0.469713 0.0612912 0.583 
-0.448543 0.0632887 0.602 
-0.429564 0.0646554 0.615 
-0.41524 0.0669682 0.637 
-0.394023 0.0684401 0.651 
-0.375411 0.0706478 0.672 
-0.35433 0.0727504 0.692 
-0.331384 0.074853 0.712 
-0.308132 0.0782172 0.744 
-0.283377 0.0810558 0.771 
-0.256748 0.0841045 0.8 
-0.22769 0.0872585 0.83 
-0.196745 0.0908329 0.864 
-0.163175 0.0947227 0.901 
-0.126828 0.0991382 0.943 
-0.0855986 0.102397 0.974 
-0.0381133 0.109441 1.041 
0.0108379 0.113962 1.084 
0.0636278 0.118167 1.124 
0.122933 0.125211 1.191 
0.184889 0.129731 1.234 
0.252621 0.135198 1.286 
0.333707 0.144344 1.373 
0.421165 0.15286 1.454 
0.529626 0.165581 1.575 
1.50289 0.407697 3.878 
1.6806 0.406961 3.871 
1.92161 0.420207 3.997 
2.16592 0.431772 4.107 
2.29937 0.421153 4.006 
2.51154 0.425464 4.047 
2.68349 0.422836 4.022 
2.96875 0.437239 4.159 
3.40138 0.47025 4.473 
3.71932 0.478975 4.556 
3.68977 0.448698 4.268 
3.83859 0.442916 4.213 
4.24566 0.466044 4.433 
-0.456729 0.0631571 0.592 
-0.440734 0.0648641 0.608 
-0.423925 0.0666777 0.625 
-0.406164 0.068598 0.643 
-0.38614 0.0704117 0.66 
-0.366684 0.072652 0.681 
-0.345271 0.0748924 0.702 
-0.321901 0.0771328 0.723 
-0.298196 0.08012 0.751 
-0.273705 0.0833205 0.781 
-0.24581 0.0863076 0.809 
-0.218649 0.0906817 0.85 
-0.184717 0.0935622 0.877 
-0.151057 0.0982563 0.921 
-0.111533 0.10135 0.95 
-0.0658675 0.106258 0.996 
-0.0205564 0.112339 1.053 
0.0298245 0.117459 1.101 
0.0844589 0.12226 1.146 
0.144612 0.128235 1.202 
0.207815 0.132822 1.245 
0.282073 0.14093 1.321 
0.361855 0.148398 1.391 
0.463806 0.161307 1.512 
1.46687 0.439006 4.115 
1.58208 0.418736 3.925 
1.75468 0.416282 3.902 
1.99214 0.428231 4.014 
2.25796 0.4437 4.159 
2.38579 0.431752 4.047 
2.472 0.414575 3.886 
2.75144 0.429938 4.03 
3.03337 0.4437 4.159 
3.45096 0.470691 4.412 
3.67176 0.471758 4.422 
3.8007 0.46237 4.334 
3.84109 0.4437 4.159 
4.39002 0.482747 4.525 
-0.451972 0.0641851 0.593 
-0.436497 0.0660252 0.61 
-0.420465 0.06819 0.63 
-0.401033 0.0699218 0.646 
-0.381258 0.0718701 0.664 
-0.360333 0.0739266 0.683 
-0.339079 0.0763078 0.705 
-0.315775 0.078689 0.727 
-0.292358 0.0816115 0.754 
-0.267789 0.0849668 0.785 
-0.240036 0.088214 0.815 
-0.211221 0.0922188 0.852 
-0.176944 0.0951412 0.879 
-0.144327 0.100986 0.933 
-0.103542 0.103692 0.958 
-0.0613481 0.108022 0.998 
-0.0157524 0.114732 1.06 
0.0350198 0.119387 1.103 
0.0945834 0.125664 1.161 
0.155486 0.131401 1.214 
0.21836 0.135298 1.25 
0.293884 0.14374 1.328 
0.375876 0.151858 1.403 
0.478068 0.164522 1.52 
1.47406 0.438039 4.047 
1.61257 0.424834 3.925 
1.75663 0.415634 3.84 
2.00266 0.43003 3.973 
2.27595 0.447348 4.133 
2.39751 0.434467 4.014 
2.47772 0.4165 3.848 
2.80623 0.439879 4.064 
3.12538 0.458929 4.24 
3.74115 0.50861 4.699 
3.71071 0.476572 4.403 
4.00576 0.487504 4.504 
3.9012 0.451136 4.168 
-0.473517 0.063789 0.581 
-0.448874 0.0653261 0.595 
-0.431758 0.0669729 0.61 
-0.415583 0.0694981 0.633 
-0.395227 0.071145 0.648 
-0.376853 0.0734506 0.669 
-0.355488 0.0755367 0.688 
-0.333292 0.0778423 0.709 
-0.310409 0.0804773 0.733 
-0.286042 0.0833319 0.759 
-0.261894 0.0870648 0.793 
-0.233158 0.0902488 0.822 
-0.202192 0.0936523 0.853 
-0.168474 0.0979342 0.892 
-0.133869 0.103314 0.941 
-0.0923041 0.105949 0.965 
-0.0501696 0.112317 1.023 
-0.00259665 0.117258 1.068 
0.0492154 0.122308 1.114 
0.106496 0.128786 1.173 
0.169414 0.135373 1.233 
0.231668 0.138228 1.259 
0.309723 0.14745 1.343 
0.395885 0.156783 1.428 
0.499362 0.169299 1.542 
1.4869 0.438837 3.997 
1.64306 0.430932 3.925 
1.79019 0.422478 3.848 
2.0627 0.442461 4.03 
2.29354 0.450915 4.107 
2.44866 0.444327 4.047 
2.54736 0.429176 3.909 
2.89785 0.455636 4.15 
3.42686 0.496807 4.525 
3.76881 0.514704 4.688 
3.7279 0.481217 4.383 
4.05959 0.496807 4.525 
3.97605 0.462552 4.213 
-0.467199 0.0646917 0.581 
-0.445541 0.0671413 0.603 
-0.426314 0.0690341 0.62 
-0.409594 0.0711497 0.639 
-0.390509 0.0731539 0.657 
-0.370294 0.0752695 0.676 
-0.34931 0.0776077 0.697 
-0.325459 0.0797233 0.716 
-0.3031 0.0827296 0.743 
-0.27967 0.0861813 0.774 
-0.252091 0.0891877 0.801 
-0.223604 0.092862 0.834 
-0.190268 0.0956457 0.859 
-0.158625 0.10099 0.907 
-0.121609 0.105555 0.948 
-0.0797904 0.108784 0.977 
-0.0332612 0.115911 1.041 
0.0158612 0.120476 1.082 
0.069357 0.126043 1.132 
0.128377 0.132501 1.19 
0.192031 0.138402 1.243 
0.264058 0.145083 1.303 
0.339996 0.151875 1.364 
0.433752 0.163232 1.466 
1.40677 0.455291 4.089 
1.54892 0.441484 3.965 
1.74073 0.443266 3.981 
1.96645 0.452508 4.064 
2.24923 0.472104 4.24 
2.36491 0.456293 4.098 
2.58274 0.461081 4.141 
2.77039 0.46019 4.133 
3.06627 0.476224 4.277 
3.44231 0.496934 4.463 
3.64215 0.495821 4.453 
3.68199 0.47422 4.259 
3.95795 0.483684 4.344 
4.31366 0.5015 4.504 
-0.461079 0.0662717 0.587 
-0.44273 0.0680781 0.603 
-0.426314 0.0699974 0.62 
-0.409594 0.0721425 0.639 
-0.390509 0.0741747 0.657 
-0.370294 0.0763198 0.676 
-0.346557 0.0788035 0.698 
-0.323021 0.0810615 0.718 
-0.30004 0.0839969 0.744 
-0.276776 0.0876097 0.776 
-0.249288 0.0907708 0.804 
-0.220507 0.0944965 0.837 
-0.187132 0.0974319 0.863 
-0.154397 0.102399 0.907 
-0.11719 0.107028 0.948 
-0.0758527 0.111206 0.985 
-0.030286 0.118544 1.05 
0.0192589 0.122383 1.084 
0.073132 0.128253 1.136 
0.132075 0.13435 1.19 
0.196366 0.140672 1.246 
0.266287 0.14722 1.304 
0.342367 0.154107 1.365 
0.436625 0.165736 1.468 
1.41036 0.460741 4.081 
1.56763 0.451258 3.997 
1.75042 0.450354 3.989 
1.9849 0.461644 4.089 
2.25582 0.478692 4.24 
2.38112 0.46458 4.115 
2.60043 0.469547 4.159 
2.79428 0.469547 4.159 
3.07292 0.482869 4.277 
3.42222 0.504997 4.473 
3.67292 0.510868 4.525 
3.68728 0.485014 4.296 
4.06669 0.507368 4.494 
4.10583 0.487159 4.315 
-0.463144 0.0669549 0.585 
-0.445931 0.0687861 0.601 
-0.427653 0.0703884 0.615 
-0.411963 0.0726775 0.635 
-0.392 0.0745087 0.651 
-0.373323 0.0769122 0.672 
-0.349963 0.0794302 0.694 
-0.326768 0.0817192 0.714 
-0.304587 0.0848095 0.741 
-0.280617 0.0881286 0.77 
-0.253626 0.0913333 0.798 
-0.224568 0.0947669 0.828 
-0.19159 0.0976282 0.853 
-0.159328 0.103351 0.903 
-0.122562 0.108043 0.944 
-0.0811419 0.111591 0.975 
-0.037674 0.117772 1.029 
0.0124297 0.123151 1.076 
0.065665 0.129217 1.129 
0.124155 0.135626 1.185 
0.18832 0.142379 1.244 
0.255015 0.147415 1.288 
0.331193 0.154969 1.354 
0.421095 0.165499 1.446 
0.528357 0.179004 1.564 
1.55553 0.461245 4.03 
1.73645 0.459413 4.014 
1.93936 0.46319 4.047 
2.24893 0.489514 4.277 
2.36585 0.473033 4.133 
2.58016 0.477039 4.168 
2.79839 0.481159 4.204 
3.05987 0.491689 4.296 
3.41036 0.514351 4.494 
3.74871 0.532663 4.654 
3.71 0.498327 4.354 
4.10437 0.522706 4.567 
3.9826 0.482189 4.213 
-0.464592 0.0672837 0.58 
-0.44812 0.0689078 0.594 
-0.431758 0.0707639 0.61 
-0.415889 0.072968 0.629 
-0.397019 0.0749401 0.646 
-0.378268 0.0772603 0.666 
-0.356088 0.0792324 0.683 
-0.335173 0.0819005 0.706 
-0.312969 0.0848007 0.731 
-0.289199 0.0879329 0.758 
-0.262911 0.091065 0.785 
-0.235547 0.0947772 0.817 
-0.204476 0.0981414 0.846 
-0.16967 0.103362 0.891 
-0.132588 0.108118 0.932 
-0.0921128 0.111714 0.963 
-0.0496301 0.117398 1.012 
-0.00259422 0.123779 1.067 
0.0492154 0.129231 1.114 
0.106042 0.135495 1.168 
0.169276 0.14292 1.232 
0.232588 0.146632 1.264 
0.307417 0.154637 1.333 
0.395053 0.165309 1.425 
0.494505 0.177142 1.527 
1.50218 0.470406 4.055 
1.66366 0.46275 3.989 
1.80925 0.452657 3.902 
2.13145 0.484559 4.177 
2.33115 0.485603 4.186 
2.50454 0.481427 4.15 
2.61995 0.467506 4.03 
2.92275 0.486647 4.195 
3.20079 0.499524 4.306 
3.6764 0.539894 4.654 
3.66662 0.508456 4.383 
3.88857 0.510776 4.403 
3.91714 0.488735 4.213 
-0.469361 0.0678322 0.577 
-0.452436 0.0693604 0.59 
-0.43862 0.0715941 0.609 
-0.419665 0.0732399 0.623 
-0.40254 0.0754736 0.642 
-0.383063 0.0775897 0.66 
-0.362443 0.0798233 0.679 
-0.340538 0.0821745 0.699 
-0.31809 0.0848784 0.722 
-0.295468 0.0881701 0.75 
-0.271626 0.091932 0.782 
-0.243296 0.0951061 0.809 
-0.213467 0.0987505 0.84 
-0.179806 0.10263 0.873 
-0.144544 0.107685 0.916 
-0.106074 0.112152 0.954 
-0.0625835 0.116737 0.993 
-0.0175798 0.125907 1.071 
0.0329437 0.128258 1.091 
0.0880199 0.134724 1.146 
0.148223 0.14119 1.201 
0.214064 0.148008 1.259 
0.283145 0.153651 1.307 
0.362228 0.161763 1.376 
0.461688 0.175165 1.49 
1.455 0.477764 4.064 
1.62419 0.471886 4.014 
1.75353 0.456838 3.886 
2.06609 0.487874 4.15 
2.33901 0.505038 4.296 
2.47955 0.493165 4.195 
2.56476 0.472827 4.022 
2.84598 0.488932 4.159 
3.1195 0.501746 4.268 
3.49415 0.528315 4.494 
3.57106 0.508447 4.325 
4.01466 0.530666 4.514 
3.90963 0.491048 4.177 
-0.465775 0.0687286 0.577 
-0.45029 0.0705153 0.592 
-0.434835 0.0725403 0.609 
-0.417795 0.0745652 0.626 
-0.399171 0.0765902 0.643 
-0.38011 0.0788533 0.662 
-0.358223 0.0808782 0.679 
-0.337156 0.0834987 0.701 
-0.315775 0.0865957 0.727 
-0.292746 0.0899309 0.755 
-0.267107 0.0932661 0.783 
-0.237891 0.0967204 0.812 
-0.207188 0.100175 0.841 
-0.174411 0.10482 0.88 
-0.139003 0.109227 0.917 
-0.100565 0.114111 0.958 
-0.0580719 0.118518 0.995 
-0.00258449 0.126618 1.063 
0.049127 0.132455 1.112 
0.10586 0.138887 1.166 
0.168864 0.146391 1.229 
0.233325 0.151036 1.268 
0.307186 0.15866 1.332 
0.393667 0.169142 1.42 
0.491914 0.180934 1.519 
1.5148 0.485031 4.072 
1.68702 0.480028 4.03 
1.85206 0.474192 3.981 
2.17991 0.507306 4.259 
2.34771 0.500754 4.204 
2.51643 0.495394 4.159 
2.68747 0.491225 4.124 
2.94184 0.501826 4.213 
3.22164 0.515167 4.325 
3.63218 0.546613 4.589 
3.64074 0.51743 4.344 
4.20425 0.554355 4.654 
4.7874 0.584968 4.911 
-0.457691 0.0705905 0.585 
-0.440724 0.0722798 0.599 
-0.425209 0.0744518 0.617 
-0.408659 0.0767445 0.636 
-0.389742 0.0789165 0.654 
-0.369696 0.0812092 0.673 
-0.347879 0.0835019 0.692 
-0.325659 0.0861566 0.714 
-0.303026 0.0892939 0.74 
-0.278332 0.0925519 0.767 
-0.249288 0.0970166 0.804 
-0.218136 0.0999126 0.828 
-0.185614 0.103291 0.856 
-0.150409 0.108601 0.9 
-0.110946 0.114031 0.945 
-0.0698728 0.119099 0.987 
-0.0158415 0.128632 1.066 
0.0346705 0.131769 1.092 
0.0898004 0.138285 1.146 
0.150464 0.145284 1.204 
0.216535 0.152282 1.262 
0.284303 0.15723 1.303 
0.363572 0.165676 1.373 
0.46338 0.179553 1.488 
1.45808 0.489306 4.055 
1.63693 0.48629 4.03 
1.7736 0.472654 3.917 
2.08153 0.502942 4.168 
2.36644 0.522973 4.334 
2.50207 0.509458 4.222 
2.5659 0.484359 4.014 
2.87713 0.5062 4.195 
3.14664 0.518387 4.296 
3.49256 0.540952 4.483 
3.53968 0.517301 4.287 
4.25484 0.568344 4.71 
4.75807 0.585237 4.85 
-0.453921 0.0716216 0.586 
-0.438255 0.0735771 0.602 
-0.422177 0.0758993 0.621 
-0.405897 0.0783437 0.641 
-0.385405 0.0802993 0.657 
-0.365042 0.0826215 0.676 
-0.343402 0.0850659 0.696 
-0.319896 0.0875103 0.716 
-0.298129 0.0910547 0.745 
-0.274364 0.0948436 0.776 
-0.242996 0.0987547 0.808 
-0.212704 0.102299 0.837 
-0.180539 0.106332 0.87 
-0.14562 0.11061 0.905 
-0.105629 0.11611 0.95 
-0.0638034 0.120754 0.988 
-0.0174321 0.129799 1.062 
0.0328833 0.133099 1.089 
0.0878663 0.139821 1.144 
0.154718 0.147643 1.208 
0.220805 0.154487 1.264 
0.289237 0.159743 1.307 
0.36891 0.168298 1.377 
0.469262 0.182354 1.492 
1.47394 0.496707 4.064 
1.64945 0.492551 4.03 
1.80036 0.482651 3.949 
2.10804 0.512718 4.195 
2.37496 0.528606 4.325 
2.50447 0.513818 4.204 
2.59443 0.493651 4.039 
2.96098 0.517118 4.231 
3.23507 0.529706 4.334 
3.58856 0.553051 4.525 
3.62314 0.527384 4.315 
4.0711 0.544251 4.453 
-0.468627 0.0711705 0.575 
-0.44953 0.0731509 0.591 
-0.434121 0.0752551 0.608 
-0.416823 0.077483 0.626 
-0.397553 0.0794634 0.642 
-0.378509 0.0818151 0.661 
-0.356642 0.0839193 0.678 
-0.335587 0.0866424 0.7 
-0.314645 0.0899843 0.727 
-0.291959 0.0935737 0.756 
-0.265551 0.0967919 0.782 
-0.233131 0.100629 0.813 
-0.202201 0.104218 0.842 
-0.170503 0.109046 0.881 
-0.134582 0.113378 0.916 
-0.0963004 0.118824 0.96 
-0.0533804 0.123032 0.994 
-0.00256504 0.130582 1.055 
0.048862 0.136895 1.106 
0.105225 0.143455 1.159 
0.168177 0.1515 1.224 
0.233877 0.157318 1.271 
0.307417 0.164992 1.333 
0.391449 0.17477 1.412 
0.488352 0.186652 1.508 
1.5342 0.508343 4.107 
1.71471 0.505125 4.081 
1.90493 0.505125 4.081 
2.21527 0.534088 4.315 
2.36936 0.523691 4.231 
2.52289 0.514779 4.159 
2.80623 0.531736 4.296 
3.14715 0.534088 4.315 
3.46311 0.552407 4.463 
3.54939 0.534088 4.315 
4.33053 0.597461 4.827 
4.78599 0.612561 4.949 
-0.4595 0.0723145 0.577 
-0.442221 0.0746958 0.596 
-0.426958 0.0769517 0.614 
-0.409682 0.0793329 0.633 
-0.390388 0.0814635 0.65 
-0.372279 0.0842207 0.672 
-0.348567 0.0861007 0.687 
-0.327144 0.0889832 0.71 
-0.305647 0.0924924 0.738 
-0.280805 0.095751 0.764 
-0.252897 0.0987588 0.788 
-0.220118 0.102895 0.821 
-0.188718 0.10678 0.852 
-0.156351 0.112044 0.894 
-0.119428 0.116681 0.931 
-0.0791371 0.121443 0.969 
-0.0356896 0.127584 1.018 
0.0140097 0.133976 1.069 
0.0671802 0.140995 1.125 
0.125252 0.147637 1.178 
0.189947 0.155658 1.242 
0.257016 0.161423 1.288 
0.334773 0.170447 1.36 
0.420121 0.179846 1.435 
0.52909 0.195387 1.559 
1.61825 0.521241 4.159 
1.7633 0.507204 4.047 
2.02331 0.525753 4.195 
2.28232 0.540792 4.315 
2.48344 0.540792 4.315 
2.56573 0.516855 4.124 
2.9788 0.546808 4.363 
3.19467 0.543174 4.334 
3.48995 0.558088 4.453 
3.56714 0.538411 4.296 
4.34553 0.604961 4.827 
4.74162 0.615488 4.911 
-0.459398 0.0733379 0.578 
-0.442403 0.0754949 0.595 
-0.427215 0.0777788 0.613 
-0.410666 0.0803164 0.633 
-0.390796 0.0823465 0.649 
-0.372767 0.0851379 0.671 
-0.349126 0.0870412 0.686 
-0.327785 0.0899594 0.709 
-0.306378 0.0935121 0.737 
-0.281622 0.0968111 0.763 
-0.253218 0.10011 0.789 
-0.220118 0.10417 0.821 
-0.188718 0.108104 0.852 
-0.152354 0.11356 0.895 
-0.115212 0.118254 0.932 
-0.0749286 0.123456 0.973 
-0.0295649 0.130054 1.025 
0.0224811 0.136652 1.077 
0.0763246 0.143504 1.131 
0.136229 0.151497 1.194 
0.201363 0.158983 1.253 
0.268473 0.164312 1.295 
0.345846 0.172813 1.362 
0.436077 0.184106 1.451 
1.41712 0.515649 4.064 
1.63698 0.525419 4.141 
1.77387 0.509305 4.014 
2.04939 0.532271 4.195 
2.33482 0.553587 4.363 
2.51607 0.548765 4.325 
2.56937 0.518821 4.089 
3.11904 0.586322 4.621 
3.14715 0.547496 4.315 
3.46311 0.566275 4.463 
3.58888 0.553587 4.363 
4.34553 0.61246 4.827 
-0.472201 0.0738506 0.575 
-0.453146 0.075135 0.585 
-0.435343 0.0768046 0.598 
-0.420817 0.0795018 0.619 
-0.403905 0.0823274 0.641 
-0.381613 0.083997 0.654 
-0.362942 0.0868226 0.676 
-0.340749 0.0892629 0.695 
-0.317672 0.0919601 0.716 
-0.295814 0.0956847 0.745 
-0.271252 0.0994093 0.774 
-0.240485 0.103776 0.808 
-0.209852 0.107372 0.836 
-0.177018 0.111225 0.866 
-0.138743 0.116363 0.906 
-0.100988 0.121757 0.948 
-0.0574882 0.126509 0.985 
-0.00581007 0.134729 1.049 
0.0450966 0.141023 1.098 
0.100834 0.147701 1.15 
0.163837 0.156692 1.22 
0.229927 0.163242 1.271 
0.302365 0.170691 1.329 
0.382676 0.179296 1.396 
0.478214 0.191498 1.491 
1.50868 0.527486 4.107 
1.69266 0.525174 4.089 
1.84871 0.515541 4.014 
2.15042 0.544568 4.24 
2.38958 0.554201 4.315 
2.51325 0.537632 4.186 
2.72001 0.539944 4.204 
3.0134 0.548164 4.268 
3.24093 0.553045 4.306 
3.61389 0.578475 4.504 
3.57677 0.5411 4.213 
4.32564 0.583869 4.546 
-0.454314 0.0757839 0.583 
-0.436665 0.0774737 0.596 
-0.422606 0.0800735 0.616 
-0.405343 0.0828033 0.637 
-0.385088 0.0848831 0.653 
-0.365514 0.0874829 0.673 
-0.343578 0.0899527 0.692 
-0.321222 0.0928125 0.714 
-0.298427 0.0961922 0.74 
-0.274636 0.100092 0.77 
-0.246187 0.103732 0.798 
-0.216326 0.107371 0.826 
-0.183423 0.110751 0.852 
-0.145889 0.116731 0.898 
-0.107095 0.1218 0.937 
-0.0617012 0.12726 0.979 
-0.0170382 0.134929 1.038 
0.0328531 0.141429 1.088 
0.0872518 0.147668 1.136 
0.148964 0.156897 1.207 
0.214574 0.164047 1.262 
0.283361 0.170026 1.308 
0.359333 0.177436 1.365 
0.456111 0.191345 1.472 
1.46717 0.532697 4.098 
1.66182 0.533867 4.107 
1.80362 0.519568 3.997 
2.08849 0.545306 4.195 
2.39183 0.571044 4.393 
2.54516 0.559735 4.306 
2.62981 0.536077 4.124 
3.054 0.580143 4.463 
3.27959 0.573514 4.412 
3.54132 0.582743 4.483 
3.65825 0.568444 4.373 
4.03219 0.564674 4.344 
-0.464968 0.0757689 0.576 
-0.448008 0.0774789 0.589 
-0.430551 0.0793205 0.603 
-0.415186 0.0822145 0.625 
-0.396555 0.0844507 0.642 
-0.377482 0.08695 0.661 
-0.354539 0.0889232 0.676 
-0.333544 0.0918171 0.698 
-0.312222 0.0952373 0.724 
-0.289246 0.0989205 0.752 
-0.262448 0.102604 0.78 
-0.233918 0.106155 0.807 
-0.203358 0.10997 0.836 
-0.166432 0.114969 0.874 
-0.126388 0.122204 0.929 
-0.0815547 0.126545 0.962 
-0.0385094 0.132727 1.009 
0.00895108 0.139436 1.06 
0.061331 0.146539 1.114 
0.118541 0.153379 1.166 
0.183417 0.162719 1.237 
0.251208 0.169559 1.289 
0.326744 0.177978 1.353 
0.410263 0.187317 1.424 
0.515129 0.202445 1.539 
1.60274 0.55064 4.186 
1.75619 0.53788 4.089 
1.98439 0.548272 4.168 
2.27066 0.571424 4.344 
2.48964 0.575238 4.373 
2.57829 0.55064 4.186 
3.01854 0.599311 4.556 
3.05999 0.567609 4.315 
3.26769 0.566425 4.306 
3.65285 0.596548 4.535 
4.04815 0.584446 4.443 
4.61087 0.630223 4.791 
-0.4585 0.07693 0.578 
-0.443506 0.0790595 0.594 
-0.42702 0.0811891 0.61 
-0.411656 0.083851 0.63 
-0.390787 0.0857144 0.644 
-0.374214 0.0889087 0.668 
-0.350783 0.0909051 0.683 
-0.329221 0.0938333 0.705 
-0.308131 0.09756 0.733 
-0.28331 0.100887 0.758 
-0.256813 0.104481 0.785 
-0.227798 0.108075 0.812 
-0.196968 0.112068 0.842 
-0.156505 0.118057 0.887 
-0.117728 0.123647 0.929 
-0.0771509 0.128172 0.963 
-0.0339404 0.134827 1.013 
0.0139573 0.141748 1.065 
0.0667622 0.148802 1.118 
0.125252 0.156788 1.178 
0.189641 0.16504 1.24 
0.258213 0.172227 1.294 
0.332804 0.179947 1.352 
0.418657 0.190328 1.43 
0.527732 0.206966 1.555 
1.63225 0.558341 4.195 
1.77419 0.54197 4.072 
2.01463 0.555946 4.177 
2.31299 0.582033 4.373 
2.51682 0.582033 4.373 
2.6211 0.560737 4.213 
3.11975 0.620897 4.665 
3.08681 0.574313 4.315 
3.49013 0.602263 4.525 
3.69205 0.600799 4.514 
4.02902 0.588554 4.422 
4.55922 0.631545 4.745 
-0.460396 0.0776934 0.577 
-0.442583 0.0799824 0.594 
-0.42677 0.0822715 0.611 
-0.410677 0.0848298 0.63 
-0.389786 0.0867149 0.644 
-0.372618 0.0898119 0.667 
-0.349721 0.0919663 0.683 
-0.328591 0.0950633 0.706 
-0.306993 0.0986988 0.733 
-0.282505 0.1022 0.759 
-0.255593 0.105701 0.785 
-0.226815 0.109471 0.813 
-0.195892 0.11351 0.843 
-0.161553 0.118089 0.877 
-0.124676 0.124821 0.927 
-0.0842803 0.12913 0.959 
-0.0413145 0.134785 1.001 
0.00895108 0.14273 1.06 
0.0611658 0.149597 1.111 
0.118135 0.156464 1.162 
0.183417 0.166563 1.237 
0.251208 0.173565 1.289 
0.325778 0.181644 1.349 
0.406518 0.189992 1.411 
0.51312 0.206419 1.533 
1.60274 0.563647 4.186 
1.75275 0.549509 4.081 
1.97153 0.557588 4.141 
2.28059 0.58748 4.363 
2.50672 0.592866 4.403 
2.59492 0.567283 4.213 
3.01192 0.612121 4.546 
3.08765 0.586268 4.354 
3.34131 0.592866 4.403 
3.66878 0.612121 4.546 
4.17763 0.648342 4.815 
3.911 0.57213 4.249 
5.25153 0.723073 5.37 
-0.453658 0.0791346 0.581 
-0.434813 0.0811777 0.596 
-0.420009 0.0837656 0.615 
-0.403434 0.0863535 0.634 
-0.384498 0.0888051 0.652 
-0.363884 0.0912568 0.67 
-0.343578 0.0942533 0.692 
-0.321671 0.097386 0.715 
-0.298024 0.100655 0.739 
-0.273566 0.104469 0.767 
-0.244637 0.107465 0.789 
-0.217082 0.112232 0.824 
-0.184096 0.115637 0.849 
-0.151333 0.121086 0.889 
-0.107972 0.126942 0.932 
-0.0670238 0.131846 0.968 
-0.0170053 0.141108 1.036 
0.0328229 0.148054 1.087 
0.0870214 0.154319 1.133 
0.1481 0.163445 1.2 
0.213554 0.171072 1.256 
0.285961 0.17979 1.32 
0.358543 0.18551 1.362 
0.455491 0.20022 1.47 
1.4797 0.562932 4.133 
1.67558 0.564022 4.141 
1.81851 0.548903 4.03 
2.09297 0.572602 4.204 
2.39727 0.599707 4.403 
2.59067 0.596983 4.383 
2.72163 0.58132 4.268 
3.11764 0.620546 4.556 
3.17505 0.591671 4.344 
3.64145 0.620546 4.556 
3.7836 0.609241 4.473 
4.42763 0.675709 4.961 
-0.469668 0.0789353 0.573 
-0.449918 0.0801751 0.582 
-0.432961 0.0821037 0.596 
-0.418778 0.0848589 0.616 
-0.401464 0.0873385 0.634 
-0.382472 0.0898181 0.652 
-0.361802 0.0922978 0.67 
-0.342415 0.095604 0.694 
-0.31945 0.0984969 0.715 
-0.295727 0.101803 0.739 
-0.271182 0.10566 0.767 
-0.241878 0.108553 0.788 
-0.214782 0.11365 0.825 
-0.181672 0.117094 0.85 
-0.148905 0.122742 0.891 
-0.11063 0.128115 0.93 
-0.0697423 0.132799 0.964 
-0.0201465 0.142166 1.032 
0.0293098 0.149054 1.082 
0.083206 0.155529 1.129 
0.143649 0.164483 1.194 
0.208649 0.172197 1.25 
0.281219 0.181427 1.317 
0.35327 0.187075 1.358 
0.449696 0.201953 1.466 
1.46686 0.569353 4.133 
1.67355 0.574175 4.168 
1.82122 0.559848 4.064 
2.07991 0.579134 4.204 
2.38846 0.607788 4.412 
2.58881 0.606548 4.403 
2.72043 0.590568 4.287 
3.14027 0.635064 4.61 
3.14772 0.595803 4.325 
3.63023 0.638095 4.632 
3.74815 0.621839 4.514 
4.35055 0.683417 4.961 
5.44614 0.767174 5.569 
-0.454795 0.0806614 0.579 
-0.438152 0.0826118 0.593 
-0.421764 0.0852587 0.612 
-0.405447 0.0879056 0.631 
-0.386166 0.0902739 0.648 
-0.3664 0.0929208 0.667 
-0.345868 0.0958463 0.688 
-0.324747 0.0991898 0.712 
-0.300979 0.102394 0.735 
-0.276518 0.106155 0.762 
-0.248908 0.109638 0.787 
-0.220046 0.113678 0.816 
-0.188926 0.117997 0.847 
-0.155799 0.123012 0.883 
-0.120225 0.129003 0.926 
-0.0797272 0.13346 0.958 
-0.0293342 0.14168 1.017 
0.0189746 0.148785 1.068 
0.0719732 0.15575 1.118 
0.130632 0.16397 1.177 
0.195106 0.172468 1.238 
0.266899 0.18208 1.307 
0.338604 0.188071 1.35 
0.431269 0.199912 1.435 
0.539118 0.216351 1.553 
1.64826 0.583158 4.186 
1.82752 0.578143 4.15 
2.03849 0.583158 4.186 
2.35952 0.616036 4.422 
2.55983 0.614643 4.412 
2.68086 0.595836 4.277 
3.13409 0.648356 4.654 
3.1278 0.605169 4.344 
3.66814 0.654625 4.699 
3.73413 0.628852 4.514 
4.31329 0.687642 4.936 
5.00353 0.724281 5.199 
-0.460193 0.081561 0.579 
-0.442184 0.0832513 0.591 
-0.424675 0.0856461 0.608 
-0.408397 0.0884634 0.628 
-0.388182 0.0905763 0.643 
-0.369434 0.0936754 0.665 
-0.348108 0.0963518 0.684 
-0.32686 0.0995917 0.707 
-0.304299 0.103113 0.732 
-0.279777 0.106776 0.758 
-0.253476 0.11072 0.786 
-0.222358 0.113537 0.806 
-0.193273 0.118749 0.843 
-0.159826 0.123257 0.875 
-0.123734 0.129596 0.92 
-0.083753 0.134245 0.953 
-0.0411081 0.140302 0.996 
0.010588 0.149176 1.059 
0.0625523 0.155656 1.105 
0.119734 0.163404 1.16 
0.184439 0.173405 1.231 
0.254389 0.18242 1.295 
0.327631 0.189886 1.348 
0.401758 0.19538 1.387 
0.519926 0.215806 1.532 
1.6088 0.587126 4.168 
1.81086 0.589662 4.186 
1.98057 0.582196 4.133 
2.33621 0.625864 4.443 
2.55475 0.628682 4.463 
2.61358 0.594733 4.222 
3.06132 0.647839 4.599 
3.16457 0.625864 4.443 
3.64014 0.663475 4.71 
3.69086 0.634457 4.504 
4.20046 0.683196 4.85 
4.82487 0.718976 5.104 
-0.469737 0.0814636 0.572 
-0.450048 0.0827454 0.581 
-0.433887 0.0848817 0.596 
-0.415423 0.0884421 0.621 
-0.396436 0.0907208 0.637 
-0.377684 0.0934268 0.656 
-0.355064 0.0961328 0.675 
-0.334628 0.0994084 0.698 
-0.312481 0.102826 0.722 
-0.287325 0.10596 0.744 
-0.262155 0.109947 0.772 
-0.228809 0.111229 0.781 
-0.204724 0.11835 0.831 
-0.172782 0.123192 0.865 
-0.13859 0.128889 0.905 
-0.100136 0.133874 0.94 
-0.0582397 0.138431 0.972 
-0.0121647 0.147404 1.035 
0.0378198 0.154525 1.085 
0.0927097 0.162073 1.138 
0.153821 0.171045 1.201 
0.219583 0.179021 1.257 
0.293663 0.18899 1.327 
0.367302 0.195256 1.371 
0.47079 0.210068 1.475 
1.56744 0.605138 4.249 
1.71729 0.588617 4.133 
1.88174 0.57993 4.072 
2.24451 0.628352 4.412 
2.47292 0.634191 4.453 
2.63834 0.624222 4.383 
2.84263 0.624222 4.383 
3.16024 0.647436 4.546 
3.4682 0.65356 4.589 
3.65561 0.648861 4.556 
3.92315 0.658118 4.621 
4.44304 0.70654 4.961 
5.636 0.82603 5.8 
-0.459293 0.0833601 0.579 
-0.440519 0.0849438 0.59 
-0.422281 0.0878233 0.61 
-0.402161 0.0909907 0.632 
-0.383319 0.0935822 0.65 
-0.359146 0.0960297 0.667 
-0.34232 0.100205 0.696 
-0.318339 0.10294 0.715 
-0.294181 0.106252 0.738 
-0.269639 0.110283 0.766 
-0.2376 0.112011 0.778 
-0.211171 0.117482 0.816 
-0.180775 0.122665 0.852 
-0.147852 0.128568 0.893 
-0.11063 0.133895 0.93 
-0.0696699 0.138646 0.963 
-0.0246423 0.146708 1.019 
0.0290389 0.154339 1.072 
0.0829849 0.162113 1.126 
0.142446 0.170464 1.184 
0.207481 0.178958 1.243 
0.281219 0.189612 1.317 
0.355351 0.196667 1.366 
0.455491 0.21164 1.47 
1.5413 0.614475 4.268 
1.71047 0.603965 4.195 
1.88555 0.597486 4.15 
2.19571 0.631032 4.383 
2.46078 0.647013 4.494 
2.65777 0.643989 4.473 
2.81499 0.632472 4.393 
3.16136 0.66213 4.599 
3.42574 0.66213 4.599 
3.69234 0.671632 4.665 
3.83686 0.659106 4.578 
4.41209 0.717991 4.987 
5.34422 0.79948 5.553 
-0.463888 0.0841142 0.578 
-0.443751 0.0854239 0.587 
-0.423521 0.0874613 0.601 
-0.406116 0.091536 0.629 
-0.386383 0.0938644 0.645 
-0.363235 0.096775 0.665 
-0.34423 0.100268 0.689 
-0.322081 0.103469 0.711 
-0.298695 0.106962 0.735 
-0.270122 0.111182 0.764 
-0.238502 0.113074 0.777 
-0.210616 0.117731 0.809 
-0.180775 0.123988 0.852 
-0.147852 0.129955 0.893 
-0.11063 0.135339 0.93 
-0.0696699 0.140142 0.963 
-0.0261225 0.147709 1.015 
0.022168 0.154549 1.062 
0.0754473 0.162698 1.118 
0.133833 0.170702 1.173 
0.198631 0.17987 1.236 
0.271375 0.190494 1.309 
0.3461 0.198352 1.363 
0.439068 0.210431 1.446 
1.49825 0.617031 4.24 
1.69228 0.615722 4.231 
1.91003 0.622416 4.277 
2.10494 0.621106 4.268 
2.4426 0.658506 4.525 
2.65351 0.658506 4.525 
2.78087 0.639297 4.393 
3.14806 0.674078 4.632 
3.39905 0.672477 4.621 
3.72003 0.692123 4.756 
3.78506 0.664618 4.567 
4.3761 0.727486 4.999 
5.12985 0.785842 5.4 
-0.465947 0.084571 0.575 
-0.444492 0.0856005 0.582 
-0.428839 0.0879538 0.598 
-0.410901 0.0911896 0.62 
-0.393093 0.093837 0.638 
-0.370853 0.0973669 0.662 
-0.348728 0.0998673 0.679 
-0.32782 0.10325 0.702 
-0.305189 0.10678 0.726 
-0.277864 0.111192 0.756 
-0.251292 0.115164 0.783 
-0.218088 0.116929 0.795 
-0.19088 0.124135 0.844 
-0.157286 0.128842 0.876 
-0.121507 0.134431 0.914 
-0.081927 0.139579 0.949 
-0.0394812 0.146197 0.994 
0.00722839 0.154287 1.049 
0.0586371 0.1612 1.096 
0.115528 0.16973 1.154 
0.178707 0.179143 1.218 
0.248432 0.188998 1.285 
0.324882 0.199146 1.354 
0.396016 0.203264 1.382 
0.506759 0.221649 1.507 
1.64229 0.618324 4.204 
1.92919 0.648917 4.412 
2.02983 0.617 4.195 
2.41687 0.670096 4.556 
2.65404 0.676421 4.599 
2.6975 0.636121 4.325 
3.23503 0.70819 4.815 
3.28918 0.673332 4.578 
3.63474 0.694511 4.722 
3.71116 0.668625 4.546 
4.2596 0.725987 4.936 
4.54697 0.735253 4.999 
-0.465054 0.0854643 0.575 
-0.44435 0.0866534 0.583 
-0.42791 0.0888829 0.598 
-0.409634 0.0923015 0.621 
-0.391724 0.0949769 0.639 
-0.368796 0.0983955 0.662 
-0.347129 0.101071 0.68 
-0.326103 0.104489 0.703 
-0.30335 0.108057 0.727 
-0.278301 0.11207 0.754 
-0.252186 0.116231 0.782 
-0.21822 0.117569 0.791 
-0.192585 0.124852 0.84 
-0.15946 0.129757 0.873 
-0.123667 0.135108 0.909 
-0.0845182 0.140459 0.945 
-0.0423558 0.146999 0.989 
0.00393472 0.154579 1.04 
0.0549795 0.162159 1.091 
0.117423 0.171672 1.155 
0.180451 0.180887 1.217 
0.250818 0.191291 1.287 
0.32771 0.201696 1.357 
0.399891 0.206303 1.388 
0.506759 0.223991 1.507 
1.6362 0.627531 4.222 
1.93762 0.663352 4.463 
2.01247 0.62218 4.186 
2.42011 0.68208 4.589 
2.65237 0.686836 4.621 
2.70765 0.648489 4.363 
3.21086 0.708685 4.768 
3.33517 0.688471 4.632 
3.60243 0.698429 4.699 
3.732 0.68208 4.589 
4.22277 0.72994 4.911 
4.53144 0.743019 4.999 
-0.457707 0.0866581 0.577 
-0.439772 0.0884603 0.589 
-0.421419 0.0904128 0.602 
-0.406766 0.0937169 0.624 
-0.38797 0.0962701 0.641 
-0.369266 0.0992738 0.661 
-0.347673 0.101977 0.679 
-0.326264 0.105281 0.701 
-0.304061 0.109036 0.726 
-0.279155 0.11264 0.75 
-0.253314 0.116846 0.778 
-0.22012 0.118498 0.789 
-0.194033 0.125406 0.835 
-0.161616 0.130663 0.87 
-0.125935 0.135919 0.905 
-0.087177 0.141476 0.942 
-0.0452452 0.147934 0.985 
0.000697668 0.154993 1.032 
0.0514475 0.163404 1.088 
0.107606 0.172115 1.146 
0.169592 0.181276 1.207 
0.237826 0.190888 1.271 
0.313896 0.201702 1.343 
0.389389 0.20861 1.389 
0.486499 0.223479 1.488 
1.61816 0.645205 4.296 
1.85099 0.656769 4.373 
1.9754 0.631387 4.204 
2.37537 0.690711 4.599 
2.5841 0.689209 4.589 
2.72727 0.671788 4.473 
3.38534 0.774666 5.158 
3.26854 0.690711 4.599 
3.52455 0.698972 4.654 
3.76881 0.704078 4.688 
4.09534 0.723152 4.815 
4.43998 0.743277 4.949 
-0.458703 0.0874028 0.576 
-0.440853 0.0892237 0.588 
-0.422587 0.0911963 0.601 
-0.407705 0.0942312 0.621 
-0.389738 0.0969625 0.639 
-0.37122 0.0999973 0.659 
-0.349288 0.102577 0.676 
-0.328121 0.105915 0.698 
-0.306174 0.109709 0.723 
-0.280766 0.113047 0.745 
-0.254958 0.117144 0.772 
-0.22323 0.11942 0.787 
-0.196029 0.12549 0.827 
-0.16548 0.131863 0.869 
-0.129434 0.136567 0.9 
-0.0913732 0.142637 0.94 
-0.0495328 0.148554 0.979 
-0.00407665 0.155231 1.023 
0.0461206 0.164184 1.082 
0.101907 0.173288 1.142 
0.163287 0.182393 1.202 
0.23026 0.191497 1.262 
0.305117 0.202119 1.332 
0.383191 0.21092 1.39 
0.477307 0.224728 1.481 
1.61599 0.659163 4.344 
1.81428 0.657645 4.334 
1.97674 0.644747 4.249 
2.35956 0.699526 4.61 
2.56829 0.697857 4.599 
2.76995 0.69467 4.578 
3.32611 0.774486 5.104 
3.26263 0.701195 4.621 
3.51114 0.707872 4.665 
3.79252 0.720011 4.745 
4.04244 0.72517 4.779 
4.42763 0.752787 4.961 
-0.45612 0.0881444 0.575 
-0.439772 0.0902905 0.589 
-0.421419 0.0922834 0.602 
-0.407082 0.0955026 0.623 
-0.388359 0.0981086 0.64 
-0.369173 0.101021 0.659 
-0.347701 0.10378 0.677 
-0.326419 0.107153 0.699 
-0.304348 0.110985 0.724 
-0.279199 0.114511 0.747 
-0.252887 0.118497 0.773 
-0.221065 0.120796 0.788 
-0.193693 0.126928 0.828 
-0.162967 0.133366 0.87 
-0.126919 0.138272 0.902 
-0.0884523 0.144097 0.94 
-0.0465857 0.150382 0.981 
0.00390824 0.158353 1.033 
0.0549795 0.167244 1.091 
0.111167 0.175676 1.146 
0.173342 0.185027 1.207 
0.242156 0.195144 1.273 
0.319253 0.206641 1.348 
0.397107 0.214766 1.401 
0.494093 0.229482 1.497 
1.63872 0.661466 4.315 
1.93365 0.695191 4.535 
2.00549 0.649969 4.24 
2.42395 0.71512 4.665 
2.64139 0.71512 4.665 
2.76016 0.690439 4.504 
3.62096 0.841741 5.491 
3.27636 0.706688 4.61 
3.54121 0.716806 4.676 
3.83312 0.730909 4.768 
4.13616 0.745472 4.863 
4.43998 0.758655 4.949 
-0.455227 0.0890378 0.575 
-0.439602 0.0913605 0.59 
-0.420204 0.0939929 0.607 
-0.404825 0.0970899 0.627 
-0.384186 0.0995675 0.643 
-0.364682 0.10251 0.662 
-0.342399 0.105142 0.679 
-0.322649 0.109168 0.705 
-0.299654 0.112884 0.729 
-0.274057 0.116446 0.752 
-0.245363 0.119543 0.772 
-0.21399 0.122175 0.789 
-0.18867 0.130073 0.84 
-0.154564 0.135647 0.876 
-0.118537 0.141377 0.913 
-0.0790614 0.147106 0.95 
-0.0363559 0.153764 0.993 
0.0153774 0.162436 1.049 
0.0676414 0.170953 1.104 
0.12514 0.179624 1.16 
0.188323 0.18876 1.219 
0.258816 0.19929 1.287 
0.340107 0.212607 1.373 
0.414992 0.218336 1.41 
0.51992 0.236144 1.525 
1.69698 0.672661 4.344 
2.04987 0.725929 4.688 
2.06515 0.660893 4.268 
2.48052 0.724071 4.676 
2.75157 0.738317 4.768 
2.86216 0.710599 4.589 
3.27525 0.731194 4.722 
3.55531 0.743737 4.803 
3.91372 0.770216 4.974 
3.9072 0.725929 4.688 
4.44978 0.7761 5.012 
4.05423 0.656557 4.24 
-0.445397 0.091026 0.582 
-0.42905 0.093372 0.597 
-0.410536 0.0966564 0.618 
-0.391111 0.0997845 0.638 
-0.371569 0.1026 0.656 
-0.349829 0.105259 0.673 
-0.328871 0.108699 0.695 
-0.307568 0.112766 0.721 
-0.281941 0.11605 0.742 
-0.256357 0.120273 0.769 
-0.223381 0.121837 0.779 
-0.196198 0.12778 0.817 
-0.161616 0.13607 0.87 
-0.125518 0.141075 0.902 
-0.0870844 0.147174 0.941 
-0.0436261 0.153743 0.983 
0.00228991 0.160625 1.027 
0.0530891 0.170009 1.087 
0.1091 0.178767 1.143 
0.170615 0.187839 1.201 
0.239046 0.198161 1.267 
0.315983 0.210048 1.343 
0.397185 0.22037 1.409 
0.491439 0.233977 1.496 
1.64 0.680974 4.354 
1.93776 0.716008 4.578 
2.0144 0.670495 4.287 
2.39809 0.726174 4.643 
2.63985 0.733213 4.688 
2.80409 0.719293 4.599 
3.23223 0.742128 4.745 
3.48687 0.749322 4.791 
3.9567 0.781854 4.999 
3.92905 0.733213 4.688 
4.46616 0.77591 4.961 
-0.461157 0.0897188 0.568 
-0.444205 0.0922461 0.584 
-0.424454 0.0949314 0.601 
-0.406766 0.0985643 0.624 
-0.385978 0.10125 0.641 
-0.366101 0.104093 0.659 
-0.344546 0.106936 0.677 
-0.321554 0.111359 0.705 
-0.298112 0.114992 0.728 
-0.272889 0.118783 0.752 
-0.243215 0.121468 0.769 
-0.212495 0.124469 0.788 
-0.185395 0.132209 0.837 
-0.151669 0.138211 0.875 
-0.116081 0.144687 0.916 
-0.0749476 0.15069 0.954 
-0.0318553 0.157482 0.997 
0.0153628 0.165538 1.048 
0.0674576 0.173909 1.101 
0.124925 0.182913 1.158 
0.187396 0.1916 1.213 
0.257408 0.202183 1.28 
0.339611 0.216557 1.371 
0.416758 0.223665 1.416 
0.520261 0.24104 1.526 
1.7044 0.689161 4.363 
2.09491 0.756766 4.791 
2.06951 0.675577 4.277 
2.49272 0.742234 4.699 
2.77176 0.758661 4.803 
2.91642 0.738601 4.676 
3.48362 0.819 5.185 
3.43128 0.7495 4.745 
4.06873 0.816789 5.171 
3.92553 0.743971 4.71 
4.49381 0.781723 4.949 
-0.462172 0.0902823 0.566 
-0.445397 0.0928344 0.582 
-0.42905 0.0952271 0.597 
-0.409576 0.0985768 0.618 
-0.391245 0.101288 0.635 
-0.371452 0.104319 0.654 
-0.349832 0.107031 0.671 
-0.324868 0.111338 0.698 
-0.303223 0.115485 0.724 
-0.278038 0.119153 0.747 
-0.251035 0.122982 0.771 
-0.218446 0.124896 0.783 
-0.19078 0.130957 0.821 
-0.159159 0.137816 0.864 
-0.124529 0.144356 0.905 
-0.0858044 0.150417 0.943 
-0.0406541 0.157117 0.985 
0.00551319 0.164773 1.033 
0.0565187 0.173546 1.088 
0.112947 0.182798 1.146 
0.174202 0.191411 1.2 
0.243175 0.202258 1.268 
0.321825 0.215338 1.35 
0.403273 0.225706 1.415 
0.49874 0.239902 1.504 
1.66455 0.69913 4.383 
2.00827 0.751289 4.71 
2.02772 0.683817 4.287 
2.42395 0.744111 4.665 
2.69971 0.760541 4.768 
2.85209 0.742357 4.654 
3.63445 0.870921 5.46 
3.37549 0.74778 4.688 
3.65533 0.760541 4.768 
4.00055 0.769952 4.827 
4.5047 0.791326 4.961 
-0.463989 0.0910006 0.565 
-0.445397 0.0937387 0.582 
-0.42905 0.0961546 0.597 
-0.411121 0.0992148 0.616 
-0.392963 0.101953 0.633 
-0.373794 0.104852 0.651 
-0.352419 0.10759 0.668 
-0.326241 0.111778 0.694 
-0.303223 0.11661 0.724 
-0.278038 0.120314 0.747 
-0.251035 0.12418 0.771 
-0.217888 0.12579 0.781 
-0.190315 0.131911 0.819 
-0.159572 0.138353 0.859 
-0.125518 0.145279 0.902 
-0.087177 0.151721 0.942 
-0.0435374 0.158003 0.981 
0.00228991 0.165412 1.027 
0.0528937 0.174431 1.083 
0.1091 0.184095 1.143 
0.170047 0.192792 1.197 
0.238857 0.203906 1.266 
0.315983 0.216308 1.343 
0.398595 0.227743 1.414 
0.490782 0.240628 1.494 
1.65846 0.709161 4.403 
1.97458 0.751359 4.665 
2.03226 0.696598 4.325 
2.37537 0.740729 4.599 
2.68489 0.767948 4.768 
2.85835 0.755063 4.688 
3.58917 0.874572 5.43 
3.35893 0.751359 4.665 
3.64613 0.766016 4.756 
4.045 0.789048 4.899 
4.52367 0.805154 4.999 
4.01561 0.67421 4.186 
-0.447471 0.0943177 0.58 
-0.430386 0.0967569 0.595 
-0.41551 0.0998467 0.614 
-0.397604 0.102611 0.631 
-0.377687 0.105538 0.649 
-0.355467 0.107977 0.664 
-0.331272 0.112368 0.691 
-0.308089 0.116596 0.717 
-0.281167 0.120824 0.743 
-0.255826 0.125377 0.771 
-0.220175 0.12554 0.772 
-0.193735 0.132045 0.812 
-0.162415 0.137574 0.846 
-0.124391 0.147005 0.904 
-0.0857134 0.153185 0.942 
-0.0435374 0.159527 0.981 
0.00228991 0.167007 1.027 
0.0527961 0.175789 1.081 
0.109004 0.185708 1.142 
0.169762 0.194327 1.195 
0.238669 0.20571 1.265 
0.315983 0.218394 1.343 
0.398876 0.230103 1.415 
0.490782 0.242949 1.494 
1.66562 0.719091 4.422 
1.98432 0.762347 4.688 
2.04119 0.706407 4.344 
2.36452 0.744459 4.578 
2.69785 0.779097 4.791 
2.87908 0.767876 4.722 
3.52204 0.868536 5.341 
3.2316 0.742671 4.567 
3.52668 0.760396 4.676 
4.00444 0.800725 4.924 
4.56648 0.827719 5.09 
3.99368 0.683641 4.204 
-0.452753 0.0940696 0.573 
-0.434838 0.0970247 0.591 
-0.419007 0.0998156 0.608 
-0.402234 0.102771 0.626 
-0.382591 0.105397 0.642 
-0.360907 0.10786 0.657 
-0.339835 0.110979 0.676 
-0.314125 0.117053 0.713 
-0.286542 0.121322 0.739 
-0.261649 0.125919 0.767 
-0.225604 0.125755 0.766 
-0.199817 0.132321 0.806 
-0.167081 0.136261 0.83 
-0.137521 0.145947 0.889 
-0.100516 0.152678 0.93 
-0.0590122 0.157604 0.96 
-0.0118592 0.165648 1.009 
0.037018 0.174349 1.062 
0.0911618 0.183707 1.119 
0.151644 0.194378 1.184 
0.215914 0.202915 1.236 
0.290564 0.215556 1.313 
0.370517 0.227048 1.383 
0.46077 0.24051 1.465 
1.60378 0.725961 4.422 
1.80212 0.722842 4.403 
2.16828 0.780794 4.756 
2.19247 0.716275 4.363 
2.60559 0.778988 4.745 
2.86131 0.78851 4.803 
3.12372 0.798361 4.863 
3.31732 0.79048 4.815 
3.54175 0.79048 4.815 
4.05804 0.84006 5.117 
4.00351 0.782764 4.768 
4.61376 0.82709 5.038 
3.97535 0.677039 4.124 
-0.447964 0.0954571 0.576 
-0.43131 0.0986058 0.595 
-0.415786 0.101589 0.613 
-0.397321 0.10424 0.629 
-0.377949 0.107058 0.646 
-0.355915 0.109544 0.661 
-0.335179 0.114018 0.688 
-0.30791 0.118327 0.714 
-0.28463 0.122636 0.74 
-0.259604 0.127276 0.768 
-0.223224 0.126945 0.766 
-0.197068 0.133408 0.805 
-0.1647 0.137717 0.831 
-0.134758 0.147329 0.889 
-0.0978357 0.154455 0.932 
-0.0562042 0.159592 0.963 
-0.00404875 0.168376 1.016 
0.0455664 0.177159 1.069 
0.101104 0.187765 1.133 
0.161385 0.19688 1.188 
0.228983 0.207984 1.255 
0.3042 0.220082 1.328 
0.38705 0.232677 1.404 
0.476985 0.245272 1.48 
1.67179 0.744764 4.494 
1.93902 0.767634 4.632 
2.09072 0.744764 4.494 
2.27409 0.736312 4.443 
2.68222 0.795973 4.803 
2.90609 0.795973 4.803 
3.25768 0.828455 4.999 
3.2812 0.778737 4.699 
3.55982 0.791995 4.779 
3.96127 0.811882 4.899 
4.41111 0.854805 5.158 
4.62718 0.85033 5.131 
4.02788 0.70267 4.24 
-0.452852 0.0956829 0.572 
-0.435197 0.0985266 0.589 
-0.419512 0.10137 0.606 
-0.402242 0.104214 0.623 
-0.383588 0.107392 0.642 
-0.360826 0.109567 0.655 
-0.340381 0.112912 0.675 
-0.320819 0.117262 0.701 
-0.292457 0.121778 0.728 
-0.268113 0.126295 0.755 
-0.23539 0.127633 0.763 
-0.207421 0.132484 0.792 
-0.178041 0.138339 0.827 
-0.144892 0.143692 0.859 
-0.111445 0.152725 0.913 
-0.0688018 0.159081 0.951 
-0.0165293 0.168449 1.007 
0.032068 0.177649 1.062 
0.0851781 0.185511 1.109 
0.144891 0.196384 1.174 
0.207603 0.204246 1.221 
0.281845 0.217628 1.301 
0.361175 0.229505 1.372 
0.451463 0.243724 1.457 
1.60501 0.749906 4.483 
1.77755 0.734851 4.393 
2.22192 0.823676 4.924 
2.17213 0.729833 4.363 
2.64064 0.811297 4.85 
2.85311 0.80745 4.827 
3.10105 0.813472 4.863 
3.31882 0.811297 4.85 
3.43452 0.786038 4.699 
3.99035 0.838396 5.012 
4.13884 0.821501 4.911 
4.53939 0.853786 5.104 
4.3355 0.77483 4.632 
-0.456745 0.0958962 0.568 
-0.438112 0.0992729 0.588 
-0.421183 0.101805 0.603 
-0.404158 0.104675 0.62 
-0.386155 0.107714 0.638 
-0.364238 0.110078 0.652 
-0.344601 0.113624 0.673 
-0.324403 0.117675 0.697 
-0.297899 0.121896 0.722 
-0.273762 0.126286 0.748 
-0.244965 0.129494 0.767 
-0.213307 0.132026 0.782 
-0.184999 0.138104 0.818 
-0.151541 0.142494 0.844 
-0.119779 0.152117 0.901 
-0.075869 0.159883 0.947 
-0.0241344 0.168494 0.998 
0.0237732 0.178961 1.06 
0.0758725 0.185546 1.099 
0.134036 0.195676 1.159 
0.19617 0.204117 1.209 
0.265681 0.214754 1.272 
0.347707 0.22978 1.361 
0.435009 0.243117 1.44 
0.529675 0.256455 1.519 
1.72794 0.735092 4.354 
2.20007 0.837573 4.961 
2.15784 0.743365 4.403 
2.64268 0.831326 4.924 
2.85761 0.827105 4.899 
3.03304 0.812923 4.815 
3.25747 0.812923 4.815 
3.31051 0.77291 4.578 
4.05009 0.86391 5.117 
4.15785 0.837573 4.961 
4.48021 0.854962 5.064 
4.47317 0.810897 4.803 
-0.456822 0.0966083 0.567 
-0.438279 0.100016 0.587 
-0.422119 0.102742 0.603 
-0.404468 0.105468 0.619 
-0.386539 0.108535 0.637 
-0.364691 0.110921 0.651 
-0.345647 0.114669 0.673 
-0.325018 0.118588 0.696 
-0.301826 0.122336 0.718 
-0.278451 0.126937 0.745 
-0.252232 0.131367 0.771 
-0.216576 0.131537 0.772 
-0.188313 0.13716 0.805 
-0.156599 0.142442 0.836 
-0.124949 0.151302 0.888 
-0.0799439 0.160673 0.943 
-0.0375171 0.167489 0.983 
0.00869775 0.175497 1.03 
0.0596793 0.184697 1.084 
0.116406 0.195091 1.145 
0.177337 0.203781 1.196 
0.246141 0.215196 1.263 
0.324329 0.228827 1.343 
0.409687 0.242288 1.422 
0.502075 0.255578 1.5 
1.75148 0.776274 4.556 
2.10134 0.830627 4.875 
2.10741 0.751739 4.412 
2.51175 0.816315 4.791 
2.83211 0.84528 4.961 
2.95837 0.816315 4.791 
3.25341 0.834716 4.899 
3.20102 0.767414 4.504 
3.49123 0.785475 4.61 
4.16465 0.856185 5.025 
4.44439 0.865045 5.077 
4.6211 0.85397 5.012 
-0.458722 0.0971454 0.565 
-0.440421 0.100584 0.585 
-0.424454 0.103335 0.601 
-0.406336 0.105914 0.616 
-0.388659 0.109009 0.634 
-0.367604 0.111588 0.649 
-0.34775 0.115027 0.669 
-0.327924 0.119154 0.693 
-0.304155 0.122592 0.713 
-0.281181 0.127235 0.74 
-0.25569 0.131877 0.767 
-0.21994 0.131877 0.767 
-0.192355 0.137723 0.801 
-0.159343 0.142709 0.83 
-0.127925 0.151306 0.88 
-0.0853494 0.161279 0.938 
-0.0433598 0.167984 0.977 
0.00227208 0.175206 1.019 
0.052503 0.184834 1.075 
0.108718 0.195838 1.139 
0.168768 0.204263 1.188 
0.237348 0.216299 1.258 
0.312453 0.228335 1.328 
0.397749 0.242606 1.411 
0.489796 0.256361 1.491 
1.78455 0.80794 4.699 
2.06284 0.83184 4.838 
2.12563 0.772693 4.494 
2.40681 0.79642 4.632 
2.80219 0.850925 4.949 
2.93604 0.823759 4.791 
3.23057 0.842328 4.899 
3.23227 0.787136 4.578 
3.46974 0.792638 4.61 
4.13051 0.861757 5.012 
4.44423 0.877575 5.104 
4.68213 0.877575 5.104 
-0.459599 0.0980232 0.565 
-0.438761 0.10132 0.584 
-0.423521 0.104269 0.601 
-0.405379 0.106871 0.616 
-0.386539 0.110515 0.637 
-0.364131 0.11277 0.65 
-0.345133 0.116587 0.672 
-0.324552 0.120577 0.695 
-0.300565 0.124047 0.715 
-0.277704 0.128905 0.743 
-0.250924 0.133069 0.767 
-0.216296 0.133763 0.771 
-0.187611 0.139141 0.802 
-0.156224 0.144693 0.834 
-0.123824 0.152673 0.88 
-0.0866217 0.162389 0.936 
-0.04474 0.168982 0.974 
0.000686852 0.176268 1.016 
0.0507382 0.186157 1.073 
0.106385 0.196567 1.133 
0.166501 0.205589 1.185 
0.234458 0.217386 1.253 
0.309222 0.22953 1.323 
0.394716 0.244277 1.408 
0.486826 0.25833 1.489 
1.80166 0.833284 4.803 
2.02047 0.831202 4.791 
2.16932 0.803617 4.632 
2.34608 0.790432 4.556 
2.76509 0.854277 4.924 
2.90641 0.82912 4.779 
3.19988 0.847858 4.887 
3.27196 0.809342 4.665 
3.45648 0.801709 4.621 
4.1989 0.874055 5.038 
4.44517 0.87631 5.051 
4.57403 0.856359 4.936 
-0.450649 0.100827 0.576 
-0.432631 0.102927 0.588 
-0.417629 0.106078 0.606 
-0.398379 0.108529 0.62 
-0.381995 0.112205 0.641 
-0.35816 0.11413 0.652 
-0.339333 0.118156 0.675 
-0.319273 0.122532 0.7 
-0.295655 0.126383 0.722 
-0.269473 0.13111 0.749 
-0.238007 0.133035 0.76 
-0.209247 0.137411 0.785 
-0.179036 0.142488 0.814 
-0.145775 0.147214 0.841 
-0.113039 0.156141 0.892 
-0.0754685 0.164893 0.942 
-0.0330693 0.172771 0.987 
0.0136428 0.182223 1.041 
0.064911 0.190275 1.087 
0.121424 0.199903 1.142 
0.183524 0.210055 1.2 
0.253587 0.220733 1.261 
0.331932 0.234562 1.34 
0.420879 0.250316 1.43 
0.511397 0.262569 1.5 
1.76127 0.782981 4.473 
2.15207 0.85545 4.887 
2.18847 0.786657 4.494 
2.63379 0.864028 4.936 
2.84239 0.857551 4.899 
2.94537 0.822542 4.699 
3.25059 0.844948 4.827 
3.26533 0.793834 4.535 
3.87016 0.83462 4.768 
4.45031 0.907614 5.185 
4.70466 0.910065 5.199 
-0.454179 0.100132 0.567 
-0.437695 0.103311 0.585 
-0.422355 0.106313 0.602 
-0.40412 0.108962 0.617 
-0.386312 0.112141 0.635 
-0.364017 0.114437 0.648 
-0.345147 0.118322 0.67 
-0.325163 0.12256 0.694 
-0.300832 0.125916 0.713 
-0.274979 0.131567 0.745 
-0.245736 0.134569 0.762 
-0.21353 0.136688 0.774 
-0.184102 0.14181 0.803 
-0.152519 0.147461 0.835 
-0.119178 0.154701 0.876 
-0.0837132 0.165297 0.936 
-0.0416706 0.171832 0.973 
0.00385149 0.179779 1.018 
0.0543244 0.190375 1.078 
0.109906 0.200088 1.133 
0.170183 0.209271 1.185 
0.237971 0.220926 1.251 
0.312385 0.232935 1.319 
0.400225 0.249359 1.412 
0.492443 0.263487 1.492 
1.81949 0.84609 4.791 
2.0735 0.858805 4.863 
2.17057 0.810416 4.589 
2.44733 0.831785 4.71 
2.78068 0.867282 4.911 
2.86557 0.825781 4.676 
3.21474 0.860924 4.875 
3.26263 0.816068 4.621 
3.45394 0.810416 4.589 
4.26296 0.896597 5.077 
4.50749 0.896597 5.077 
4.75991 0.896597 5.077 
-0.447599 0.103151 0.579 
-0.428602 0.105111 0.59 
-0.413073 0.108495 0.609 
-0.395426 0.111524 0.626 
-0.376194 0.114553 0.643 
-0.353278 0.117225 0.658 
-0.332904 0.120966 0.679 
-0.312791 0.125598 0.705 
-0.287632 0.130587 0.733 
-0.262112 0.13504 0.758 
-0.22708 0.135219 0.759 
-0.199785 0.140919 0.791 
-0.169096 0.146264 0.821 
-0.136247 0.152321 0.855 
-0.103385 0.163367 0.917 
-0.0630239 0.16978 0.953 
-0.0195218 0.178153 1 
0.0289035 0.19009 1.067 
0.0808476 0.195434 1.097 
0.139198 0.206124 1.157 
0.202974 0.216635 1.216 
0.270329 0.225542 1.266 
0.35275 0.241576 1.356 
0.443254 0.257432 1.445 
0.532868 0.268655 1.508 
1.88036 0.831086 4.665 
2.19223 0.868498 4.875 
2.29886 0.825207 4.632 
2.68686 0.881682 4.949 
2.8521 0.861907 4.838 
3.08523 0.864044 4.85 
3.41302 0.890589 4.999 
3.37033 0.823247 4.621 
3.86781 0.847298 4.756 
4.41194 0.914105 5.131 
4.72543 0.928714 5.213 
-0.451536 0.101894 0.567 
-0.437854 0.104949 0.584 
-0.422587 0.108004 0.601 
-0.401894 0.111059 0.618 
-0.38456 0.114473 0.637 
-0.357147 0.117169 0.652 
-0.337783 0.121123 0.674 
-0.317731 0.125615 0.699 
-0.294533 0.129749 0.722 
-0.270275 0.134421 0.748 
-0.238243 0.136038 0.757 
-0.209126 0.140172 0.78 
-0.17875 0.145024 0.807 
-0.146208 0.150235 0.836 
-0.112501 0.157603 0.877 
-0.076442 0.168206 0.936 
-0.0344625 0.176652 0.983 
0.0119214 0.185458 1.032 
0.0630477 0.194803 1.084 
0.118917 0.203968 1.135 
0.180751 0.21457 1.194 
0.247887 0.224993 1.252 
0.325322 0.23901 1.33 
0.413523 0.255184 1.42 
0.505722 0.269022 1.497 
1.80488 0.840311 4.676 
2.10892 0.876072 4.875 
2.21442 0.830427 4.621 
2.55022 0.87158 4.85 
2.78372 0.873916 4.863 
2.84696 0.826473 4.599 
3.26901 0.882542 4.911 
3.26073 0.822699 4.578 
3.98216 0.907701 5.051 
4.20368 0.903028 5.025 
4.58275 0.919561 5.117 
-0.45145 0.102956 0.568 
-0.436947 0.105856 0.584 
-0.422355 0.109119 0.602 
-0.400621 0.1122 0.619 
-0.383181 0.115644 0.638 
-0.356211 0.118545 0.654 
-0.336187 0.122351 0.675 
-0.316462 0.127064 0.701 
-0.293504 0.131414 0.725 
-0.268309 0.135764 0.749 
-0.235579 0.137033 0.756 
-0.206702 0.141383 0.78 
-0.176679 0.14664 0.809 
-0.14361 0.151534 0.836 
-0.109901 0.159147 0.878 
-0.0723103 0.170204 0.939 
-0.0300935 0.179448 0.99 
0.01691 0.189055 1.043 
0.0681631 0.196668 1.085 
0.124645 0.206456 1.139 
0.187565 0.217875 1.202 
0.25352 0.226757 1.251 
0.333765 0.242708 1.339 
0.42103 0.257934 1.423 
0.5127 0.271347 1.497 
