# .PCD v.7 - Point Cloud Data file format
VERSION .7
FIELDS x y z
SIZE 4 4 4
TYPE F F F
COUNT 1 1 1
WIDTH 1817
HEIGHT 1
VIEWPOINT 0 0 0 1 0 0 0
POINTS 1817
DATA ascii
0.40685 -0.176803 0.783 
0.407528 -0.16032 0.71 
0.437991 -0.158965 0.704 
0.466792 -0.15761 0.698 
0.495034 -0.156255 0.692 
0.529574 -0.156933 0.695 
0.553883 -0.154675 0.685 
0.58068 -0.15332 0.679 
0.606015 -0.151739 0.672 
0.641131 -0.152642 0.676 
0.665674 -0.151062 0.669 
-0.644672 -0.176708 0.788 
-0.605628 -0.176035 0.785 
-0.563965 -0.174466 0.778 
-0.525667 -0.173793 0.775 
-0.483859 -0.171775 0.766 
-0.443475 -0.169981 0.758 
-0.405991 -0.169084 0.754 
-0.367896 -0.167738 0.748 
-0.33125 -0.166841 0.744 
-0.294579 -0.16572 0.739 
-0.259782 -0.165496 0.738 
-0.224162 -0.164599 0.734 
-0.190468 -0.165047 0.736 
-0.155314 -0.16415 0.732 
-0.0787111 -0.178726 0.797 
-0.0376579 -0.177829 0.793 
-0.000683683 -0.17469 0.779 
0.0362686 -0.171999 0.767 
0.0722065 -0.172447 0.769 
0.108612 -0.173344 0.773 
0.142396 -0.170653 0.761 
0.559167 -0.529451 2.361 
0.667513 -0.528106 2.355 
0.454203 -0.279638 1.247 
0.442085 -0.237704 1.06 
0.421488 -0.201151 0.897 
0.402913 -0.171326 0.764 
0.41078 -0.158768 0.708 
0.442995 -0.158095 0.705 
0.46978 -0.156077 0.696 
0.499335 -0.15518 0.692 
0.532357 -0.155404 0.693 
0.557325 -0.153386 0.684 
0.584899 -0.152265 0.679 
0.609284 -0.150471 0.671 
0.641514 -0.150695 0.672 
-0.68423 -0.177488 0.797 
-0.639775 -0.175484 0.788 
-0.60075 -0.174816 0.785 
-0.55913 -0.173257 0.778 
-0.518835 -0.171921 0.772 
-0.477848 -0.170139 0.764 
-0.438186 -0.16858 0.757 
-0.400241 -0.167467 0.752 
-0.362762 -0.166353 0.747 
-0.326188 -0.165462 0.743 
-0.290379 -0.164794 0.74 
-0.255196 -0.164349 0.738 
-0.219601 -0.163458 0.734 
-0.186399 -0.164349 0.738 
-0.137254 -0.177933 0.799 
-0.0659122 -0.176375 0.792 
-0.0289236 -0.175929 0.79 
0.00889486 -0.171475 0.77 
0.0450756 -0.172589 0.775 
0.0808843 -0.171921 0.772 
0.116716 -0.171698 0.771 
0.150673 -0.169471 0.761 
0.58757 -0.528233 2.372 
0.697246 -0.527565 2.369 
0.438907 -0.256322 1.151 
0.428942 -0.220023 0.988 
0.412484 -0.186841 0.839 
0.398691 -0.161231 0.724 
0.420491 -0.156777 0.704 
0.452016 -0.156332 0.702 
0.479903 -0.154773 0.695 
0.510086 -0.154105 0.692 
0.536854 -0.152546 0.685 
0.564631 -0.151433 0.68 
0.591941 -0.150319 0.675 
0.620632 -0.149651 0.672 
0.648074 -0.14876 0.668 
-0.668476 -0.175365 0.793 
-0.623067 -0.174038 0.787 
-0.582659 -0.172933 0.782 
-0.539924 -0.170942 0.773 
-0.500635 -0.169837 0.768 
-0.460601 -0.168289 0.761 
-0.423455 -0.167625 0.758 
-0.384028 -0.165856 0.75 
-0.346743 -0.16475 0.745 
-0.310762 -0.164087 0.742 
-0.27506 -0.163423 0.739 
-0.239964 -0.162981 0.737 
-0.205055 -0.162539 0.735 
-0.170796 -0.162539 0.735 
-0.125766 -0.17625 0.797 
-0.0646 -0.174923 0.791 
-0.0276962 -0.174702 0.79 
0.0100912 -0.170279 0.77 
0.0462797 -0.171385 0.775 
0.0822964 -0.171163 0.774 
0.117761 -0.170279 0.77 
0.152055 -0.16851 0.762 
0.589056 -0.525874 2.378 
0.697246 -0.523884 2.369 
0.438907 -0.254534 1.151 
0.427509 -0.22092 0.999 
0.42373 -0.196816 0.89 
0.401613 -0.164529 0.744 
0.413421 -0.155905 0.705 
0.445648 -0.155684 0.704 
0.472345 -0.153693 0.695 
0.501108 -0.152588 0.69 
0.532496 -0.152366 0.689 
0.559694 -0.15104 0.683 
0.586332 -0.149713 0.677 
0.612411 -0.148386 0.671 
0.641768 -0.147944 0.669 
-0.677954 -0.174353 0.794 
-0.635295 -0.172816 0.787 
-0.594809 -0.171718 0.782 
-0.555504 -0.170839 0.778 
-0.513902 -0.169083 0.77 
-0.473045 -0.167326 0.762 
-0.434657 -0.166228 0.757 
-0.396736 -0.16513 0.752 
-0.35928 -0.164032 0.747 
-0.322725 -0.163154 0.743 
-0.28693 -0.162495 0.74 
-0.251756 -0.162056 0.738 
-0.216474 -0.161397 0.735 
-0.183455 -0.162495 0.74 
-0.135842 -0.175231 0.798 
-0.0773757 -0.174792 0.796 
-0.0400715 -0.173913 0.792 
-0.00311228 -0.171498 0.781 
0.0338853 -0.168424 0.767 
0.0697262 -0.168643 0.768 
0.106072 -0.169522 0.772 
0.140216 -0.167326 0.762 
0.556505 -0.522838 2.381 
0.66356 -0.519764 2.367 
0.450815 -0.272948 1.243 
0.44584 -0.235618 1.073 
0.421959 -0.199166 0.907 
0.40344 -0.167985 0.765 
0.409039 -0.154809 0.705 
0.441273 -0.15459 0.704 
0.468026 -0.152613 0.695 
0.49754 -0.151735 0.691 
0.528214 -0.151296 0.689 
0.555449 -0.149978 0.683 
0.582125 -0.148661 0.677 
0.608241 -0.147343 0.671 
0.638563 -0.147124 0.67 
-0.681655 -0.173119 0.794 
-0.638151 -0.171375 0.786 
-0.599985 -0.170939 0.784 
-0.55913 -0.16963 0.778 
-0.518163 -0.168104 0.771 
-0.475972 -0.165924 0.761 
-0.437607 -0.164834 0.756 
-0.400241 -0.163962 0.752 
-0.362276 -0.162653 0.746 
-0.325749 -0.161781 0.742 
-0.290379 -0.161345 0.74 
-0.255196 -0.160909 0.738 
-0.2199 -0.160255 0.735 
-0.186652 -0.161127 0.739 
-0.148426 -0.174209 0.799 
-0.0914368 -0.174427 0.8 
-0.0534717 -0.172247 0.79 
-0.0165442 -0.171157 0.785 
0.0195852 -0.167232 0.767 
0.0558404 -0.168758 0.774 
0.092273 -0.169412 0.777 
0.126836 -0.167232 0.767 
0.51083 -0.514124 2.358 
0.621527 -0.514778 2.361 
0.727236 -0.511726 2.347 
0.439725 -0.241582 1.108 
0.429726 -0.211275 0.969 
0.413788 -0.182931 0.839 
0.404135 -0.153932 0.706 
0.433947 -0.152842 0.701 
0.463292 -0.151752 0.696 
0.492884 -0.15088 0.692 
0.52362 -0.150443 0.69 
0.550949 -0.149135 0.684 
0.576865 -0.147609 0.677 
0.603028 -0.146301 0.671 
0.633359 -0.146083 0.67 
0.661612 -0.145429 0.667 
-0.645478 -0.170154 0.786 
-0.609617 -0.17037 0.787 
-0.564927 -0.167989 0.776 
-0.524669 -0.16669 0.77 
-0.48497 -0.165391 0.764 
-0.442307 -0.163226 0.754 
-0.406083 -0.162793 0.752 
-0.368565 -0.161711 0.747 
-0.331513 -0.160628 0.742 
-0.296128 -0.160195 0.74 
-0.261282 -0.159979 0.739 
-0.22561 -0.159113 0.735 
-0.191872 -0.159546 0.737 
-0.156265 -0.173401 0.801 
-0.101634 -0.173617 0.802 
-0.063291 -0.171019 0.79 
-0.0264353 -0.170803 0.789 
0.0101698 -0.167989 0.776 
0.04622 -0.167556 0.774 
0.0822964 -0.167556 0.774 
0.117608 -0.166473 0.769 
0.151855 -0.164742 0.761 
0.597198 -0.51544 2.381 
0.704013 -0.512409 2.367 
0.44133 -0.248519 1.148 
0.428281 -0.211285 0.976 
0.415091 -0.181627 0.839 
0.402467 -0.152619 0.705 
0.432857 -0.151753 0.701 
0.462875 -0.150887 0.697 
0.491809 -0.149804 0.692 
0.521034 -0.148938 0.688 
0.549886 -0.148073 0.684 
0.575814 -0.146557 0.677 
0.602883 -0.145475 0.672 
0.631374 -0.144825 0.669 
0.659585 -0.144176 0.666 
-0.645478 -0.168932 0.786 
-0.609617 -0.169147 0.787 
-0.564927 -0.166783 0.776 
-0.523987 -0.165279 0.769 
-0.48497 -0.164204 0.764 
-0.443478 -0.162055 0.754 
-0.407251 -0.161625 0.752 
-0.369725 -0.16055 0.747 
-0.332217 -0.159261 0.741 
-0.297277 -0.159046 0.74 
-0.262431 -0.158831 0.739 
-0.22706 -0.158186 0.736 
-0.193017 -0.158401 0.737 
-0.156265 -0.172156 0.801 
-0.114697 -0.169577 0.789 
-0.0709237 -0.170437 0.793 
-0.0338761 -0.170007 0.791 
0.00295104 -0.167643 0.78 
0.0389039 -0.165923 0.772 
0.0747901 -0.165708 0.771 
0.110296 -0.165064 0.768 
0.144761 -0.163559 0.761 
0.578624 -0.514964 2.396 
0.685116 -0.511096 2.378 
0.457194 -0.264145 1.229 
0.428077 -0.210413 0.979 
0.416505 -0.179249 0.834 
0.401896 -0.151308 0.704 
0.432857 -0.150664 0.701 
0.464786 -0.149374 0.695 
0.495034 -0.148729 0.692 
0.525147 -0.147225 0.685 
0.554636 -0.14658 0.682 
0.582125 -0.145505 0.677 
0.607334 -0.144001 0.67 
0.635704 -0.143356 0.667 
-0.681168 -0.168991 0.792 
-0.638559 -0.167498 0.785 
-0.600436 -0.167071 0.783 
-0.559619 -0.165791 0.777 
-0.518687 -0.164297 0.77 
-0.476527 -0.162163 0.76 
-0.437621 -0.160883 0.754 
-0.400875 -0.160243 0.751 
-0.362948 -0.158963 0.745 
-0.326902 -0.158323 0.742 
-0.291923 -0.158109 0.741 
-0.256342 -0.157469 0.738 
-0.220741 -0.156616 0.734 
-0.180809 -0.171765 0.805 
-0.142041 -0.170272 0.798 
-0.100263 -0.170912 0.801 
-0.061985 -0.168351 0.789 
-0.0252095 -0.168351 0.789 
0.0114048 -0.166004 0.778 
0.0474225 -0.165151 0.774 
0.083391 -0.164937 0.773 
0.118494 -0.163657 0.767 
0.153037 -0.162377 0.761 
0.598626 -0.506121 2.372 
0.704999 -0.503134 2.358 
0.43774 -0.23535 1.103 
0.428553 -0.203344 0.953 
0.407933 -0.170058 0.797 
0.406718 -0.149574 0.701 
0.445185 -0.150428 0.705 
0.470587 -0.148081 0.694 
0.50076 -0.147441 0.691 
0.529694 -0.145947 0.684 
0.559113 -0.145307 0.681 
0.586516 -0.14424 0.676 
0.612539 -0.14296 0.67 
0.638964 -0.141893 0.665 
-0.673311 -0.167337 0.79 
-0.63246 -0.166278 0.785 
-0.592076 -0.165219 0.78 
-0.550733 -0.163736 0.773 
-0.513371 -0.163313 0.771 
-0.470004 -0.160771 0.759 
-0.431191 -0.1595 0.753 
-0.394515 -0.158865 0.75 
-0.35764 -0.158017 0.746 
-0.32157 -0.157382 0.743 
-0.286553 -0.15717 0.742 
-0.250949 -0.156534 0.739 
-0.214746 -0.155264 0.733 
-0.170379 -0.170091 0.803 
-0.131626 -0.168396 0.795 
-0.0950467 -0.169244 0.799 
-0.0570816 -0.167125 0.789 
-0.0203061 -0.167125 0.789 
0.0162398 -0.164795 0.778 
0.0521652 -0.163736 0.773 
0.0883091 -0.163948 0.774 
0.123261 -0.162465 0.767 
0.157974 -0.161406 0.762 
0.606902 -0.49714 2.347 
0.711108 -0.493539 2.33 
0.445311 -0.230459 1.088 
0.424224 -0.19445 0.918 
0.408561 -0.164584 0.777 
0.412074 -0.148062 0.699 
0.447199 -0.148909 0.703 
0.473139 -0.146791 0.693 
0.503252 -0.146155 0.69 
0.529981 -0.144673 0.683 
0.560171 -0.144249 0.681 
0.586697 -0.142978 0.675 
0.61358 -0.141919 0.67 
0.639997 -0.14086 0.665 
-0.672084 -0.16611 0.79 
-0.630437 -0.164848 0.784 
-0.590107 -0.163797 0.779 
-0.54811 -0.162115 0.771 
-0.512173 -0.162115 0.771 
-0.468207 -0.159381 0.758 
-0.42945 -0.15812 0.752 
-0.392301 -0.157279 0.748 
-0.356481 -0.156858 0.746 
-0.320416 -0.156227 0.743 
-0.285784 -0.156227 0.743 
-0.249463 -0.155176 0.738 
-0.213899 -0.154335 0.734 
-0.178086 -0.169054 0.804 
-0.139562 -0.167792 0.798 
-0.102495 -0.168002 0.799 
-0.0644367 -0.1659 0.789 
-0.0276962 -0.16611 0.79 
0.00901038 -0.164007 0.78 
0.0450174 -0.162746 0.774 
0.0808843 -0.162325 0.772 
0.115656 -0.160643 0.764 
0.150475 -0.159802 0.76 
0.592003 -0.499381 2.375 
0.69856 -0.496437 2.361 
0.438259 -0.231292 1.1 
0.429611 -0.202276 0.962 
0.406909 -0.167161 0.795 
0.409316 -0.146765 0.698 
0.445648 -0.148027 0.704 
0.470985 -0.145714 0.693 
0.501834 -0.145294 0.691 
0.528632 -0.143822 0.684 
0.558055 -0.143191 0.681 
0.585466 -0.14214 0.676 
0.611498 -0.140878 0.67 
0.636972 -0.139616 0.664 
-0.672459 -0.164674 0.789 
-0.631655 -0.16363 0.784 
-0.590558 -0.162378 0.778 
-0.549308 -0.160917 0.771 
-0.513371 -0.160917 0.771 
-0.469385 -0.158204 0.758 
-0.430046 -0.156743 0.751 
-0.393463 -0.156117 0.748 
-0.35764 -0.155699 0.746 
-0.32157 -0.155073 0.743 
-0.286939 -0.155073 0.743 
-0.250609 -0.154029 0.738 
-0.20836 -0.169057 0.81 
-0.169131 -0.167596 0.803 
-0.130063 -0.165509 0.793 
-0.0936879 -0.166552 0.798 
-0.0558557 -0.164674 0.789 
-0.0191044 -0.164882 0.79 
0.0174935 -0.162795 0.78 
0.0532281 -0.160917 0.771 
0.0892803 -0.161126 0.772 
0.124128 -0.159665 0.765 
0.517169 -0.5055 2.422 
0.607427 -0.487342 2.335 
0.711354 -0.484003 2.319 
0.444436 -0.227496 1.09 
0.425814 -0.194937 0.934 
0.407188 -0.164048 0.786 
0.417504 -0.14589 0.699 
0.449441 -0.145681 0.698 
0.476451 -0.144011 0.69 
0.507875 -0.143803 0.689 
0.532152 -0.141715 0.679 
0.56297 -0.141507 0.678 
0.591064 -0.140672 0.674 
0.616938 -0.13942 0.668 
0.645163 -0.138793 0.665 
-0.665485 -0.163241 0.788 
-0.624766 -0.162205 0.783 
-0.583011 -0.160755 0.776 
-0.5405 -0.15889 0.767 
-0.506066 -0.159305 0.769 
-0.462273 -0.156612 0.756 
-0.423647 -0.155369 0.75 
-0.387134 -0.154747 0.747 
-0.352316 -0.154747 0.747 
-0.315798 -0.153919 0.743 
-0.281545 -0.154126 0.744 
-0.203075 -0.167591 0.809 
-0.163732 -0.165934 0.801 
-0.124977 -0.164069 0.792 
-0.088395 -0.164691 0.795 
-0.0509523 -0.163448 0.789 
-0.0141768 -0.163448 0.789 
0.0223696 -0.161791 0.781 
0.0579444 -0.159512 0.77 
0.0939562 -0.159719 0.771 
0.128376 -0.157855 0.762 
0.531562 -0.501116 2.419 
0.621406 -0.4833 2.333 
0.437967 -0.260191 1.256 
0.445805 -0.223938 1.081 
0.42472 -0.185407 0.895 
0.403451 -0.145218 0.701 
0.436747 -0.145425 0.702 
0.464117 -0.143768 0.694 
0.495749 -0.143561 0.693 
0.520431 -0.141489 0.683 
0.54984 -0.140868 0.68 
0.576404 -0.139625 0.674 
0.605113 -0.139003 0.671 
0.630698 -0.13776 0.665 
0.661694 -0.13776 0.665 
-0.644657 -0.1614 0.785 
-0.604195 -0.160372 0.78 
-0.562015 -0.158727 0.772 
-0.521262 -0.157288 0.765 
-0.483066 -0.156465 0.761 
-0.442302 -0.154615 0.752 
-0.403209 -0.154409 0.751 
-0.365263 -0.153175 0.745 
-0.330095 -0.15297 0.744 
-0.294622 -0.152559 0.742 
-0.226521 -0.165101 0.803 
-0.188857 -0.164895 0.802 
-0.151098 -0.164484 0.8 
-0.112956 -0.16325 0.794 
-0.075565 -0.162428 0.79 
-0.0385958 -0.161811 0.787 
-0.00190858 -0.1614 0.785 
0.0343712 -0.15996 0.778 
0.0699985 -0.158521 0.771 
0.104973 -0.157082 0.764 
0.139664 -0.156054 0.759 
0.558609 -0.491395 2.39 
0.662719 -0.486049 2.364 
0.451177 -0.255772 1.244 
0.43715 -0.211567 1.029 
0.410139 -0.160372 0.78 
0.414144 -0.143306 0.697 
0.447272 -0.143512 0.698 
0.472932 -0.141456 0.688 
0.505734 -0.141662 0.689 
0.530823 -0.139811 0.68 
0.560863 -0.1394 0.678 
0.587222 -0.138166 0.672 
0.613942 -0.137138 0.667 
0.641163 -0.136316 0.663 
-0.669158 -0.160792 0.788 
-0.626811 -0.159364 0.781 
-0.586628 -0.158344 0.776 
-0.544075 -0.156507 0.767 
-0.50965 -0.156915 0.769 
-0.466413 -0.154467 0.757 
-0.426573 -0.152834 0.749 
-0.388295 -0.152426 0.747 
-0.35395 -0.15263 0.748 
-0.317379 -0.151814 0.744 
-0.283461 -0.152222 0.746 
-0.227768 -0.163853 0.803 
-0.189866 -0.163445 0.801 
-0.152531 -0.163445 0.801 
-0.114334 -0.162221 0.795 
-0.0767924 -0.1612 0.79 
-0.0397679 -0.160384 0.786 
-0.00313619 -0.160588 0.787 
0.0332477 -0.15916 0.78 
0.0688007 -0.157323 0.771 
0.104058 -0.156303 0.766 
0.138302 -0.154671 0.758 
0.553027 -0.489314 2.398 
0.653709 -0.481152 2.358 
0.450328 -0.254452 1.247 
0.438424 -0.210581 1.032 
0.411122 -0.158139 0.775 
0.413061 -0.142224 0.697 
0.446187 -0.142428 0.698 
0.471863 -0.140387 0.688 
0.504663 -0.140591 0.689 
0.529766 -0.138755 0.68 
0.55981 -0.138347 0.678 
0.586178 -0.137122 0.672 
0.612906 -0.136102 0.667 
0.639167 -0.135082 0.662 
-0.669158 -0.159568 0.788 
-0.626008 -0.157948 0.78 
-0.585117 -0.156733 0.774 
-0.544075 -0.155315 0.767 
-0.508325 -0.155315 0.767 
-0.466413 -0.15329 0.757 
-0.426573 -0.15167 0.749 
-0.385843 -0.15167 0.749 
-0.350464 -0.151468 0.748 
-0.313911 -0.150658 0.744 
-0.27404 -0.163415 0.807 
-0.234668 -0.1622 0.801 
-0.198072 -0.162808 0.804 
-0.159998 -0.1622 0.801 
-0.121438 -0.16058 0.793 
-0.0842634 -0.160175 0.791 
-0.047095 -0.159163 0.786 
-0.0104993 -0.15977 0.789 
0.026143 -0.15896 0.785 
0.0615334 -0.155923 0.77 
0.0974233 -0.155923 0.77 
0.131409 -0.153695 0.759 
0.533992 -0.488626 2.413 
0.627174 -0.474046 2.341 
0.69949 -0.450354 2.224 
0.443386 -0.222747 1.1 
0.42936 -0.187512 0.926 
0.402936 -0.142153 0.702 
0.435656 -0.142153 0.702 
0.462372 -0.140331 0.693 
0.493245 -0.139926 0.691 
0.517849 -0.137901 0.681 
0.547169 -0.137293 0.678 
0.572795 -0.135876 0.671 
0.60227 -0.135471 0.669 
0.629665 -0.134661 0.665 
-0.684717 -0.158544 0.789 
-0.643836 -0.15754 0.784 
-0.599547 -0.15553 0.774 
-0.559103 -0.154325 0.768 
-0.519899 -0.15332 0.763 
-0.481796 -0.152516 0.759 
-0.442302 -0.15111 0.752 
-0.406709 -0.150909 0.751 
-0.37022 -0.150306 0.748 
-0.334011 -0.149703 0.745 
-0.298483 -0.149301 0.743 
-0.253665 -0.162764 0.81 
-0.216177 -0.162965 0.811 
-0.176397 -0.161157 0.802 
-0.138495 -0.160554 0.799 
-0.100493 -0.159348 0.793 
-0.0631307 -0.158344 0.788 
-0.0262343 -0.157339 0.783 
0.0103271 -0.158344 0.788 
0.04622 -0.15553 0.774 
0.0819774 -0.154928 0.771 
0.116232 -0.152717 0.76 
0.151057 -0.152114 0.757 
0.581872 -0.472017 2.349 
0.684885 -0.467596 2.327 
0.458762 -0.245754 1.223 
0.426081 -0.189088 0.941 
0.399747 -0.141866 0.706 
0.42959 -0.140861 0.701 
0.456329 -0.139053 0.692 
0.486465 -0.13845 0.689 
0.514064 -0.137244 0.683 
0.541902 -0.13624 0.678 
0.566737 -0.134632 0.67 
0.597073 -0.134431 0.669 
0.624499 -0.133627 0.665 
0.648595 -0.132221 0.658 
-0.649926 -0.156322 0.784 
-0.606342 -0.154527 0.775 
-0.565069 -0.153131 0.768 
-0.52307 -0.151337 0.759 
-0.486407 -0.150938 0.757 
-0.448144 -0.149941 0.752 
-0.412543 -0.149742 0.751 
-0.378042 -0.149941 0.752 
-0.339798 -0.148546 0.745 
-0.304664 -0.148346 0.744 
-0.269609 -0.160509 0.805 
-0.231511 -0.16011 0.803 
-0.1936 -0.159711 0.801 
-0.15646 -0.159911 0.802 
-0.117742 -0.158116 0.793 
-0.0803728 -0.157319 0.789 
-0.043321 -0.156322 0.784 
-0.00682171 -0.157319 0.789 
0.0298779 -0.15692 0.787 
0.0651224 -0.15353 0.77 
0.100881 -0.153331 0.769 
0.134413 -0.150739 0.756 
0.54149 -0.481128 2.413 
0.636616 -0.468367 2.349 
0.440462 -0.249636 1.252 
0.444086 -0.220525 1.106 
0.408927 -0.155524 0.78 
0.409316 -0.139174 0.698 
0.443116 -0.139573 0.7 
0.466908 -0.136981 0.687 
0.500381 -0.13738 0.689 
0.52554 -0.135585 0.68 
0.555596 -0.135186 0.678 
0.581136 -0.133791 0.671 
0.607848 -0.132794 0.666 
0.634094 -0.131797 0.661 
-0.6732 -0.155697 0.787 
-0.630047 -0.154114 0.779 
-0.588402 -0.15273 0.772 
-0.548126 -0.151543 0.766 
-0.511084 -0.151147 0.764 
-0.472362 -0.150158 0.759 
-0.432379 -0.148575 0.751 
-0.397375 -0.148575 0.751 
-0.360923 -0.147982 0.748 
-0.325187 -0.147586 0.746 
-0.295388 -0.161039 0.814 
-0.256498 -0.160445 0.811 
-0.218697 -0.160445 0.811 
-0.179112 -0.158863 0.803 
-0.141507 -0.158665 0.802 
-0.102957 -0.156884 0.793 
-0.0656625 -0.156093 0.789 
-0.0285575 -0.154312 0.78 
0.00789849 -0.156291 0.79 
0.0438149 -0.153125 0.774 
0.0795816 -0.152532 0.771 
0.11387 -0.150356 0.76 
0.148312 -0.149366 0.755 
0.574569 -0.467685 2.364 
0.667666 -0.456013 2.305 
0.456488 -0.241756 1.222 
0.428257 -0.184581 0.933 
0.40842 -0.147982 0.748 
0.420641 -0.137892 0.697 
0.449878 -0.136903 0.692 
0.477255 -0.135518 0.685 
0.506953 -0.134924 0.682 
0.535582 -0.134133 0.678 
0.563001 -0.133144 0.673 
0.589954 -0.132155 0.668 
0.61737 -0.131363 0.664 
0.642461 -0.130176 0.658 
-0.658453 -0.153886 0.784 
-0.613184 -0.151726 0.773 
-0.574168 -0.150941 0.769 
-0.532724 -0.149371 0.761 
-0.494116 -0.148782 0.758 
-0.456364 -0.147997 0.754 
-0.419544 -0.147408 0.751 
-0.385564 -0.147801 0.753 
-0.347674 -0.146623 0.747 
-0.3116 -0.146034 0.744 
-0.281352 -0.158989 0.81 
-0.242695 -0.1584 0.807 
-0.205589 -0.158793 0.809 
-0.166221 -0.157222 0.801 
-0.12776 -0.155848 0.794 
-0.0901796 -0.154867 0.789 
-0.053201 -0.154278 0.786 
-0.0165653 -0.154278 0.786 
0.0201981 -0.15526 0.791 
0.0554796 -0.150941 0.769 
0.0913229 -0.150941 0.769 
0.125513 -0.148978 0.759 
0.513406 -0.475396 2.422 
0.603282 -0.457927 2.333 
0.640363 -0.397668 2.026 
0.44409 -0.21964 1.119 
0.410924 -0.156633 0.798 
0.40351 -0.137987 0.703 
0.435656 -0.13779 0.702 
0.46037 -0.135435 0.69 
0.491104 -0.135042 0.688 
0.517088 -0.133472 0.68 
0.545555 -0.132687 0.676 
0.571942 -0.131509 0.67 
0.59957 -0.130724 0.666 
0.628718 -0.130332 0.664 
0.649733 -0.128369 0.654 
-0.639729 -0.151694 0.779 
-0.597223 -0.150136 0.771 
-0.556191 -0.148773 0.764 
-0.518536 -0.148189 0.761 
-0.480617 -0.147799 0.759 
-0.441133 -0.146436 0.752 
-0.407163 -0.146826 0.754 
-0.370045 -0.146047 0.75 
-0.334194 -0.145657 0.748 
-0.295388 -0.158509 0.814 
-0.256182 -0.15773 0.81 
-0.218967 -0.15812 0.812 
-0.179335 -0.156562 0.804 
-0.141507 -0.156173 0.802 
-0.102957 -0.15442 0.793 
-0.0656625 -0.153641 0.789 
-0.0285575 -0.151889 0.78 
0.00791849 -0.154225 0.792 
0.0437583 -0.150525 0.773 
0.0794784 -0.149941 0.77 
0.11402 -0.148189 0.761 
0.148115 -0.146826 0.754 
0.576774 -0.459171 2.358 
0.661055 -0.442035 2.27 
0.453069 -0.232312 1.193 
0.419869 -0.164741 0.846 
0.404197 -0.142931 0.734 
0.416794 -0.135531 0.696 
0.447298 -0.134947 0.693 
0.47337 -0.133195 0.684 
0.503775 -0.132805 0.682 
0.531636 -0.131831 0.677 
0.560696 -0.131247 0.674 
0.585962 -0.129884 0.667 
0.61335 -0.129105 0.663 
0.640366 -0.128326 0.659 
-0.657988 -0.151063 0.782 
-0.612796 -0.148938 0.771 
-0.574615 -0.148359 0.768 
-0.534608 -0.1472 0.762 
-0.495161 -0.14604 0.756 
-0.459316 -0.145847 0.755 
-0.42244 -0.145268 0.752 
-0.388419 -0.145654 0.754 
-0.349995 -0.144302 0.747 
-0.327341 -0.158017 0.818 
-0.287446 -0.157051 0.813 
-0.248631 -0.156472 0.81 
-0.210877 -0.156472 0.81 
-0.171626 -0.15512 0.803 
-0.133195 -0.153961 0.797 
-0.095324 -0.152802 0.791 
-0.0581596 -0.152029 0.787 
-0.0213682 -0.151256 0.783 
0.0153209 -0.153188 0.793 
0.0506346 -0.148359 0.768 
0.0864313 -0.148359 0.768 
0.120955 -0.146813 0.76 
0.15535 -0.145847 0.755 
0.596033 -0.450678 2.333 
0.589786 -0.369544 1.913 
0.44543 -0.21597 1.118 
0.411738 -0.154927 0.802 
0.399747 -0.136382 0.706 
0.42959 -0.135416 0.701 
0.454351 -0.133098 0.689 
0.484347 -0.132518 0.686 
0.511053 -0.131166 0.679 
0.539504 -0.130393 0.675 
0.566737 -0.129427 0.67 
0.595288 -0.128848 0.667 
0.621682 -0.127882 0.662 
0.644652 -0.126337 0.654 
-0.645398 -0.149465 0.78 
-0.602015 -0.14774 0.771 
-0.560939 -0.146399 0.764 
-0.522578 -0.145632 0.76 
-0.485231 -0.145058 0.757 
-0.44757 -0.144291 0.753 
-0.413568 -0.144674 0.755 
-0.376873 -0.144099 0.752 
-0.339095 -0.14295 0.746 
-0.315517 -0.156555 0.817 
-0.273701 -0.154447 0.806 
-0.236133 -0.154447 0.806 
-0.198072 -0.154064 0.804 
-0.159799 -0.153297 0.8 
-0.121438 -0.151956 0.793 
-0.0838373 -0.150806 0.787 
-0.0470351 -0.150423 0.785 
-0.0104593 -0.150615 0.786 
0.0263762 -0.151764 0.792 
0.0612937 -0.146974 0.767 
0.0967907 -0.14659 0.765 
0.130889 -0.144866 0.756 
0.544856 -0.465257 2.428 
0.453214 -0.237419 1.239 
0.427778 -0.181657 0.948 
0.410198 -0.14774 0.771 
0.40773 -0.133943 0.699 
0.439051 -0.13356 0.697 
0.464096 -0.131452 0.686 
0.495348 -0.131261 0.685 
0.521888 -0.129919 0.678 
0.551857 -0.129536 0.676 
0.577325 -0.128195 0.669 
0.603049 -0.127045 0.663 
0.631083 -0.12647 0.66 
-0.668923 -0.148633 0.782 
-0.626003 -0.147113 0.774 
-0.586116 -0.146162 0.769 
-0.545263 -0.144832 0.762 
-0.50774 -0.144262 0.759 
-0.472362 -0.144262 0.759 
-0.434682 -0.143501 0.755 
-0.400021 -0.143691 0.756 
-0.360923 -0.142171 0.748 
-0.342156 -0.155856 0.82 
-0.301711 -0.154715 0.814 
-0.260854 -0.153005 0.805 
-0.22472 -0.153955 0.81 
-0.185812 -0.153005 0.805 
-0.147553 -0.152244 0.801 
-0.109118 -0.150724 0.793 
-0.0717918 -0.149964 0.789 
-0.0346612 -0.148443 0.781 
0.00175924 -0.149964 0.789 
0.0378998 -0.147493 0.776 
0.0732104 -0.145782 0.767 
0.108108 -0.144642 0.761 
0.142258 -0.143311 0.754 
0.572703 -0.354857 1.867 
0.448488 -0.216487 1.139 
0.412681 -0.151864 0.799 
0.402418 -0.133618 0.703 
0.433947 -0.133238 0.701 
0.457301 -0.130577 0.687 
0.48861 -0.130387 0.686 
0.514514 -0.128866 0.678 
0.542894 -0.128106 0.674 
0.570049 -0.127155 0.669 
0.597636 -0.126395 0.665 
0.624851 -0.125635 0.661 
0.647725 -0.124114 0.653 
-0.630813 -0.14591 0.774 
-0.591663 -0.145156 0.77 
-0.549999 -0.143648 0.762 
-0.513807 -0.143459 0.761 
-0.477079 -0.143082 0.759 
-0.439956 -0.142517 0.756 
-0.404719 -0.142517 0.756 
-0.36606 -0.141197 0.749 
-0.331149 -0.141197 0.749 
-0.311327 -0.153828 0.816 
-0.269944 -0.151942 0.806 
-0.232953 -0.152319 0.808 
-0.193841 -0.151188 0.802 
-0.155875 -0.150623 0.799 
-0.117594 -0.149303 0.792 
-0.080169 -0.148361 0.787 
-0.0434315 -0.148172 0.786 
-0.00679577 -0.148172 0.786 
0.0299538 -0.148738 0.789 
0.0646995 -0.144213 0.765 
0.0999629 -0.143648 0.762 
0.134058 -0.14214 0.754 
0.452563 -0.353276 1.874 
0.600413 -0.352899 1.872 
0.447617 -0.207743 1.102 
0.413087 -0.153074 0.812 
0.399292 -0.135165 0.717 
0.420038 -0.131206 0.696 
0.448578 -0.130075 0.69 
0.477255 -0.129132 0.685 
0.50398 -0.127813 0.678 
0.533212 -0.127247 0.675 
0.562164 -0.126682 0.672 
0.587304 -0.125362 0.665 
0.612722 -0.124231 0.659 
0.640508 -0.123665 0.656 
-0.644952 -0.145455 0.778 
-0.60243 -0.14396 0.77 
-0.56139 -0.142651 0.763 
-0.524448 -0.142277 0.761 
-0.487692 -0.141903 0.759 
-0.450527 -0.141342 0.756 
-0.41529 -0.141342 0.756 
-0.378042 -0.140594 0.752 
-0.339798 -0.139286 0.745 
-0.324402 -0.152747 0.817 
-0.28492 -0.151999 0.813 
-0.246722 -0.151812 0.812 
-0.207074 -0.150503 0.805 
-0.16871 -0.149755 0.801 
-0.130391 -0.148634 0.795 
-0.0928661 -0.147886 0.791 
-0.0556434 -0.146951 0.786 
-0.0189351 -0.14639 0.783 
0.0178747 -0.149008 0.797 
0.052883 -0.143212 0.766 
0.0884708 -0.143025 0.765 
0.12283 -0.141529 0.757 
0.157278 -0.140781 0.753 
0.527208 -0.347747 1.86 
0.45358 -0.231831 1.24 
0.442502 -0.198365 1.061 
0.412046 -0.14826 0.793 
0.403451 -0.131059 0.701 
0.433636 -0.130311 0.697 
0.458767 -0.128255 0.686 
0.490027 -0.128068 0.685 
0.515859 -0.126572 0.677 
0.54418 -0.125824 0.673 
0.572128 -0.125077 0.669 
0.597899 -0.123955 0.663 
0.625008 -0.123207 0.659 
0.649754 -0.122085 0.653 
-0.625194 -0.143319 0.773 
-0.584591 -0.142207 0.767 
-0.544548 -0.141095 0.761 
-0.50774 -0.140724 0.759 
-0.472362 -0.140724 0.759 
-0.436409 -0.140538 0.758 
-0.401079 -0.140538 0.758 
-0.36044 -0.138499 0.747 
-0.347252 -0.152034 0.82 
-0.30677 -0.150921 0.814 
-0.266187 -0.149438 0.806 
-0.22947 -0.149994 0.809 
-0.190103 -0.148696 0.802 
-0.152151 -0.14814 0.799 
-0.113902 -0.146842 0.792 
-0.0763064 -0.145544 0.785 
-0.0397173 -0.145544 0.785 
-0.00313619 -0.145915 0.787 
0.0332051 -0.144432 0.779 
0.068176 -0.141651 0.764 
0.103379 -0.141095 0.761 
0.13739 -0.139611 0.753 
0.443829 -0.347452 1.874 
0.535542 -0.340963 1.839 
0.452017 -0.23009 1.241 
0.440802 -0.195233 1.053 
0.413404 -0.147955 0.798 
0.404472 -0.129599 0.699 
0.433926 -0.128672 0.694 
0.460899 -0.127189 0.686 
0.491437 -0.126818 0.684 
0.517963 -0.12552 0.677 
0.546271 -0.124779 0.673 
0.573348 -0.123852 0.668 
0.599054 -0.122739 0.662 
0.627056 -0.122183 0.659 
-0.663083 -0.143038 0.778 
-0.621987 -0.141935 0.772 
-0.581449 -0.140832 0.766 
-0.541471 -0.139728 0.76 
-0.504715 -0.139361 0.758 
-0.470623 -0.139728 0.76 
-0.434627 -0.139545 0.759 
-0.399249 -0.139545 0.759 
-0.358119 -0.137338 0.747 
-0.340466 -0.150576 0.819 
-0.299708 -0.149289 0.812 
-0.260248 -0.14837 0.807 
-0.223186 -0.148737 0.809 
-0.184332 -0.147818 0.804 
-0.145761 -0.146715 0.798 
-0.10775 -0.145612 0.792 
-0.0702976 -0.144509 0.786 
-0.0334906 -0.143773 0.782 
0.00300023 -0.145796 0.793 
0.0387023 -0.141199 0.768 
0.074111 -0.140464 0.764 
0.109003 -0.139545 0.759 
0.143049 -0.138258 0.752 
0.450873 -0.343254 1.867 
0.533285 -0.340312 1.851 
0.452017 -0.228162 1.241 
0.435974 -0.189369 1.03 
0.41423 -0.14745 0.802 
0.404978 -0.12833 0.698 
0.434378 -0.12741 0.693 
0.461291 -0.125939 0.685 
0.491779 -0.125572 0.683 
0.519014 -0.124469 0.677 
0.546503 -0.123549 0.672 
0.573526 -0.12263 0.667 
0.599176 -0.121527 0.661 
0.627127 -0.120975 0.658 
-0.659817 -0.141647 0.777 
-0.619588 -0.140735 0.772 
-0.578313 -0.139459 0.765 
-0.539819 -0.13873 0.761 
-0.503023 -0.138365 0.759 
-0.468878 -0.13873 0.761 
-0.432838 -0.138548 0.76 
-0.396891 -0.138365 0.759 
-0.355798 -0.136178 0.747 
-0.336649 -0.149303 0.819 
-0.295924 -0.148027 0.812 
-0.256487 -0.147116 0.807 
-0.219144 -0.147298 0.808 
-0.180584 -0.146569 0.804 
-0.141863 -0.145293 0.797 
-0.103927 -0.144199 0.791 
-0.0665493 -0.143105 0.785 
-0.0298075 -0.142376 0.781 
0.00673865 -0.145475 0.798 
0.0420618 -0.139277 0.764 
0.0776721 -0.139277 0.764 
0.112096 -0.137818 0.756 
0.146554 -0.137089 0.752 
0.459575 -0.340353 1.867 
0.538399 -0.335249 1.839 
0.454404 -0.225504 1.237 
0.43564 -0.185581 1.018 
0.408927 -0.142194 0.78 
0.40598 -0.12688 0.696 
0.435271 -0.125969 0.691 
0.46342 -0.124875 0.685 
0.493179 -0.124328 0.682 
0.520348 -0.123234 0.676 
0.547775 -0.122323 0.671 
0.573873 -0.121229 0.665 
0.60123 -0.1205 0.661 
0.629171 -0.119953 0.658 
-0.652939 -0.140259 0.776 
-0.612796 -0.139355 0.771 
-0.570874 -0.137909 0.763 
-0.534608 -0.137728 0.762 
-0.497781 -0.137367 0.76 
-0.463574 -0.137728 0.762 
-0.426372 -0.137186 0.759 
-0.389449 -0.136644 0.756 
-0.349995 -0.135017 0.747 
-0.32948 -0.147669 0.817 
-0.289616 -0.146766 0.812 
-0.250528 -0.146043 0.808 
-0.211813 -0.14532 0.804 
-0.173688 -0.144777 0.801 
-0.135332 -0.143693 0.795 
-0.0975347 -0.142608 0.789 
-0.0602971 -0.141524 0.783 
-0.0237404 -0.141162 0.781 
0.0129865 -0.144777 0.801 
0.0478712 -0.137728 0.762 
0.0833882 -0.137728 0.762 
0.117345 -0.135921 0.752 
0.15199 -0.135559 0.75 
0.470673 -0.337091 1.865 
0.548632 -0.331669 1.835 
0.455011 -0.219245 1.213 
0.425973 -0.170624 0.944 
0.409389 -0.139897 0.774 
0.408143 -0.125799 0.696 
0.436785 -0.124715 0.69 
0.464869 -0.12363 0.684 
0.494572 -0.123088 0.681 
0.522449 -0.122184 0.676 
0.549041 -0.1211 0.67 
0.575939 -0.120196 0.665 
0.603284 -0.119473 0.661 
0.630256 -0.11875 0.657 
-0.647649 -0.138695 0.774 
-0.607622 -0.137799 0.769 
-0.566574 -0.136544 0.762 
-0.531754 -0.136724 0.763 
-0.49554 -0.136544 0.762 
-0.459419 -0.136365 0.761 
-0.422277 -0.135828 0.758 
-0.384905 -0.135111 0.754 
-0.355218 -0.145504 0.812 
-0.318152 -0.145862 0.814 
-0.279523 -0.145504 0.812 
-0.24108 -0.145146 0.81 
-0.201067 -0.143533 0.801 
-0.16271 -0.142637 0.796 
-0.124819 -0.141741 0.791 
-0.0876167 -0.141203 0.788 
-0.0507586 -0.140845 0.786 
-0.0139971 -0.139591 0.779 
0.0225414 -0.141024 0.787 
0.0572672 -0.136365 0.761 
0.0927376 -0.136365 0.761 
0.126018 -0.134036 0.748 
0.410853 -0.337419 1.883 
0.495443 -0.335268 1.871 
0.574865 -0.330789 1.846 
0.455361 -0.210551 1.175 
0.423359 -0.169874 0.948 
0.420193 -0.146221 0.816 
0.401724 -0.125076 0.698 
0.432051 -0.123822 0.691 
0.459555 -0.122567 0.684 
0.489281 -0.12203 0.681 
0.517197 -0.121134 0.676 
0.544647 -0.120238 0.671 
0.570773 -0.119163 0.665 
0.598149 -0.118446 0.661 
0.625153 -0.117729 0.657 
-0.652459 -0.137492 0.774 
-0.613197 -0.136782 0.77 
-0.572059 -0.135538 0.763 
-0.535792 -0.13536 0.762 
-0.499619 -0.135183 0.761 
-0.465368 -0.135538 0.763 
-0.428115 -0.135005 0.76 
-0.389964 -0.134472 0.757 
-0.342173 -0.145131 0.817 
-0.301859 -0.144065 0.811 
-0.262105 -0.142999 0.805 
-0.225141 -0.143354 0.807 
-0.186365 -0.142466 0.802 
-0.148055 -0.141578 0.797 
-0.109654 -0.139979 0.788 
-0.0725549 -0.139269 0.784 
-0.0358747 -0.138736 0.781 
0.000534068 -0.140334 0.79 
0.0362213 -0.136071 0.766 
0.0714553 -0.135183 0.761 
0.106223 -0.134295 0.756 
0.139964 -0.132874 0.748 
0.442329 -0.33396 1.88 
0.532493 -0.335559 1.889 
0.449244 -0.220982 1.244 
0.447917 -0.191494 1.078 
0.419022 -0.151881 0.855 
0.39816 -0.126301 0.711 
0.421315 -0.122748 0.691 
0.452777 -0.121682 0.685 
0.481875 -0.120972 0.681 
0.509845 -0.120084 0.676 
0.538151 -0.119373 0.672 
0.566083 -0.118662 0.668 
0.591855 -0.117597 0.662 
0.617067 -0.116531 0.656 
0.643694 -0.11582 0.652 
-0.623964 -0.135585 0.77 
-0.584256 -0.134705 0.765 
-0.547882 -0.134529 0.764 
-0.512942 -0.134705 0.765 
-0.474165 -0.133824 0.76 
-0.438742 -0.133824 0.76 
-0.358409 -0.141748 0.805 
-0.324476 -0.143333 0.814 
-0.285127 -0.142629 0.81 
-0.246762 -0.142276 0.808 
-0.207807 -0.141396 0.803 
-0.168893 -0.140163 0.796 
-0.13146 -0.139811 0.794 
-0.0936192 -0.138579 0.787 
-0.0566475 -0.137874 0.783 
-0.020023 -0.136994 0.778 
0.0165321 -0.139459 0.792 
0.0524687 -0.133824 0.76 
0.0878926 -0.133824 0.76 
0.121207 -0.131535 0.747 
0.156025 -0.131535 0.747 
0.481679 -0.329983 1.874 
0.565687 -0.328046 1.863 
0.454588 -0.210773 1.197 
0.422912 -0.166752 0.947 
0.421227 -0.145798 0.828 
0.404317 -0.122379 0.695 
0.43445 -0.121146 0.688 
0.463128 -0.120266 0.683 
0.492789 -0.119738 0.68 
0.520627 -0.118857 0.675 
0.547182 -0.117801 0.669 
0.574041 -0.11692 0.664 
0.601346 -0.116216 0.66 
0.629236 -0.115688 0.657 
-0.651257 -0.135087 0.774 
-0.612001 -0.134389 0.77 
-0.570874 -0.133167 0.763 
-0.53531 -0.133167 0.763 
-0.499746 -0.133167 0.763 
-0.464183 -0.133167 0.763 
-0.384235 -0.141719 0.812 
-0.34724 -0.142068 0.814 
-0.30816 -0.141545 0.811 
-0.268692 -0.140672 0.806 
-0.231124 -0.140672 0.806 
-0.192595 -0.139974 0.802 
-0.153666 -0.138578 0.794 
-0.115776 -0.137531 0.788 
-0.0786453 -0.136832 0.784 
-0.0419955 -0.136483 0.782 
-0.00554622 -0.136483 0.782 
0.0303103 -0.133865 0.767 
0.0653713 -0.132469 0.759 
0.100483 -0.13212 0.757 
0.133794 -0.1302 0.746 
0.43179 -0.328991 1.885 
0.522683 -0.330911 1.896 
0.603321 -0.326722 1.872 
0.446882 -0.191286 1.096 
0.419706 -0.148526 0.851 
0.399664 -0.122521 0.702 
0.423145 -0.119903 0.687 
0.452516 -0.119205 0.683 
0.484679 -0.118507 0.679 
0.513286 -0.117808 0.675 
0.540713 -0.116936 0.67 
0.56682 -0.115889 0.664 
0.594168 -0.115191 0.66 
0.621143 -0.114492 0.656 
0.644766 -0.113271 0.649 
-0.623154 -0.13302 0.769 
-0.584256 -0.132328 0.765 
-0.547882 -0.132155 0.764 
-0.514283 -0.132674 0.767 
-0.474789 -0.131636 0.761 
-0.438742 -0.131463 0.76 
-0.374941 -0.140285 0.811 
-0.338803 -0.140977 0.815 
-0.298601 -0.139939 0.809 
-0.258636 -0.138728 0.802 
-0.222358 -0.13942 0.806 
-0.183644 -0.138555 0.801 
-0.14503 -0.137344 0.794 
-0.106933 -0.13596 0.786 
-0.0700293 -0.135441 0.783 
-0.0333622 -0.134749 0.779 
0.00301914 -0.138036 0.798 
0.0384 -0.131809 0.762 
0.073723 -0.131463 0.76 
0.107711 -0.129733 0.75 
0.142288 -0.129387 0.748 
0.453971 -0.327273 1.892 
0.550181 -0.332117 1.92 
0.453375 -0.212589 1.229 
0.429357 -0.168653 0.975 
0.419599 -0.144436 0.835 
0.403237 -0.120219 0.695 
0.430617 -0.118835 0.687 
0.459944 -0.118144 0.683 
0.488179 -0.117279 0.678 
0.517481 -0.11676 0.675 
0.544064 -0.115722 0.669 
0.570087 -0.114684 0.663 
0.597363 -0.113992 0.659 
0.626173 -0.113646 0.657 
-0.657621 -0.132511 0.773 
-0.618375 -0.131825 0.769 
-0.579501 -0.131139 0.765 
-0.543134 -0.130968 0.764 
-0.508852 -0.131311 0.766 
-0.470678 -0.130625 0.762 
-0.426276 -0.141425 0.825 
-0.361359 -0.138168 0.806 
-0.327407 -0.13971 0.815 
-0.286934 -0.13851 0.808 
-0.248347 -0.137996 0.805 
-0.210826 -0.137996 0.805 
-0.171152 -0.136282 0.795 
-0.133928 -0.13611 0.794 
-0.0956985 -0.134396 0.784 
-0.0590051 -0.134053 0.782 
-0.0224116 -0.133196 0.777 
0.0139289 -0.134396 0.784 
0.048862 -0.130111 0.759 
0.0842392 -0.130111 0.759 
0.117725 -0.128054 0.747 
0.152339 -0.127882 0.746 
0.481442 -0.325019 1.896 
0.571018 -0.325705 1.9 
0.456708 -0.203651 1.188 
0.432388 -0.161481 0.942 
0.406916 -0.129596 0.756 
0.412248 -0.118625 0.692 
0.440006 -0.117425 0.685 
0.469867 -0.116911 0.682 
0.497978 -0.116054 0.677 
0.52484 -0.115025 0.671 
0.553629 -0.114511 0.668 
0.579512 -0.113483 0.662 
0.60668 -0.112797 0.658 
0.633475 -0.112111 0.654 
-0.649214 -0.13131 0.773 
-0.610011 -0.13063 0.769 
-0.571181 -0.129951 0.765 
-0.534825 -0.129781 0.764 
-0.499868 -0.129951 0.765 
-0.462997 -0.129611 0.763 
-0.419107 -0.139463 0.821 
-0.375866 -0.138104 0.813 
-0.338803 -0.138444 0.815 
-0.298601 -0.137425 0.809 
-0.258313 -0.136066 0.801 
-0.222358 -0.136915 0.806 
-0.183185 -0.135726 0.799 
-0.144665 -0.134537 0.792 
-0.106797 -0.133348 0.785 
-0.0700293 -0.133008 0.783 
-0.0333622 -0.132329 0.779 
0.0115367 -0.133688 0.787 
0.0465035 -0.128931 0.759 
0.0817728 -0.128762 0.758 
0.115404 -0.126893 0.747 
0.150021 -0.126723 0.746 
0.475347 -0.323942 1.907 
0.567487 -0.325811 1.918 
0.456142 -0.205713 1.211 
0.436822 -0.1697 0.999 
0.419804 -0.142351 0.838 
0.40064 -0.118569 0.698 
0.425106 -0.116361 0.685 
0.454365 -0.115682 0.681 
0.483252 -0.115002 0.677 
0.514335 -0.114662 0.675 
0.540945 -0.113643 0.669 
0.566141 -0.112454 0.662 
0.595194 -0.112114 0.66 
0.622163 -0.111435 0.656 
0.644779 -0.110076 0.648 
-0.627553 -0.129604 0.77 
-0.58859 -0.12893 0.766 
-0.552164 -0.128762 0.765 
-0.519208 -0.129435 0.769 
-0.478336 -0.128089 0.761 
-0.435545 -0.139366 0.828 
-0.389281 -0.136673 0.812 
-0.351001 -0.136505 0.811 
-0.3132 -0.136505 0.811 
-0.273361 -0.135495 0.805 
-0.23584 -0.135495 0.805 
-0.198565 -0.135663 0.806 
-0.157801 -0.13297 0.79 
-0.120826 -0.132802 0.789 
-0.0834111 -0.131792 0.783 
-0.0469153 -0.131792 0.783 
-0.0103928 -0.131455 0.781 
0.0430224 -0.12792 0.76 
0.078343 -0.127752 0.759 
0.111922 -0.125732 0.747 
0.14674 -0.125732 0.747 
0.471391 -0.322326 1.915 
0.564455 -0.324514 1.928 
0.454247 -0.204673 1.216 
0.44667 -0.175049 1.04 
0.423158 -0.144415 0.858 
0.399747 -0.118831 0.706 
0.419785 -0.115297 0.685 
0.449075 -0.114623 0.681 
0.478699 -0.114119 0.678 
0.50729 -0.113445 0.674 
0.535985 -0.112435 0.668 
0.562027 -0.111425 0.662 
0.591092 -0.111089 0.66 
0.617144 -0.110247 0.655 
0.641741 -0.109237 0.649 
-0.627553 -0.128407 0.77 
-0.58859 -0.12774 0.766 
-0.552164 -0.127573 0.765 
-0.519883 -0.128407 0.77 
-0.46107 -0.13391 0.803 
-0.431686 -0.13808 0.828 
-0.386446 -0.135745 0.814 
-0.347649 -0.135411 0.812 
-0.309038 -0.135078 0.81 
-0.268604 -0.133744 0.802 
-0.231511 -0.13391 0.803 
-0.194567 -0.134244 0.805 
-0.153924 -0.131576 0.789 
-0.117 -0.131409 0.788 
-0.0798634 -0.130742 0.784 
-0.0431552 -0.130242 0.781 
0.0195597 -0.12774 0.766 
0.054686 -0.126406 0.758 
0.0895416 -0.125739 0.754 
0.123363 -0.124405 0.746 
0.157498 -0.123905 0.743 
0.503066 -0.318684 1.911 
0.593377 -0.319351 1.915 
0.451444 -0.190443 1.142 
0.434853 -0.156924 0.941 
0.432037 -0.139914 0.839 
0.403237 -0.1159 0.695 
0.43405 -0.114066 0.684 
0.464569 -0.113732 0.682 
0.491263 -0.112565 0.675 
0.521196 -0.111564 0.669 
0.551971 -0.111064 0.666 
0.578637 -0.11023 0.661 
0.605758 -0.109563 0.657 
0.632507 -0.108896 0.653 
-0.646812 -0.127707 0.773 
-0.607622 -0.127046 0.769 
-0.570291 -0.126715 0.767 
-0.533147 -0.126385 0.765 
-0.498141 -0.12655 0.766 
-0.459925 -0.135637 0.821 
-0.423199 -0.136132 0.824 
-0.381056 -0.134811 0.816 
-0.342181 -0.13448 0.814 
-0.302372 -0.133654 0.809 
-0.261393 -0.132002 0.799 
-0.225273 -0.132663 0.803 
-0.186909 -0.132002 0.799 
-0.147607 -0.130185 0.788 
-0.110597 -0.129854 0.786 
-0.0739612 -0.129854 0.786 
-0.0369456 -0.128533 0.778 
0.033576 -0.125559 0.76 
0.0686367 -0.124898 0.756 
0.102775 -0.123576 0.748 
0.137271 -0.123246 0.746 
0.455197 -0.317532 1.922 
0.549033 -0.32001 1.937 
0.446995 -0.201885 1.222 
0.453319 -0.180243 1.091 
0.426917 -0.146706 0.888 
0.400313 -0.116803 0.707 
0.423865 -0.112838 0.683 
0.456868 -0.112342 0.68 
0.485689 -0.111681 0.676 
0.516771 -0.11069 0.67 
0.545546 -0.110194 0.667 
0.574369 -0.109368 0.662 
0.600654 -0.108542 0.657 
0.628395 -0.108047 0.654 
-0.651616 -0.126506 0.773 
-0.612401 -0.125851 0.769 
-0.576558 -0.125851 0.769 
-0.537199 -0.125033 0.764 
-0.503558 -0.125524 0.767 
-0.464142 -0.131579 0.804 
-0.439404 -0.135507 0.828 
-0.39355 -0.133052 0.813 
-0.354781 -0.132725 0.811 
-0.31698 -0.132725 0.811 
-0.276769 -0.131579 0.804 
-0.239294 -0.131579 0.804 
-0.203075 -0.132397 0.809 
-0.161075 -0.12896 0.788 
-0.124346 -0.12896 0.788 
-0.0871719 -0.128306 0.784 
-0.050694 -0.128469 0.785 
0.0206956 -0.125033 0.764 
0.0558637 -0.124051 0.758 
0.0904725 -0.123069 0.752 
0.124355 -0.121923 0.745 
0.158439 -0.121432 0.742 
0.513532 -0.315528 1.928 
0.602771 -0.3152 1.926 
0.449167 -0.183785 1.123 
0.435142 -0.155145 0.948 
0.406278 -0.123887 0.757 
0.408912 -0.112922 0.69 
0.438079 -0.111613 0.682 
0.472715 -0.111286 0.68 
0.5034 -0.11014 0.673 
0.529207 -0.108994 0.666 
0.556043 -0.108176 0.661 
0.585077 -0.107849 0.659 
0.612055 -0.107194 0.655 
0.63768 -0.106376 0.65 
-0.641178 -0.125142 0.772 
-0.602843 -0.124656 0.769 
-0.566262 -0.124494 0.768 
-0.529084 -0.12417 0.766 
-0.494024 -0.124332 0.767 
-0.466549 -0.130654 0.806 
-0.440691 -0.13422 0.828 
-0.395784 -0.132113 0.815 
-0.356041 -0.131464 0.811 
-0.31824 -0.131464 0.811 
-0.277672 -0.130168 0.803 
-0.240544 -0.13033 0.804 
-0.204332 -0.13114 0.809 
-0.162093 -0.127574 0.787 
-0.12557 -0.127736 0.788 
-0.08839 -0.127088 0.784 
-0.0519137 -0.12725 0.785 
0.0136091 -0.12417 0.766 
0.0487976 -0.122873 0.758 
0.0836843 -0.122225 0.754 
0.11741 -0.120766 0.745 
0.151726 -0.120442 0.743 
0.499847 -0.313343 1.933 
0.587198 -0.311884 1.924 
0.455347 -0.1882 1.161 
0.438306 -0.156914 0.968 
0.414169 -0.12806 0.79 
0.406768 -0.11185 0.69 
0.4349 -0.110553 0.682 
0.469867 -0.110553 0.682 
0.4943 -0.108932 0.672 
0.521711 -0.108122 0.667 
0.550314 -0.107636 0.664 
0.576886 -0.106825 0.659 
0.604836 -0.106339 0.656 
0.631538 -0.10569 0.652 
-0.652459 -0.124264 0.774 
-0.613197 -0.123622 0.77 
-0.577307 -0.123622 0.77 
-0.525008 -0.12314 0.767 
-0.51256 -0.133897 0.834 
-0.46135 -0.131489 0.819 
-0.427309 -0.132773 0.827 
-0.383122 -0.130847 0.815 
-0.343864 -0.130365 0.812 
-0.304132 -0.129562 0.807 
-0.263215 -0.127957 0.797 
-0.227201 -0.128599 0.801 
-0.188918 -0.127957 0.797 
-0.149485 -0.12603 0.785 
-0.113039 -0.126191 0.786 
-0.0766952 -0.126672 0.789 
-0.0393631 -0.124906 0.778 
-0.00306446 -0.123461 0.769 
0.0323526 -0.121856 0.759 
0.0673729 -0.121214 0.755 
0.101477 -0.119929 0.747 
0.135382 -0.119127 0.742 
0.461759 -0.310981 1.937 
0.553183 -0.311624 1.941 
0.450468 -0.195226 1.216 
0.446182 -0.16986 1.058 
0.43 -0.141764 0.883 
0.406003 -0.116076 0.723 
0.416437 -0.109654 0.683 
0.44499 -0.108852 0.678 
0.476592 -0.108852 0.678 
0.503696 -0.107888 0.672 
0.529445 -0.106764 0.665 
0.555385 -0.105801 0.659 
0.586101 -0.105801 0.659 
0.612137 -0.104998 0.654 
0.637707 -0.104196 0.649 
-0.640807 -0.122903 0.773 
-0.60243 -0.122426 0.77 
-0.565805 -0.122267 0.769 
-0.508745 -0.132283 0.832 
-0.462622 -0.130216 0.819 
-0.428594 -0.131488 0.827 
-0.384388 -0.12958 0.815 
-0.345125 -0.129103 0.812 
-0.305007 -0.128149 0.806 
-0.264453 -0.126718 0.797 
-0.228446 -0.127354 0.801 
-0.190156 -0.126718 0.797 
-0.150512 -0.124652 0.784 
-0.11426 -0.12497 0.786 
-0.0779211 -0.125447 0.789 
-0.0405719 -0.123698 0.778 
-0.00425924 -0.122267 0.769 
0.0311734 -0.120677 0.759 
0.0661122 -0.119882 0.754 
0.100316 -0.118769 0.747 
0.134049 -0.117815 0.741 
0.449721 -0.307972 1.937 
0.543908 -0.310198 1.951 
0.445898 -0.193814 1.219 
0.44914 -0.172509 1.085 
0.426495 -0.141505 0.89 
0.41013 -0.119087 0.749 
0.415376 -0.108593 0.683 
0.44499 -0.107798 0.678 
0.476592 -0.107798 0.678 
0.502947 -0.106685 0.671 
0.529445 -0.105731 0.665 
0.555385 -0.104777 0.659 
0.585211 -0.104618 0.658 
0.612137 -0.103982 0.654 
0.636725 -0.103028 0.648 
-0.637204 -0.121702 0.773 
-0.598841 -0.121229 0.77 
-0.56222 -0.121072 0.769 
-0.513239 -0.131148 0.833 
-0.464599 -0.128786 0.818 
-0.431164 -0.130203 0.827 
-0.386446 -0.128157 0.814 
-0.34722 -0.127684 0.811 
-0.30713 -0.12674 0.805 
-0.26693 -0.12548 0.797 
-0.230935 -0.12611 0.801 
-0.192875 -0.125638 0.798 
-0.152753 -0.123276 0.783 
-0.116703 -0.123748 0.786 
-0.0802709 -0.124063 0.788 
-0.0430447 -0.122646 0.779 
-0.00664879 -0.121072 0.769 
0.0299941 -0.119497 0.759 
0.0649407 -0.11871 0.754 
0.0992884 -0.117766 0.748 
0.132718 -0.116506 0.74 
0.447634 -0.305592 1.941 
0.54254 -0.308111 1.957 
0.625984 -0.304333 1.933 
0.44584 -0.168934 1.073 
0.426917 -0.139807 0.888 
0.407641 -0.118553 0.753 
0.411871 -0.108004 0.686 
0.43867 -0.106745 0.678 
0.471659 -0.10706 0.68 
0.495951 -0.105485 0.67 
0.52482 -0.105013 0.667 
0.550075 -0.103911 0.66 
0.579077 -0.103596 0.658 
0.60604 -0.102966 0.654 
0.631657 -0.102179 0.649 
-0.646446 -0.120657 0.774 
-0.609581 -0.120501 0.773 
-0.570584 -0.119877 0.769 
-0.578961 -0.131257 0.842 
-0.492148 -0.129074 0.828 
-0.451912 -0.128607 0.825 
-0.40995 -0.127516 0.818 
-0.367732 -0.126113 0.809 
-0.331656 -0.126736 0.813 
-0.29051 -0.125333 0.804 
-0.251147 -0.124398 0.798 
-0.215024 -0.125021 0.802 
-0.174763 -0.122995 0.789 
-0.137638 -0.122683 0.787 
-0.101084 -0.122839 0.788 
-0.06411 -0.122371 0.785 
-0.0268198 -0.119254 0.765 
0.0088371 -0.119254 0.765 
0.0437379 -0.117227 0.752 
0.0788936 -0.117383 0.753 
0.11278 -0.116136 0.745 
0.146911 -0.115668 0.742 
0.490349 -0.304759 1.955 
0.576119 -0.301953 1.937 
0.457396 -0.184726 1.185 
0.438571 -0.156355 1.003 
0.432276 -0.135778 0.871 
0.411575 -0.114889 0.737 
0.417946 -0.106315 0.682 
0.446437 -0.105535 0.677 
0.477287 -0.10538 0.676 
0.504279 -0.104444 0.67 
0.530712 -0.103509 0.664 
0.557432 -0.10273 0.659 
0.586364 -0.102418 0.657 
0.612291 -0.101638 0.652 
0.636767 -0.100703 0.646 
-0.636826 -0.119454 0.774 
-0.597645 -0.118837 0.77 
-0.561025 -0.118682 0.769 
-0.522926 -0.128714 0.834 
-0.477088 -0.126862 0.822 
-0.439308 -0.127016 0.823 
-0.396563 -0.125627 0.814 
-0.355979 -0.124701 0.808 
-0.317924 -0.124547 0.807 
-0.277878 -0.123467 0.8 
-0.24059 -0.123467 0.8 
-0.204064 -0.12393 0.803 
-0.163108 -0.121306 0.786 
-0.126794 -0.121615 0.788 
-0.0897224 -0.121152 0.785 
-0.0529302 -0.120689 0.782 
-0.0161649 -0.118374 0.767 
0.0195086 -0.117911 0.764 
0.0543253 -0.116213 0.753 
0.0890666 -0.11575 0.75 
0.122536 -0.114361 0.741 
0.157074 -0.114361 0.741 
0.515275 -0.303882 1.969 
0.597801 -0.299252 1.939 
0.450837 -0.175323 1.136 
0.441222 -0.152481 0.988 
0.412566 -0.122541 0.794 
0.400066 -0.10757 0.697 
0.424926 -0.10541 0.683 
0.452748 -0.104484 0.677 
0.480727 -0.103712 0.672 
0.508239 -0.10294 0.667 
0.537711 -0.102632 0.665 
0.564431 -0.10186 0.66 
0.590685 -0.101088 0.655 
0.617421 -0.100471 0.651 
0.641794 -0.099545 0.645 
-0.626395 -0.118099 0.773 
-0.585783 -0.117182 0.767 
-0.590034 -0.128488 0.841 
-0.515208 -0.127113 0.832 
-0.471275 -0.125738 0.823 
-0.431863 -0.125432 0.821 
-0.388322 -0.123752 0.81 
-0.350135 -0.123599 0.809 
-0.310496 -0.122835 0.804 
-0.270984 -0.121918 0.798 
-0.234961 -0.122529 0.802 
-0.196101 -0.121613 0.796 
-0.156403 -0.119626 0.783 
-0.12052 -0.120238 0.787 
-0.0836242 -0.119932 0.785 
-0.0464959 -0.118557 0.776 
-0.0101932 -0.117029 0.766 
0.0253105 -0.116113 0.76 
0.0601749 -0.115043 0.753 
0.0946398 -0.114279 0.748 
0.127946 -0.112904 0.739 
0.43211 -0.29624 1.939 
0.532457 -0.301893 1.976 
0.615393 -0.297462 1.947 
0.454116 -0.170808 1.118 
0.443138 -0.148502 0.972 
0.412597 -0.120238 0.787 
0.40199 -0.105571 0.691 
0.429171 -0.104348 0.683 
0.457631 -0.103585 0.678 
0.48346 -0.102362 0.67 
0.510848 -0.101598 0.665 
0.541029 -0.101446 0.664 
0.567671 -0.100682 0.659 
0.593847 -0.0999179 0.654 
0.618602 -0.0990012 0.648 
-0.669987 -0.117805 0.779 
-0.629611 -0.117049 0.774 
-0.588933 -0.116142 0.768 
-0.578961 -0.127332 0.842 
-0.504335 -0.125366 0.829 
-0.462886 -0.12461 0.824 
-0.420873 -0.123552 0.817 
-0.378107 -0.122039 0.807 
-0.34218 -0.122644 0.811 
-0.300626 -0.121132 0.801 
-0.261977 -0.120527 0.797 
-0.225392 -0.12083 0.799 
-0.185796 -0.119317 0.789 
-0.148076 -0.118561 0.784 
-0.112245 -0.119317 0.789 
-0.0751824 -0.118864 0.786 
-0.037713 -0.116293 0.769 
-0.00185753 -0.115537 0.764 
0.0333551 -0.114176 0.755 
0.0682735 -0.113722 0.752 
0.102637 -0.112966 0.747 
0.135799 -0.111605 0.738 
0.458563 -0.294739 1.949 
0.55589 -0.298218 1.972 
0.447425 -0.184193 1.218 
0.442323 -0.158031 1.045 
0.426687 -0.132928 0.879 
0.40984 -0.111605 0.738 
0.415984 -0.103439 0.684 
0.442627 -0.102229 0.676 
0.474136 -0.102229 0.676 
0.500408 -0.10117 0.669 
0.527618 -0.100414 0.664 
0.55352 -0.0995067 0.658 
0.582413 -0.0992042 0.656 
0.608318 -0.0984481 0.651 
0.631794 -0.0973895 0.644 
-0.642008 -0.115697 0.773 
-0.605194 -0.115547 0.772 
-0.586811 -0.126024 0.842 
-0.521672 -0.124527 0.832 
-0.478829 -0.12348 0.825 
-0.437173 -0.122582 0.819 
-0.394615 -0.121235 0.81 
-0.354217 -0.120337 0.804 
-0.317136 -0.120486 0.805 
-0.277531 -0.119588 0.799 
-0.240891 -0.119887 0.801 
-0.202031 -0.118989 0.795 
-0.163108 -0.117642 0.786 
-0.126633 -0.117792 0.787 
-0.0893795 -0.117044 0.782 
-0.0524564 -0.115996 0.775 
-0.0160595 -0.11405 0.762 
0.0194831 -0.1142 0.763 
0.0541089 -0.112254 0.75 
0.0888291 -0.111955 0.748 
0.122371 -0.110757 0.74 
0.156862 -0.110757 0.74 
0.524836 -0.29665 1.982 
0.607563 -0.292011 1.951 
0.452998 -0.166286 1.111 
0.440074 -0.143985 0.962 
0.406236 -0.111356 0.744 
0.413399 -0.102526 0.685 
0.438826 -0.101029 0.675 
0.471682 -0.101328 0.677 
0.49729 -0.100131 0.669 
0.524523 -0.0993824 0.664 
0.551289 -0.098634 0.659 
0.579356 -0.098185 0.656 
0.605283 -0.0974367 0.651 
0.628792 -0.096389 0.644 
-0.648486 -0.114792 0.775 
-0.613153 -0.11494 0.776 
-0.591942 -0.12442 0.84 
-0.531996 -0.123531 0.834 
-0.487802 -0.122198 0.825 
-0.446625 -0.121457 0.82 
-0.40442 -0.120272 0.812 
-0.363412 -0.119235 0.805 
-0.326701 -0.119532 0.807 
-0.286937 -0.118643 0.801 
-0.248979 -0.118347 0.799 
-0.210677 -0.117754 0.795 
-0.171875 -0.116569 0.787 
-0.134505 -0.115977 0.783 
-0.0980095 -0.115977 0.783 
-0.0611208 -0.115236 0.778 
-0.0243468 -0.112866 0.762 
0.0112289 -0.113459 0.766 
0.0459521 -0.111089 0.75 
0.0809098 -0.111089 0.75 
0.114632 -0.109904 0.742 
0.148814 -0.109608 0.74 
0.49591 -0.291053 1.965 
