# .PCD v.7 - Point Cloud Data file format
VERSION .7
FIELDS x y z
SIZE 4 4 4
TYPE F F F
COUNT 1 1 1
WIDTH 1853
HEIGHT 1
VIEWPOINT 0 0 0 1 0 0 0
POINTS 1853
DATA ascii
-0.461627 -0.39334 0.875 
-0.435272 -0.406826 0.905 
-0.408208 -0.427055 0.95 
-0.384614 -0.45133 1.004 
-0.352622 -0.471109 1.048 
-0.317398 -0.492237 1.095 
-0.937058 -28.3457 63.056 
0.637546 -0.773644 1.721 
0.724853 -0.781286 1.738 
0.807252 -0.782635 1.741 
0.894014 -0.78758 1.752 
0.979017 -0.790277 1.758 
1.05311 -0.784433 1.745 
1.15005 -0.795222 1.769 
1.23599 -0.797469 1.774 
1.3209 -0.798818 1.777 
1.42348 -0.810056 1.802 
1.50747 -0.810056 1.802 
1.60913 -0.819047 1.822 
1.70056 -0.822194 1.829 
1.7653 -0.812754 1.808 
-0.556591 -0.318064 0.71 
-0.540456 -0.328368 0.733 
-0.522954 -0.342255 0.764 
-0.506481 -0.355695 0.794 
-0.486028 -0.368238 0.822 
-0.463862 -0.389293 0.869 
-0.439922 -0.404524 0.903 
-0.412201 -0.425131 0.949 
-0.385417 -0.44529 0.994 
-0.354778 -0.465897 1.04 
-0.319629 -0.488744 1.091 
-1.06953 -29.1894 65.158 
0.635979 -0.772314 1.724 
0.723814 -0.780378 1.742 
0.805934 -0.781274 1.744 
0.893327 -0.78665 1.756 
0.979062 -0.789786 1.763 
1.05221 -0.783066 1.748 
1.1473 -0.792473 1.769 
1.23671 -0.796953 1.779 
1.31963 -0.796953 1.779 
1.42147 -0.807705 1.803 
1.50467 -0.807257 1.802 
1.60718 -0.816664 1.823 
1.7005 -0.820696 1.832 
1.76639 -0.811736 1.812 
-0.555807 -0.316515 0.709 
-0.539317 -0.327229 0.733 
-0.52307 -0.338836 0.759 
-0.506969 -0.352229 0.789 
-0.487475 -0.365175 0.818 
-0.467249 -0.3808 0.853 
-0.447347 -0.402228 0.901 
-0.420869 -0.420532 0.942 
-0.390568 -0.43571 0.976 
-0.365937 -0.462049 1.035 
-0.32983 -0.482138 1.08 
-0.115628 -0.358925 0.804 
0.618661 -0.771422 1.728 
0.707297 -0.78035 1.748 
0.789674 -0.781243 1.75 
0.877714 -0.787046 1.763 
0.959888 -0.787046 1.763 
1.03792 -0.783921 1.756 
1.12997 -0.791064 1.772 
1.22352 -0.798207 1.788 
1.29735 -0.792404 1.775 
1.39797 -0.802671 1.798 
1.48178 -0.802671 1.798 
1.58474 -0.812493 1.82 
1.68241 -0.818743 1.834 
1.75247 -0.8116 1.818 
-0.562825 -0.313189 0.704 
-0.543939 -0.323421 0.727 
-0.526891 -0.334098 0.751 
-0.511536 -0.347444 0.781 
-0.493993 -0.361235 0.812 
-0.471499 -0.375471 0.844 
-0.451617 -0.392376 0.882 
-0.424004 -0.405277 0.911 
-0.400808 -0.425741 0.957 
-0.375556 -0.448875 1.009 
-0.34345 -0.473787 1.065 
-0.303049 -0.494251 1.111 
0.369843 -0.556089 1.25 
0.652008 -0.770071 1.731 
0.740733 -0.778524 1.75 
0.82606 -0.782083 1.758 
0.908001 -0.782083 1.758 
0.994447 -0.785642 1.766 
1.07188 -0.782083 1.758 
1.16301 -0.788311 1.772 
1.24701 -0.789201 1.774 
1.34169 -0.796319 1.79 
1.44105 -0.805216 1.81 
1.52288 -0.803882 1.807 
1.63824 -0.819452 1.842 
1.7166 -0.815893 1.834 
1.77654 -0.804326 1.808 
-0.550944 -0.313425 0.707 
-0.537263 -0.327168 0.738 
-0.52058 -0.338694 0.764 
-0.503379 -0.35155 0.793 
-0.482885 -0.363963 0.821 
-0.46199 -0.380366 0.858 
-0.444131 -0.400315 0.903 
-0.420742 -0.418935 0.945 
-0.388653 -0.432234 0.975 
-0.363625 -0.457947 1.033 
-0.322631 -0.480556 1.084 
-0.117245 -0.353767 0.798 
0.600034 -0.776692 1.752 
0.678971 -0.773588 1.745 
0.766406 -0.779795 1.759 
0.853217 -0.784228 1.769 
0.932497 -0.781568 1.763 
1.01697 -0.783341 1.767 
1.10244 -0.785558 1.772 
1.19373 -0.791321 1.785 
1.26906 -0.786445 1.774 
1.37004 -0.797084 1.798 
1.46354 -0.802404 1.81 
1.55389 -0.805507 1.817 
1.66654 -0.81925 1.848 
1.73561 -0.81127 1.83 
1.79802 -0.801074 1.807 
-0.547596 -0.316744 0.717 
-0.532105 -0.327789 0.742 
-0.518306 -0.341483 0.773 
-0.500993 -0.354736 0.803 
-0.479152 -0.366664 0.83 
-0.458509 -0.381684 0.864 
-0.435713 -0.398912 0.903 
-0.414112 -0.419675 0.95 
-0.383457 -0.435137 0.985 
-0.354338 -0.456783 1.034 
-0.317871 -0.479313 1.085 
-0.117245 -0.352527 0.798 
0.602067 -0.773086 1.75 
0.684417 -0.77397 1.752 
0.770888 -0.778829 1.763 
0.858384 -0.783688 1.774 
0.937358 -0.780596 1.767 
1.0226 -0.782805 1.772 
1.10832 -0.785014 1.777 
1.19852 -0.789873 1.788 
1.27397 -0.785014 1.777 
1.37665 -0.7965 1.803 
1.46798 -0.800475 1.812 
1.56357 -0.806218 1.825 
1.66941 -0.816379 1.848 
1.7451 -0.81152 1.837 
-0.571004 -0.305506 0.694 
-0.547433 -0.312989 0.711 
-0.535269 -0.325755 0.74 
-0.518373 -0.337201 0.766 
-0.501573 -0.350407 0.796 
-0.480809 -0.362733 0.824 
-0.460657 -0.3777 0.858 
-0.436632 -0.397069 0.902 
-0.41515 -0.417759 0.949 
-0.383815 -0.432286 0.982 
-0.3556 -0.454737 1.033 
-0.320651 -0.476747 1.083 
-0.119424 -0.350407 0.796 
0.607505 -0.770367 1.75 
0.692223 -0.773889 1.758 
0.777687 -0.777411 1.766 
0.865358 -0.782253 1.777 
0.945516 -0.780052 1.772 
1.02985 -0.781372 1.775 
1.11697 -0.784454 1.782 
1.20744 -0.789296 1.793 
1.28165 -0.783573 1.78 
1.38608 -0.795899 1.808 
1.47361 -0.79766 1.812 
1.57354 -0.805584 1.83 
1.67334 -0.812627 1.846 
1.75557 -0.810866 1.842 
-0.568848 -0.304427 0.694 
-0.54655 -0.31013 0.707 
-0.534663 -0.322851 0.736 
-0.519393 -0.335133 0.764 
-0.501513 -0.347416 0.792 
-0.48161 -0.360137 0.821 
-0.461163 -0.374612 0.854 
-0.438948 -0.395229 0.901 
-0.417218 -0.415407 0.947 
-0.385291 -0.429006 0.978 
-0.358115 -0.452254 1.031 
-0.322819 -0.47331 1.079 
-0.126685 -0.348732 0.795 
0.594929 -0.768964 1.753 
0.676637 -0.768964 1.753 
0.763968 -0.774667 1.766 
0.850595 -0.778615 1.775 
0.932802 -0.778176 1.774 
1.02007 -0.781685 1.782 
1.10127 -0.780369 1.779 
1.18952 -0.783878 1.787 
1.26925 -0.781685 1.782 
1.37583 -0.795284 1.813 
1.46195 -0.796161 1.815 
1.55933 -0.802741 1.83 
1.66799 -0.814146 1.856 
1.75166 -0.81283 1.853 
1.80034 -0.796161 1.815 
-0.549385 -0.308157 0.705 
-0.534109 -0.318648 0.729 
-0.520711 -0.331761 0.759 
-0.503878 -0.344437 0.788 
-0.484341 -0.357113 0.817 
-0.462647 -0.370226 0.847 
-0.444864 -0.391644 0.896 
-0.416148 -0.40432 0.925 
-0.389972 -0.422678 0.967 
-0.363803 -0.445845 1.02 
-0.329792 -0.467262 1.069 
-0.291228 -0.486058 1.112 
0.37597 -0.546815 1.251 
0.660295 -0.766241 1.753 
0.747505 -0.771923 1.766 
0.831229 -0.773234 1.769 
0.915232 -0.774545 1.772 
1.00458 -0.779791 1.784 
1.08347 -0.776731 1.777 
1.17154 -0.780228 1.785 
1.25966 -0.783288 1.792 
1.36043 -0.793341 1.815 
1.44742 -0.794652 1.818 
1.54227 -0.799897 1.83 
1.6498 -0.810825 1.855 
1.7372 -0.811262 1.856 
1.78637 -0.794652 1.818 
-0.554682 -0.305755 0.702 
-0.532743 -0.312724 0.718 
-0.522224 -0.327097 0.751 
-0.509926 -0.342341 0.786 
-0.48714 -0.352359 0.809 
-0.466098 -0.365425 0.839 
-0.444805 -0.38067 0.874 
-0.419786 -0.395478 0.908 
-0.396587 -0.415514 0.954 
-0.368361 -0.434678 0.998 
-0.334098 -0.451228 1.036 
-0.30258 -0.48041 1.103 
0.367423 -0.546614 1.255 
0.64123 -0.763517 1.753 
0.730361 -0.771357 1.771 
0.81199 -0.770486 1.769 
0.900005 -0.775277 1.78 
0.982419 -0.774841 1.779 
1.06833 -0.777019 1.784 
1.15342 -0.778326 1.787 
1.25125 -0.787472 1.808 
1.33552 -0.787472 1.808 
1.43079 -0.79357 1.822 
1.51571 -0.79357 1.822 
1.61557 -0.800974 1.839 
1.71609 -0.807943 1.855 
1.77825 -0.797054 1.83 
-0.559113 -0.302929 0.698 
-0.535632 -0.308137 0.71 
-0.525896 -0.322458 0.743 
-0.512422 -0.336346 0.775 
-0.492847 -0.3498 0.806 
-0.468888 -0.363254 0.837 
-0.446824 -0.377576 0.87 
-0.422142 -0.393634 0.907 
-0.393934 -0.417503 0.962 
-0.365062 -0.436599 1.006 
-0.33203 -0.457865 1.055 
-0.29653 -0.479999 1.106 
0.368195 -0.542928 1.251 
0.651623 -0.763397 1.759 
0.739867 -0.769907 1.774 
0.821162 -0.768605 1.771 
0.907792 -0.772077 1.779 
0.993496 -0.774247 1.784 
1.07725 -0.774681 1.785 
1.16565 -0.778153 1.793 
1.26107 -0.785531 1.81 
1.35138 -0.789003 1.818 
1.44165 -0.792041 1.825 
1.52838 -0.792909 1.827 
1.63032 -0.801155 1.846 
1.73124 -0.808099 1.862 
1.78386 -0.792909 1.827 
-0.560197 -0.301844 0.698 
-0.534467 -0.305736 0.707 
-0.526341 -0.320872 0.742 
-0.511638 -0.333845 0.772 
-0.491624 -0.347683 0.804 
-0.466471 -0.361089 0.835 
-0.445472 -0.376224 0.87 
-0.419324 -0.392224 0.907 
-0.391069 -0.417738 0.966 
-0.361089 -0.435901 1.008 
-0.330833 -0.461415 1.067 
-0.291638 -0.478713 1.107 
0.599357 -0.760232 1.758 
0.681685 -0.760664 1.759 
0.770619 -0.767583 1.775 
0.856718 -0.770611 1.782 
0.939778 -0.770611 1.782 
1.0303 -0.776232 1.795 
1.11396 -0.776232 1.795 
1.20297 -0.779692 1.803 
1.28843 -0.780557 1.805 
1.39158 -0.791368 1.83 
1.47122 -0.788341 1.823 
1.56814 -0.794395 1.837 
1.66637 -0.800449 1.851 
1.78011 -0.81299 1.88 
1.81111 -0.788341 1.823 
-0.55141 -0.302483 0.702 
-0.523862 -0.305499 0.709 
-0.520582 -0.324028 0.752 
-0.506838 -0.338247 0.785 
-0.483748 -0.351604 0.816 
-0.457682 -0.366255 0.85 
-0.437335 -0.384352 0.892 
-0.412057 -0.401587 0.932 
-0.382202 -0.419685 0.974 
-0.354223 -0.443383 1.029 
-0.321143 -0.464928 1.079 
-0.067001 -0.233541 0.542 
0.614757 -0.759655 1.763 
0.696931 -0.759655 1.763 
0.786618 -0.76698 1.78 
0.875447 -0.772151 1.792 
0.954691 -0.768704 1.784 
1.04541 -0.774305 1.797 
1.13231 -0.77646 1.802 
1.22035 -0.779045 1.808 
1.30751 -0.780769 1.812 
1.40886 -0.790248 1.834 
1.48701 -0.78637 1.825 
1.58586 -0.793264 1.841 
1.68257 -0.798435 1.853 
1.80426 -0.814378 1.89 
-0.567136 -0.295382 0.688 
-0.547512 -0.302251 0.704 
-0.522009 -0.306545 0.714 
-0.518163 -0.325006 0.757 
-0.503291 -0.338745 0.789 
-0.476619 -0.351625 0.819 
-0.453714 -0.369227 0.86 
-0.428672 -0.386401 0.9 
-0.402022 -0.403145 0.939 
-0.375035 -0.423753 0.987 
-0.342429 -0.443073 1.032 
-0.306353 -0.466257 1.086 
0.034244 -0.267046 0.622 
0.620587 -0.757345 1.764 
0.704003 -0.758633 1.767 
0.794374 -0.766361 1.785 
0.88249 -0.770655 1.795 
0.961849 -0.76722 1.787 
1.05275 -0.772801 1.8 
1.14106 -0.775807 1.807 
1.22936 -0.778383 1.813 
1.31893 -0.781388 1.82 
1.41688 -0.788687 1.837 
1.49432 -0.784393 1.827 
1.59245 -0.790833 1.842 
1.6947 -0.798561 1.86 
1.81396 -0.813159 1.894 
-0.564999 -0.294313 0.688 
-0.54455 -0.30073 0.703 
-0.519791 -0.305435 0.714 
-0.516492 -0.324258 0.758 
-0.502109 -0.338374 0.791 
-0.476037 -0.349924 0.818 
-0.454521 -0.367463 0.859 
-0.431853 -0.382863 0.895 
-0.406265 -0.398691 0.932 
-0.378437 -0.417514 0.976 
-0.348166 -0.440614 1.03 
-0.311128 -0.464142 1.085 
0.0516061 -0.227579 0.532 
0.616152 -0.755888 1.767 
0.697327 -0.754605 1.764 
0.789711 -0.764444 1.787 
0.876912 -0.767866 1.795 
0.956832 -0.764871 1.788 
1.0489 -0.771288 1.803 
1.13545 -0.772999 1.807 
1.22507 -0.776421 1.815 
1.31472 -0.779416 1.822 
1.41424 -0.787544 1.841 
1.49109 -0.782838 1.83 
1.59017 -0.789683 1.846 
1.68711 -0.794816 1.858 
1.81189 -0.811927 1.898 
-0.565245 -0.292818 0.687 
-0.544866 -0.299211 0.702 
-0.517252 -0.302195 0.709 
-0.516304 -0.322227 0.756 
-0.502065 -0.336293 0.789 
-0.477409 -0.347801 0.816 
-0.456605 -0.36144 0.848 
-0.436262 -0.378063 0.887 
-0.409166 -0.391702 0.919 
-0.385863 -0.412587 0.968 
-0.352361 -0.426653 1.001 
-0.321024 -0.457341 1.073 
0.0323113 -0.265113 0.622 
0.606541 -0.754847 1.771 
0.687142 -0.752716 1.766 
0.777734 -0.760815 1.785 
0.862381 -0.762093 1.788 
0.944133 -0.760815 1.785 
1.03884 -0.769339 1.805 
1.12609 -0.77147 1.81 
1.21714 -0.775733 1.82 
1.30411 -0.777011 1.823 
1.4028 -0.784683 1.841 
1.48376 -0.782126 1.835 
1.57699 -0.785962 1.844 
1.66925 -0.788946 1.851 
1.79441 -0.806421 1.892 
1.83483 -0.785962 1.844 
-0.548446 -0.297696 0.701 
-0.516508 -0.29812 0.702 
-0.518246 -0.319354 0.752 
-0.503114 -0.332519 0.783 
-0.481516 -0.343136 0.808 
-0.460884 -0.356301 0.839 
-0.438368 -0.370315 0.872 
-0.415055 -0.386452 0.91 
-0.393115 -0.407686 0.96 
-0.361433 -0.422974 0.996 
-0.327733 -0.448879 1.057 
-0.283038 -0.470113 1.107 
0.601377 -0.752521 1.772 
0.68204 -0.750397 1.767 
0.772188 -0.758041 1.785 
0.856825 -0.759315 1.788 
0.939638 -0.758891 1.787 
1.03495 -0.767809 1.808 
1.1217 -0.769508 1.812 
1.21481 -0.775028 1.825 
1.29987 -0.775028 1.825 
1.39784 -0.782248 1.842 
1.48289 -0.781823 1.841 
1.57296 -0.783946 1.846 
1.66529 -0.786919 1.853 
1.78664 -0.802632 1.89 
1.83605 -0.78607 1.851 
-0.55014 -0.29576 0.699 
-0.516818 -0.295337 0.698 
-0.518975 -0.316493 0.748 
-0.503527 -0.329187 0.778 
-0.482279 -0.339765 0.803 
-0.462579 -0.353305 0.835 
-0.44091 -0.367691 0.869 
-0.418836 -0.384615 0.909 
-0.39469 -0.403233 0.953 
-0.364972 -0.420158 0.993 
-0.332476 -0.440467 1.041 
-0.295957 -0.459085 1.085 
0.364202 -0.526361 1.244 
0.642674 -0.749767 1.772 
0.730179 -0.754845 1.784 
0.820626 -0.761615 1.8 
0.907037 -0.76373 1.805 
0.991169 -0.76373 1.805 
1.0753 -0.76373 1.805 
1.16907 -0.770077 1.82 
1.26561 -0.77727 1.837 
1.35785 -0.781078 1.846 
1.45094 -0.784886 1.855 
1.52082 -0.776424 1.835 
1.63261 -0.789118 1.865 
1.73429 -0.795887 1.881 
1.83069 -0.799696 1.89 
-0.557516 -0.290037 0.688 
-0.530031 -0.292567 0.694 
-0.514894 -0.302684 0.718 
-0.51026 -0.320811 0.761 
-0.491675 -0.336409 0.798 
-0.469287 -0.34737 0.824 
-0.450228 -0.362968 0.861 
-0.42543 -0.381517 0.905 
-0.395105 -0.393321 0.933 
-0.370084 -0.413978 0.982 
-0.339551 -0.435477 1.033 
-0.304943 -0.455712 1.081 
0.0518971 -0.225538 0.535 
0.610308 -0.75123 1.782 
0.689088 -0.746593 1.771 
0.78122 -0.755867 1.793 
0.865757 -0.75671 1.795 
0.949422 -0.75671 1.795 
1.04172 -0.763034 1.81 
1.13106 -0.766406 1.818 
1.22516 -0.772308 1.832 
1.30912 -0.771465 1.83 
1.4089 -0.779475 1.849 
1.49427 -0.779053 1.848 
1.58639 -0.782004 1.855 
1.68007 -0.785377 1.863 
1.79631 -0.798445 1.894 
1.84677 -0.782426 1.856 
-0.549054 -0.293588 0.699 
-0.514995 -0.292748 0.697 
-0.516429 -0.313329 0.746 
-0.499464 -0.328869 0.783 
-0.47775 -0.33937 0.808 
-0.459697 -0.35449 0.844 
-0.434303 -0.36625 0.872 
-0.409611 -0.386411 0.92 
-0.386262 -0.406992 0.969 
-0.348488 -0.415812 0.99 
-0.321468 -0.444373 1.058 
-0.285016 -0.465373 1.108 
0.562045 -0.750561 1.787 
0.641004 -0.745521 1.775 
0.72863 -0.750561 1.787 
0.82101 -0.758962 1.807 
0.907739 -0.761062 1.812 
0.992745 -0.761482 1.813 
1.07428 -0.759382 1.808 
1.16816 -0.765682 1.823 
1.26551 -0.773242 1.841 
1.36012 -0.778282 1.853 
1.45196 -0.781222 1.86 
1.52376 -0.773662 1.842 
1.63758 -0.787102 1.874 
1.73689 -0.792563 1.887 
1.82968 -0.794663 1.892 
-0.557214 -0.286644 0.685 
-0.53142 -0.289992 0.693 
-0.510643 -0.296687 0.709 
-0.511951 -0.318028 0.76 
-0.493535 -0.333511 0.797 
-0.47013 -0.343554 0.821 
-0.451325 -0.359037 0.858 
-0.426822 -0.377449 0.902 
-0.395018 -0.387492 0.926 
-0.370855 -0.408415 0.976 
-0.340165 -0.431012 1.03 
-0.306055 -0.451517 1.079 
-0.642746 -1.99981 4.779 
0.591591 -0.74653 1.784 
0.67134 -0.742764 1.775 
0.761295 -0.749877 1.792 
0.849535 -0.754062 1.802 
0.932491 -0.753225 1.8 
1.02768 -0.761594 1.82 
1.11251 -0.761594 1.82 
1.20655 -0.767453 1.834 
1.29204 -0.767453 1.834 
1.39179 -0.775403 1.853 
1.48614 -0.779588 1.863 
1.56284 -0.774566 1.851 
1.66783 -0.783354 1.872 
1.77571 -0.79256 1.894 
1.8443 -0.784191 1.874 
-0.552674 -0.289332 0.694 
-0.519577 -0.288915 0.693 
-0.513292 -0.30434 0.73 
-0.503242 -0.32185 0.772 
-0.484206 -0.333524 0.8 
-0.463119 -0.345614 0.829 
-0.443424 -0.361039 0.866 
-0.416965 -0.378549 0.908 
-0.389725 -0.399812 0.959 
-0.356539 -0.413153 0.991 
-0.325252 -0.437333 1.049 
-0.290848 -0.460263 1.104 
0.586376 -0.744175 1.785 
0.666574 -0.74084 1.777 
0.756148 -0.74751 1.793 
0.846277 -0.753347 1.807 
0.928442 -0.751679 1.803 
1.02483 -0.760851 1.825 
1.10564 -0.757933 1.818 
1.19955 -0.763769 1.832 
1.28844 -0.765854 1.837 
1.38828 -0.773775 1.856 
1.48512 -0.779195 1.869 
1.55877 -0.772524 1.853 
1.66556 -0.782113 1.876 
1.76982 -0.789617 1.894 
1.84437 -0.783781 1.88 
-0.552432 -0.287008 0.691 
-0.520977 -0.287423 0.692 
-0.508498 -0.299053 0.72 
-0.505941 -0.318574 0.767 
-0.489195 -0.33145 0.798 
-0.46616 -0.341834 0.823 
-0.447033 -0.357202 0.86 
-0.424019 -0.374647 0.902 
-0.392564 -0.38503 0.927 
-0.363562 -0.409121 0.985 
-0.333115 -0.433211 1.043 
-0.29732 -0.452733 1.09 
0.570374 -0.742232 1.787 
0.651838 -0.740155 1.782 
0.740259 -0.745555 1.795 
0.831727 -0.752616 1.812 
0.916691 -0.753031 1.813 
1.00672 -0.757185 1.823 
1.08809 -0.754693 1.817 
1.18053 -0.759677 1.829 
1.27409 -0.764661 1.841 
1.37615 -0.773799 1.863 
1.46769 -0.776291 1.869 
1.54399 -0.770891 1.856 
1.64983 -0.780029 1.878 
1.74846 -0.785013 1.89 
1.83364 -0.783767 1.887 
-0.554309 -0.284693 0.688 
-0.524519 -0.285934 0.691 
-0.505135 -0.293382 0.709 
-0.508044 -0.315727 0.763 
-0.491058 -0.328141 0.793 
-0.469557 -0.339314 0.82 
-0.449747 -0.353797 0.855 
-0.428113 -0.369521 0.893 
-0.39731 -0.379866 0.918 
-0.369339 -0.403866 0.976 
-0.339504 -0.425384 1.028 
-0.305204 -0.445246 1.076 
0.0350472 -0.694766 1.679 
0.625916 -0.742766 1.795 
0.704442 -0.737387 1.782 
0.796782 -0.746077 1.803 
0.889125 -0.753111 1.82 
0.972886 -0.752283 1.818 
1.05995 -0.753939 1.822 
1.15241 -0.758904 1.834 
1.24465 -0.763042 1.844 
1.33853 -0.767594 1.855 
1.43268 -0.771732 1.865 
1.51961 -0.771732 1.865 
1.61429 -0.775456 1.874 
1.72978 -0.788284 1.905 
1.81476 -0.786629 1.901 
-0.559485 -0.280326 0.68 
-0.538657 -0.286097 0.694 
-0.508498 -0.287334 0.697 
-0.51084 -0.308358 0.748 
-0.495702 -0.321138 0.779 
-0.474725 -0.331856 0.805 
-0.458929 -0.348346 0.845 
-0.431955 -0.358652 0.87 
-0.41075 -0.376378 0.913 
-0.382855 -0.399052 0.968 
-0.345063 -0.407709 0.989 
-0.319383 -0.437803 1.062 
-0.281064 -0.455941 1.106 
0.595238 -0.739977 1.795 
0.675122 -0.735855 1.785 
0.765543 -0.742863 1.802 
0.854721 -0.747398 1.813 
0.939225 -0.747398 1.813 
1.03276 -0.753994 1.829 
1.12107 -0.756055 1.834 
1.20984 -0.758116 1.839 
1.30049 -0.761002 1.846 
1.40381 -0.770483 1.869 
1.49651 -0.773369 1.876 
1.57466 -0.768834 1.865 
1.67763 -0.776255 1.883 
1.78414 -0.7845 1.903 
1.85907 -0.778728 1.889 
-0.549724 -0.284608 0.693 
-0.515183 -0.283376 0.69 
-0.501923 -0.294465 0.717 
-0.502481 -0.315821 0.769 
-0.484842 -0.328141 0.799 
-0.462166 -0.338819 0.825 
-0.443743 -0.354836 0.864 
-0.419349 -0.3688 0.898 
-0.392205 -0.383174 0.933 
-0.365911 -0.402065 0.979 
-0.33668 -0.426707 1.039 
-0.299627 -0.443545 1.08 
0.0453733 -0.687906 1.675 
0.625557 -0.740063 1.802 
0.702461 -0.732671 1.784 
0.79266 -0.739242 1.8 
0.888733 -0.749509 1.825 
0.972729 -0.748688 1.823 
1.06176 -0.751563 1.83 
1.15458 -0.756491 1.842 
1.24448 -0.758955 1.848 
1.34069 -0.764705 1.862 
1.43285 -0.767579 1.869 
1.5224 -0.768812 1.872 
1.6131 -0.770454 1.876 
1.73589 -0.786471 1.915 
1.82324 -0.78565 1.913 
-0.561 -0.277394 0.678 
-0.542672 -0.28435 0.695 
-0.50881 -0.283531 0.693 
-0.503325 -0.299488 0.732 
-0.49741 -0.31749 0.776 
-0.4761 -0.327718 0.801 
-0.458485 -0.342447 0.837 
-0.432809 -0.355539 0.869 
-0.410814 -0.372314 0.91 
-0.384592 -0.388679 0.95 
-0.353566 -0.403817 0.987 
-0.321164 -0.432457 1.057 
-0.283215 -0.450459 1.101 
0.579472 -0.735627 1.798 
0.664015 -0.736445 1.8 
0.751238 -0.739718 1.808 
0.839668 -0.743401 1.817 
0.925885 -0.744628 1.82 
1.01627 -0.748719 1.83 
1.10397 -0.750356 1.834 
1.194 -0.75322 1.841 
1.28815 -0.758129 1.853 
1.39306 -0.768358 1.878 
1.47744 -0.766721 1.874 
1.56479 -0.766721 1.874 
1.65831 -0.769585 1.881 
1.76176 -0.776541 1.898 
1.85315 -0.777768 1.901 
-0.552149 -0.278786 0.684 
-0.524071 -0.280824 0.689 
-0.501239 -0.286123 0.702 
-0.508563 -0.310578 0.762 
-0.489807 -0.321583 0.789 
-0.469109 -0.332995 0.817 
-0.450021 -0.347668 0.853 
-0.425172 -0.360303 0.884 
-0.395021 -0.373346 0.916 
-0.374251 -0.396578 0.973 
-0.342286 -0.416549 1.022 
-0.304353 -0.437336 1.073 
0.0400006 -0.679848 1.668 
0.615381 -0.735687 1.805 
0.694474 -0.730388 1.792 
0.782341 -0.734464 1.802 
0.878352 -0.744653 1.827 
0.964564 -0.745469 1.829 
1.05555 -0.749544 1.839 
1.14748 -0.75362 1.849 
1.23633 -0.755251 1.853 
1.33269 -0.760957 1.867 
1.42808 -0.76544 1.878 
1.51722 -0.766255 1.88 
1.60485 -0.766255 1.88 
1.71859 -0.778075 1.909 
1.81987 -0.783374 1.922 
1.89257 -0.776445 1.905 
-0.545705 -0.280972 0.692 
-0.511225 -0.279754 0.689 
-0.497886 -0.290717 0.716 
-0.500195 -0.313048 0.771 
-0.480516 -0.324011 0.798 
-0.458876 -0.33538 0.826 
-0.437705 -0.352433 0.868 
-0.41235 -0.365832 0.901 
-0.387207 -0.382479 0.942 
-0.353208 -0.400345 0.986 
-0.32086 -0.428767 1.056 
-0.281671 -0.444602 1.095 
0.581084 -0.73207 1.803 
0.667704 -0.734912 1.81 
0.7529 -0.735724 1.812 
0.841055 -0.738973 1.82 
0.928429 -0.741003 1.825 
1.01849 -0.744657 1.834 
1.10879 -0.747905 1.842 
1.19724 -0.749529 1.846 
1.29649 -0.757244 1.865 
1.39974 -0.766177 1.887 
1.47744 -0.760898 1.874 
1.57064 -0.76374 1.881 
1.66184 -0.765365 1.885 
1.76455 -0.771861 1.901 
1.8629 -0.775921 1.911 
-0.551594 -0.275852 0.682 
-0.523617 -0.277874 0.687 
-0.500898 -0.283133 0.7 
-0.509077 -0.307806 0.761 
-0.489166 -0.317918 0.786 
-0.469226 -0.329647 0.815 
-0.448169 -0.344613 0.852 
-0.424757 -0.358365 0.886 
-0.395579 -0.36969 0.914 
-0.367825 -0.39315 0.972 
-0.335708 -0.419036 1.036 
-0.299072 -0.436024 1.078 
0.0554499 -0.673451 1.665 
0.628334 -0.7321 1.81 
0.70758 -0.726842 1.797 
0.795742 -0.730887 1.807 
0.893602 -0.742212 1.835 
0.981267 -0.74383 1.839 
1.0722 -0.74747 1.848 
1.16147 -0.749493 1.853 
1.24986 -0.750706 1.856 
1.35437 -0.760818 1.881 
1.43975 -0.759605 1.878 
1.53135 -0.761627 1.883 
1.62513 -0.764458 1.89 
1.74042 -0.776592 1.92 
1.83754 -0.779828 1.928 
-0.560615 -0.271972 0.675 
-0.543264 -0.279225 0.693 
-0.509488 -0.278419 0.691 
-0.496621 -0.289701 0.719 
-0.497245 -0.311055 0.772 
-0.477394 -0.321934 0.799 
-0.45723 -0.334425 0.83 
-0.437705 -0.349736 0.868 
-0.41235 -0.363032 0.901 
-0.386796 -0.379149 0.941 
-0.352033 -0.397684 0.987 
-0.318032 -0.428306 1.063 
-0.27682 -0.441602 1.096 
0.567093 -0.730094 1.812 
0.653348 -0.732108 1.817 
0.736414 -0.730497 1.813 
0.825447 -0.734526 1.823 
0.918408 -0.740973 1.839 
1.00685 -0.742987 1.844 
1.09517 -0.744599 1.848 
1.18578 -0.747419 1.855 
1.27911 -0.751449 1.865 
1.38727 -0.763133 1.894 
1.45608 -0.75306 1.869 
1.55805 -0.760313 1.887 
1.65386 -0.763939 1.896 
1.76429 -0.773609 1.92 
1.85571 -0.774415 1.922 
-0.554094 -0.271325 0.676 
-0.531862 -0.276141 0.688 
-0.505605 -0.279352 0.696 
-0.505797 -0.298618 0.744 
-0.492015 -0.311863 0.777 
-0.472224 -0.323101 0.805 
-0.453603 -0.337149 0.84 
-0.429745 -0.349591 0.871 
-0.404785 -0.363639 0.906 
-0.380964 -0.382102 0.952 
-0.345611 -0.399361 0.995 
-0.31455 -0.428661 1.068 
-0.272951 -0.441906 1.101 
0.553932 -0.728483 1.815 
0.639233 -0.729285 1.817 
0.720338 -0.725673 1.808 
0.81084 -0.731292 1.822 
0.905105 -0.738918 1.841 
0.994683 -0.741728 1.848 
1.08491 -0.744537 1.855 
1.17327 -0.745742 1.858 
1.26258 -0.747347 1.862 
1.37256 -0.760191 1.894 
1.4485 -0.753769 1.878 
1.5434 -0.757381 1.887 
1.64086 -0.761796 1.898 
1.75302 -0.772232 1.924 
1.84844 -0.77464 1.93 
-0.556643 -0.269475 0.674 
-0.537696 -0.275872 0.69 
-0.507733 -0.277071 0.693 
-0.496699 -0.289465 0.724 
-0.491953 -0.309856 0.775 
-0.472298 -0.321051 0.803 
-0.453283 -0.334644 0.837 
-0.430604 -0.347838 0.87 
-0.405744 -0.361832 0.905 
-0.382042 -0.380223 0.951 
-0.350855 -0.395016 0.988 
-0.319521 -0.422604 1.057 
-0.277925 -0.434598 1.087 
0.065781 -0.213101 0.533 
0.613255 -0.722464 1.807 
0.700568 -0.725663 1.815 
0.7843 -0.724863 1.813 
0.882223 -0.736058 1.841 
0.965929 -0.734459 1.837 
1.06243 -0.742055 1.856 
1.15018 -0.742855 1.858 
1.24277 -0.746453 1.867 
1.3476 -0.756448 1.892 
1.4373 -0.757248 1.894 
1.52558 -0.757248 1.894 
1.61982 -0.760047 1.901 
1.71922 -0.764845 1.913 
1.81689 -0.768443 1.922 
1.89755 -0.764845 1.913 
-0.543106 -0.273207 0.686 
-0.511131 -0.273207 0.686 
-0.495221 -0.282367 0.709 
-0.494466 -0.304271 0.764 
-0.478075 -0.317015 0.796 
-0.458147 -0.329361 0.827 
-0.439388 -0.344894 0.866 
-0.413291 -0.358434 0.9 
-0.386608 -0.37317 0.937 
-0.35794 -0.389499 0.978 
-0.330879 -0.412598 1.036 
-0.29432 -0.429723 1.079 
0.0523233 -0.656333 1.648 
0.582131 -0.722843 1.815 
0.670402 -0.726825 1.825 
0.754224 -0.725631 1.822 
0.849281 -0.734392 1.844 
0.933708 -0.733198 1.841 
1.02616 -0.737977 1.853 
1.11553 -0.739968 1.858 
1.20667 -0.742756 1.865 
1.31093 -0.752712 1.89 
1.41013 -0.758686 1.905 
1.48004 -0.749128 1.881 
1.58438 -0.757093 1.901 
1.67827 -0.759483 1.907 
1.7792 -0.76466 1.92 
1.86188 -0.761872 1.913 
-0.549654 -0.268571 0.677 
-0.523456 -0.271347 0.684 
-0.503073 -0.277695 0.7 
-0.499345 -0.294753 0.743 
-0.488481 -0.309828 0.781 
-0.470022 -0.322126 0.812 
-0.448142 -0.334027 0.842 
-0.425893 -0.347912 0.877 
-0.398625 -0.36021 0.908 
-0.376708 -0.380839 0.96 
-0.344756 -0.395517 0.997 
-0.317434 -0.420906 1.061 
-0.274547 -0.43122 1.087 
0.066984 -0.212635 0.536 
0.608649 -0.718039 1.81 
0.697991 -0.723197 1.823 
0.780814 -0.721213 1.818 
0.879835 -0.733114 1.848 
0.961266 -0.729544 1.839 
1.06008 -0.738668 1.862 
1.14687 -0.738668 1.862 
1.24028 -0.742635 1.872 
1.34739 -0.753743 1.9 
1.43822 -0.754933 1.903 
1.52451 -0.753743 1.9 
1.62411 -0.7589 1.913 
1.71596 -0.76009 1.916 
1.80715 -0.760884 1.918 
1.88567 -0.75652 1.907 
-0.543914 -0.26989 0.683 
-0.512829 -0.270285 0.684 
-0.496416 -0.278978 0.706 
-0.489771 -0.294784 0.746 
-0.481202 -0.313356 0.793 
-0.460485 -0.324816 0.822 
-0.441688 -0.339832 0.86 
-0.419349 -0.354848 0.898 
-0.389263 -0.365912 0.926 
-0.3618 -0.382508 0.968 
-0.334347 -0.403847 1.022 
-0.302702 -0.42637 1.079 
0.041775 -0.646471 1.636 
0.571161 -0.721155 1.825 
0.657663 -0.722735 1.829 
0.741289 -0.721155 1.825 
0.838125 -0.731429 1.851 
0.924401 -0.731429 1.851 
1.0145 -0.734195 1.858 
1.10406 -0.73617 1.863 
1.19601 -0.739332 1.871 
1.29419 -0.745654 1.887 
1.3968 -0.753557 1.907 
1.4701 -0.745654 1.887 
1.57127 -0.751976 1.903 
1.66694 -0.755138 1.911 
1.77531 -0.763436 1.932 
1.85185 -0.757904 1.918 
-0.553274 -0.26568 0.675 
-0.528769 -0.269222 0.684 
-0.505605 -0.273945 0.696 
-0.49288 -0.28536 0.725 
-0.488913 -0.304646 0.774 
-0.471558 -0.317241 0.806 
-0.448529 -0.327868 0.833 
-0.426281 -0.3444 0.875 
-0.399595 -0.356995 0.907 
-0.376624 -0.376281 0.956 
-0.344916 -0.390844 0.993 
-0.317278 -0.415247 1.055 
-0.274965 -0.425875 1.082 
0.538607 -0.720287 1.83 
0.619813 -0.715564 1.818 
0.709201 -0.720287 1.83 
0.794498 -0.720287 1.83 
0.890852 -0.72934 1.853 
0.97142 -0.72501 1.842 
1.07392 -0.736425 1.871 
1.15616 -0.733276 1.863 
1.25501 -0.740361 1.881 
1.35696 -0.748233 1.901 
1.45013 -0.750594 1.907 
1.5374 -0.749807 1.905 
1.63473 -0.753743 1.915 
1.73209 -0.757285 1.924 
1.81798 -0.755711 1.92 
1.89654 -0.751381 1.909 
-0.543378 -0.268551 0.685 
-0.51145 -0.268551 0.685 
-0.494923 -0.277176 0.707 
-0.484186 -0.290506 0.741 
-0.479988 -0.310108 0.791 
-0.459365 -0.321478 0.82 
-0.438373 -0.338728 0.864 
-0.413307 -0.351665 0.897 
-0.38433 -0.366563 0.935 
-0.35642 -0.383421 0.978 
-0.327363 -0.403807 1.03 
-0.292644 -0.423017 1.079 
0.0732929 -0.650404 1.659 
0.598859 -0.7147 1.823 
0.686455 -0.717444 1.83 
0.77133 -0.717052 1.829 
0.871099 -0.729205 1.86 
0.949555 -0.722932 1.844 
1.05067 -0.733518 1.871 
1.13423 -0.731165 1.865 
1.22967 -0.736262 1.878 
1.33754 -0.747631 1.907 
1.43091 -0.749984 1.913 
1.51054 -0.745279 1.901 
1.6185 -0.754296 1.924 
1.70818 -0.754296 1.924 
1.79599 -0.753512 1.922 
1.85614 -0.741751 1.892 
-0.547306 -0.264754 0.678 
-0.517986 -0.265925 0.681 
-0.501239 -0.274125 0.702 
-0.487206 -0.285059 0.73 
-0.486082 -0.305755 0.783 
-0.467386 -0.317861 0.814 
-0.445272 -0.329575 0.844 
-0.420153 -0.345586 0.885 
-0.390446 -0.360034 0.922 
-0.362546 -0.375653 0.962 
-0.336532 -0.397911 1.019 
-0.304353 -0.418998 1.073 
-0.0715526 -0.203056 0.52 
0.56258 -0.716163 1.834 
0.648063 -0.716163 1.834 
0.731547 -0.71421 1.829 
0.825729 -0.72202 1.849 
0.91635 -0.725534 1.858 
1.00295 -0.725534 1.858 
1.09776 -0.731001 1.872 
1.18628 -0.731782 1.874 
1.29198 -0.742326 1.901 
1.3864 -0.745449 1.909 
1.47229 -0.743887 1.905 
1.57173 -0.748964 1.918 
1.65853 -0.747792 1.915 
1.76331 -0.754431 1.932 
1.84185 -0.749745 1.92 
-0.557908 -0.261756 0.673 
-0.535146 -0.266034 0.684 
-0.507679 -0.268368 0.69 
-0.48999 -0.276535 0.711 
-0.481267 -0.291315 0.749 
-0.473173 -0.308817 0.794 
-0.453193 -0.320874 0.825 
-0.434849 -0.336432 0.865 
-0.40867 -0.348489 0.896 
-0.381598 -0.365213 0.939 
-0.351862 -0.380382 0.978 
-0.322562 -0.400607 1.03 
-0.287081 -0.418887 1.077 
0.0656393 -0.646027 1.661 
0.579677 -0.713313 1.834 
0.665523 -0.713702 1.835 
0.748597 -0.711369 1.829 
0.851171 -0.726148 1.867 
0.93568 -0.724203 1.862 
1.02796 -0.728093 1.872 
1.11641 -0.728871 1.874 
1.20761 -0.731204 1.88 
1.31797 -0.744039 1.913 
1.40934 -0.745206 1.916 
1.48848 -0.74015 1.903 
1.5979 -0.749873 1.928 
1.68601 -0.749095 1.926 
1.78593 -0.753374 1.937 
1.84715 -0.741706 1.907 
-0.554323 -0.261485 0.675 
-0.527508 -0.263809 0.681 
-0.504503 -0.268458 0.693 
-0.487874 -0.277368 0.716 
-0.48624 -0.296737 0.766 
-0.469946 -0.30952 0.799 
-0.448409 -0.320755 0.828 
-0.430109 -0.336637 0.869 
-0.4044 -0.349421 0.902 
-0.378828 -0.365304 0.943 
-0.347658 -0.37925 0.979 
-0.318002 -0.401331 1.036 
-0.280388 -0.417213 1.077 
0.079772 -0.653518 1.687 
0.580625 -0.711626 1.837 
0.666248 -0.711626 1.837 
0.749006 -0.708914 1.83 
0.852083 -0.724022 1.869 
0.937188 -0.722473 1.865 
1.02906 -0.725959 1.874 
1.11879 -0.727509 1.878 
1.20825 -0.728671 1.881 
1.32004 -0.742229 1.916 
1.40934 -0.742229 1.916 
1.49317 -0.739518 1.909 
1.6037 -0.74959 1.935 
1.69126 -0.748427 1.932 
1.78961 -0.751914 1.941 
1.84909 -0.739518 1.909 
-0.554323 -0.260436 0.675 
-0.526734 -0.262365 0.68 
-0.503775 -0.266995 0.692 
-0.487192 -0.275869 0.715 
-0.48505 -0.295547 0.766 
-0.468704 -0.308279 0.799 
-0.447663 -0.319854 0.829 
-0.429252 -0.335673 0.87 
-0.403445 -0.348405 0.903 
-0.377363 -0.363839 0.943 
-0.346491 -0.378114 0.98 
-0.317695 -0.399335 1.035 
-0.280388 -0.41554 1.077 
0.0892456 -0.662858 1.718 
0.575543 -0.709543 1.839 
0.661259 -0.709543 1.839 
0.744132 -0.706843 1.832 
0.84537 -0.720347 1.867 
0.934389 -0.72189 1.871 
1.02323 -0.723047 1.874 
1.11473 -0.725748 1.881 
1.2024 -0.725748 1.881 
1.31683 -0.740796 1.92 
1.40266 -0.738867 1.915 
1.49192 -0.738867 1.915 
1.60099 -0.748127 1.939 
1.68613 -0.745812 1.933 
1.78726 -0.750441 1.945 
1.84702 -0.738095 1.913 
-0.555817 -0.258619 0.673 
-0.529124 -0.260924 0.679 
-0.504802 -0.264767 0.689 
-0.487095 -0.272837 0.71 
-0.477661 -0.287055 0.747 
-0.46952 -0.304348 0.792 
-0.45063 -0.317029 0.825 
-0.43266 -0.332784 0.866 
-0.405886 -0.344313 0.896 
-0.379972 -0.359299 0.935 
-0.351142 -0.375055 0.976 
-0.321622 -0.394653 1.027 
-0.285748 -0.411945 1.072 
0.0613154 -0.647123 1.684 
0.543905 -0.710145 1.848 
0.627654 -0.707455 1.841 
0.716564 -0.710529 1.849 
0.803615 -0.711298 1.851 
0.897583 -0.717446 1.867 
0.98355 -0.716677 1.865 
1.08081 -0.723594 1.883 
1.16299 -0.720136 1.874 
1.27236 -0.732817 1.907 
1.35981 -0.732049 1.905 
1.46153 -0.738581 1.922 
1.55758 -0.741655 1.93 
1.64412 -0.740118 1.926 
1.74199 -0.743577 1.935 
1.83218 -0.743577 1.935 
1.92039 -0.742808 1.933 
-0.543118 -0.261018 0.682 
-0.50983 -0.260252 0.68 
-0.493604 -0.268672 0.702 
-0.479923 -0.279771 0.731 
-0.476958 -0.300055 0.784 
-0.45783 -0.31192 0.815 
-0.435812 -0.323784 0.846 
-0.414653 -0.338711 0.885 
-0.388592 -0.352489 0.921 
-0.361052 -0.36818 0.962 
-0.332648 -0.387316 1.012 
-0.299583 -0.406453 1.062 
-0.249199 -0.433626 1.133 
0.114076 -0.678187 1.772 
0.586973 -0.707273 1.848 
0.670923 -0.704977 1.842 
0.755547 -0.703829 1.839 
0.858189 -0.71799 1.876 
0.94815 -0.719903 1.881 
1.03693 -0.720669 1.883 
1.12887 -0.723348 1.89 
1.21632 -0.722965 1.889 
1.32992 -0.737126 1.926 
1.41527 -0.73483 1.92 
1.50946 -0.737126 1.926 
1.62165 -0.74746 1.953 
1.71093 -0.746694 1.951 
1.80556 -0.748225 1.955 
1.87728 -0.74057 1.935 
-0.55268 -0.256527 0.673 
-0.523635 -0.257671 0.676 
-0.502319 -0.263007 0.69 
-0.485148 -0.271393 0.712 
-0.480701 -0.29007 0.761 
-0.465708 -0.303411 0.796 
-0.446913 -0.316371 0.83 
-0.415516 -0.335811 0.881 
-0.389329 -0.349152 0.916 
-0.36177 -0.364399 0.956 
-0.333802 -0.383457 1.006 
-0.301172 -0.402516 1.056 
-0.255405 -0.424623 1.114 
0.0990647 -0.667048 1.75 
0.567795 -0.705546 1.851 
0.651597 -0.702878 1.844 
0.738346 -0.70364 1.846 
0.832874 -0.710882 1.865 
0.924241 -0.714313 1.874 
1.01483 -0.7166 1.88 
1.10949 -0.721174 1.892 
1.19008 -0.7166 1.88 
1.30625 -0.732609 1.922 
1.38785 -0.728416 1.911 
1.49006 -0.734896 1.928 
1.60369 -0.74595 1.957 
1.68278 -0.740613 1.943 
1.78612 -0.74595 1.957 
1.88118 -0.747475 1.961 
-0.556877 -0.253584 0.668 
-0.532825 -0.257 0.677 
-0.505712 -0.259278 0.683 
-0.488447 -0.26725 0.704 
-0.474403 -0.278259 0.733 
-0.470868 -0.297619 0.784 
-0.453161 -0.310526 0.818 
-0.418602 -0.332544 0.876 
-0.392865 -0.345831 0.911 
-0.365019 -0.360256 0.949 
-0.335997 -0.377339 0.994 
-0.30482 -0.397079 1.046 
-0.266837 -0.413782 1.09 
0.0720794 -0.641931 1.691 
0.524657 -0.70267 1.851 
0.612253 -0.704188 1.855 
0.699845 -0.705327 1.858 
0.7856 -0.704568 1.856 
0.881507 -0.71216 1.876 
0.975662 -0.717095 1.889 
1.0654 -0.718234 1.892 
1.15237 -0.717475 1.89 
1.25424 -0.725447 1.911 
1.35386 -0.731141 1.926 
1.44513 -0.7319 1.928 
1.54216 -0.735317 1.937 
1.64087 -0.739113 1.947 
1.74051 -0.742909 1.957 
1.83922 -0.745946 1.965 
1.91509 -0.739872 1.949 
-0.54803 -0.255192 0.675 
-0.516568 -0.255192 0.675 
-0.498761 -0.262376 0.694 
-0.481199 -0.270693 0.716 
-0.474721 -0.28695 0.759 
-0.462497 -0.302072 0.799 
-0.443884 -0.315304 0.834 
-0.406389 -0.336854 0.891 
-0.381239 -0.351976 0.931 
-0.354175 -0.368989 0.976 
-0.322283 -0.385246 1.019 
-0.287192 -0.402637 1.065 
-0.242731 -0.432504 1.144 
0.125441 -0.671817 1.777 
0.572829 -0.702441 1.858 
0.656946 -0.699794 1.851 
0.74523 -0.701684 1.856 
0.839805 -0.70849 1.874 
0.930616 -0.711136 1.881 
1.01937 -0.711892 1.883 
1.11772 -0.718697 1.901 
1.19618 -0.712648 1.885 
1.3106 -0.727393 1.924 
1.39446 -0.724368 1.916 
1.50003 -0.732307 1.937 
1.61494 -0.743649 1.967 
1.69448 -0.738357 1.953 
1.80288 -0.74554 1.972 
1.92074 -0.755747 1.999 
-0.556043 -0.251132 0.667 
-0.531251 -0.254144 0.675 
-0.505712 -0.257156 0.683 
-0.488447 -0.265062 0.704 
-0.473756 -0.275605 0.732 
-0.468452 -0.29443 0.782 
-0.451338 -0.307608 0.817 
-0.417169 -0.328692 0.873 
-0.387482 -0.344506 0.915 
-0.360285 -0.359943 0.956 
-0.329927 -0.376133 0.999 
-0.297829 -0.395335 1.05 
-0.256912 -0.410771 1.091 
0.0713548 -0.630276 1.674 
0.526641 -0.699554 1.858 
0.614563 -0.70106 1.862 
0.703235 -0.702942 1.867 
0.78941 -0.702189 1.865 
0.882447 -0.707084 1.878 
0.981344 -0.715367 1.9 
1.06765 -0.713861 1.896 
1.15724 -0.714614 1.898 
1.26015 -0.722897 1.92 
1.35878 -0.727792 1.933 
1.44813 -0.727416 1.932 
1.55171 -0.733816 1.949 
1.64761 -0.736075 1.955 
1.75119 -0.741346 1.969 
1.85513 -0.746241 1.982 
1.93474 -0.741346 1.969 
-0.547452 -0.252345 0.673 
-0.515317 -0.25197 0.672 
-0.499119 -0.259844 0.693 
-0.480964 -0.267718 0.714 
-0.472765 -0.282716 0.754 
-0.459822 -0.301089 0.803 
-0.438701 -0.312713 0.834 
-0.412779 -0.330336 0.881 
-0.384336 -0.347959 0.928 
-0.356151 -0.363332 0.969 
-0.324786 -0.379455 1.012 
-0.290236 -0.396703 1.058 
-0.253581 -0.423325 1.129 
0.108018 -0.661046 1.763 
0.534994 -0.700042 1.867 
0.620682 -0.698542 1.863 
0.710935 -0.701916 1.872 
0.797763 -0.701541 1.871 
0.889701 -0.705291 1.881 
0.987767 -0.71279 1.901 
1.07467 -0.711665 1.898 
1.16437 -0.712415 1.9 
1.27007 -0.722164 1.926 
1.36761 -0.726289 1.937 
1.45789 -0.726289 1.937 
1.55937 -0.731538 1.951 
1.652 -0.732288 1.953 
1.75909 -0.739037 1.971 
1.86974 -0.746536 1.991 
1.93889 -0.737537 1.967 
-0.544315 -0.251299 0.673 
-0.512947 -0.251299 0.673 
-0.496605 -0.259141 0.694 
-0.478305 -0.266982 0.715 
-0.468628 -0.281171 0.753 
-0.458351 -0.301335 0.807 
-0.435335 -0.31179 0.835 
-0.412737 -0.327847 0.878 
-0.384299 -0.343903 0.921 
-0.356939 -0.359586 0.963 
-0.326311 -0.376016 1.007 
-0.292413 -0.393565 1.054 
-0.253581 -0.421571 1.129 
0.11082 -0.658681 1.764 
0.525164 -0.695647 1.863 
0.613313 -0.697141 1.867 
0.70296 -0.699755 1.874 
0.789464 -0.699008 1.872 
0.880934 -0.702369 1.881 
0.984056 -0.713571 1.911 
1.06695 -0.709463 1.9 
1.16098 -0.712824 1.909 
1.26109 -0.719172 1.926 
1.36139 -0.724773 1.941 
1.44737 -0.722532 1.935 
1.55663 -0.731494 1.959 
1.65635 -0.735228 1.969 
1.75612 -0.738589 1.978 
1.86607 -0.745683 1.997 
1.94934 -0.741949 1.987 
-0.545825 -0.24951 0.671 
-0.51455 -0.24951 0.671 
-0.498399 -0.257319 0.692 
-0.480964 -0.2655 0.714 
-0.470257 -0.278886 0.75 
-0.460496 -0.298222 0.802 
-0.438942 -0.309378 0.832 
-0.416607 -0.323136 0.869 
-0.391684 -0.336522 0.905 
-0.366108 -0.352512 0.948 
-0.333806 -0.365527 0.983 
-0.302051 -0.383375 1.031 
-0.267792 -0.404199 1.087 
0.0110527 -0.596444 1.604 
0.131774 -0.664864 1.788 
0.543981 -0.698331 1.878 
0.629161 -0.695728 1.871 
0.719815 -0.699074 1.88 
0.806584 -0.698331 1.878 
0.898403 -0.701677 1.887 
0.996811 -0.709114 1.907 
1.08456 -0.708371 1.905 
1.17581 -0.709858 1.909 
1.27871 -0.717667 1.93 
1.3793 -0.723244 1.945 
1.47147 -0.723988 1.947 
1.57185 -0.72845 1.959 
1.66146 -0.727707 1.957 
1.77148 -0.735515 1.978 
1.88912 -0.745555 2.005 
1.94994 -0.733284 1.972 
-0.541983 -0.249578 0.674 
-0.510567 -0.249578 0.674 
-0.488544 -0.259576 0.701 
-0.474079 -0.269945 0.729 
-0.464857 -0.287348 0.776 
-0.448023 -0.300309 0.811 
-0.428432 -0.313639 0.847 
-0.408699 -0.329562 0.89 
-0.382482 -0.343263 0.927 
-0.35428 -0.358445 0.968 
-0.322575 -0.373997 1.01 
-0.288592 -0.391771 1.058 
-0.247196 -0.422136 1.14 
0.0549837 -0.611356 1.651 
0.153926 -0.673936 1.82 
0.561488 -0.695413 1.878 
0.646603 -0.692821 1.871 
0.737341 -0.696153 1.88 
0.827162 -0.698005 1.885 
0.919391 -0.701337 1.894 
1.01352 -0.705411 1.905 
1.10984 -0.710225 1.918 
1.19236 -0.706151 1.907 
1.30006 -0.71652 1.935 
1.39456 -0.718741 1.941 
1.49421 -0.723185 1.953 
1.59173 -0.726147 1.961 
1.6797 -0.724666 1.957 
1.79807 -0.735775 1.987 
1.92779 -0.750216 2.026 
-0.557859 -0.244475 0.663 
-0.536494 -0.2489 0.675 
-0.506607 -0.254431 0.69 
-0.484351 -0.260331 0.706 
-0.471266 -0.271762 0.737 
-0.462377 -0.288355 0.782 
-0.447714 -0.303105 0.822 
-0.42733 -0.316379 0.858 
-0.402688 -0.328917 0.892 
-0.378519 -0.344773 0.935 
-0.349984 -0.36026 0.977 
-0.316599 -0.374641 1.016 
-0.279607 -0.396027 1.074 
-0.242731 -0.421839 1.144 
0.0670289 -0.601785 1.632 
0.472301 -0.685858 1.86 
0.564406 -0.692495 1.878 
0.650551 -0.69102 1.874 
0.740655 -0.693601 1.881 
0.832293 -0.69692 1.89 
0.924282 -0.69987 1.898 
1.01862 -0.703926 1.909 
1.1163 -0.709457 1.924 
1.19908 -0.705401 1.913 
1.30576 -0.714988 1.939 
1.39901 -0.716463 1.943 
1.50184 -0.722363 1.959 
1.59478 -0.7231 1.961 
1.6879 -0.723838 1.963 
1.80659 -0.7349 1.993 
1.93094 -0.747069 2.026 
-0.554961 -0.243078 0.662 
-0.532022 -0.24675 0.672 
-0.50412 -0.253726 0.691 
-0.48284 -0.259601 0.707 
-0.471119 -0.273187 0.744 
-0.460492 -0.288242 0.785 
-0.446043 -0.303296 0.826 
-0.424318 -0.315781 0.86 
-0.396202 -0.327898 0.893 
-0.374432 -0.346257 0.943 
-0.342745 -0.359109 0.978 
-0.310833 -0.375632 1.023 
-0.276527 -0.394726 1.075 
-0.240954 -0.420062 1.144 
0.0697776 -0.601085 1.637 
0.464878 -0.684804 1.865 
0.557132 -0.691413 1.883 
0.643187 -0.689577 1.878 
0.733444 -0.692147 1.885 
0.824355 -0.694718 1.892 
0.9164 -0.697655 1.9 
1.01184 -0.702429 1.913 
1.10618 -0.705733 1.922 
1.19452 -0.704999 1.92 
1.29806 -0.71271 1.941 
1.39711 -0.717116 1.953 
1.49424 -0.720054 1.961 
1.58564 -0.720054 1.961 
1.6856 -0.723726 1.971 
1.7973 -0.731804 1.993 
1.91106 -0.739882 2.015 
1.97712 -0.729601 1.987 
-0.532273 -0.24534 0.671 
-0.506607 -0.252287 0.69 
-0.484072 -0.257406 0.704 
-0.471129 -0.26874 0.735 
-0.460646 -0.283366 0.775 
-0.446982 -0.298357 0.816 
-0.427491 -0.311885 0.853 
-0.398571 -0.325048 0.889 
-0.376819 -0.342964 0.938 
-0.346238 -0.356492 0.975 
-0.314367 -0.37258 1.019 
-0.279966 -0.390862 1.069 
-0.244564 -0.415359 1.136 
0.0133844 -0.579529 1.585 
0.123025 -0.651559 1.782 
0.493324 -0.681175 1.863 
0.583585 -0.685197 1.874 
0.672365 -0.686659 1.878 
0.766373 -0.69251 1.894 
0.854653 -0.69251 1.894 
0.948409 -0.696531 1.905 
1.04047 -0.698725 1.911 
1.14373 -0.7075 1.935 
1.22818 -0.70421 1.926 
1.33506 -0.713351 1.951 
1.42599 -0.713351 1.951 
1.53248 -0.720663 1.971 
1.6194 -0.71847 1.965 
1.73015 -0.726513 1.987 
1.83928 -0.733095 2.005 
1.9549 -0.741504 2.028 
-0.546528 -0.241385 0.663 
-0.518737 -0.242841 0.667 
-0.502319 -0.251215 0.69 
-0.481741 -0.257404 0.707 
-0.467749 -0.271603 0.746 
-0.457354 -0.286895 0.788 
-0.441977 -0.301458 0.828 
-0.418123 -0.313473 0.861 
-0.390918 -0.327672 0.9 
-0.36758 -0.345148 0.948 
-0.334651 -0.357162 0.981 
-0.30218 -0.373546 1.026 
-0.267497 -0.392842 1.079 
-0.0529734 -0.550124 1.511 
0.0442627 -0.594906 1.634 
0.156926 -0.663353 1.822 
0.523557 -0.683742 1.878 
0.612067 -0.684834 1.881 
0.701229 -0.68629 1.885 
0.796624 -0.692844 1.903 
0.882067 -0.690295 1.896 
0.982724 -0.699033 1.92 
1.07445 -0.700489 1.924 
1.1732 -0.70595 1.939 
1.26358 -0.70595 1.939 
1.36653 -0.712504 1.957 
1.46221 -0.714688 1.963 
1.56083 -0.717965 1.972 
1.66364 -0.722698 1.985 
1.77386 -0.72998 2.005 
1.87476 -0.732892 2.013 
1.98717 -0.73981 2.032 
-0.54293 -0.242892 0.67 
-0.510174 -0.242167 0.668 
-0.494815 -0.250143 0.69 
-0.476734 -0.257756 0.711 
-0.460043 -0.27697 0.764 
-0.447067 -0.292558 0.807 
-0.427211 -0.305247 0.842 
-0.398625 -0.32011 0.883 
-0.37609 -0.336787 0.929 
-0.348551 -0.352738 0.973 
-0.315976 -0.367601 1.014 
-0.281963 -0.385728 1.064 
-0.246128 -0.408567 1.127 
0.001058 -0.567353 1.565 
0.126359 -0.648921 1.79 
0.490937 -0.680099 1.876 
0.57992 -0.681911 1.881 
0.667239 -0.681549 1.88 
0.762897 -0.688799 1.9 
0.853697 -0.690612 1.905 
0.9415 -0.689887 1.903 
1.0394 -0.69605 1.92 
1.14124 -0.703663 1.941 
1.22664 -0.700763 1.933 
1.33308 -0.709463 1.957 
1.42866 -0.711638 1.963 
1.53023 -0.716351 1.976 
1.61001 -0.710913 1.961 
1.73092 -0.723239 1.995 
1.84036 -0.729765 2.013 
1.93995 -0.73194 2.019 
-0.545907 -0.238603 0.661 
-0.518214 -0.240047 0.665 
-0.50407 -0.248349 0.688 
-0.481606 -0.253403 0.702 
-0.464807 -0.268924 0.745 
-0.454329 -0.284085 0.787 
-0.438647 -0.299246 0.829 
-0.412954 -0.312963 0.867 
-0.3824 -0.325958 0.903 
-0.359155 -0.344007 0.953 
-0.325633 -0.355919 0.986 
-0.294709 -0.37505 1.039 
-0.260977 -0.397431 1.101 
-0.0372921 -0.523049 1.449 
0.0334399 -0.578278 1.602 
0.146885 -0.650833 1.803 
0.508426 -0.677184 1.876 
0.598725 -0.680433 1.885 
0.685857 -0.679711 1.883 
0.78595 -0.69054 1.913 
0.873285 -0.689096 1.909 
0.963272 -0.689818 1.911 
1.06281 -0.696677 1.93 
1.16172 -0.702091 1.945 
1.24981 -0.700647 1.941 
1.35271 -0.707145 1.959 
1.45286 -0.711476 1.971 
1.55022 -0.714003 1.978 
1.6366 -0.711476 1.971 
1.76004 -0.724471 2.007 
1.86282 -0.728081 2.017 
1.97721 -0.735662 2.038 
-0.544644 -0.239732 0.667 
-0.511245 -0.238654 0.664 
-0.497656 -0.24728 0.688 
-0.479123 -0.254468 0.708 
-0.457318 -0.268126 0.746 
-0.449734 -0.285378 0.794 
-0.433518 -0.299755 0.834 
-0.407207 -0.313413 0.872 
-0.378124 -0.328149 0.913 
-0.354681 -0.346839 0.965 
-0.319651 -0.357981 0.996 
-0.28859 -0.378108 1.052 
-0.253446 -0.400033 1.113 
-0.0287556 -0.529424 1.473 
0.0442627 -0.58729 1.634 
0.149023 -0.645156 1.795 
0.508968 -0.674988 1.878 
0.59936 -0.678223 1.887 
0.685857 -0.676785 1.883 
0.786771 -0.688287 1.915 
0.875115 -0.687568 1.913 
0.963272 -0.686849 1.911 
1.06446 -0.694756 1.933 
1.16292 -0.699788 1.947 
1.25109 -0.69835 1.943 
1.35409 -0.70482 1.961 
1.45655 -0.710211 1.976 
1.55178 -0.711649 1.98 
1.63909 -0.709492 1.974 
1.76355 -0.722791 2.011 
1.86651 -0.726385 2.021 
1.97915 -0.733214 2.04 
-0.545461 -0.239054 0.668 
-0.510475 -0.237264 0.663 
-0.497656 -0.246211 0.688 
-0.478446 -0.253011 0.707 
-0.466916 -0.265178 0.741 
-0.449883 -0.275914 0.771 
-0.442402 -0.294881 0.824 
-0.419194 -0.305975 0.855 
-0.39354 -0.317426 0.887 
-0.367399 -0.336393 0.94 
-0.336667 -0.349992 0.978 
-0.303582 -0.365022 1.02 
-0.263441 -0.387568 1.083 
-0.225154 -0.409755 1.145 
-0.00135859 -0.553975 1.548 
0.087937 -0.624474 1.745 
0.173443 -0.639863 1.788 
0.533727 -0.67386 1.883 
0.626445 -0.679228 1.898 
0.710768 -0.675291 1.887 
0.810997 -0.685669 1.916 
0.900302 -0.685669 1.916 
0.996838 -0.690679 1.93 
1.09299 -0.694616 1.941 
1.18834 -0.697479 1.949 
1.28575 -0.701057 1.959 
1.38127 -0.703205 1.965 
1.48785 -0.710362 1.985 
1.57639 -0.708573 1.98 
1.68638 -0.716088 2.001 
1.79566 -0.722529 2.019 
1.89631 -0.725034 2.026 
2.02219 -0.736486 2.058 
-0.53348 -0.237303 0.666 
-0.50621 -0.239085 0.671 
-0.488382 -0.245855 0.69 
-0.470106 -0.253337 0.711 
-0.454936 -0.265096 0.744 
-0.444547 -0.280417 0.787 
-0.432222 -0.297164 0.834 
-0.408913 -0.308922 0.867 
-0.379867 -0.323174 0.907 
-0.35769 -0.342415 0.961 
-0.318759 -0.348829 0.979 
-0.287767 -0.373771 1.049 
-0.252991 -0.395862 1.111 
-0.0617564 -0.513801 1.442 
0.00586804 -0.552639 1.551 
0.0961806 -0.622476 1.747 
0.450554 -0.673428 1.89 
0.539578 -0.670934 1.883 
0.633343 -0.677348 1.901 
0.718531 -0.674141 1.892 
0.817803 -0.683405 1.918 
0.908148 -0.684118 1.92 
1.00439 -0.68875 1.933 
1.10129 -0.693025 1.945 
1.19562 -0.695163 1.951 
1.29711 -0.700864 1.967 
1.39162 -0.702289 1.971 
1.49553 -0.70799 1.987 
1.58654 -0.707278 1.985 
1.69937 -0.715829 2.009 
1.80818 -0.721887 2.026 
1.90449 -0.722599 2.028 
2.03056 -0.734001 2.06 
-0.526957 -0.235204 0.663 
-0.505032 -0.239461 0.675 
-0.485497 -0.245492 0.692 
-0.470464 -0.255425 0.72 
-0.452681 -0.264649 0.746 
-0.440878 -0.279194 0.787 
-0.430389 -0.297287 0.838 
-0.405339 -0.30793 0.868 
-0.379867 -0.321765 0.907 
-0.358063 -0.341277 0.962 
-0.317456 -0.345889 0.975 
-0.291261 -0.370367 1.044 
-0.25631 -0.391298 1.103 
-0.21097 -0.409745 1.155 
-0.0107662 -0.538522 1.518 
0.0764296 -0.613731 1.73 
0.160334 -0.626502 1.766 
0.512703 -0.667299 1.881 
0.605165 -0.67262 1.896 
0.690246 -0.669428 1.887 
0.792633 -0.681844 1.922 
0.886809 -0.685392 1.932 
0.96877 -0.679716 1.916 
1.07299 -0.689294 1.943 
1.16954 -0.692842 1.953 
1.25799 -0.691423 1.949 
1.36475 -0.699582 1.972 
1.4707 -0.706322 1.991 
1.5635 -0.706322 1.991 
1.6563 -0.706322 1.991 
1.77194 -0.715546 2.017 
1.88168 -0.721577 2.034 
1.99106 -0.726898 2.049 
-0.53291 -0.234527 0.664 
-0.504984 -0.23594 0.668 
-0.489454 -0.243711 0.69 
-0.471211 -0.251128 0.711 
-0.455939 -0.261371 0.74 
-0.44252 -0.274439 0.777 
-0.432478 -0.293866 0.832 
-0.408368 -0.304815 0.863 
-0.3835 -0.31753 0.899 
-0.360976 -0.335544 0.95 
-0.324364 -0.343667 0.973 
-0.295468 -0.365919 1.036 
-0.259825 -0.384639 1.089 
-0.220201 -0.405125 1.147 
-0.0197077 -0.523095 1.481 
0.0536515 -0.569012 1.611 
0.145287 -0.618107 1.75 
0.496171 -0.669675 1.896 
0.58177 -0.666496 1.887 
0.672918 -0.669675 1.896 
0.770124 -0.677445 1.918 
0.865797 -0.68239 1.932 
0.946448 -0.675679 1.913 
1.05077 -0.685569 1.941 
1.1577 -0.695458 1.969 
1.23679 -0.688394 1.949 
1.35011 -0.70005 1.982 
1.45195 -0.704642 1.995 
1.54184 -0.703229 1.991 
1.63136 -0.701816 1.987 
1.76128 -0.717004 2.03 
1.86779 -0.721596 2.043 
1.9486 -0.716298 2.028 
-0.542571 -0.234551 0.667 
-0.506881 -0.232441 0.661 
-0.494078 -0.241232 0.686 
-0.476249 -0.248617 0.707 
-0.46336 -0.25987 0.739 
-0.445166 -0.269716 0.767 
-0.435019 -0.290815 0.827 
-0.411813 -0.302068 0.859 
-0.387356 -0.314727 0.895 
-0.361942 -0.330903 0.941 
-0.329575 -0.342859 0.975 
-0.294897 -0.363606 1.034 
-0.259347 -0.382244 1.087 
-0.220009 -0.402991 1.146 
-0.0459138 -0.505321 1.437 
0.0226337 -0.542948 1.544 
0.109187 -0.611168 1.738 
0.44268 -0.666026 1.894 
0.527315 -0.661454 1.881 
0.62349 -0.670597 1.907 
0.70752 -0.666026 1.894 
0.810085 -0.677982 1.928 
0.905084 -0.68185 1.939 
0.992382 -0.67974 1.933 
1.09368 -0.686773 1.953 
1.18592 -0.687476 1.955 
1.2875 -0.693103 1.971 
1.38706 -0.696971 1.982 
1.49064 -0.702245 1.997 
1.59007 -0.705059 2.005 
1.68856 -0.707169 2.011 
1.79559 -0.712443 2.026 
1.90588 -0.718421 2.043 
2.01971 -0.725103 2.062 
-0.525598 -0.231064 0.66 
-0.502332 -0.234565 0.67 
-0.485166 -0.241567 0.69 
-0.470731 -0.251019 0.717 
-0.45195 -0.259422 0.741 
-0.437691 -0.272025 0.777 
-0.429537 -0.295481 0.844 
-0.401756 -0.304234 0.869 
-0.37771 -0.319288 0.912 
-0.355049 -0.338193 0.966 
-0.311307 -0.339594 0.97 
-0.280151 -0.367951 1.051 
-0.247439 -0.393859 1.125 
-0.201589 -0.407162 1.163 
-0.03492 -0.505539 1.444 
0.0347851 -0.543 1.551 
0.127057 -0.603566 1.724 
0.446093 -0.663783 1.896 
0.530238 -0.658532 1.881 
