# .PCD v.7 - Point Cloud Data file format
VERSION .7
FIELDS x y z
SIZE 4 4 4
TYPE F F F
COUNT 1 1 1
WIDTH 1931
HEIGHT 1
VIEWPOINT 0 0 0 1 0 0 0
POINTS 1931
DATA ascii
-0.0696257 0.249002 0.601 
-0.0414052 0.247759 0.598 
-0.0135322 0.247759 0.598 
0.0142688 0.246516 0.595 
0.0420019 0.246516 0.595 
1.5574 5.36327 12.945 
2.314 5.74361 13.863 
4.71735 7.93988 19.164 
4.47085 6.32696 15.271 
3.28283 3.98941 9.629 
3.69521 3.95047 9.535 
4.76785 4.54998 10.982 
33.4413 27.152 65.535 
10.5842 7.78741 18.796 
8.76347 5.95491 14.373 
9.09867 5.74361 13.863 
8.37832 4.93819 11.919 
8.23154 4.54998 10.982 
8.10569 4.21811 10.181 
8.15547 4.0093 9.677 
10.5549 4.90836 11.847 
11.5993 5.12587 12.372 
8.7442 3.68116 8.885 
-0.482386 0.2595 0.624 
-0.451849 0.258669 0.622 
-0.422177 0.258253 0.621 
-0.394499 0.259084 0.623 
-0.3637 0.257837 0.62 
-0.332642 0.256173 0.616 
-0.302943 0.255342 0.614 
-0.272984 0.254094 0.611 
-0.244105 0.253678 0.61 
-0.214966 0.252847 0.608 
-0.187548 0.254094 0.611 
-0.158027 0.252431 0.607 
-0.129094 0.251183 0.604 
-0.100273 0.24952 0.6 
-0.0724269 0.249935 0.601 
-0.0441186 0.248272 0.597 
-0.0163195 0.248688 0.598 
0.0114955 0.24744 0.595 
0.0392286 0.24744 0.595 
1.52748 5.49276 13.208 
2.26545 5.80632 13.962 
2.79654 5.56803 13.389 
4.30476 6.35069 15.271 
3.32564 4.19027 10.076 
3.55685 3.92702 9.443 
4.59678 4.5163 10.86 
5.70489 5.04903 12.141 
8.30995 6.20555 14.922 
8.80621 6.02174 14.48 
8.88856 5.64538 13.575 
8.3093 4.92676 11.847 
8.14009 4.5163 10.86 
8.06349 4.21189 10.128 
8.07541 3.98483 9.582 
10.2439 4.78163 11.498 
11.5262 5.11266 12.294 
8.70484 3.67833 8.845 
-0.480447 0.26047 0.624 
-0.449192 0.259218 0.621 
-0.419571 0.2588 0.62 
-0.391933 0.259635 0.622 
-0.361774 0.2588 0.62 
-0.330728 0.257131 0.616 
-0.300055 0.255461 0.612 
-0.271086 0.255043 0.611 
-0.24221 0.254626 0.61 
-0.212726 0.253374 0.607 
-0.185345 0.254626 0.61 
-0.156141 0.253374 0.607 
-0.127428 0.252539 0.605 
-0.0985722 0.250869 0.601 
-0.0705594 0.250869 0.601 
-0.0422635 0.2492 0.597 
-0.0144371 0.2492 0.597 
0.0133219 0.247947 0.594 
0.0410775 0.248365 0.595 
1.51722 5.33295 12.776 
2.30884 5.82801 13.962 
2.78091 5.47613 13.119 
4.39967 6.37442 15.271 
3.35362 4.16293 9.973 
3.66876 3.99972 9.582 
4.79741 4.66258 11.17 
33.2377 27.3556 65.535 
19.3444 14.0679 33.702 
8.8148 5.87017 14.063 
9.20495 5.70571 13.669 
9.79548 5.66647 13.575 
7.56121 4.10031 9.823 
7.32027 3.743 8.967 
7.95655 3.84861 9.22 
11.2917 5.16432 12.372 
11.4338 4.97522 11.919 
-0.499318 0.262696 0.627 
-0.469343 0.262277 0.626 
-0.43665 0.260182 0.621 
-0.406392 0.259344 0.619 
-0.37693 0.258926 0.618 
-0.346998 0.258088 0.616 
-0.318803 0.258507 0.617 
-0.287694 0.256412 0.612 
-0.258745 0.255993 0.611 
-0.229512 0.255155 0.609 
-0.200466 0.254317 0.607 
-0.172457 0.254736 0.608 
-0.14317 0.25306 0.604 
-0.114256 0.251384 0.6 
-0.0862895 0.251384 0.6 
-0.0582261 0.250965 0.599 
-0.030256 0.250546 0.598 
-0.00237904 0.250127 0.597 
0.0253194 0.24887 0.594 
0.0531844 0.249708 0.596 
1.89935 5.72695 13.669 
2.72723 6.15765 14.697 
3.77818 5.97791 14.268 
4.54287 6.11198 14.588 
3.29982 3.84492 9.177 
4.2686 4.40299 10.509 
5.17591 4.78928 11.431 
8.84345 6.82466 16.289 
9.61953 6.71279 16.022 
8.15939 5.28367 12.611 
8.26721 4.99374 11.919 
7.92598 4.40299 10.509 
7.71109 4.03429 9.629 
7.77686 3.84492 9.177 
10.7116 4.99374 11.919 
11.477 5.08676 12.141 
8.57913 3.6237 8.649 
-0.472478 0.262829 0.625 
-0.4398 0.260727 0.62 
-0.410238 0.260306 0.619 
-0.381387 0.260306 0.619 
-0.350826 0.259045 0.616 
-0.321591 0.258624 0.615 
-0.291021 0.256942 0.611 
-0.262972 0.257363 0.612 
-0.233297 0.256101 0.609 
-0.203902 0.254839 0.606 
-0.176236 0.25568 0.608 
-0.146924 0.253998 0.604 
-0.117788 0.251896 0.599 
-0.0901684 0.252737 0.601 
-0.0619488 0.251896 0.599 
-0.0339156 0.251055 0.597 
-0.00608922 0.251055 0.597 
0.0216643 0.250214 0.595 
0.0493974 0.250214 0.595 
1.72985 5.48031 13.032 
2.61634 6.13465 14.588 
3.88181 6.2751 14.922 
4.7215 6.47275 15.392 
3.25705 3.85918 9.177 
4.19714 4.39577 10.453 
4.92142 4.61823 10.982 
34.8668 27.5592 65.535 
10.2787 7.2747 17.299 
7.82854 5.13758 12.217 
8.66882 5.30327 12.611 
7.88375 4.39577 10.453 
7.67345 4.02949 9.582 
7.8133 3.87726 9.22 
10.6653 4.98198 11.847 
11.4959 5.10562 12.141 
8.51706 3.60518 8.573 
-0.471507 0.2638 0.625 
-0.438836 0.26169 0.62 
-0.409277 0.261268 0.619 
-0.37981 0.260846 0.618 
-0.349301 0.25958 0.615 
-0.320115 0.259158 0.614 
-0.289597 0.257469 0.61 
-0.262021 0.258313 0.612 
-0.232351 0.257047 0.609 
-0.20296 0.255781 0.606 
-0.175003 0.256203 0.607 
-0.145744 0.254515 0.603 
-0.116857 0.252826 0.599 
-0.0892346 0.25367 0.601 
-0.0610181 0.252826 0.599 
-0.032988 0.251982 0.597 
-0.00515303 0.25156 0.596 
0.0225887 0.251138 0.595 
0.0503219 0.251138 0.595 
1.77373 5.57484 13.208 
2.67899 6.25059 14.809 
3.81182 6.11173 14.48 
4.69527 6.39579 15.153 
3.318 3.92873 9.308 
4.25892 4.4597 10.566 
4.88362 4.5838 10.86 
34.6632 27.6611 65.535 
10.0387 7.11248 16.851 
7.84752 5.15656 12.217 
8.07022 4.91091 11.635 
7.367 4.06422 9.629 
7.17944 3.7333 8.845 
7.87667 3.87343 9.177 
10.975 5.09283 12.066 
11.3968 5.03078 11.919 
-0.500467 0.265195 0.626 
-0.470536 0.264771 0.625 
-0.437873 0.262653 0.62 
-0.408975 0.262653 0.62 
-0.378237 0.261382 0.617 
-0.348346 0.260535 0.615 
-0.318121 0.259264 0.612 
-0.288649 0.258417 0.61 
-0.26107 0.259264 0.612 
-0.231025 0.25757 0.608 
-0.201685 0.256299 0.605 
-0.17406 0.257146 0.607 
-0.144807 0.255452 0.603 
-0.115927 0.253757 0.599 
-0.0881539 0.254181 0.6 
-0.0599871 0.253333 0.598 
-0.0320605 0.25291 0.597 
-0.00422704 0.252486 0.596 
0.0235132 0.252062 0.595 
0.0512463 0.252062 0.595 
1.78582 5.63349 13.298 
2.67899 6.2736 14.809 
3.91147 6.36977 15.036 
4.75892 6.57226 15.514 
3.33678 4.00038 9.443 
4.22609 4.47612 10.566 
5.3808 4.89976 11.566 
8.79806 6.78747 16.022 
8.96369 6.13423 14.48 
9.14118 5.71102 13.481 
7.83503 4.42825 10.453 
7.62879 4.05926 9.582 
8.01178 4.01987 9.489 
10.1369 4.78664 11.299 
11.3175 5.08022 11.992 
8.49042 3.63182 8.573 
-0.478508 0.265317 0.624 
-0.446543 0.263617 0.62 
-0.418318 0.264042 0.621 
-0.389373 0.264042 0.621 
-0.357526 0.261916 0.616 
-0.326145 0.25979 0.611 
-0.296692 0.25894 0.609 
-0.269628 0.260215 0.612 
-0.23992 0.25894 0.609 
-0.209798 0.256814 0.604 
-0.182247 0.257664 0.606 
-0.153493 0.256814 0.604 
-0.124717 0.255538 0.601 
-0.0963829 0.254688 0.599 
-0.0684633 0.254688 0.599 
-0.040273 0.252987 0.595 
-0.012561 0.253412 0.596 
0.0151932 0.252987 0.595 
0.0427821 0.252137 0.593 
1.44371 5.0372 11.847 
2.35222 5.93648 13.962 
2.47974 4.83226 11.365 
4.62797 6.75709 15.892 
3.36912 4.2404 9.973 
3.9343 4.35137 10.234 
4.69802 4.61754 10.86 
34.1541 27.8647 65.535 
10.0387 7.16484 16.851 
8.04858 5.32761 12.53 
7.36405 4.44449 10.453 
6.97586 3.83009 9.008 
7.75163 3.97678 9.353 
7.77789 3.7778 8.885 
10.8648 4.97683 11.705 
9.97642 4.35137 10.234 
-0.489173 0.266287 0.624 
-0.459351 0.26586 0.623 
-0.428931 0.265007 0.621 
-0.399986 0.265007 0.621 
-0.367456 0.262446 0.615 
-0.33824 0.262019 0.614 
-0.307604 0.260312 0.61 
-0.279629 0.260739 0.611 
-0.250328 0.259886 0.609 
-0.220121 0.257752 0.604 
-0.193239 0.259459 0.608 
-0.164629 0.259032 0.607 
-0.135213 0.256899 0.602 
-0.106798 0.256045 0.6 
-0.0785691 0.255192 0.598 
-0.0506962 0.255192 0.598 
-0.0218209 0.254338 0.596 
0.00594887 0.253911 0.595 
0.0335122 0.252631 0.592 
0.0614151 0.253911 0.595 
2.04766 5.71364 13.389 
2.82658 6.0448 14.165 
4.37026 6.72716 15.764 
3.40324 4.48463 10.509 
3.85195 4.43726 10.398 
4.29073 4.39032 10.288 
5.09204 4.68648 10.982 
8.75137 6.78178 15.892 
9.36085 6.56841 15.392 
9.07835 5.7529 13.481 
7.60795 4.41379 10.343 
7.07869 3.86201 9.05 
7.71434 3.97211 9.308 
7.74288 3.77453 8.845 
10.7358 4.93569 11.566 
9.92476 4.34466 10.181 
-0.490142 0.267256 0.624 
-0.460319 0.266828 0.623 
-0.429896 0.265971 0.621 
-0.400951 0.265971 0.621 
-0.368411 0.263402 0.615 
-0.339194 0.262973 0.614 
-0.308046 0.260832 0.609 
-0.280579 0.261688 0.611 
-0.251275 0.260832 0.609 
-0.220693 0.258262 0.603 
-0.194184 0.260404 0.608 
-0.165572 0.259975 0.607 
-0.136149 0.257834 0.602 
-0.10773 0.256977 0.6 
-0.0794982 0.256121 0.598 
-0.0515389 0.255692 0.597 
-0.0218209 0.255264 0.596 
0.00594887 0.254836 0.595 
0.0335122 0.253551 0.592 
0.0613119 0.254407 0.594 
2.01998 5.65693 13.208 
2.82658 6.0668 14.165 
4.44179 6.86215 16.022 
3.33009 4.38317 10.234 
3.95218 4.55021 10.624 
4.32974 4.42986 10.343 
5.26125 4.81147 11.234 
8.25315 6.29466 14.697 
9.33472 6.5405 15.271 
8.73266 5.61881 13.119 
6.90757 4.14461 9.677 
6.88184 3.87607 9.05 
7.20359 3.82296 8.926 
8.06096 4.04439 9.443 
9.97673 4.73009 11.044 
11.1869 5.04361 11.776 
-0.504844 0.267796 0.623 
-0.475806 0.267796 0.623 
-0.443899 0.266077 0.619 
-0.416388 0.266936 0.621 
-0.385571 0.265647 0.618 
-0.354457 0.263927 0.614 
-0.323716 0.262208 0.61 
-0.294799 0.261778 0.609 
-0.266851 0.262208 0.61 
-0.237246 0.260918 0.607 
-0.207921 0.259629 0.604 
-0.180066 0.260059 0.605 
-0.151365 0.259199 0.603 
-0.122237 0.25705 0.598 
-0.0945216 0.25748 0.599 
-0.0664908 0.25705 0.598 
-0.0384241 0.25576 0.595 
-0.010691 0.25576 0.595 
0.0170421 0.25576 0.595 
0.0446247 0.254901 0.593 
1.42243 4.7739 11.106 
2.51079 6.17822 14.373 
4.30078 7.37062 17.147 
4.79696 6.72198 15.638 
3.61629 4.39908 10.234 
4.54567 4.88523 11.365 
4.79628 4.61658 10.74 
13.7044 11.2032 26.063 
10.4205 7.63842 17.77 
8.96676 6.08881 14.165 
9.03776 5.71613 13.298 
7.22193 4.26539 9.923 
6.4694 3.59096 8.354 
7.43021 3.89013 9.05 
7.70887 3.81921 8.885 
10.33 4.85686 11.299 
11.0478 4.9424 11.498 
-0.498868 0.269195 0.624 
-0.46903 0.268764 0.623 
-0.43646 0.266607 0.618 
-0.409634 0.267901 0.621 
-0.377011 0.265313 0.615 
-0.347213 0.26445 0.613 
-0.316562 0.262724 0.609 
-0.288649 0.263156 0.61 
-0.260217 0.263156 0.61 
-0.229885 0.260999 0.605 
-0.202019 0.26143 0.606 
-0.173486 0.260999 0.605 
-0.144567 0.259704 0.602 
-0.115927 0.25841 0.599 
-0.088007 0.25841 0.599 
-0.0598868 0.257547 0.597 
-0.0319531 0.256685 0.595 
-0.00422704 0.257116 0.596 
0.0235132 0.256685 0.595 
0.0511602 0.256253 0.594 
1.76559 5.30367 12.294 
2.75445 6.24671 14.48 
4.68595 7.33298 16.998 
3.3428 4.36925 10.128 
4.18325 4.79116 11.106 
4.47233 4.5582 10.566 
5.46713 5.01937 11.635 
8.495 6.69278 15.514 
10.0999 7.33298 16.998 
8.88328 5.98054 13.863 
7.06666 4.41498 10.234 
7.09772 4.15398 9.629 
6.87017 3.78168 8.766 
7.87909 4.09358 9.489 
7.75662 3.81576 8.845 
10.1998 4.76441 11.044 
10.1412 4.50945 10.453 
-0.493051 0.270165 0.624 
-0.462479 0.269299 0.622 
-0.431396 0.268 0.619 
-0.403845 0.268866 0.621 
-0.370674 0.265835 0.614 
-0.341499 0.265402 0.613 
-0.309864 0.262805 0.607 
-0.282963 0.264103 0.61 
-0.253696 0.263238 0.608 
-0.223133 0.26064 0.602 
-0.196694 0.262805 0.607 
-0.168124 0.262372 0.606 
-0.138724 0.260207 0.601 
-0.110527 0.259774 0.6 
-0.0822855 0.258908 0.598 
-0.0543216 0.258475 0.597 
-0.0264064 0.257609 0.595 
0.00132668 0.257609 0.595 
0.0289133 0.25631 0.592 
0.0565066 0.25631 0.592 
1.89213 5.35654 12.372 
2.74696 5.96008 13.766 
4.73243 7.11174 16.426 
3.49654 4.50188 10.398 
4.30128 4.86383 11.234 
4.71667 4.75473 10.982 
21.2893 19.2345 44.426 
8.25663 6.50993 15.036 
9.97188 7.17236 16.566 
8.56617 5.71849 13.208 
6.64069 4.10832 9.489 
7.01505 4.06892 9.398 
7.17711 3.91826 9.05 
8.04564 4.14859 9.582 
8.13331 3.97324 9.177 
10.5406 4.89197 11.299 
9.07402 4.01091 9.264 
-0.482581 0.2707 0.623 
-0.451359 0.269396 0.62 
-0.421779 0.268962 0.619 
-0.390388 0.267224 0.615 
-0.35937 0.265486 0.611 
-0.331433 0.26592 0.612 
-0.301423 0.264617 0.609 
-0.273037 0.264617 0.609 
-0.243446 0.263313 0.606 
-0.213425 0.261141 0.601 
-0.187263 0.263748 0.607 
-0.157923 0.26201 0.603 
-0.128525 0.259403 0.597 
-0.101036 0.260272 0.599 
-0.0728725 0.259403 0.597 
-0.0450461 0.259403 0.597 
-0.0171621 0.258534 0.595 
0.0105711 0.258534 0.595 
0.0380467 0.256795 0.591 
1.21534 4.33337 9.973 
2.3192 5.98147 13.766 
2.53282 5.11679 11.776 
4.79696 6.79487 15.638 
3.96439 4.85348 11.17 
4.81508 5.21065 11.992 
4.78698 4.64144 10.682 
9.40749 7.93807 18.269 
8.50922 6.58413 15.153 
9.03144 6.24521 14.373 
9.24743 5.93932 13.669 
6.92081 4.12307 9.489 
6.45444 3.61426 8.318 
7.5841 4.00618 9.22 
7.75831 3.87844 8.926 
10.114 4.79873 11.044 
10.6288 4.79873 11.044 
-0.495959 0.272104 0.624 
-0.46463 0.270796 0.621 
-0.43358 0.269487 0.618 
-0.40674 0.270796 0.621 
-0.373536 0.267743 0.614 
-0.344356 0.267307 0.613 
-0.313208 0.265127 0.608 
-0.286274 0.266435 0.611 
-0.25653 0.265127 0.608 
-0.225939 0.26251 0.602 
-0.199523 0.264691 0.607 
-0.170666 0.263819 0.605 
-0.14129 0.261638 0.6 
-0.113135 0.261202 0.599 
-0.0850728 0.260766 0.598 
-0.0570085 0.259894 0.596 
-0.0291798 0.259458 0.595 
-0.00144663 0.259458 0.595 
0.026154 0.25815 0.592 
0.0537473 0.25815 0.592 
1.74326 5.0736 11.635 
2.68513 5.96056 13.669 
4.87082 7.41221 16.998 
3.50121 4.58259 10.509 
4.44524 5.10413 11.705 
4.78999 4.89874 11.234 
6.60394 6.08832 13.962 
7.37855 5.96056 13.669 
9.48617 6.81917 15.638 
8.40041 5.60778 12.86 
6.63541 4.09813 9.398 
6.59778 3.82254 8.766 
7.13425 3.89231 8.926 
8.14494 4.19886 9.629 
8.59375 4.19886 9.629 
10.6109 4.92708 11.299 
8.64071 3.82254 8.766 
-0.478137 0.27176 0.621 
-0.447022 0.270448 0.618 
-0.418894 0.270885 0.619 
-0.386261 0.268259 0.613 
-0.355939 0.266947 0.61 
-0.328043 0.267384 0.611 
-0.299074 0.266947 0.61 
-0.269311 0.265634 0.607 
-0.239827 0.264321 0.604 
-0.210974 0.263446 0.602 
-0.18413 0.265196 0.606 
-0.154598 0.263008 0.601 
-0.125532 0.26082 0.596 
-0.0982442 0.262133 0.599 
-0.0700898 0.261258 0.597 
-0.0421927 0.26082 0.596 
-0.0143888 0.260382 0.595 
0.0133444 0.260382 0.595 
0.0408013 0.258632 0.591 
1.29484 4.47858 10.234 
2.47028 6.24393 14.268 
3.8064 6.48068 14.809 
4.83561 6.8986 15.764 
4.13609 5.12231 11.705 
4.88644 5.34637 12.217 
4.84987 4.75253 10.86 
29.3057 25.9218 59.234 
21.7518 16.4505 37.591 
9.12117 6.3367 14.48 
9.058 5.85926 13.389 
6.92081 4.15255 9.489 
6.45444 3.6401 8.318 
7.47881 3.97882 9.092 
7.82958 3.94206 9.008 
10.114 4.83305 11.044 
10.4517 4.75253 10.86 
-0.493051 0.274043 0.624 
-0.460992 0.272286 0.62 
-0.430003 0.270969 0.617 
-0.402545 0.271847 0.619 
-0.370071 0.269212 0.613 
-0.341499 0.269212 0.613 
-0.309864 0.266577 0.607 
-0.282963 0.267894 0.61 
-0.253279 0.266577 0.607 
-0.222762 0.263942 0.601 
-0.196694 0.266577 0.607 
-0.167569 0.265259 0.604 
-0.138031 0.262624 0.598 
-0.110343 0.263064 0.599 
-0.0824231 0.263064 0.599 
-0.0541396 0.261307 0.595 
-0.0263621 0.260868 0.594 
0.00132668 0.261307 0.595 
0.0288156 0.259111 0.59 
0.0562202 0.258672 0.589 
1.63888 4.90554 11.17 
2.66141 6.04563 13.766 
5.47976 8.58448 19.547 
3.62797 4.85021 11.044 
4.47096 5.23448 11.919 
4.9662 5.17168 11.776 
5.23128 4.90554 11.17 
8.31994 6.86776 15.638 
8.89455 6.40663 14.588 
8.66877 5.80057 13.208 
6.81347 4.22878 9.629 
6.41002 3.73252 8.499 
7.08325 3.88447 8.845 
8.12007 4.20814 9.582 
8.78216 4.31398 9.823 
10.7526 5.02017 11.431 
8.85277 3.93805 8.967 
-0.464095 0.272809 0.619 
-0.433134 0.271486 0.616 
-0.407048 0.273249 0.62 
-0.37388 0.270164 0.613 
-0.344745 0.269724 0.612 
-0.314153 0.267961 0.608 
-0.287224 0.269283 0.611 
-0.257051 0.26752 0.607 
-0.226497 0.264876 0.601 
-0.199806 0.266639 0.605 
-0.171323 0.266198 0.604 
-0.141748 0.263553 0.598 
-0.114065 0.263994 0.599 
-0.0858581 0.263113 0.597 
-0.0578373 0.262231 0.595 
-0.0300536 0.261791 0.594 
-0.00237107 0.262231 0.595 
0.0251916 0.260468 0.591 
0.052649 0.260028 0.59 
1.51747 4.75983 10.8 
2.68944 6.33454 14.373 
4.98947 7.97668 18.099 
4.20005 5.74353 13.032 
4.45112 5.31779 12.066 
5.04468 5.35084 12.141 
4.93634 4.70782 10.682 
8.15755 6.8374 15.514 
9.67861 7.17897 16.289 
9.34786 6.42929 14.588 
7.60882 4.86736 11.044 
6.94594 4.16176 9.443 
6.85655 3.86339 8.766 
7.87024 4.16176 9.443 
7.7841 3.89821 8.845 
10.5316 5.00884 11.365 
9.80674 4.44074 10.076 
-0.469865 0.27377 0.619 
-0.438164 0.272001 0.615 
-0.411496 0.273328 0.618 
-0.379595 0.271117 0.613 
-0.349877 0.270232 0.611 
-0.320872 0.26979 0.61 
-0.293399 0.270674 0.612 
-0.262709 0.268463 0.607 
-0.2321 0.265809 0.601 
-0.204766 0.266694 0.603 
-0.177246 0.267578 0.605 
-0.147569 0.264925 0.599 
-0.11925 0.26404 0.597 
-0.0914233 0.26404 0.597 
-0.0632774 0.262713 0.594 
-0.0356508 0.263156 0.595 
-0.00790439 0.262713 0.594 
0.0197155 0.261829 0.592 
0.047149 0.260944 0.59 
1.41791 4.72442 10.682 
2.63589 6.50017 14.697 
3.82252 6.31043 14.268 
4.87944 6.86151 15.514 
4.49642 5.50681 12.451 
4.98135 5.40332 12.217 
4.82701 4.69877 10.624 
8.0619 6.70185 15.153 
9.67428 7.14501 16.155 
9.41585 6.45196 14.588 
7.51579 4.80314 10.86 
6.9088 4.13663 9.353 
7.00943 3.94778 8.926 
7.96755 4.19678 9.489 
8.02076 4.00262 9.05 
10.8541 5.14591 11.635 
9.57356 4.32283 9.774 
-0.460465 0.274288 0.618 
-0.430263 0.273401 0.616 
-0.402203 0.273844 0.617 
-0.370418 0.271625 0.612 
-0.341892 0.271625 0.612 
-0.311319 0.26985 0.608 
-0.28298 0.26985 0.608 
-0.253384 0.268518 0.605 
-0.223324 0.266299 0.6 
-0.196986 0.268518 0.605 
-0.167949 0.267187 0.602 
-0.138961 0.265412 0.598 
-0.111273 0.265855 0.599 
-0.0833538 0.265855 0.599 
-0.0549715 0.263636 0.594 
-0.0271931 0.262749 0.592 
0.000402241 0.26408 0.595 
0.0278516 0.261417 0.589 
0.0552112 0.260973 0.588 
1.63888 4.9576 11.17 
2.64265 6.06674 13.669 
4.93675 7.81588 17.61 
4.045 5.49109 12.372 
4.53537 5.38857 12.141 
5.10127 5.38857 12.141 
5.15511 4.90168 11.044 
8.02654 6.3792 14.373 
8.5602 6.15285 13.863 
8.95268 5.9833 13.481 
7.55054 4.71527 10.624 
6.29936 3.6918 8.318 
7.20881 3.97984 8.967 
8.1395 4.23194 9.535 
9.83078 4.84665 10.92 
11.3548 5.32244 11.992 
9.58113 4.27366 9.629 
-0.452051 0.274803 0.617 
-0.422606 0.274358 0.616 
-0.390697 0.272131 0.611 
-0.361625 0.271685 0.61 
-0.333739 0.272131 0.611 
-0.303262 0.270349 0.607 
-0.273611 0.269013 0.604 
-0.244645 0.268122 0.602 
-0.215866 0.267231 0.6 
-0.189153 0.269013 0.604 
-0.159667 0.266786 0.599 
-0.131088 0.26545 0.596 
-0.103828 0.266786 0.599 
-0.0759085 0.266786 0.599 
-0.0476685 0.265005 0.595 
-0.0198349 0.263668 0.592 
0.00775842 0.263668 0.592 
0.0351129 0.261887 0.588 
0.0625197 0.261887 0.588 
1.87128 5.34107 11.992 
2.73198 6.00425 13.481 
4.67946 7.19521 16.155 
4.10821 5.44128 12.217 
4.67765 5.44128 12.217 
5.08818 5.27649 11.847 
6.33119 5.92274 13.298 
8.19194 6.49729 14.588 
8.85462 6.35476 14.268 
8.81242 5.88266 13.208 
7.72597 4.81017 10.8 
6.42042 3.75282 8.426 
7.35168 4.04945 9.092 
8.15431 4.24675 9.535 
9.90366 4.89123 10.982 
11.3734 5.34107 11.992 
-0.482549 0.276209 0.618 
-0.453009 0.275762 0.617 
-0.422876 0.274868 0.615 
-0.391646 0.27308 0.611 
-0.362573 0.272633 0.61 
-0.334689 0.27308 0.611 
-0.304205 0.271292 0.607 
-0.274094 0.269505 0.603 
-0.245172 0.268611 0.601 
-0.216798 0.268164 0.6 
-0.189776 0.269505 0.603 
-0.160598 0.267717 0.599 
-0.132235 0.266823 0.597 
-0.104759 0.267717 0.599 
-0.0768392 0.267717 0.599 
-0.0485113 0.265482 0.594 
-0.0207546 0.264588 0.592 
0.00683865 0.264588 0.592 
0.0341411 0.262353 0.587 
0.0615014 0.262353 0.587 
1.77941 5.20014 11.635 
2.7276 6.10922 13.669 
4.70456 7.22031 16.155 
4.23293 5.60015 12.53 
4.72623 5.49467 12.294 
5.10658 5.29489 11.847 
6.18324 5.78563 12.945 
9.45974 7.46702 16.707 
9.16652 6.56867 14.697 
8.67717 5.78563 12.945 
7.91768 4.936 11.044 
6.461 3.782 8.462 
7.43467 4.10156 9.177 
8.09031 4.22045 9.443 
9.93779 4.90829 10.982 
11.2727 5.29489 11.847 
-0.480809 0.27672 0.617 
-0.451318 0.276272 0.616 
-0.42192 0.275823 0.615 
-0.390697 0.274029 0.611 
-0.361033 0.273132 0.609 
-0.333739 0.274029 0.611 
-0.302762 0.271787 0.606 
-0.272705 0.269993 0.602 
-0.243832 0.269096 0.6 
-0.215866 0.269096 0.6 
-0.188839 0.270441 0.603 
-0.159401 0.268199 0.598 
-0.131088 0.267302 0.596 
-0.103655 0.268199 0.598 
-0.0757818 0.268199 0.598 
-0.0475884 0.266405 0.594 
-0.0198349 0.265508 0.592 
0.00775842 0.265508 0.592 
0.0350531 0.263265 0.587 
0.0624134 0.263265 0.587 
2.16363 5.9237 13.208 
2.81735 6.00488 13.389 
4.89542 7.30551 16.289 
4.32231 5.58419 12.451 
4.75106 5.41152 12.066 
4.91889 5.00967 11.17 
7.94992 6.90321 15.392 
38.1251 29.392 65.535 
9.30353 6.5915 14.697 
8.68299 5.72995 12.776 
7.55148 4.66343 10.398 
7.02244 4.05886 9.05 
7.65649 4.17457 9.308 
8.01385 4.13511 9.22 
10.114 4.95316 11.044 
10.8742 5.06752 11.299 
-0.474473 0.276779 0.615 
-0.445808 0.276779 0.615 
-0.417143 0.276779 0.615 
-0.385951 0.274979 0.611 
-0.355716 0.273629 0.608 
-0.328454 0.274529 0.61 
-0.298055 0.272728 0.606 
-0.268473 0.271378 0.603 
-0.239171 0.270028 0.6 
-0.211557 0.270478 0.601 
-0.184155 0.271378 0.603 
-0.155014 0.269578 0.599 
-0.126246 0.267778 0.595 
-0.0990093 0.269128 0.598 
-0.0707795 0.267778 0.595 
-0.042974 0.267328 0.594 
-0.015236 0.266428 0.592 
0.0123364 0.265978 0.591 
0.0396807 0.264628 0.588 
1.32197 5.14449 11.431 
2.73884 6.87267 15.271 
3.76223 6.28355 13.962 
4.86499 6.92712 15.392 
4.54441 5.63909 12.53 
4.90824 5.39696 11.992 
4.95111 4.88751 10.86 
7.81277 6.7669 15.036 
30.9807 23.7764 52.831 
9.3492 6.61434 14.697 
8.66602 5.71244 12.693 
7.96451 4.91451 10.92 
7.61422 4.3551 9.677 
8.14611 4.39876 9.774 
7.89147 4.03557 8.967 
10.6548 5.17464 11.498 
10.3401 4.7813 10.624 
-0.468932 0.277283 0.614 
-0.440313 0.277283 0.614 
-0.411694 0.277283 0.614 
-0.381204 0.275928 0.611 
-0.350993 0.274573 0.608 
-0.323716 0.275476 0.61 
-0.292863 0.273218 0.605 
-0.264226 0.272767 0.604 
-0.23451 0.27096 0.6 
-0.206888 0.271412 0.601 
-0.179173 0.271864 0.602 
-0.15011 0.270057 0.598 
-0.121419 0.268251 0.594 
-0.0943638 0.270057 0.598 
-0.0658237 0.267348 0.592 
-0.038295 0.267799 0.593 
-0.0106371 0.267348 0.592 
0.0168703 0.265993 0.589 
0.0442485 0.265541 0.588 
1.42959 5.10263 11.299 
2.76253 6.35086 14.063 
4.54171 7.11903 15.764 
4.30445 5.80758 12.86 
4.77802 5.65856 12.53 
5.29444 5.5872 12.372 
5.62196 5.35011 11.847 
7.77363 6.63717 14.697 
9.48912 7.11903 15.764 
9.60451 6.68775 14.809 
8.44005 5.48288 12.141 
6.63864 3.95873 8.766 
7.70323 4.32724 9.582 
8.14985 4.32724 9.582 
8.7839 4.41394 9.774 
11.3362 5.41559 11.992 
9.50459 4.32724 9.582 
-0.457274 0.27869 0.615 
-0.427215 0.277784 0.613 
-0.397992 0.27733 0.612 
-0.36826 0.276424 0.61 
-0.339827 0.276424 0.61 
-0.309864 0.275065 0.607 
-0.279252 0.272799 0.602 
-0.250358 0.271893 0.6 
-0.222021 0.271439 0.599 
-0.194749 0.272346 0.601 
-0.165627 0.270533 0.597 
-0.138031 0.270986 0.598 
-0.10979 0.27008 0.596 
-0.0792323 0.27008 0.596 
-0.0510209 0.267814 0.591 
-0.0234743 0.267814 0.591 
0.00406554 0.267361 0.59 
0.0314051 0.266002 0.587 
0.0587654 0.266002 0.587 
2.52568 6.61061 14.588 
3.63207 6.32694 13.962 
4.95555 7.32071 16.155 
4.48521 5.75189 12.693 
4.82605 5.46776 12.066 
4.93204 5.00464 11.044 
12.3599 11.3565 25.061 
8.40268 6.76197 14.922 
9.45093 6.86665 15.153 
8.85346 5.98526 13.208 
8.92638 5.64222 12.451 
7.47992 4.34212 9.582 
8.04483 4.40692 9.725 
8.01925 4.1586 9.177 
10.2571 5.03273 11.106 
10.1737 4.73682 10.453 
-0.462254 0.279191 0.614 
-0.432929 0.278736 0.613 
-0.403038 0.277827 0.611 
-0.373946 0.277372 0.61 
-0.344947 0.276917 0.609 
-0.316042 0.276462 0.608 
-0.285337 0.274189 0.603 
-0.256378 0.273279 0.601 
-0.227985 0.272825 0.6 
-0.199685 0.27237 0.599 
-0.171766 0.27237 0.599 
-0.143606 0.271915 0.598 
-0.115152 0.270551 0.595 
-0.0866403 0.271006 0.596 
-0.058268 0.268278 0.59 
-0.0307679 0.268278 0.59 
-0.00327335 0.268732 0.591 
0.024068 0.266459 0.586 
0.0513816 0.266459 0.586 
1.65461 5.35464 11.776 
2.91806 6.25951 13.766 
4.87012 7.40674 16.289 
4.3866 5.77161 12.693 
4.76173 5.52061 12.141 
5.10559 5.29053 11.635 
6.54399 6.12992 13.481 
5.39894 4.5348 9.973 
8.91722 6.63328 14.588 
9.45573 6.53552 14.373 
8.88434 5.73432 12.611 
6.8359 4.09601 9.008 
7.79463 4.40021 9.677 
8.04629 4.29381 9.443 
8.77009 4.42203 9.725 
10.8947 5.19777 11.431 
-0.483073 0.280601 0.615 
-0.453669 0.280145 0.614 
-0.423665 0.279232 0.612 
-0.394494 0.278776 0.611 
-0.364218 0.277407 0.608 
-0.336432 0.277863 0.609 
-0.307034 0.276951 0.607 
-0.275987 0.274213 0.601 
-0.246736 0.272844 0.598 
-0.219595 0.273757 0.6 
-0.191948 0.274213 0.601 
-0.162572 0.271932 0.596 
-0.135018 0.272388 0.597 
-0.106473 0.270563 0.593 
-0.0789665 0.271019 0.594 
-0.0510209 0.269651 0.591 
-0.0234345 0.269194 0.59 
0.00405865 0.268738 0.589 
0.0314586 0.268282 0.588 
0.0586652 0.267369 0.586 
2.48035 6.65594 14.588 
3.38777 7.13502 15.638 
4.92073 7.43204 16.289 
4.39745 5.75391 12.611 
4.76981 5.50525 12.066 
5.02242 5.18541 11.365 
8.55344 7.96313 17.453 
8.53276 6.91373 15.153 
9.70019 7.07844 15.514 
8.99559 6.10889 13.389 
8.94573 5.68091 12.451 
6.9662 4.12917 9.05 
7.7464 4.32947 9.489 
7.95655 4.20673 9.22 
9.30861 4.66938 10.234 
10.804 5.1553 11.299 
-0.483073 0.281556 0.615 
-0.453669 0.281099 0.614 
-0.423665 0.280183 0.612 
-0.393849 0.279267 0.61 
-0.364218 0.278352 0.608 
-0.336432 0.278809 0.609 
-0.306528 0.277436 0.606 
-0.275987 0.275147 0.601 
-0.246736 0.273774 0.598 
-0.219595 0.274689 0.6 
-0.191948 0.275147 0.601 
-0.162299 0.2724 0.595 
-0.135018 0.273316 0.597 
-0.106294 0.271027 0.592 
-0.0788335 0.271484 0.593 
-0.0510209 0.270569 0.591 
-0.0234345 0.270111 0.59 
0.00405865 0.269653 0.589 
0.0314586 0.269195 0.588 
0.0586652 0.26828 0.586 
2.03375 6.08803 13.298 
2.76631 6.34669 13.863 
4.41062 7.04669 15.392 
4.37076 6.00608 13.119 
4.78932 5.77351 12.611 
5.44747 5.84905 12.776 
5.47065 5.29509 11.566 
8.63963 7.10255 15.514 
9.881 7.217 15.764 
9.14165 6.21484 13.575 
8.92741 5.66409 12.372 
7.04505 4.18168 9.134 
7.76115 4.34421 9.489 
7.9337 4.20137 9.177 
9.32451 4.68528 10.234 
10.7593 5.1431 11.234 
-0.483073 0.282512 0.615 
-0.453669 0.282053 0.614 
-0.422973 0.280674 0.611 
-0.393849 0.280215 0.61 
-0.364218 0.279296 0.608 
-0.336432 0.279756 0.609 
-0.306528 0.278378 0.606 
-0.275987 0.276081 0.601 
-0.246323 0.274243 0.597 
-0.219595 0.275621 0.6 
-0.191629 0.275621 0.6 
-0.162299 0.273325 0.595 
-0.135018 0.274243 0.597 
-0.106114 0.271487 0.591 
-0.0787006 0.271946 0.592 
-0.0510209 0.271487 0.591 
-0.0234345 0.271028 0.59 
0.00405865 0.270568 0.589 
0.0314586 0.270109 0.588 
0.0585651 0.268731 0.585 
2.03375 6.10869 13.298 
2.74696 6.32367 13.766 
4.26188 6.90707 15.036 
4.4805 6.23593 13.575 
4.68987 5.7196 12.451 
5.44333 5.90748 12.86 
5.34026 5.22073 11.365 
7.40656 6.41371 13.962 
9.45335 7.01502 15.271 
9.2938 6.41371 13.962 
8.92462 5.75589 12.53 
6.98829 4.19588 9.134 
7.77766 4.40167 9.582 
7.87667 4.21563 9.177 
8.75687 4.44531 9.677 
10.7688 5.19041 11.299 
-0.488644 0.283928 0.616 
-0.458438 0.283006 0.614 
-0.42772 0.281624 0.611 
-0.397934 0.280702 0.609 
-0.368335 0.27978 0.607 
-0.340602 0.280241 0.608 
-0.311236 0.279319 0.606 
-0.280655 0.277014 0.601 
-0.251381 0.275632 0.598 
-0.224256 0.276554 0.6 
-0.195308 0.275171 0.597 
-0.16664 0.273788 0.594 
-0.139656 0.275171 0.597 
-0.11108 0.273327 0.593 
-0.0832994 0.272866 0.592 
-0.055518 0.271944 0.59 
-0.0279704 0.271483 0.589 
-0.000516931 0.271483 0.589 
0.0268451 0.270562 0.587 
0.0539283 0.269179 0.584 
1.78469 5.66658 12.294 
2.65862 6.38977 13.863 
3.88902 6.57644 14.268 
4.83653 6.98436 15.153 
4.46886 5.63109 12.217 
5.10222 5.70253 12.372 
5.12715 5.14851 11.17 
7.39154 6.57644 14.268 
9.50736 7.15075 15.514 
9.47806 6.62484 14.373 
8.68012 5.66658 12.294 
7.29848 4.46035 9.677 
7.94653 4.57373 9.923 
8.00228 4.35249 9.443 
7.9802 4.1142 8.926 
10.7593 5.178 11.234 
-0.483073 0.284423 0.615 
-0.453669 0.28396 0.614 
-0.422281 0.282111 0.61 
-0.393849 0.282111 0.61 
-0.363619 0.280723 0.607 
-0.335879 0.281186 0.608 
-0.306023 0.279798 0.605 
-0.275527 0.277486 0.6 
-0.246323 0.276098 0.597 
-0.219961 0.277948 0.601 
-0.190671 0.276098 0.597 
-0.162026 0.274711 0.594 
-0.134792 0.275636 0.596 
-0.105935 0.272861 0.59 
-0.0785676 0.273323 0.591 
-0.0510209 0.273323 0.591 
-0.0233948 0.272399 0.589 
0.00405176 0.271936 0.588 
0.0314051 0.271474 0.587 
0.0585651 0.270549 0.585 
2.03375 6.15001 13.298 
2.70885 6.27812 13.575 
4.12851 6.84881 14.809 
4.64273 6.59861 14.268 
4.54478 5.65007 12.217 
5.31348 5.87021 12.693 
5.13795 5.10759 11.044 
7.35089 6.5038 14.063 
9.80202 7.2322 15.638 
9.33559 6.41131 13.863 
9.02195 5.79483 12.53 
7.05924 4.22426 9.134 
7.77589 4.38844 9.489 
7.73058 4.12806 8.926 
9.73835 4.86016 10.509 
8.38049 3.91347 8.462 
-0.465116 0.284914 0.614 
-0.434365 0.283522 0.611 
-0.402564 0.281202 0.606 
-0.374936 0.281666 0.607 
-0.346073 0.281202 0.606 
-0.316778 0.280274 0.604 
-0.28767 0.279346 0.602 
-0.257454 0.277026 0.597 
-0.230012 0.27749 0.598 
-0.201801 0.277026 0.597 
-0.173392 0.276098 0.595 
-0.145414 0.275634 0.594 
-0.118124 0.276562 0.596 
-0.0897379 0.274706 0.592 
-0.061018 0.273778 0.59 
-0.0334611 0.273314 0.589 
-0.00600762 0.273314 0.589 
0.0213366 0.271922 0.586 
0.0486502 0.271922 0.586 
1.58057 5.39899 11.635 
2.47684 6.29921 13.575 
3.84025 6.76927 14.588 
4.84555 7.2565 15.638 
4.46654 5.8143 12.53 
4.95544 5.70478 12.294 
5.11071 5.2737 11.365 
7.86831 7.19896 15.514 
10.2847 7.88758 16.998 
9.50651 6.76927 14.588 
8.58461 5.70478 12.294 
7.27724 4.46814 9.629 
7.88171 4.55817 9.823 
7.97875 4.36095 9.398 
8.03079 4.16096 8.967 
10.6712 5.15352 11.106 
-0.480206 0.286334 0.615 
-0.450073 0.285403 0.613 
-0.41875 0.28354 0.609 
-0.390364 0.28354 0.609 
-0.359601 0.281678 0.605 
-0.332497 0.282609 0.607 
-0.302702 0.281213 0.604 
-0.271822 0.278419 0.598 
-0.243133 0.277488 0.596 
-0.216798 0.27935 0.6 
-0.187573 0.277488 0.596 
-0.159257 0.276557 0.594 
-0.131792 0.277022 0.595 
-0.10301 0.274229 0.589 
-0.0755564 0.274229 0.589 
-0.0482663 0.27516 0.591 
-0.0206495 0.274229 0.589 
0.00676934 0.272832 0.586 
0.0341411 0.273298 0.587 
0.0613966 0.272832 0.586 
2.11829 6.3203 13.575 
2.75103 6.3203 13.575 
4.22442 7.05499 15.153 
4.67689 6.69183 14.373 
4.57343 5.72389 12.294 
5.31348 5.90965 12.693 
5.1091 5.11304 10.982 
9.54825 7.10993 15.271 
9.72859 6.74165 14.48 
8.74868 5.54929 11.919 
7.33628 4.37556 9.398 
7.8496 4.41792 9.489 
7.76409 4.13671 8.885 
9.84491 4.94636 10.624 
9.48023 4.5278 9.725 
-0.468932 0.286822 0.614 
-0.438162 0.285421 0.611 
-0.40633 0.283085 0.606 
-0.379332 0.284019 0.608 
-0.349261 0.282618 0.605 
-0.320001 0.281684 0.603 
-0.291411 0.281217 0.602 
-0.261164 0.278881 0.597 
-0.233338 0.278881 0.597 
-0.205511 0.278881 0.597 
-0.17709 0.277947 0.595 
-0.148855 0.277012 0.593 
-0.121624 0.277947 0.595 
-0.0932592 0.276078 0.591 
-0.0656013 0.275611 0.59 
-0.0381012 0.275611 0.59 
-0.0105652 0.274677 0.588 
0.0167843 0.273742 0.586 
0.0442485 0.274677 0.588 
1.51731 5.81633 12.451 
2.40377 6.66511 14.268 
3.18517 6.91784 14.809 
4.66582 7.48447 16.022 
4.23293 5.85323 12.53 
4.8481 5.89107 12.611 
5.4359 5.89107 12.611 
5.52456 5.40291 11.566 
9.3492 6.86552 14.697 
9.46483 6.47592 13.863 
7.40693 4.6354 9.923 
7.79014 4.58869 9.823 
7.92892 4.41118 9.443 
7.87452 4.15051 8.885 
9.36678 4.68258 10.024 
9.04524 4.30701 9.22 
-0.470651 0.288245 0.615 
-0.438392 0.285901 0.61 
-0.407272 0.284027 0.606 
-0.380277 0.284964 0.608 
-0.349623 0.283089 0.604 
-0.320938 0.282621 0.603 
-0.292346 0.282152 0.602 
-0.262092 0.279808 0.597 
-0.234265 0.279808 0.597 
-0.206439 0.279808 0.597 
-0.178014 0.278871 0.595 
-0.149523 0.277465 0.592 
-0.122548 0.278871 0.595 
-0.0940181 0.276528 0.59 
-0.066518 0.276528 0.59 
-0.0390179 0.276528 0.59 
-0.0114788 0.27559 0.588 
0.0158739 0.274653 0.586 
0.0432612 0.275122 0.587 
1.49797 5.83567 12.451 
2.38161 6.68728 14.268 
3.02465 6.63901 14.165 
4.83005 7.5717 16.155 
4.24871 5.76209 12.294 
4.82174 5.76209 12.294 
5.10559 5.45322 11.635 
10.2055 7.96681 16.998 
9.29941 6.7365 14.373 
8.80406 5.94909 12.693 
7.2922 4.51303 9.629 
7.85758 4.58099 9.774 
7.95507 4.38367 9.353 
8.11918 4.24165 9.05 
9.22429 4.58099 9.774 
9.21835 4.36258 9.308 
-0.464918 0.2892 0.615 
-0.432706 0.286849 0.61 
-0.401623 0.284968 0.606 
-0.373993 0.285439 0.607 
-0.344562 0.284498 0.605 
-0.314794 0.283087 0.602 
-0.285782 0.282147 0.6 
-0.256526 0.280736 0.597 
-0.2287 0.280736 0.597 
-0.200537 0.280266 0.596 
-0.171888 0.278855 0.593 
-0.144005 0.278385 0.592 
-0.116608 0.278855 0.593 
-0.088218 0.276504 0.588 
-0.061018 0.277444 0.59 
-0.0334043 0.276504 0.588 
-0.00599742 0.276504 0.588 
0.0222471 0.275563 0.586 
0.0494761 0.275093 0.585 
1.61279 5.78119 12.294 
2.48238 6.56556 13.962 
4.20986 7.18111 15.271 
4.84591 7.0706 15.036 
4.50682 5.74498 12.217 
5.14066 5.81787 12.372 
5.10363 5.19338 11.044 
9.38217 7.18111 15.271 
9.71455 6.91119 14.697 
9.34597 6.21099 13.208 
7.23407 4.41936 9.398 
7.86069 4.52799 9.629 
7.59842 4.1405 8.805 
8.85483 4.41936 9.398 
9.67986 4.59617 9.774 
-0.464918 0.290156 0.615 
-0.431997 0.287325 0.609 
-0.401623 0.28591 0.606 
-0.373993 0.286382 0.607 
-0.343992 0.284966 0.604 
-0.314794 0.284023 0.602 
-0.285782 0.283079 0.6 
-0.256097 0.281192 0.596 
-0.2287 0.281664 0.597 
-0.200537 0.281192 0.596 
-0.172178 0.280248 0.594 
-0.144005 0.279305 0.592 
-0.110518 0.278361 0.59 
-0.0828773 0.277889 0.589 
-0.055518 0.278361 0.59 
-0.0278279 0.276474 0.586 
-0.000514298 0.276474 0.586 
0.0295307 0.276474 0.586 
0.0566503 0.27553 0.584 
1.75454 5.76396 12.217 
2.61863 6.49478 13.766 
4.55389 7.49782 15.892 
4.40041 6.23151 13.208 
4.78932 5.94985 12.611 
5.44747 6.0277 12.776 
5.47065 5.45682 11.566 
8.26627 6.83164 14.48 
9.12076 6.78116 14.373 
9.79069 6.78116 14.373 
7.74534 4.90576 10.398 
7.58413 4.52077 9.582 
7.9528 4.47689 9.489 
7.82533 4.17306 8.845 
9.33563 4.72931 10.024 
9.91187 4.72931 10.024 
-0.465874 0.291111 0.615 
-0.432943 0.288271 0.609 
-0.402564 0.286851 0.606 
-0.374936 0.287325 0.607 
-0.34493 0.285905 0.604 
-0.315729 0.284958 0.602 
-0.286714 0.284011 0.6 
-0.257023 0.282118 0.596 
-0.229628 0.282591 0.597 
-0.201463 0.282118 0.596 
-0.173101 0.281171 0.594 
-0.14468 0.279751 0.591 
-0.108501 0.278804 0.589 
-0.0811847 0.279278 0.59 
-0.0536846 0.279278 0.59 
-0.0259626 0.276911 0.585 
0.00130438 0.276911 0.585 
0.0285714 0.276911 0.585 
0.055743 0.276438 0.584 
1.74649 5.81939 12.294 
2.65328 6.65675 14.063 
4.05992 7.34358 15.514 
4.8601 7.46192 15.764 
4.391 5.85631 12.372 
4.81508 5.67644 11.992 
5.06348 5.3484 11.299 
7.91115 7.22856 15.271 
10.0308 7.90829 16.707 
9.23147 6.75379 14.268 
8.9199 6.08731 12.86 
7.58371 4.72074 9.973 
7.88795 4.62654 9.774 
7.94572 4.40596 9.308 
8.22293 4.3236 9.134 
12.2355 6.00826 12.693 
-0.476384 0.292067 0.615 
-0.444807 0.290167 0.611 
-0.413603 0.288268 0.607 
-0.385945 0.288743 0.608 
-0.354077 0.285893 0.602 
-0.326559 0.286368 0.603 
-0.297463 0.285418 0.601 
-0.267209 0.283044 0.596 
-0.239027 0.282569 0.595 
-0.212359 0.283994 0.598 
-0.182944 0.281619 0.593 
-0.15478 0.280669 0.591 
-0.124689 0.281144 0.592 
-0.0966041 0.279719 0.589 
-0.0690332 0.279245 0.588 
-0.0416971 0.279719 0.589 
-0.0141469 0.27782 0.585 
0.0131201 0.27782 0.585 
0.0404562 0.278295 0.586 
1.38685 5.69507 11.992 
2.23365 6.53755 13.766 
2.89555 6.58362 13.863 
4.1965 7.8008 16.426 
4.88025 7.6721 16.155 
4.23356 5.76583 12.141 
4.7117 5.6604 11.919 
5.02242 5.3973 11.365 
7.94992 7.30975 15.392 
9.77984 7.73574 16.289 
9.23147 6.77595 14.268 
8.86164 6.0674 12.776 
7.69442 4.83501 10.181 
7.84239 4.64173 9.774 
8.01695 4.48453 9.443 
7.95735 4.21954 8.885 
11.5264 5.6604 11.919 
-0.473518 0.293023 0.615 
-0.441236 0.29064 0.61 
-0.410773 0.289211 0.607 
-0.383111 0.289687 0.608 
-0.351271 0.286829 0.602 
-0.323211 0.286829 0.602 
-0.294171 0.285876 0.6 
-0.263987 0.283493 0.595 
-0.236254 0.283493 0.595 
-0.209222 0.284446 0.597 
-0.180484 0.283017 0.594 
-0.152025 0.281587 0.591 
-0.124479 0.281587 0.591 
-0.0966041 0.280635 0.589 
-0.0690332 0.280158 0.588 
-0.0416263 0.280158 0.588 
-0.0141469 0.278729 0.585 
0.0131201 0.278729 0.585 
0.0403871 0.278729 0.585 
1.38685 5.7137 11.992 
2.23365 6.55894 13.766 
2.89555 6.60516 13.863 
4.26829 7.96021 16.707 
4.88025 7.6972 16.155 
4.23356 5.78469 12.141 
4.7117 5.67892 11.919 
5.11125 5.51073 11.566 
7.77363 7.00252 14.697 
9.72448 7.6972 16.155 
9.32174 6.84815 14.373 
8.76678 6.00863 12.611 
7.99008 5.08954 10.682 
7.65125 4.58783 9.629 
7.98229 4.52112 9.489 
7.64506 4.10279 8.611 
9.1025 4.63357 9.725 
-0.481162 0.293978 0.615 
-0.449553 0.292066 0.611 
-0.419696 0.29111 0.609 
-0.390668 0.290632 0.608 
-0.358157 0.287286 0.601 
-0.331243 0.288242 0.603 
-0.302132 0.287286 0.601 
-0.271838 0.284896 0.596 
-0.243649 0.284418 0.595 
-0.217005 0.285852 0.598 
-0.18755 0.283462 0.593 
-0.159102 0.282028 0.59 
-0.131378 0.28155 0.589 
-0.104101 0.282028 0.59 
-0.0763417 0.281072 0.588 
-0.0490181 0.28155 0.589 
-0.0213815 0.27916 0.584 
0.00584889 0.279638 0.585 
0.0330593 0.27916 0.584 
0.0601765 0.278682 0.583 
1.9268 6.14725 12.86 
2.84444 6.92163 14.48 
4.31899 8.49429 17.77 
4.5662 7.5354 15.764 
4.29619 6.10709 12.776 
4.79749 5.9895 12.53 
5.31366 5.91398 12.372 
5.92793 5.95174 12.451 
8.67713 7.1874 15.036 
8.7081 6.67402 13.962 
9.63438 6.87048 14.373 
9.40529 6.27105 13.119 
7.67668 4.76722 9.973 
7.82233 4.58032 9.582 
7.80985 4.32602 9.05 
8.93477 4.69552 9.823 
10.1686 4.97038 10.398 
-0.464918 0.294934 0.615 
-0.427266 0.292056 0.609 
-0.398225 0.291577 0.608 
-0.368669 0.290617 0.606 
-0.338738 0.289179 0.603 
-0.309602 0.28822 0.601 
-0.279246 0.285822 0.596 
-0.251045 0.285342 0.595 
-0.224438 0.286781 0.598 
-0.195579 0.285342 0.595 
-0.166717 0.283424 0.591 
-0.138935 0.282944 0.59 
-0.111246 0.282465 0.589 
-0.0836502 0.281985 0.588 
-0.0564346 0.282944 0.59 
-0.0286893 0.280547 0.585 
-0.00142232 0.280547 0.585 
0.0258005 0.280067 0.584 
0.0528394 0.279108 0.582 
1.77864 6.20799 12.945 
2.725 7.1019 14.809 
3.41525 7.1019 14.809 
4.32506 7.44 15.514 
4.64273 6.84246 14.268 
4.48861 5.78645 12.066 
5.21218 5.97109 12.451 
5.61341 5.78645 12.066 
7.22741 6.42092 13.389 
9.46187 7.49946 15.638 
9.50651 6.99592 14.588 
8.63908 5.9332 12.372 
8.09512 5.17932 10.8 
7.62879 4.59521 9.582 
7.99703 4.55061 9.489 
7.55883 4.07584 8.499 
15.5753 7.81166 16.289 
-0.474473 0.295889 0.615 
-0.442183 0.293483 0.61 
-0.411716 0.29204 0.607 
-0.384056 0.292521 0.608 
-0.351621 0.289153 0.601 
-0.324147 0.289634 0.602 
-0.294612 0.288191 0.599 
-0.264911 0.286267 0.595 
-0.237178 0.286267 0.595 
-0.210149 0.287229 0.597 
-0.181101 0.285304 0.593 
-0.152944 0.284342 0.591 
-0.125185 0.283861 0.59 
-0.0975192 0.28338 0.589 
-0.0698278 0.282418 0.587 
-0.0424675 0.282418 0.587 
-0.0150044 0.280493 0.583 
0.0122112 0.281455 0.585 
0.0393432 0.280493 0.583 
1.37841 5.73447 11.919 
2.24939 6.66977 13.863 
2.89555 6.66977 13.863 
4.09237 7.52376 15.638 
4.78303 7.4641 15.514 
4.33599 5.87785 12.217 
4.67174 5.59784 11.635 
5.18313 5.56464 11.566 
8.21553 7.58438 15.764 
9.14581 7.4641 15.514 
9.27986 7.01858 14.588 
9.2682 6.53121 13.575 
8.92945 5.87785 12.217 
7.61461 4.70247 9.774 
7.83486 4.56535 9.489 
7.61246 4.19874 8.727 
8.89218 4.6558 9.677 
10.7554 5.22497 10.86 
-0.457692 0.295879 0.613 
-0.42562 0.293466 0.608 
-0.39728 0.293466 0.608 
-0.367121 0.292018 0.605 
-0.337241 0.29057 0.602 
-0.307641 0.289122 0.599 
-0.277853 0.287191 0.595 
-0.25012 0.287191 0.595 
-0.223508 0.288639 0.598 
-0.194327 0.286708 0.594 
-0.164602 0.284778 0.59 
-0.137334 0.28526 0.591 
-0.109416 0.284295 0.589 
-0.0818231 0.283812 0.588 
-0.0546013 0.284778 0.59 
-0.0268715 0.282364 0.585 
0.000395481 0.282364 0.585 
0.0275206 0.280916 0.582 
0.0545539 0.280434 0.581 
1.85909 6.24822 12.945 
2.88247 7.31396 15.153 
4.35963 7.54806 15.638 
4.64273 6.88679 14.268 
4.48861 5.82395 12.066 
5.17911 5.97164 12.372 
5.51152 5.71824 11.847 
8.09354 6.93747 14.373 
8.8737 6.98912 14.48 
9.69171 7.09386 14.697 
8.79097 6.00977 12.451 
8.10021 5.18392 10.74 
7.71109 4.64767 9.629 
8.04126 4.58009 9.489 
7.73255 4.17465 8.649 
9.01331 4.62498 9.582 
-0.481829 0.295863 0.611 
-0.453351 0.295863 0.611 
-0.422786 0.29441 0.608 
-0.394447 0.29441 0.608 
-0.363097 0.291989 0.603 
-0.334435 0.291505 0.602 
-0.304849 0.290052 0.599 
-0.274618 0.287631 0.594 
-0.247347 0.288116 0.595 
-0.220721 0.289568 0.598 
-0.190913 0.286663 0.592 
-0.162492 0.28521 0.589 
-0.135727 0.286663 0.592 
-0.107585 0.28521 0.589 
-0.0798599 0.284242 0.587 
-0.052768 0.285694 0.59 
-0.0250109 0.282789 0.584 
0.00221328 0.283273 0.585 
0.0293291 0.281821 0.582 
0.0563593 0.281336 0.581 
2.57101 7.06391 14.588 
4.68866 7.63337 15.764 
4.17697 5.87901 12.141 
4.65614 5.77151 11.919 
5.21169 5.77151 11.919 
6.06288 6.06737 12.53 
9.17031 7.57235 15.638 
9.27986 7.06391 14.588 
9.20402 6.52787 13.481 
8.80034 5.84269 12.066 
7.62226 4.75657 9.823 
7.80538 4.59484 9.489 
7.72267 4.30236 8.885 
8.81816 4.66263 9.629 
8.68558 4.34207 8.967 
-0.463208 0.29827 0.614 
-0.43105 0.295841 0.609 
-0.401342 0.294869 0.607 
-0.37305 0.294869 0.607 
-0.341918 0.29244 0.602 
-0.312294 0.290983 0.599 
-0.282476 0.28904 0.595 
-0.254743 0.28904 0.595 
-0.228154 0.290497 0.598 
-0.198606 0.288068 0.593 
-0.171255 0.288554 0.594 
-0.143085 0.287583 0.592 
-0.114906 0.286125 0.589 
-0.0871559 0.285154 0.587 
-0.0599994 0.286125 0.589 
-0.0323249 0.284182 0.585 
-0.00324012 0.284182 0.585 
0.0239037 0.282725 0.582 
0.0507678 0.281267 0.579 
2.46613 6.98214 14.373 
4.63122 6.88109 14.165 
4.50736 5.86144 12.066 
5.16555 5.9722 12.294 
5.52993 5.75505 11.847 
8.21175 6.93113 14.268 
8.85672 6.88109 14.165 
9.38057 6.78248 13.962 
9.00249 6.08684 12.53 
7.78933 4.94574 10.181 
7.81581 4.67759 9.629 
7.91358 4.4789 9.22 
8.30441 4.45802 9.177 
8.98625 4.56537 9.398 
-0.465503 0.298249 0.612 
-0.435549 0.297274 0.61 
-0.405115 0.295812 0.607 
-0.376822 0.295812 0.607 
-0.345085 0.292888 0.601 
-0.316017 0.291914 0.599 
-0.286654 0.290452 0.596 
-0.25844 0.289964 0.595 
-0.23187 0.291426 0.598 
-0.202633 0.289477 0.594 
-0.174946 0.289477 0.594 
-0.147012 0.28899 0.593 
-0.118567 0.28704 0.589 
-0.090804 0.286066 0.587 
-0.0635518 0.286553 0.588 
-0.0358991 0.284604 0.584 
-0.00869353 0.285091 0.585 
0.0184782 0.283629 0.582 
0.0455271 0.283142 0.581 
2.35944 6.9533 14.268 
4.60921 6.9031 14.165 
4.48861 5.88019 12.066 
5.11422 5.95377 12.217 
5.47849 5.73886 11.776 
8.05658 6.9533 14.268 
8.74378 6.9533 14.268 
9.69171 7.16236 14.697 
8.96183 6.18574 12.693 
8.12868 5.26322 10.8 
7.73449 4.71594 9.677 
8.06543 4.64674 9.535 
7.75392 4.23397 8.688 
9.65585 4.96156 10.181 
-0.469489 0.298711 0.611 
-0.44101 0.298711 0.611 
-0.410505 0.297244 0.608 
-0.380909 0.296267 0.606 
-0.349754 0.293822 0.601 
-0.32067 0.292844 0.599 
-0.291773 0.291867 0.597 
-0.263505 0.291378 0.596 
-0.235725 0.291378 0.596 
-0.207945 0.291378 0.596 
-0.179259 0.289911 0.593 
-0.151619 0.289911 0.593 
-0.123351 0.288444 0.59 
-0.0952016 0.286489 0.586 
-0.0681196 0.287467 0.588 
-0.0405051 0.286 0.585 
-0.0131928 0.285022 0.583 
0.013957 0.284533 0.582 
0.0410137 0.284044 0.581 
2.28748 7.0268 14.373 
4.43191 6.41373 13.119 
4.72623 6.0104 12.294 
5.29926 6.0104 12.294 
5.79921 5.9356 12.141 
8.11562 6.87524 14.063 
8.58586 6.73004 13.766 
9.56399 6.97547 14.268 
9.09988 6.20547 12.693 
7.81398 5.00329 10.234 
7.87863 4.75444 9.725 
7.97465 4.55058 9.308 
8.25131 4.46551 9.134 
9.02927 4.61658 9.443 
-0.469668 0.29917 0.61 
-0.441959 0.29966 0.611 
-0.41145 0.298189 0.608 
-0.381851 0.297208 0.606 
-0.350687 0.294756 0.601 
-0.321601 0.293775 0.599 
-0.292701 0.292794 0.597 
-0.264431 0.292304 0.596 
-0.236254 0.291813 0.595 
-0.208871 0.292304 0.596 
-0.18018 0.290832 0.593 
-0.15254 0.290832 0.593 
-0.124268 0.289361 0.59 
-0.096112 0.287399 0.586 
-0.0690332 0.28838 0.588 
-0.041414 0.286909 0.585 
-0.0140986 0.285928 0.583 
0.0130304 0.284947 0.581 
0.040111 0.284947 0.581 
2.80457 6.94712 14.165 
4.40325 6.799 13.863 
4.53511 6.1065 12.451 
4.98809 5.95446 12.141 
5.41949 5.81027 11.847 
7.35731 6.70386 13.669 
9.72448 7.9231 16.155 
9.32174 7.04913 14.373 
9.30762 6.56653 13.389 
8.63061 5.7063 11.635 
7.90282 4.91619 10.024 
8.12038 4.76955 9.725 
7.79785 4.33796 8.845 
10.0416 5.29678 10.8 
-0.477414 0.299626 0.609 
-0.449765 0.300118 0.61 
-0.419952 0.299134 0.608 
-0.390324 0.29815 0.606 
-0.359689 0.296182 0.602 
-0.331078 0.29569 0.601 
-0.301048 0.293722 0.597 
-0.271849 0.292246 0.594 
-0.243752 0.291754 0.593 
-0.217569 0.293722 0.597 
-0.188154 0.291262 0.592 
-0.160289 0.29077 0.591 
-0.133641 0.292738 0.595 
-0.104484 0.288802 0.587 
-0.0768611 0.287818 0.585 
-0.0498484 0.289294 0.588 
-0.0222125 0.286342 0.582 
0.00493154 0.287326 0.584 
0.0319317 0.285358 0.58 
0.058864 0.284866 0.579 
3.025 6.77282 13.766 
4.38161 7.28597 14.809 
4.34716 6.24491 12.693 
4.78354 6.0486 12.294 
5.22498 5.90002 11.992 
5.8558 5.97333 12.141 
8.02174 6.82054 13.863 
8.48782 6.67885 13.575 
9.65671 7.07146 14.373 
9.06068 6.20456 12.611 
7.78933 5.00901 10.181 
7.85477 4.76105 9.677 
7.95134 4.55785 9.264 
8.30441 4.51505 9.177 
9.58758 4.95735 10.076 
-0.469844 0.300572 0.609 
-0.442908 0.301559 0.611 
-0.413073 0.300572 0.609 
-0.382161 0.298598 0.605 
-0.351621 0.296623 0.601 
-0.322531 0.295636 0.599 
-0.293628 0.294649 0.597 
-0.265357 0.294156 0.596 
-0.23678 0.293169 0.594 
-0.209445 0.293662 0.595 
-0.181101 0.292675 0.593 
-0.153202 0.292181 0.592 
-0.125185 0.291194 0.59 
-0.0968569 0.288727 0.585 
-0.0699467 0.290207 0.588 
-0.0422505 0.288233 0.584 
-0.0149786 0.287246 0.582 
0.0121277 0.286752 0.581 
0.0391408 0.286259 0.58 
1.73561 6.94079 14.063 
2.55652 7.42101 15.036 
2.96121 6.74633 13.669 
3.95819 7.42101 15.036 
4.35753 6.94079 14.063 
4.41022 6.1062 12.372 
4.74665 5.81204 11.776 
5.45967 5.99219 12.141 
33.5431 32.3448 65.535 
8.70407 7.36475 14.922 
8.73251 6.84208 13.863 
9.65266 7.04197 14.268 
9.00376 6.14519 12.451 
7.79599 4.99867 10.128 
7.86069 4.75239 9.629 
7.95655 4.55053 9.22 
8.63097 4.68329 9.489 
9.20713 4.75239 9.629 
-0.471737 0.301518 0.609 
-0.444807 0.302508 0.611 
-0.414965 0.301518 0.609 
-0.383406 0.299042 0.604 
-0.353489 0.297557 0.601 
-0.324393 0.296567 0.599 
-0.295483 0.295577 0.597 
-0.267209 0.295082 0.596 
-0.238224 0.293596 0.593 
-0.211294 0.294587 0.595 
-0.182944 0.293596 0.593 
-0.15478 0.292606 0.591 
-0.127233 0.292606 0.591 
-0.0986747 0.289636 0.585 
-0.0717739 0.291121 0.588 
-0.0440652 0.28914 0.584 
-0.0167871 0.28815 0.582 
0.0103401 0.28815 0.582 
0.0373385 0.28716 0.58 
0.0643725 0.28716 0.58 
2.4489 7.33199 14.809 
2.85765 6.67449 13.481 
3.94887 7.56073 15.271 
4.32311 7.01314 14.165 
4.35256 6.12542 12.372 
4.74873 5.90114 11.919 
5.30428 5.90114 11.919 
33.034 32.4466 65.535 
7.77975 6.67449 13.481 
8.35072 6.62894 13.389 
9.77849 7.22257 14.588 
9.15938 6.32544 12.776 
7.85521 5.09362 10.288 
7.83974 4.79112 9.677 
7.97465 4.60842 9.308 
8.29015 4.54356 9.177 
9.72202 5.06689 10.234 
-0.478198 0.302961 0.61 
-0.449765 0.302961 0.61 
-0.420642 0.302464 0.609 
-0.38968 0.300478 0.605 
-0.359689 0.298988 0.602 
-0.330527 0.297994 0.6 
-0.301048 0.296504 0.597 
-0.271849 0.295014 0.594 
-0.243341 0.294021 0.592 
-0.217569 0.296504 0.597 
-0.188154 0.294021 0.592 
-0.160289 0.293524 0.591 
-0.133641 0.295511 0.595 
-0.104306 0.291041 0.586 
-0.0769925 0.291041 0.586 
-0.0495941 0.290544 0.585 
-0.0221744 0.288558 0.581 
0.0049231 0.289551 0.583 
0.0319317 0.288061 0.58 
0.058864 0.287565 0.579 
2.20426 7.0863 14.268 
2.74884 6.78881 13.669 
3.6136 7.24523 14.588 
4.19937 7.0863 14.268 
4.38438 6.38701 12.86 
4.8559 6.22311 12.53 
5.23848 5.99267 12.066 
5.94799 6.14464 12.372 
7.3489 6.74212 13.575 
10.1606 8.29765 16.707 
9.41107 7.13845 14.373 
9.20146 6.51565 13.119 
8.60044 5.71056 11.498 
8.13198 5.08279 10.234 
8.14044 4.80615 9.677 
8.14757 4.55782 9.177 
10.4897 5.54766 11.17 
-0.494836 0.305403 0.613 
-0.463982 0.303909 0.61 
-0.434835 0.30341 0.609 
-0.405115 0.302414 0.607 
-0.373718 0.299923 0.602 
-0.345085 0.299425 0.601 
-0.315489 0.29793 0.598 
-0.286654 0.296934 0.596 
-0.258006 0.295937 0.594 
-0.230707 0.296435 0.595 
-0.201268 0.293944 0.59 
-0.174063 0.294443 0.591 
-0.146268 0.293944 0.59 
-0.118969 0.294443 0.591 
-0.0904946 0.291453 0.585 
-0.0633357 0.291952 0.586 
