# .PCD v.7 - Point Cloud Data file format
VERSION .7
FIELDS x y z
SIZE 4 4 4
TYPE F F F
COUNT 1 1 1
WIDTH 1923
HEIGHT 1
VIEWPOINT 0 0 0 1 0 0 0
POINTS 1923
DATA ascii
-0.126255 0.244449 0.613 
-0.0967271 0.242057 0.607 
-0.0684346 0.242057 0.607 
-0.0396792 0.239265 0.6 
-0.0117131 0.239265 0.6 
0.0161989 0.238468 0.598 
0.0437034 0.236474 0.593 
0.0711027 0.235676 0.591 
0.0983155 0.234879 0.589 
0.125769 0.234879 0.589 
4.3196 5.7316 14.373 
4.06334 4.66767 11.705 
3.81038 3.85895 9.677 
4.21959 3.82107 9.582 
4.88146 3.99733 10.024 
7.78397 5.81734 14.588 
10.5291 7.21744 18.099 
9.3054 5.90547 14.809 
10.0719 5.95053 14.922 
11.0193 6.0897 15.271 
8.6798 4.50576 11.299 
7.84573 3.83981 9.629 
8.29454 3.83981 9.629 
8.57446 3.76564 9.443 
7.8404 3.27514 8.213 
-0.539109 0.261815 0.654 
-0.490843 0.257812 0.644 
-0.460826 0.257812 0.644 
-0.428802 0.256611 0.641 
-0.395191 0.254209 0.635 
-0.365018 0.253809 0.634 
-0.332292 0.251407 0.628 
-0.301573 0.250206 0.625 
-0.27157 0.249405 0.623 
-0.241753 0.248604 0.621 
-0.21178 0.247403 0.618 
-0.182383 0.246603 0.616 
-0.152424 0.244601 0.611 
-0.12435 0.245402 0.613 
-0.0948409 0.243 0.607 
-0.0664388 0.2426 0.606 
-0.0377518 0.239797 0.599 
-0.00983223 0.239797 0.599 
0.0180269 0.238997 0.597 
0.0455461 0.237395 0.593 
0.0729391 0.236595 0.591 
0.0999757 0.235394 0.588 
3.11315 5.7119 14.268 
4.40688 5.84 14.588 
4.18161 4.80075 11.992 
3.82541 3.87399 9.677 
4.23448 3.83595 9.582 
4.94784 4.05453 10.128 
8.10899 6.06619 15.153 
10.5291 7.24556 18.099 
9.16654 5.84 14.588 
10.2278 6.06619 15.153 
11.4674 6.36203 15.892 
8.7305 4.54974 11.365 
7.88484 3.87399 9.677 
8.26895 3.83595 9.582 
8.50727 3.74428 9.353 
7.78814 3.26068 8.145 
-0.535241 0.26243 0.653 
-0.484338 0.259616 0.646 
-0.452119 0.258411 0.643 
-0.420179 0.257205 0.64 
-0.387298 0.255196 0.635 
-0.356011 0.25399 0.632 
-0.32397 0.251981 0.627 
-0.293335 0.250775 0.624 
-0.263403 0.249971 0.622 
-0.234035 0.249569 0.621 
-0.203769 0.247962 0.617 
-0.174443 0.247158 0.615 
-0.144592 0.245149 0.61 
-0.116541 0.245952 0.612 
-0.0872962 0.243943 0.607 
-0.058615 0.242335 0.603 
-0.0303066 0.240728 0.599 
-0.00237904 0.239924 0.597 
0.0254047 0.239522 0.596 
0.0528275 0.237915 0.592 
0.0802849 0.237513 0.591 
0.107284 0.236307 0.588 
2.92794 5.06815 12.611 
4.58868 5.95148 14.809 
4.22308 4.76111 11.847 
3.8623 3.85084 9.582 
4.26709 3.81347 9.489 
5.30146 4.29291 10.682 
11.1709 8.26914 20.576 
8.23087 5.61109 13.962 
9.49233 5.9969 14.922 
10.5087 6.18578 15.392 
11.2262 6.18578 15.392 
8.66748 4.48903 11.17 
7.48645 3.63704 9.05 
8.37316 3.85084 9.582 
8.36875 3.65392 9.092 
7.29374 3.02136 7.518 
-0.524703 0.262234 0.65 
-0.483589 0.260217 0.645 
-0.452119 0.25941 0.643 
-0.420179 0.258199 0.64 
-0.386689 0.255779 0.634 
-0.356011 0.254972 0.632 
-0.323453 0.252551 0.626 
-0.292865 0.251341 0.623 
-0.263403 0.250938 0.622 
-0.234035 0.250534 0.621 
-0.203438 0.248517 0.616 
-0.174443 0.248113 0.615 
-0.144355 0.245693 0.609 
-0.11635 0.2465 0.611 
-0.0871524 0.244483 0.606 
-0.058615 0.243272 0.603 
-0.0303066 0.241659 0.599 
-0.00237904 0.240852 0.597 
0.0254047 0.240448 0.596 
0.0527382 0.238431 0.591 
0.0802849 0.238431 0.591 
0.107284 0.237221 0.588 
3.10811 5.3649 13.298 
4.56558 6.06607 15.036 
4.44577 5.12082 12.693 
3.84045 3.90406 9.677 
4.16777 3.7915 9.398 
5.01552 4.12877 10.234 
8.74222 6.57158 16.289 
9.82927 6.79831 16.851 
8.98763 5.75623 14.268 
10.4956 6.25891 15.514 
11.5861 6.46386 16.022 
9.00988 4.72223 11.705 
8.22779 3.98273 9.872 
8.35086 3.82821 9.489 
8.19637 3.5684 8.845 
7.58587 3.12946 7.757 
-0.504412 0.261624 0.646 
-0.472833 0.260814 0.644 
-0.440753 0.259599 0.641 
-0.407671 0.257574 0.636 
-0.375649 0.255954 0.632 
-0.344001 0.254334 0.628 
-0.313226 0.253119 0.625 
-0.282731 0.251904 0.622 
-0.253331 0.251499 0.621 
-0.223302 0.250284 0.618 
-0.193553 0.249069 0.615 
-0.16462 0.248664 0.614 
-0.135558 0.247854 0.612 
-0.106333 0.246234 0.608 
-0.0777371 0.245424 0.606 
-0.0490013 0.242994 0.6 
-0.0209299 0.241779 0.597 
0.00690796 0.242184 0.598 
0.0344319 0.239754 0.592 
0.0619205 0.239349 0.591 
0.0897736 0.237729 0.587 
0.117333 0.238134 0.588 
3.60935 5.86426 14.48 
4.68072 5.9975 14.809 
4.57379 5.10733 12.611 
3.90261 3.86158 9.535 
4.28458 3.8061 9.398 
6.13921 4.94777 12.217 
15.8744 11.6418 28.746 
7.9785 5.31307 13.119 
10.3219 6.38427 15.764 
10.4661 6.04326 14.922 
9.31328 5.04253 12.451 
8.65393 4.32611 10.682 
8.16366 3.82432 9.443 
8.13275 3.61494 8.926 
7.20743 3.03297 7.489 
-0.524904 0.263847 0.649 
-0.476835 0.261814 0.644 
-0.444737 0.260595 0.641 
-0.412271 0.258968 0.637 
-0.379577 0.256936 0.632 
-0.348458 0.255716 0.629 
-0.31711 0.25409 0.625 
-0.286596 0.25287 0.622 
-0.257191 0.252464 0.621 
-0.227511 0.251651 0.619 
-0.197054 0.249618 0.614 
-0.168435 0.249618 0.614 
-0.138906 0.247992 0.61 
-0.110111 0.247179 0.608 
-0.0813688 0.245959 0.605 
-0.052818 0.244333 0.601 
-0.0246401 0.242707 0.597 
0.00318623 0.242707 0.597 
0.0308048 0.241081 0.593 
0.0582476 0.240267 0.591 
0.0852136 0.238641 0.587 
0.112574 0.238641 0.587 
3.51936 5.88676 14.48 
4.55423 5.88676 14.48 
4.67482 5.26271 12.945 
3.86904 3.8577 9.489 
4.22909 3.78411 9.308 
6.00751 4.87527 11.992 
15.9088 11.5174 28.33 
8.62482 5.63592 13.863 
10.458 6.35753 15.638 
11.5568 6.56772 16.155 
9.19402 4.90536 12.066 
8.56925 4.22724 10.398 
8.20603 3.78411 9.308 
8.10058 3.54791 8.727 
7.3805 3.06819 7.547 
-0.501401 0.263631 0.646 
-0.468372 0.261999 0.642 
-0.437083 0.261182 0.64 
-0.403434 0.258734 0.634 
-0.372114 0.25751 0.631 
-0.34053 0.255877 0.627 
-0.309816 0.254653 0.624 
-0.279832 0.253837 0.622 
-0.250033 0.253021 0.62 
-0.219708 0.251388 0.616 
-0.190686 0.25098 0.615 
-0.161231 0.249756 0.612 
-0.132922 0.250164 0.613 
-0.103839 0.24894 0.61 
-0.0747889 0.246899 0.605 
-0.0461277 0.24445 0.599 
-0.0181473 0.243634 0.597 
0.00969526 0.244042 0.598 
0.0371913 0.241594 0.592 
0.0645657 0.240778 0.59 
0.0915976 0.239553 0.587 
0.118958 0.239553 0.587 
3.64517 5.82274 14.268 
5.53105 6.93684 16.998 
4.91344 5.39015 13.208 
3.97224 3.87244 9.489 
4.41452 3.87244 9.489 
6.85297 5.46402 13.389 
15.674 11.2353 27.531 
8.64636 5.65746 13.863 
10.7397 6.53854 16.022 
11.6779 6.6475 16.289 
9.38685 5.01715 12.294 
8.96926 4.3593 10.682 
8.05798 3.71042 9.092 
8.0685 3.52964 8.649 
7.65249 3.17826 7.788 
-0.505193 0.265044 0.647 
-0.471365 0.262996 0.642 
-0.440066 0.262177 0.64 
-0.406389 0.259719 0.634 
-0.374461 0.25808 0.63 
-0.343453 0.256851 0.627 
-0.312725 0.255622 0.624 
-0.282276 0.254393 0.621 
-0.252923 0.253984 0.62 
-0.222941 0.252755 0.617 
-0.193238 0.251526 0.614 
-0.164351 0.251116 0.613 
-0.135336 0.250297 0.611 
-0.106508 0.249478 0.609 
-0.0776089 0.247839 0.605 
-0.0490013 0.245791 0.6 
-0.0209299 0.244562 0.597 
0.00690796 0.244971 0.598 
0.0344319 0.242514 0.592 
0.0618157 0.241694 0.59 
0.0888616 0.240465 0.587 
0.116222 0.240465 0.587 
3.98463 5.88792 14.373 
5.45704 6.90303 16.851 
5.09963 5.63926 13.766 
3.90077 3.83147 9.353 
4.37845 3.86834 9.443 
6.69439 5.37422 13.119 
16.981 12.3194 30.073 
8.26149 5.52251 13.481 
10.8319 6.72893 16.426 
10.8674 6.30535 15.392 
9.80861 5.33858 13.032 
10.1121 5.13293 12.53 
8.00357 3.81303 9.308 
7.80561 3.52751 8.611 
8.03065 3.45172 8.426 
-0.529946 0.266872 0.649 
-0.493845 0.264816 0.644 
-0.460947 0.263171 0.64 
-0.429769 0.262349 0.638 
-0.397524 0.260704 0.634 
-0.366232 0.25947 0.631 
-0.334152 0.257414 0.626 
-0.303999 0.256592 0.624 
-0.273593 0.255358 0.621 
-0.243466 0.254125 0.618 
-0.213271 0.25248 0.614 
-0.184953 0.252891 0.615 
-0.155272 0.251246 0.611 
-0.127 0.251657 0.612 
-0.0986356 0.252069 0.613 
-0.0686919 0.247134 0.601 
-0.0405438 0.246312 0.599 
-0.012582 0.245489 0.597 
0.0152188 0.245078 0.596 
0.0426378 0.243022 0.591 
0.0700657 0.242611 0.59 
0.0972351 0.241789 0.588 
3.19823 5.74124 13.962 
4.67946 6.64302 16.155 
5.92172 7.24132 17.61 
3.96013 4.25309 10.343 
4.07544 3.90192 9.489 
4.4675 3.846 9.353 
7.16618 5.62076 13.669 
14.0627 10.0474 24.434 
8.62482 5.70053 13.863 
10.8934 6.69812 16.289 
11.8508 6.81202 16.566 
10.2722 5.54345 13.481 
10.5375 5.35882 13.032 
7.96018 3.8275 9.308 
7.9765 3.63711 8.845 
8.02552 3.47962 8.462 
-0.529129 0.267468 0.648 
-0.495846 0.265817 0.644 
-0.462936 0.264166 0.64 
-0.431075 0.262927 0.637 
-0.398864 0.261276 0.633 
-0.367609 0.260038 0.63 
-0.336097 0.258387 0.626 
-0.305938 0.257561 0.624 
-0.275522 0.256323 0.621 
-0.245386 0.255085 0.618 
-0.215179 0.253434 0.614 
-0.186864 0.253847 0.615 
-0.15717 0.252196 0.611 
-0.128902 0.252608 0.612 
-0.10054 0.253021 0.613 
-0.0706768 0.248481 0.602 
-0.0424051 0.247242 0.599 
-0.0144129 0.246004 0.596 
0.0133892 0.246417 0.597 
0.0408013 0.24394 0.591 
0.0682324 0.243528 0.59 
0.0954079 0.242702 0.588 
3.15401 5.72207 13.863 
4.23852 6.20624 15.036 
6.11572 7.68433 18.617 
4.70015 5.17187 12.53 
3.87015 3.78789 9.177 
4.40139 3.87911 9.398 
6.89457 5.52643 13.389 
17.2464 12.6069 30.543 
8.07367 5.45172 13.208 
11.086 6.9554 16.851 
10.7583 6.30324 15.271 
10.8054 5.88924 14.268 
11.3876 5.84673 14.165 
8.07075 3.91667 9.489 
8.04472 3.70121 8.967 
7.98608 3.49276 8.462 
8.11293 3.37595 8.179 
-0.49862 0.267231 0.645 
-0.464198 0.264746 0.639 
-0.433054 0.263917 0.637 
-0.400198 0.261845 0.632 
-0.369567 0.261017 0.63 
-0.338582 0.259774 0.627 
-0.307877 0.258531 0.624 
-0.277452 0.257288 0.621 
-0.247307 0.256045 0.618 
-0.217087 0.254388 0.614 
-0.188468 0.254388 0.614 
-0.159069 0.253145 0.611 
-0.130804 0.253559 0.612 
-0.102278 0.253559 0.612 
-0.0725475 0.249416 0.602 
-0.0443403 0.248587 0.6 
-0.0162649 0.24693 0.596 
0.0115341 0.247344 0.597 
0.0389649 0.244859 0.591 
0.066399 0.244444 0.59 
0.0934217 0.243201 0.587 
3.0674 5.66323 13.669 
3.88295 5.86873 14.165 
5.13879 6.63811 16.022 
5.27983 5.95491 14.373 
3.74628 3.74953 9.05 
4.2266 3.80214 9.177 
6.39598 5.22489 12.611 
18.4504 13.7266 33.131 
7.71035 5.29325 12.776 
10.8614 6.92192 16.707 
10.014 5.95491 14.373 
11.1848 6.18237 14.922 
11.7011 6.08915 14.697 
9.35979 4.60135 11.106 
8.20007 3.81996 9.22 
8.02424 3.5519 8.573 
7.66459 3.22666 7.788 
-0.504412 0.268649 0.646 
-0.469896 0.266154 0.64 
-0.438003 0.264907 0.637 
-0.405107 0.262827 0.632 
-0.373866 0.26158 0.629 
-0.343453 0.260748 0.627 
-0.312224 0.259084 0.623 
-0.281822 0.257837 0.62 
-0.2517 0.256589 0.617 
-0.22258 0.256173 0.616 
-0.193238 0.255342 0.614 
-0.163815 0.254094 0.611 
-0.135115 0.253678 0.61 
-0.106333 0.252847 0.608 
-0.0773523 0.250767 0.603 
-0.049083 0.249935 0.601 
-0.0208949 0.247856 0.596 
0.00689641 0.248272 0.597 
0.0343738 0.245777 0.591 
0.0617109 0.244945 0.589 
0.0888616 0.244113 0.587 
2.92048 5.60629 13.481 
3.71884 5.80632 13.962 
4.70574 6.25296 15.036 
5.32495 6.15856 14.809 
3.69304 3.78105 9.092 
3.98687 3.6617 8.805 
5.81059 4.8386 11.635 
19.8215 15.0539 36.199 
8.47777 5.93358 14.268 
9.34786 6.06665 14.588 
10.0278 6.06665 14.588 
11.5954 6.55571 15.764 
12.3288 6.50331 15.638 
11.1038 5.53019 13.298 
8.28538 3.90831 9.398 
7.99291 3.58102 8.611 
7.25649 3.09072 7.432 
-0.508426 0.269653 0.646 
-0.473874 0.267149 0.64 
-0.441962 0.265896 0.637 
-0.409682 0.264227 0.633 
-0.377775 0.262557 0.629 
-0.34735 0.261722 0.627 
-0.315588 0.259635 0.622 
-0.285675 0.2588 0.62 
-0.255534 0.257548 0.617 
-0.227143 0.257965 0.618 
-0.196412 0.255461 0.612 
-0.167612 0.255043 0.611 
-0.13845 0.253791 0.608 
-0.109749 0.252956 0.606 
-0.0810998 0.251704 0.603 
-0.052818 0.250869 0.601 
-0.0246401 0.2492 0.597 
0.00318089 0.248782 0.596 
0.0315656 0.246278 0.59 
0.0588655 0.245443 0.588 
0.0870376 0.245025 0.587 
0.114008 0.24419 0.585 
3.5928 5.87017 14.063 
5.34715 7.35076 17.61 
6.45902 7.69764 18.441 
3.8595 4.05941 9.725 
3.94026 3.70877 8.885 
5.09589 4.34033 10.398 
15.794 12.1782 29.175 
10.2618 7.28523 17.453 
8.79713 5.78669 13.863 
10.2423 6.27632 15.036 
12.1593 6.97383 16.707 
13.692 7.35076 17.61 
11.2297 5.66647 13.575 
8.21237 3.92291 9.398 
7.85698 3.56309 8.536 
7.29842 3.15027 7.547 
-0.514654 0.270238 0.645 
-0.481585 0.268562 0.641 
-0.448889 0.266886 0.637 
-0.417883 0.266048 0.635 
-0.385228 0.263953 0.63 
-0.354169 0.262696 0.627 
-0.322353 0.260601 0.622 
-0.293361 0.260601 0.622 
-0.262669 0.258926 0.618 
-0.234243 0.259344 0.619 
-0.202736 0.255993 0.611 
-0.174257 0.255993 0.611 
-0.144824 0.254317 0.607 
-0.116148 0.253479 0.605 
-0.0876579 0.252641 0.603 
-0.059058 0.250546 0.598 
-0.0311329 0.250127 0.597 
-0.00328997 0.24887 0.594 
0.0288156 0.247194 0.59 
0.0561248 0.246356 0.588 
0.0879496 0.245937 0.587 
0.114917 0.245099 0.585 
3.50882 5.93476 14.165 
5.45622 7.72629 18.441 
8.4741 10.3667 24.743 
3.86099 4.15747 9.923 
3.99847 3.84492 9.177 
4.59888 3.99491 9.535 
11.1606 8.71255 20.795 
12.6688 9.09968 21.719 
8.57219 5.68756 13.575 
10.1956 6.29968 15.036 
12.3183 7.12171 16.998 
14.016 7.583 18.099 
11.3818 5.80823 13.863 
8.23292 3.97564 9.489 
7.80393 3.57636 8.536 
7.79344 3.39829 8.111 
-0.519467 0.27166 0.646 
-0.486327 0.269978 0.642 
-0.452848 0.267876 0.637 
-0.421829 0.267035 0.635 
-0.389761 0.265353 0.631 
-0.358636 0.264091 0.628 
-0.326743 0.261988 0.623 
-0.297227 0.261568 0.622 
-0.266941 0.260306 0.619 
-0.237705 0.259886 0.618 
-0.206534 0.256942 0.611 
-0.177472 0.256101 0.609 
-0.147897 0.25568 0.608 
-0.118968 0.254419 0.605 
-0.0906185 0.253998 0.604 
-0.0617419 0.251055 0.597 
-0.0339156 0.251055 0.597 
-0.00604842 0.249373 0.593 
0.0260214 0.24769 0.589 
0.0532933 0.246849 0.587 
0.0870376 0.246849 0.587 
0.114008 0.246008 0.585 
3.49 6.00008 14.268 
5.20247 7.47276 17.77 
9.21376 11.4169 27.149 
3.86914 4.21536 10.024 
4.00759 3.89576 9.264 
4.49657 3.93319 9.353 
9.0435 7.14812 16.998 
15.2849 11.1082 26.415 
8.42905 5.66912 13.481 
10.854 6.79361 16.155 
12.4289 7.2747 17.299 
14.5198 7.98076 18.978 
12.5926 6.52406 15.514 
8.22428 4.02949 9.582 
8.07728 3.75362 8.926 
8.73215 3.85918 9.177 
-0.526493 0.272664 0.646 
-0.494077 0.271398 0.643 
-0.459776 0.268865 0.637 
-0.428735 0.268021 0.635 
-0.395995 0.265911 0.63 
-0.366048 0.265489 0.629 
-0.334589 0.2638 0.625 
-0.30448 0.262956 0.623 
-0.274115 0.26169 0.62 
-0.24324 0.25958 0.615 
-0.213528 0.258313 0.612 
-0.183491 0.256203 0.607 
-0.155454 0.256625 0.608 
-0.126906 0.256203 0.607 
-0.0984508 0.255781 0.606 
-0.0691623 0.251982 0.597 
-0.0414052 0.252404 0.598 
-0.0134643 0.251138 0.595 
0.0141729 0.24945 0.591 
0.0415784 0.248606 0.589 
0.0687974 0.247761 0.587 
0.100203 0.246495 0.584 
2.86371 5.50056 13.032 
3.74054 5.89309 13.962 
4.7659 6.39579 15.153 
5.69284 6.65368 15.764 
3.60645 3.7333 8.845 
3.92967 3.65058 8.649 
5.66035 4.76909 11.299 
15.3318 11.6203 27.531 
7.71035 5.3925 12.776 
10.4161 6.76258 16.022 
9.59109 5.81036 13.766 
11.6242 6.6005 15.638 
13.4275 7.17453 16.998 
10.5498 5.32286 12.611 
8.94469 4.27483 10.128 
8.26105 3.75019 8.885 
7.39709 3.19768 7.576 
-0.506852 0.272821 0.644 
-0.473874 0.271126 0.64 
-0.441268 0.269431 0.636 
-0.408388 0.267313 0.631 
-0.376574 0.265619 0.627 
-0.346796 0.265195 0.626 
-0.315081 0.263077 0.621 
-0.285214 0.26223 0.619 
-0.254706 0.260535 0.615 
-0.226775 0.261382 0.617 
-0.196091 0.258841 0.611 
-0.167064 0.257993 0.609 
-0.13845 0.25757 0.608 
-0.109387 0.255875 0.604 
-0.0808308 0.254604 0.601 
-0.0527301 0.254181 0.6 
-0.0245576 0.252062 0.595 
0.00316488 0.251215 0.593 
0.030597 0.249521 0.589 
0.0578533 0.248673 0.587 
0.0852136 0.248673 0.587 
0.111999 0.247402 0.584 
3.52643 6.22615 14.697 
4.73243 6.95862 16.426 
9.34696 11.83 27.925 
4.21137 4.67862 11.044 
3.92718 3.88769 9.177 
4.19737 3.74705 8.845 
8.14986 6.62479 15.638 
15.2849 11.1903 26.415 
8.42905 5.71102 13.481 
10.5066 6.62479 15.638 
12.5395 7.39369 17.453 
15.2604 8.44981 19.946 
12.0204 6.2736 14.809 
8.26462 4.07918 9.629 
8.04018 3.76399 8.885 
9.0728 4.03935 9.535 
-0.521474 0.274671 0.646 
-0.487561 0.272546 0.641 
-0.454114 0.27042 0.636 
-0.423802 0.269994 0.635 
-0.391101 0.267868 0.63 
-0.360014 0.266593 0.627 
-0.329206 0.265317 0.624 
-0.298678 0.264042 0.621 
-0.268865 0.263191 0.619 
-0.238462 0.261491 0.615 
-0.208432 0.25979 0.611 
-0.178775 0.258089 0.607 
-0.150731 0.258514 0.608 
-0.121788 0.257239 0.605 
-0.0931244 0.255963 0.602 
-0.0644165 0.253412 0.596 
-0.0366982 0.253837 0.597 
-0.00881241 0.252137 0.593 
0.0186687 0.250011 0.588 
0.0459189 0.24916 0.586 
0.0732325 0.24916 0.586 
0.100203 0.24831 0.584 
2.92291 5.61588 13.208 
3.7676 5.97942 14.063 
4.7659 6.44287 15.153 
5.83404 6.86891 16.155 
3.6562 3.81266 8.967 
3.98283 3.7272 8.766 
5.56366 4.72214 11.106 
14.6358 11.0817 26.063 
7.66955 5.36205 12.611 
11.1298 7.22735 16.998 
10.081 6.11123 14.373 
10.7509 6.11123 14.373 
12.5506 6.70266 15.764 
9.57807 4.83226 11.365 
9.05477 4.32884 10.181 
8.4707 3.84795 9.05 
7.44417 3.22122 7.576 
-0.50107 0.274395 0.643 
-0.467437 0.272261 0.638 
-0.436327 0.271408 0.636 
-0.402207 0.268421 0.629 
-0.372296 0.267994 0.628 
-0.341386 0.266714 0.625 
-0.310256 0.265007 0.621 
-0.279952 0.263726 0.618 
-0.249522 0.262019 0.614 
-0.220903 0.262019 0.614 
-0.190092 0.259032 0.607 
-0.162066 0.259459 0.608 
-0.133507 0.259032 0.607 
-0.104348 0.256899 0.602 
-0.0757818 0.255192 0.598 
-0.047989 0.255618 0.599 
-0.0199354 0.253911 0.595 
0.00773221 0.251778 0.59 
0.0351726 0.251351 0.589 
0.0632175 0.250071 0.586 
0.0905311 0.250071 0.586 
0.11704 0.248364 0.582 
3.57867 6.08875 14.268 
5.48487 7.86954 18.441 
8.10245 10.0502 23.551 
3.87641 4.23456 9.923 
4.16927 4.06898 9.535 
4.75305 4.19188 9.823 
16.066 12.4502 29.175 
8.2802 5.91592 13.863 
9.12082 6.0448 14.165 
9.12023 5.6364 13.208 
10.9993 6.36784 14.922 
14.3747 7.79614 18.269 
10.1566 5.18107 12.141 
9.13457 4.41379 10.343 
8.33729 3.82659 8.967 
7.42638 3.2458 7.606 
-0.507064 0.275394 0.643 
-0.474126 0.273681 0.639 
-0.442256 0.272396 0.636 
-0.409368 0.270254 0.631 
-0.377548 0.268541 0.627 
-0.347213 0.267685 0.625 
-0.316045 0.265971 0.621 
-0.285713 0.264687 0.618 
-0.255246 0.262973 0.614 
-0.226996 0.263402 0.615 
-0.196396 0.260832 0.609 
-0.167734 0.260404 0.608 
-0.139395 0.260404 0.608 
-0.110143 0.258262 0.603 
-0.0816285 0.256977 0.6 
-0.0535729 0.256549 0.599 
-0.0254392 0.254407 0.594 
0.0022322 0.252694 0.59 
0.0296315 0.251838 0.588 
0.0586652 0.250981 0.586 
0.0859789 0.250981 0.586 
0.116839 0.24884 0.581 
3.64517 6.11092 14.268 
5.67807 8.05024 18.796 
7.17484 8.81261 20.576 
3.92266 4.24998 9.923 
4.25525 4.12406 9.629 
4.89703 4.29323 10.024 
15.5078 11.9601 27.925 
7.97106 5.65693 13.208 
10.1665 6.69768 15.638 
9.45802 5.81411 13.575 
10.0209 5.77385 13.481 
14.4315 7.82453 18.269 
9.86956 5.04361 11.776 
9.1993 4.45342 10.398 
8.19126 3.75444 8.766 
7.3755 3.21992 7.518 
-0.504067 0.276393 0.643 
-0.47041 0.274244 0.638 
-0.439292 0.273384 0.636 
-0.405783 0.270805 0.63 
-0.374626 0.269515 0.627 
-0.344299 0.268656 0.625 
-0.313151 0.266936 0.621 
-0.282375 0.265217 0.617 
-0.251973 0.263498 0.613 
-0.223765 0.263927 0.614 
-0.193239 0.261348 0.608 
-0.164629 0.260918 0.607 
-0.136336 0.260918 0.607 
-0.107154 0.258769 0.602 
-0.0785691 0.25705 0.598 
-0.0507809 0.25748 0.599 
-0.0226705 0.25533 0.594 
0.00497376 0.253181 0.589 
0.0323722 0.252751 0.588 
0.0595757 0.251892 0.586 
0.0867411 0.251462 0.585 
0.120035 0.248883 0.579 
3.66288 6.08881 14.165 
5.57564 7.85291 18.269 
6.48767 7.92685 18.441 
3.97341 4.28688 9.973 
4.39331 4.24347 9.872 
5.00536 4.37629 10.181 
14.6763 11.2032 26.063 
7.94583 5.60179 13.032 
10.9653 7.18149 16.707 
10.0295 6.13309 14.268 
9.90003 5.67745 13.208 
10.9133 5.8352 13.575 
8.75033 4.42229 10.288 
8.08643 3.80202 8.845 
8.38532 3.75129 8.727 
-0.518859 0.277823 0.644 
-0.485806 0.276098 0.64 
-0.452413 0.273941 0.635 
-0.42215 0.273509 0.634 
-0.389503 0.271352 0.629 
-0.359039 0.27049 0.627 
-0.328237 0.269195 0.624 
-0.296275 0.266607 0.618 
-0.266605 0.265744 0.616 
-0.236348 0.264018 0.612 
-0.207483 0.263587 0.611 
-0.178125 0.262293 0.608 
-0.149786 0.262293 0.608 
-0.120648 0.260567 0.604 
-0.0918828 0.258842 0.6 
-0.0634905 0.257116 0.596 
-0.0357107 0.257116 0.596 
-0.00789108 0.255822 0.593 
0.019549 0.253233 0.587 
0.0467494 0.252371 0.585 
0.074143 0.252802 0.586 
0.108528 0.250214 0.58 
3.6123 6.53705 15.153 
4.56625 6.91193 16.022 
6.05817 7.8813 18.269 
4.83213 5.5116 12.776 
4.39401 4.462 10.343 
4.95436 4.53361 10.509 
13.489 10.8114 25.061 
11.548 8.51805 19.745 
8.45473 5.77605 13.389 
9.20492 5.85629 13.575 
11.424 6.80063 15.764 
12.1819 6.58795 15.271 
9.37704 4.79116 11.106 
8.00287 3.68245 8.536 
7.28667 3.19411 7.404 
-0.501289 0.277958 0.642 
-0.466959 0.27536 0.636 
-0.436628 0.274927 0.635 
-0.403184 0.27233 0.629 
-0.373272 0.271897 0.628 
-0.342357 0.270598 0.625 
-0.31072 0.268433 0.62 
-0.280004 0.266701 0.616 
-0.24966 0.264969 0.612 
-0.221134 0.264969 0.612 
-0.191035 0.262805 0.607 
-0.162475 0.262372 0.606 
-0.134007 0.261939 0.605 
-0.105283 0.26064 0.602 
-0.0765826 0.258475 0.597 
-0.048838 0.258908 0.598 
-0.0208248 0.257176 0.594 
0.00679244 0.254578 0.588 
0.0341411 0.254145 0.587 
0.0613966 0.253712 0.586 
0.0884075 0.252847 0.584 
0.121203 0.249383 0.576 
3.6802 6.08867 14.063 
5.38083 7.55639 17.453 
5.87951 7.17236 16.566 
4.17505 4.50188 10.398 
4.68435 4.52569 10.453 
5.28487 4.62484 10.682 
15.5946 12.0903 27.925 
8.44779 6.04494 13.962 
10.2729 6.82513 15.764 
9.54475 5.91808 13.669 
9.10029 5.28943 12.217 
10.5583 5.56782 12.86 
8.01967 3.72819 8.611 
7.14442 3.15798 7.294 
-0.503283 0.278955 0.642 
-0.468936 0.276348 0.636 
-0.438601 0.275914 0.635 
-0.405139 0.273307 0.629 
-0.374626 0.272438 0.627 
-0.343749 0.271134 0.624 
-0.312647 0.269396 0.62 
-0.281918 0.267658 0.616 
-0.251562 0.26592 0.612 
-0.222672 0.265486 0.611 
-0.192921 0.263748 0.607 
-0.164358 0.263313 0.606 
-0.135887 0.262879 0.605 
-0.107154 0.261575 0.602 
-0.0785691 0.259837 0.598 
-0.0506962 0.259837 0.598 
-0.0226324 0.257665 0.593 
0.00495687 0.255057 0.587 
0.0323171 0.255057 0.587 
0.059474 0.254188 0.585 
0.0865928 0.253754 0.584 
0.115338 0.251147 0.578 
3.60935 6.29171 14.48 
5.45622 8.0128 18.441 
5.87259 7.45054 17.147 
4.11118 4.59103 10.566 
4.81193 4.79873 11.044 
5.38747 4.85348 11.17 
19.6528 15.7288 36.199 
9.93399 7.32193 16.851 
8.63546 5.89847 13.575 
8.95687 5.70034 13.119 
10.801 6.43466 14.809 
10.19 5.44441 12.53 
8.12317 3.80892 8.766 
7.40275 3.30488 7.606 
-0.507273 0.279953 0.642 
-0.472888 0.277337 0.636 
-0.44185 0.276464 0.634 
-0.409698 0.27472 0.63 
-0.378522 0.273412 0.627 
-0.347627 0.272104 0.624 
-0.31701 0.270796 0.621 
-0.285282 0.268179 0.615 
-0.255365 0.266871 0.612 
-0.226469 0.266435 0.611 
-0.197018 0.265127 0.608 
-0.168679 0.265127 0.608 
-0.139878 0.264255 0.606 
-0.11108 0.262946 0.603 
-0.0822855 0.260766 0.598 
-0.0543216 0.26033 0.597 
-0.0262733 0.25815 0.592 
0.00131107 0.256406 0.588 
0.0286202 0.255533 0.586 
0.0558384 0.255097 0.585 
0.0829634 0.254661 0.584 
0.10924 0.252481 0.579 
3.66416 6.65913 15.271 
4.8287 7.34811 16.851 
5.25198 6.87411 15.764 
4.85198 5.57115 12.776 
4.90256 5.01386 11.498 
5.70714 5.26155 12.066 
7.71782 6.45767 14.809 
12.3275 9.26505 21.247 
8.39233 5.83846 13.389 
9.01639 5.83846 13.389 
10.1258 6.13237 14.063 
12.0877 6.60767 15.153 
8.03618 3.83954 8.805 
7.79842 3.52209 8.077 
-0.501504 0.280513 0.641 
-0.466476 0.277449 0.634 
-0.436925 0.277449 0.634 
-0.403519 0.274824 0.628 
-0.373652 0.274386 0.627 
-0.342779 0.273073 0.624 
-0.311683 0.271323 0.62 
-0.280504 0.269135 0.615 
-0.250201 0.267384 0.611 
-0.221359 0.266947 0.61 
-0.191978 0.265634 0.607 
-0.163416 0.265196 0.606 
-0.134724 0.264321 0.604 
-0.106219 0.263446 0.602 
-0.0775102 0.261258 0.597 
-0.0497671 0.261695 0.598 
-0.0216744 0.25907 0.592 
0.00586888 0.256881 0.587 
0.0331725 0.256444 0.586 
0.0603829 0.256006 0.585 
0.0917217 0.254693 0.582 
0.117828 0.252505 0.577 
3.69433 6.28988 14.373 
5.81901 8.3865 19.164 
5.65834 7.06971 16.155 
4.43297 4.88819 11.17 
4.98199 4.91619 11.234 
5.73643 5.12231 11.705 
24.892 19.8937 45.459 
9.21812 6.7892 15.514 
8.75897 5.98179 13.669 
8.83998 5.62776 12.86 
9.89521 5.89952 13.481 
10.1775 5.51879 12.611 
8.01923 3.81909 8.727 
7.05778 3.16835 7.24 
-0.493761 0.28107 0.64 
-0.458131 0.277556 0.632 
-0.43003 0.278434 0.634 
-0.396689 0.275799 0.628 
-0.367418 0.275799 0.628 
-0.335993 0.274043 0.624 
-0.30494 0.272286 0.62 
-0.273816 0.27009 0.615 
-0.243556 0.268334 0.611 
-0.214373 0.267455 0.609 
-0.185377 0.266577 0.607 
-0.156308 0.265259 0.604 
-0.127731 0.264381 0.602 
-0.099506 0.263942 0.601 
-0.0710174 0.262185 0.597 
-0.0433357 0.263064 0.599 
-0.0152103 0.25955 0.591 
0.0122529 0.257793 0.587 
0.0394782 0.256915 0.585 
0.0666311 0.256476 0.584 
0.0959121 0.254719 0.58 
0.122098 0.252963 0.576 
3.70205 6.17606 14.063 
5.36023 7.59722 17.299 
5.57445 6.86776 15.638 
4.662 5.07945 11.566 
5.2011 5.07945 11.566 
5.91539 5.23448 11.919 
24.3264 19.5106 44.426 
9.07373 6.70658 15.271 
8.75897 6.00303 13.669 
8.72518 5.5744 12.693 
9.82768 5.88006 13.389 
10.2908 5.61085 12.776 
8.02637 3.90204 8.885 
7.57983 3.50415 7.979 
-0.509471 0.282505 0.641 
-0.475105 0.27986 0.635 
-0.443402 0.278538 0.632 
-0.411325 0.276775 0.628 
-0.381445 0.276334 0.627 
-0.349973 0.274572 0.623 
-0.319905 0.27369 0.621 
-0.28768 0.270605 0.614 
-0.257796 0.269283 0.611 
-0.229317 0.269283 0.611 
-0.199852 0.267961 0.608 
-0.171513 0.267961 0.608 
-0.142703 0.267079 0.606 
-0.114079 0.266198 0.604 
-0.0850728 0.263553 0.598 
-0.0569129 0.262231 0.595 
-0.0290817 0.26135 0.593 
-0.00142961 0.259146 0.588 
0.0258447 0.257824 0.585 
0.0531117 0.257824 0.585 
0.0802414 0.257383 0.584 
0.106542 0.25518 0.579 
3.73909 7.004 15.892 
4.87644 7.6241 17.299 
4.82799 6.47733 14.697 
5.55503 6.52669 14.809 
5.12013 5.35084 12.141 
6.31359 5.94141 13.481 
6.71074 5.74353 13.032 
15.8115 12.3072 27.925 
8.61815 6.19791 14.063 
9.07778 6.06702 13.766 
9.45324 5.90086 13.389 
9.02584 5.28517 11.992 
9.25912 4.97975 11.299 
7.63004 3.60469 8.179 
6.49012 2.92024 6.626 
-0.492989 0.282616 0.639 
-0.457406 0.279078 0.631 
-0.429352 0.279962 0.633 
-0.396689 0.277751 0.628 
-0.366833 0.277309 0.627 
-0.335454 0.275539 0.623 
-0.304449 0.27377 0.619 
-0.273371 0.271559 0.614 
-0.243157 0.26979 0.61 
-0.214021 0.268905 0.608 
-0.185682 0.268905 0.608 
-0.156308 0.267136 0.604 
-0.127731 0.266252 0.602 
-0.0996716 0.266252 0.602 
-0.0708984 0.263598 0.596 
-0.0433357 0.264925 0.599 
-0.0152103 0.261387 0.591 
0.0122529 0.259617 0.587 
0.0394782 0.258733 0.585 
0.066517 0.257848 0.583 
0.0932087 0.256522 0.58 
0.119621 0.255195 0.577 
3.68951 6.31043 14.268 
5.96568 8.64522 19.547 
5.45793 6.86151 15.514 
4.77782 5.3038 11.992 
5.24064 5.20827 11.776 
6.00634 5.40332 12.217 
12.5979 10.2923 23.271 
9.57737 7.20427 16.289 
8.49634 5.92167 13.389 
8.48145 5.50681 12.451 
9.81143 5.96236 13.481 
10.9039 6.0455 13.669 
8.51578 4.17644 9.443 
7.59778 3.54309 8.011 
6.37714 2.83456 6.409 
-0.488253 0.283165 0.638 
-0.453485 0.280058 0.631 
-0.424074 0.280058 0.631 
-0.392161 0.278283 0.627 
-0.362357 0.277839 0.626 
-0.33105 0.276064 0.622 
-0.300602 0.274732 0.619 
-0.269116 0.272069 0.613 
-0.239759 0.271181 0.611 
-0.210243 0.26985 0.608 
-0.181904 0.26985 0.608 
-0.152554 0.268075 0.604 
-0.124402 0.268075 0.604 
-0.0957709 0.266743 0.601 
-0.0670817 0.26408 0.595 
-0.039547 0.265412 0.598 
-0.0115374 0.262305 0.591 
0.0158468 0.259642 0.585 
0.0431138 0.259642 0.585 
0.0698996 0.257866 0.581 
0.0968133 0.257423 0.58 
0.123207 0.256091 0.577 
3.7239 6.24161 14.063 
5.29337 7.54426 16.998 
5.4251 6.72539 15.153 
4.85235 5.32244 11.992 
5.4113 5.32244 11.992 
6.08226 5.4223 12.217 
20.9873 17.0112 38.328 
8.6679 6.47462 14.588 
8.6385 5.9833 13.481 
8.34574 5.38857 12.141 
9.6295 5.82263 13.119 
11.7443 6.57271 14.809 
6.15574 3.13212 7.057 
7.73387 3.6918 8.318 
6.47982 2.94083 6.626 
-0.49696 0.284602 0.639 
-0.462059 0.281484 0.632 
-0.433286 0.281929 0.633 
-0.399954 0.279257 0.627 
-0.370138 0.278812 0.626 
-0.338237 0.276585 0.621 
-0.307797 0.275248 0.618 
-0.276284 0.272576 0.612 
-0.246139 0.270795 0.608 
-0.217442 0.270349 0.607 
-0.189149 0.270349 0.607 
-0.160062 0.269013 0.604 
-0.131472 0.268122 0.602 
-0.103413 0.268122 0.602 
-0.0747275 0.265895 0.597 
-0.0469798 0.266341 0.598 
-0.0188512 0.262778 0.59 
0.00859025 0.260996 0.586 
0.0357813 0.260105 0.584 
0.0647055 0.25966 0.583 
0.0914065 0.258324 0.58 
0.117828 0.256988 0.577 
3.672 6.40153 14.373 
6.28195 9.2618 20.795 
5.28384 6.74893 15.153 
4.922 5.5455 12.451 
5.33221 5.37403 12.066 
6.08269 5.5455 12.451 
7.1163 5.92274 13.298 
9.63241 7.31591 16.426 
8.41793 5.92274 13.298 
8.40842 5.51031 12.372 
9.72367 5.96327 13.389 
13.412 7.63703 17.147 
9.81862 5.27649 11.847 
7.88588 3.83522 8.611 
7.679 3.55373 7.979 
-0.510665 0.286041 0.64 
-0.476326 0.28336 0.634 
-0.443957 0.281572 0.63 
-0.412618 0.280231 0.627 
-0.38217 0.279337 0.625 
-0.351344 0.277996 0.622 
-0.321316 0.277103 0.62 
-0.29006 0.274868 0.615 
-0.259269 0.272633 0.61 
-0.230458 0.272186 0.609 
-0.201409 0.271292 0.607 
-0.173117 0.271292 0.607 
-0.144108 0.269951 0.604 
-0.116532 0.271292 0.607 
-0.0867856 0.266823 0.597 
-0.058663 0.265482 0.594 
-0.0309243 0.265035 0.593 
-0.00325674 0.2628 0.588 
0.0258005 0.261013 0.584 
0.0539283 0.261013 0.584 
0.0807318 0.259672 0.581 
0.107256 0.258331 0.578 
3.61671 6.82521 15.271 
5.2769 8.32067 18.617 
4.81485 6.51995 14.588 
5.53586 6.56867 14.697 
5.17116 5.46026 12.217 
6.42288 6.10922 13.669 
6.59876 5.7101 12.776 
16.8156 13.237 29.617 
8.00658 5.82452 13.032 
8.44479 5.7101 12.776 
9.40965 5.9434 13.298 
9.76324 5.78563 12.945 
9.46452 5.23143 11.705 
5.95309 3.00209 6.717 
7.62363 3.64032 8.145 
6.04993 2.73885 6.128 
-0.499939 0.286587 0.639 
-0.465005 0.283448 0.632 
-0.434858 0.282999 0.631 
-0.402234 0.280757 0.626 
-0.37246 0.280308 0.625 
-0.340582 0.278066 0.62 
-0.309673 0.276272 0.616 
-0.27868 0.274029 0.611 
-0.248563 0.272235 0.607 
-0.220271 0.272235 0.607 
-0.191662 0.271787 0.606 
-0.162877 0.27089 0.604 
-0.134278 0.269993 0.602 
-0.106042 0.269544 0.601 
-0.0775102 0.26775 0.597 
-0.0495174 0.266853 0.595 
-0.0215646 0.264163 0.589 
0.00584889 0.262369 0.585 
0.0330593 0.26192 0.584 
0.0601765 0.261472 0.583 
0.0869008 0.260126 0.58 
0.113542 0.259229 0.578 
3.55284 6.35291 14.165 
6.60677 9.96238 22.213 
5.09487 6.64174 14.809 
4.99093 5.72995 12.776 
5.342 5.47924 12.217 
5.98643 5.54876 12.372 
6.58232 5.54876 12.372 
10.272 7.89797 17.61 
8.31992 5.9237 13.208 
8.58714 5.69272 12.693 
9.81657 6.0883 13.575 
11.5325 6.69242 14.922 
6.55191 3.41124 7.606 
8.00059 3.93149 8.766 
7.74822 3.62248 8.077 
-0.50967 0.28803 0.64 
-0.474592 0.28488 0.633 
-0.442275 0.283079 0.629 
-0.411644 0.282179 0.627 
-0.379979 0.280379 0.623 
-0.349815 0.279479 0.621 
-0.31932 0.278129 0.618 
-0.289104 0.276779 0.615 
-0.257898 0.274079 0.609 
-0.229135 0.273629 0.608 
-0.200136 0.272728 0.606 
-0.171606 0.272278 0.605 
-0.142933 0.271378 0.603 
-0.115589 0.273178 0.607 
-0.0857143 0.268228 0.596 
-0.0576429 0.266878 0.593 
-0.0298512 0.265528 0.59 
-0.00233521 0.263727 0.586 
0.0248506 0.262377 0.583 
0.0520244 0.262377 0.583 
0.0796918 0.261027 0.58 
0.106358 0.260127 0.578 
3.5303 6.66474 14.809 
5.80315 9.16385 20.362 
4.76622 6.46852 14.373 
5.51747 6.56528 14.588 
5.15786 5.46402 12.141 
6.31211 6.02568 13.389 
6.32902 5.49822 12.217 
14.3846 11.2786 25.061 
7.87719 5.71244 12.693 
8.58023 5.7876 12.86 
9.62292 6.06708 13.481 
9.976 5.90416 13.119 
8.93158 4.91451 10.92 
8.42296 4.18904 9.308 
7.75018 3.66563 8.145 
-30.4469 14.2381 31.528 
-0.479281 0.286315 0.634 
-0.445474 0.283605 0.628 
-0.41554 0.283154 0.627 
-0.384467 0.281799 0.624 
-0.354243 0.280896 0.622 
-0.323683 0.279541 0.619 
-0.293402 0.278186 0.616 
-0.262542 0.275928 0.611 
-0.232914 0.274573 0.608 
-0.204238 0.274122 0.607 
-0.175656 0.27367 0.606 
-0.14668 0.272315 0.603 
-0.119754 0.275025 0.609 
-0.0892682 0.268702 0.595 
-0.0612248 0.267348 0.592 
-0.0335747 0.266896 0.591 
-0.00599742 0.265541 0.588 
0.021191 0.262832 0.582 
0.0484842 0.263735 0.584 
0.0750565 0.261477 0.579 
0.101868 0.261025 0.578 
3.41525 6.68775 14.809 
4.63169 7.54489 16.707 
4.4894 6.26054 13.863 
5.61344 6.8431 15.153 
5.03226 5.44901 12.066 
6.08291 5.92455 13.119 
6.1193 5.41559 11.992 
22.3401 18.0157 39.893 
7.75005 5.76965 12.776 
8.5696 5.92455 13.119 
9.30635 6.00538 13.298 
10.4218 6.30525 13.962 
9.44633 5.28598 11.705 
5.97372 3.05463 6.764 
7.81141 3.75641 8.318 
5.97489 2.72451 6.033 
-0.484746 0.288206 0.636 
-0.449377 0.284581 0.628 
-0.419437 0.284128 0.627 
-0.388345 0.282768 0.624 
-0.358685 0.282315 0.623 
-0.32753 0.280502 0.619 
-0.297231 0.279143 0.616 
-0.266339 0.276877 0.611 
-0.236303 0.275065 0.607 
-0.208011 0.275065 0.607 
-0.179422 0.274611 0.606 
-0.150428 0.273252 0.603 
-0.12293 0.274611 0.606 
-0.092966 0.269627 0.595 
-0.0647943 0.267814 0.591 
-0.0372476 0.267814 0.591 
-0.00966809 0.266908 0.589 
0.0202867 0.263736 0.582 
0.0475769 0.264642 0.584 
0.0741569 0.262376 0.579 
0.10097 0.261923 0.578 
3.31688 6.56167 14.48 
4.34577 7.14352 15.764 
4.49977 6.32694 13.962 
5.54674 6.81363 15.036 
5.01352 5.46776 12.066 
5.94284 5.82756 12.86 
6.10067 5.43423 11.992 
17.0745 13.6277 30.073 
7.50586 5.53619 12.217 
8.33573 5.71473 12.611 
9.91714 6.28208 13.863 
10.2229 6.06728 13.389 
10.0001 5.46776 12.066 
8.17011 4.06343 8.967 
7.83336 3.70635 8.179 
-0.494415 0.289649 0.637 
-0.458888 0.286011 0.629 
-0.428887 0.285557 0.628 
-0.397707 0.284192 0.625 
-0.367396 0.283283 0.623 
-0.335642 0.281009 0.618 
-0.305844 0.2801 0.616 
-0.274433 0.277372 0.61 
-0.243984 0.275098 0.605 
-0.216498 0.276008 0.607 
-0.187896 0.275553 0.606 
-0.158596 0.273734 0.602 
-0.13032 0.273279 0.601 
-0.100945 0.269642 0.593 
-0.0730583 0.268732 0.591 
-0.0454346 0.268278 0.59 
-0.0178433 0.266914 0.587 
0.0121903 0.265549 0.584 
0.0394107 0.265549 0.584 
0.0680942 0.264185 0.581 
0.0945196 0.262366 0.577 
0.121414 0.262366 0.577 
3.54542 6.08808 13.389 
5.48395 8.00741 17.61 
5.3424 6.78515 14.922 
4.97455 5.59018 12.294 
5.54757 5.59018 12.294 
5.97025 5.45286 11.992 
17.9911 14.8139 32.579 
7.752 5.88619 12.945 
8.82268 6.2154 13.669 
9.85252 6.30362 13.863 
10.4987 6.30362 13.863 
8.89573 5.02179 11.044 
6.6252 3.47215 7.636 
7.9976 3.89821 8.573 
7.22473 3.35393 7.376 
-0.482237 0.28927 0.634 
-0.448402 0.286532 0.628 
-0.417795 0.28562 0.626 
-0.387376 0.284707 0.624 
-0.357143 0.283795 0.622 
-0.326041 0.28197 0.618 
-0.295793 0.280601 0.615 
-0.26539 0.278776 0.611 
-0.234972 0.276495 0.606 
-0.206726 0.276495 0.606 
-0.177892 0.275582 0.604 
-0.149243 0.274669 0.602 
-0.121047 0.276495 0.606 
-0.0908108 0.270563 0.593 
-0.0628513 0.269194 0.59 
-0.0352913 0.268738 0.589 
-0.00506657 0.267369 0.586 
0.0220952 0.265544 0.582 
0.0492224 0.265544 0.582 
0.075956 0.264175 0.579 
0.102766 0.263719 0.578 
3.26673 6.46294 14.165 
4.67161 7.68846 16.851 
4.42658 6.23664 13.669 
5.52787 6.80834 14.922 
4.97095 5.43818 11.919 
5.92387 5.8292 12.776 
6.15706 5.50525 12.066 
18.9778 15.3769 33.702 
7.40258 5.53947 12.141 
9.20492 6.19375 13.575 
10.8138 6.80834 14.922 
9.56174 5.64487 12.372 
10.1443 5.57415 12.217 
8.11918 4.12917 9.05 
7.88415 3.81161 8.354 
-0.51025 0.291628 0.637 
-0.476788 0.289339 0.632 
-0.443791 0.28705 0.627 
-0.413905 0.286592 0.626 
-0.382883 0.285219 0.623 
-0.352141 0.283845 0.62 
-0.321679 0.282472 0.617 
-0.291496 0.281099 0.614 
-0.260736 0.278809 0.609 
-0.231588 0.277894 0.607 
-0.202625 0.276978 0.605 
-0.17385 0.276063 0.603 
-0.145502 0.275605 0.602 
-0.117833 0.27652 0.604 
-0.0880468 0.271484 0.593 
-0.0599994 0.269653 0.589 
-0.0324907 0.269195 0.588 
-0.00506657 0.26828 0.586 
0.0220952 0.266448 0.582 
0.0492224 0.266448 0.582 
0.0758248 0.264617 0.578 
0.102588 0.264159 0.577 
3.28874 6.48495 14.165 
8.44081 13.5591 29.617 
4.47042 6.17181 13.481 
5.51747 6.67861 14.588 
5.126 5.524 12.066 
6.22678 6.04682 13.208 
6.17464 5.4567 11.919 
14.6829 11.775 25.72 
7.54382 5.59313 12.217 
9.41732 6.25788 13.669 
10.9761 6.83152 14.922 
10.734 6.25788 13.669 
6.67505 3.50961 7.666 
8.26763 4.10523 8.967 
7.88938 3.72891 8.145 
-0.494836 0.291699 0.635 
-0.460843 0.288943 0.629 
-0.429467 0.287565 0.626 
-0.39901 0.286646 0.624 
-0.368739 0.285727 0.622 
-0.337017 0.283431 0.617 
-0.307758 0.282971 0.616 
-0.276781 0.280674 0.611 
-0.245458 0.277459 0.604 
-0.217665 0.277918 0.605 
-0.189153 0.277459 0.604 
-0.159934 0.275621 0.6 
-0.132188 0.276081 0.601 
-0.102441 0.271487 0.591 
-0.074768 0.271028 0.59 
-0.0470276 0.26965 0.587 
-0.0195668 0.268271 0.584 
0.00765358 0.268271 0.584 
0.034874 0.268271 0.584 
0.0614564 0.265515 0.578 
0.0882443 0.265056 0.577 
0.114939 0.264597 0.576 
3.28706 5.94653 12.945 
6.21441 9.35367 20.362 
5.13216 6.70127 14.588 
5.05711 5.83077 12.693 
5.54104 5.7196 12.451 
5.9321 5.54275 12.066 
6.8517 5.83077 12.693 
8.41126 6.55428 14.268 
8.51714 6.15049 13.389 
10.0739 6.55428 14.268 
10.288 6.27911 13.669 
8.43064 4.72599 10.288 
7.15416 3.69516 8.044 
8.02424 3.93817 8.573 
7.59156 3.54908 7.726 
-0.485192 0.292225 0.634 
-0.451329 0.289459 0.628 
-0.420713 0.288538 0.626 
-0.389659 0.287155 0.623 
-0.359463 0.286233 0.621 
-0.328389 0.284389 0.617 
-0.297688 0.282546 0.613 
-0.267799 0.281163 0.61 
-0.237797 0.279319 0.606 
-0.209205 0.278858 0.605 
-0.180408 0.277936 0.603 
-0.151544 0.276554 0.6 
-0.123578 0.276554 0.6 
-0.0940181 0.271944 0.59 
-0.0664053 0.271483 0.589 
-0.0388856 0.271022 0.588 
-0.0114202 0.26964 0.585 
0.0158197 0.269179 0.584 
0.0429664 0.268718 0.583 
0.069659 0.266874 0.579 
0.0959787 0.265031 0.575 
0.12278 0.265031 0.575 
3.61167 6.2137 13.481 
4.58757 6.62484 14.373 
5.29664 6.67416 14.48 
4.9455 5.52738 11.992 
5.57285 5.59606 12.141 
6.13874 5.59606 12.141 
17.3275 14.3015 31.028 
7.43856 5.66658 12.294 
8.90763 6.30035 13.669 
10.5038 6.72394 14.588 
8.95679 5.33103 11.566 
8.10518 4.41656 9.582 
7.48707 3.86668 8.389 
8.01613 3.93444 8.536 
7.38196 3.45185 7.489 
-0.488147 0.29321 0.634 
-0.454979 0.290898 0.629 
-0.423631 0.28951 0.626 
-0.392563 0.288123 0.623 
-0.362357 0.287198 0.621 
-0.331265 0.285348 0.617 
-0.301526 0.284423 0.615 
-0.270642 0.282111 0.61 
-0.240224 0.279798 0.605 
-0.211675 0.279336 0.604 
-0.183218 0.278873 0.603 
-0.154083 0.277023 0.599 
-0.126164 0.277023 0.599 
-0.0966041 0.272399 0.589 
-0.0691506 0.272399 0.589 
-0.0415555 0.271474 0.587 
-0.0141227 0.270086 0.584 
0.0130528 0.269161 0.582 
0.040249 0.269624 0.583 
0.0669603 0.267774 0.579 
0.0932986 0.265924 0.575 
0.120099 0.265924 0.575 
3.40774 5.98676 12.945 
4.78944 7.0079 15.153 
5.21284 6.64717 14.373 
4.93853 5.58024 12.066 
5.46719 5.54602 11.992 
6.13921 5.65007 12.217 
11.5747 9.72079 21.019 
7.73189 5.98676 12.945 
8.74092 6.27812 13.575 
9.71062 6.5038 14.063 
10.8334 6.79701 14.697 
10.0923 5.9086 12.776 
8.02652 4.38844 9.489 
7.4237 3.84688 8.318 
7.98138 3.93059 8.499 
7.38196 3.46348 7.489 
-0.488147 0.294195 0.634 
-0.454979 0.291875 0.629 
-0.422954 0.290019 0.625 
-0.392563 0.289091 0.623 
-0.362357 0.288163 0.621 
-0.330728 0.285842 0.616 
-0.301526 0.285378 0.615 
-0.270642 0.283058 0.61 
-0.239827 0.280274 0.604 
-0.211675 0.280274 0.604 
-0.182914 0.279346 0.602 
-0.153826 0.27749 0.598 
-0.125953 0.27749 0.598 
-0.0966041 0.273314 0.589 
-0.069268 0.273778 0.59 
-0.0415555 0.272386 0.587 
-0.0141227 0.270994 0.584 
0.0130528 0.270065 0.582 
0.04018 0.270065 0.582 
0.0669603 0.268673 0.579 
0.0932986 0.266817 0.575 
0.120099 0.266817 0.575 
3.38762 6.00687 12.945 
4.91844 7.2565 15.638 
5.19051 6.6695 14.373 
4.95036 5.63379 12.141 
5.48218 5.59899 12.066 
6.1588 5.70478 12.294 
9.01991 7.62216 16.426 
7.81544 6.08761 13.119 
8.65945 6.25559 13.481 
9.75904 6.57298 14.165 
10.893 6.87182 14.809 
9.83559 5.77764 12.451 
8.34738 4.60457 9.923 
7.14167 3.73266 8.044 
7.9072 3.92662 8.462 
7.55013 3.57117 7.696 
-0.495042 0.29518 0.634 
-0.462554 0.293318 0.63 
-0.429752 0.29099 0.625 
-0.399338 0.290059 0.623 
-0.369706 0.289593 0.622 
-0.337427 0.2868 0.616 
-0.308715 0.2868 0.616 
-0.277731 0.284472 0.611 
-0.245988 0.280747 0.603 
-0.217882 0.280747 0.603 
-0.189462 0.280281 0.602 
-0.160598 0.278885 0.599 
-0.132014 0.277488 0.596 
-0.10118 0.274229 0.589 
-0.0739765 0.27516 0.591 
-0.0461156 0.273298 0.587 
-0.0186275 0.271435 0.583 
0.00853161 0.27097 0.582 
0.0355975 0.270504 0.581 
0.0624624 0.269573 0.579 
0.0889862 0.268176 0.576 
0.115432 0.267245 0.574 
3.20335 5.90965 12.693 
6.11951 9.48021 20.362 
4.98953 6.69183 14.373 
5.16569 6.10799 13.119 
5.51779 5.83376 12.53 
5.80428 5.54929 11.919 
6.22636 5.41707 11.635 
8.72726 6.94744 14.922 
8.30462 6.10799 13.119 
9.627 6.59499 14.165 
10.837 6.94744 14.922 
8.95679 5.38494 11.566 
9.13547 5.17077 11.106 
7.10903 3.80801 8.179 
7.8172 3.97422 8.536 
8.07359 3.90578 8.389 
-0.513581 0.296632 0.635 
-0.480935 0.294764 0.631 
-0.448662 0.292895 0.627 
-0.41743 0.291494 0.624 
-0.387723 0.291027 0.623 
-0.356958 0.289625 0.62 
-0.325943 0.287757 0.616 
-0.295301 0.285888 0.612 
-0.265032 0.284019 0.608 
-0.235135 0.282151 0.604 
-0.206297 0.281217 0.602 
-0.177942 0.280749 0.601 
-0.149181 0.279348 0.598 
-0.11885 0.277947 0.595 
-0.0905045 0.276078 0.591 
-0.0627448 0.275144 0.589 
-0.0351116 0.273742 0.586 
-0.00778463 0.273275 0.585 
0.0193492 0.271407 0.581 
0.0464298 0.271407 0.581 
0.0731308 0.270005 0.578 
0.099379 0.268137 0.574 
0.126133 0.268137 0.574 
3.91764 6.71416 14.373 
4.62172 6.76415 14.48 
5.2575 6.71416 14.373 
4.97602 5.63648 12.066 
5.50446 5.60191 11.992 
6.17717 5.70702 12.217 
9.95889 8.37717 17.933 
7.7302 5.96815 12.776 
8.90763 6.3853 13.669 
10.0363 6.71416 14.373 
10.1819 6.3853 13.669 
9.79241 5.77942 12.372 
8.50409 4.73117 10.128 
7.21868 3.80483 8.145 
7.86046 3.9361 8.426 
7.62829 3.63807 7.788 
-0.506862 0.29715 0.634 
-0.473547 0.294807 0.629 
-0.44211 0.293401 0.626 
-0.410954 0.291994 0.623 
-0.381302 0.291526 0.622 
-0.350045 0.289651 0.618 
-0.3202 0.288714 0.616 
-0.288649 0.285901 0.61 
-0.258084 0.283558 0.605 
-0.229505 0.283089 0.604 
-0.200685 0.282152 0.602 
-0.172339 0.281683 0.601 
-0.143366 0.279808 0.597 
-0.114765 0.277934 0.593 
-0.0866847 0.276528 0.59 
-0.0588837 0.275122 0.587 
-0.0314697 0.274653 0.586 
-0.00414193 0.273716 0.584 
0.0228809 0.271372 0.579 
0.0499544 0.271841 0.58 
0.0765901 0.270435 0.577 
0.102946 0.269029 0.574 
3.10958 6.36248 13.575 
4.0825 6.94085 14.809 
4.68706 6.68728 14.268 
5.31346 6.63901 14.165 
5.12013 5.69038 12.141 
5.72162 5.726 12.217 
6.33071 5.76209 12.294 
10.2198 8.48284 18.099 
7.86094 6.02737 12.86 
9.12021 6.49746 13.863 
10.201 6.78665 14.48 
10.1256 6.31842 13.481 
9.99533 5.8727 12.53 
8.29378 4.60395 9.823 
7.3796 3.88217 8.283 
7.83223 3.91544 8.354 
7.45595 3.5508 7.576 
-0.507847 0.298135 0.634 
-0.474524 0.295784 0.629 
-0.442375 0.293903 0.625 
-0.411921 0.292962 0.623 
-0.382269 0.292492 0.622 
-0.350437 0.290141 0.617 
-0.321157 0.289671 0.616 
-0.289597 0.286849 0.61 
-0.259024 0.284498 0.605 
-0.230443 0.284028 0.604 
-0.201621 0.283087 0.602 
-0.173273 0.282617 0.601 
-0.144293 0.280736 0.597 
-0.115687 0.278855 0.593 
-0.0874529 0.276974 0.589 
-0.0597957 0.276034 0.587 
-0.0323802 0.275563 0.586 
-0.00504928 0.274623 0.584 
0.0219433 0.271801 0.578 
0.0490533 0.272742 0.58 
0.0756937 0.271331 0.577 
0.102054 0.26992 0.574 
3.13111 6.42777 13.669 
4.05162 6.91119 14.697 
4.73421 6.80914 14.48 
5.29146 6.66102 14.165 
5.10127 5.70924 12.141 
5.66716 5.70924 12.141 
6.27208 5.74498 12.217 
9.35591 7.85638 16.707 
7.801 6.04735 12.86 
8.86746 6.38357 13.575 
10.0587 6.75883 14.373 
10.2031 6.42777 13.669 
10.0662 5.96882 12.693 
8.7308 4.8896 10.398 
7.43493 3.94488 8.389 
7.7933 3.92842 8.354 
7.68901 3.69142 7.85 
-0.511964 0.298648 0.633 
-0.480173 0.297233 0.63 
-0.447946 0.295346 0.626 
-0.416761 0.29393 0.623 
-0.387101 0.293459 0.622 
-0.35523 0.2911 0.617 
-0.325943 0.290628 0.616 
-0.294818 0.288269 0.611 
-0.26416 0.28591 0.606 
-0.234746 0.284494 0.603 
-0.206297 0.284023 0.602 
-0.177942 0.283551 0.601 
-0.148931 0.281664 0.597 
-0.120293 0.279776 0.593 
-0.0920285 0.277889 0.589 
-0.064575 0.277889 0.589 
-0.0369325 0.276474 0.586 
-0.00958601 0.27553 0.584 
0.0174834 0.273171 0.579 
0.0453704 0.273171 0.579 
0.0728777 0.271756 0.576 
0.0992059 0.27034 0.573 
0.125914 0.27034 0.573 
3.76223 6.58725 13.962 
4.88284 6.88259 14.588 
5.32408 6.58725 13.962 
5.13182 5.65781 11.992 
5.72589 5.69272 12.066 
6.44776 5.83709 12.372 
9.02297 7.49782 15.892 
7.8493 6.0277 12.776 
9.09917 6.49478 13.766 
10.3225 6.88259 14.588 
10.3824 6.49478 13.766 
10.4363 6.14848 13.032 
8.25636 4.58824 9.725 
7.38686 3.89139 8.248 
7.80428 3.90791 8.283 
7.52092 3.5885 7.606 
-0.50803 0.299632 0.633 
-0.475502 0.297738 0.629 
-0.443346 0.295845 0.625 
-0.412227 0.294425 0.622 
-0.383235 0.294425 0.622 
-0.350826 0.291585 0.616 
-0.322114 0.291585 0.616 
-0.290545 0.288745 0.61 
-0.259534 0.285905 0.604 
-0.230999 0.285431 0.603 
-0.202892 0.285431 0.603 
-0.173917 0.284011 0.6 
-0.144978 0.282118 0.596 
-0.116411 0.280224 0.592 
-0.088368 0.278804 0.589 
-0.0608111 0.278331 0.588 
-0.0332907 0.277384 0.586 
-0.00594643 0.275964 0.583 
0.0210089 0.273124 0.577 
0.0480691 0.274071 0.579 
0.0746676 0.272651 0.576 
0.100986 0.271231 0.573 
3.13194 6.51616 13.766 
3.91119 6.75379 14.268 
4.85554 7.06336 14.922 
5.30776 6.75379 14.268 
5.08241 5.74697 12.141 
5.6483 5.74697 12.141 
6.17581 5.71147 12.066 
8.27003 7.00987 14.809 
7.63036 5.96944 12.611 
8.72516 6.33771 13.389 
10.0363 6.80349 14.373 
10.4753 6.65675 14.063 
10.1787 6.08731 12.86 
8.77698 4.94795 10.453 
7.63168 4.07603 8.611 
7.7933 3.95438 8.354 
7.81537 3.77688 7.979 
-14.605 7.25229 15.271 
-0.48213 0.299191 0.63 
-0.449891 0.297291 0.626 
-0.418697 0.295866 0.623 
-0.389033 0.295391 0.622 
-0.356569 0.292542 0.616 
-0.327857 0.292542 0.616 
-0.296717 0.290167 0.611 
-0.266043 0.287793 0.606 
-0.23662 0.286368 0.603 
-0.207822 0.285418 0.601 
-0.17951 0.284943 0.6 
-0.151039 0.283994 0.598 
-0.122136 0.281619 0.593 
-0.0938587 0.279719 0.589 
-0.0664053 0.279719 0.589 
-0.0387534 0.278295 0.586 
-0.0113812 0.27687 0.583 
0.0156843 0.27497 0.579 
0.0425979 0.274495 0.578 
0.0692981 0.273546 0.576 
0.0954779 0.271646 0.572 
0.121925 0.271171 0.571 
3.57358 6.44685 13.575 
4.92765 7.36769 15.514 
5.51927 7.19625 15.153 
4.98809 5.76583 12.141 
5.55398 5.76583 12.141 
6.11988 5.76583 12.141 
7.17643 6.18897 13.032 
7.78385 6.18897 13.032 
8.50461 6.27255 13.208 
9.57252 6.58362 13.863 
10.5172 6.77595 14.268 
10.2817 6.23029 13.119 
9.17027 5.24486 11.044 
7.55141 4.08941 8.611 
7.71542 3.96736 8.354 
8.13876 3.98398 8.389 
-15.2235 7.51091 15.764 
-0.488778 0.300646 0.631 
-0.457183 0.299216 0.628 
-0.424505 0.296834 0.623 
-0.394832 0.296358 0.622 
-0.363487 0.294452 0.618 
-0.332516 0.292546 0.614 
-0.303402 0.29207 0.613 
-0.272589 0.289687 0.608 
-0.242241 0.287305 0.603 
-0.21307 0.285876 0.6 
-0.185103 0.285876 0.6 
-0.156613 0.284923 0.598 
-0.127664 0.28254 0.593 
-0.0995181 0.281111 0.59 
-0.0721401 0.281587 0.591 
-0.0442916 0.279682 0.587 
-0.0168448 0.278252 0.584 
0.0103046 0.276346 0.58 
0.037081 0.274441 0.576 
0.0637066 0.273488 0.574 
0.0903033 0.273011 0.573 
0.116603 0.272058 0.571 
3.486 6.42315 13.481 
5.17679 7.96021 16.707 
5.57445 7.45087 15.638 
5.05057 5.97004 12.53 
5.56355 5.89476 12.372 
6.1015 5.85759 12.294 
6.24237 5.47833 11.498 
7.94731 6.42315 13.481 
8.18063 6.12727 12.86 
9.3986 6.55894 13.766 
10.9665 7.16404 15.036 
10.0448 6.16777 12.945 
9.82274 5.67892 11.919 
7.63286 4.17664 8.766 
7.53416 3.91316 8.213 
8.26399 4.08469 8.573 
-16.1009 7.91876 16.566 
-0.4927 0.301626 0.631 
-0.460352 0.299714 0.627 
-0.428376 0.297802 0.623 
-0.398697 0.297324 0.622 
-0.367922 0.29589 0.619 
-0.336332 0.2935 0.614 
-0.307713 0.2935 0.614 
-0.276822 0.29111 0.609 
-0.245988 0.288242 0.603 
-0.216437 0.28633 0.599 
-0.189147 0.287286 0.601 
-0.16033 0.285852 0.598 
-0.131349 0.283462 0.593 
-0.103185 0.282028 0.59 
-0.075813 0.282506 0.591 
-0.0478579 0.280116 0.586 
-0.0204742 0.27916 0.584 
