# .PCD v.7 - Point Cloud Data file format
VERSION .7
FIELDS x y z
SIZE 4 4 4
TYPE F F F
COUNT 1 1 1
WIDTH 1841
HEIGHT 1
VIEWPOINT 0 0 0 1 0 0 0
POINTS 1841
DATA ascii
-1.26221 -0.373326 1.537 
-1.18825 -0.372598 1.534 
-1.12257 -0.374541 1.542 
-1.04797 -0.373569 1.538 
-0.714142 -0.282242 1.162 
-0.670772 -0.286857 1.181 
-0.661084 -0.307988 1.268 
-0.730573 -0.376241 1.549 
-0.291186 -0.194071 0.799 
-0.240512 -0.186542 0.768 
-0.204449 -0.186299 0.767 
-0.169798 -0.187513 0.772 
-0.133642 -0.18727 0.771 
-0.0984657 -0.188728 0.777 
-0.0616887 -0.187028 0.77 
-0.0259328 -0.187999 0.774 
0.0101567 -0.188242 0.775 
0.0463394 -0.188485 0.776 
0.0826153 -0.188728 0.777 
0.11929 -0.189456 0.78 
0.156045 -0.189942 0.782 
0.192249 -0.189699 0.781 
0.229822 -0.190671 0.785 
0.264714 -0.189456 0.78 
0.299913 -0.188728 0.777 
0.701486 -0.391058 1.61 
0.780387 -0.393001 1.618 
0.856331 -0.393244 1.619 
0.931793 -0.393244 1.619 
1.00726 -0.393244 1.619 
1.08272 -0.393244 1.619 
1.16247 -0.394701 1.625 
1.23745 -0.394458 1.624 
1.30587 -0.392272 1.615 
1.3897 -0.394701 1.625 
1.46814 -0.39543 1.628 
1.53359 -0.392758 1.617 
1.62389 -0.396401 1.632 
-1.32983 -0.373834 1.549 
-1.24383 -0.369732 1.532 
-1.17318 -0.369973 1.533 
-1.10892 -0.372386 1.543 
-1.03364 -0.37118 1.538 
-0.700283 -0.279229 1.157 
-0.661997 -0.285987 1.185 
-0.673329 -0.317361 1.315 
-0.723992 -0.377937 1.566 
-0.285336 -0.193071 0.8 
-0.238436 -0.18559 0.769 
-0.202592 -0.18559 0.769 
-0.167616 -0.186555 0.773 
-0.131757 -0.186797 0.774 
-0.0960513 -0.187521 0.777 
-0.059373 -0.186073 0.771 
-0.0235581 -0.187038 0.775 
0.0125811 -0.187279 0.776 
0.0487507 -0.187279 0.776 
0.0851392 -0.187762 0.778 
0.122026 -0.188727 0.782 
0.158881 -0.18921 0.784 
0.195174 -0.188969 0.783 
0.232853 -0.189934 0.787 
0.267823 -0.188727 0.782 
0.303494 -0.188245 0.78 
0.706927 -0.388797 1.611 
0.7859 -0.390728 1.619 
0.862426 -0.391211 1.621 
0.937981 -0.391211 1.621 
1.01416 -0.391452 1.622 
1.08775 -0.390728 1.619 
1.16968 -0.3929 1.628 
1.2425 -0.391935 1.624 
1.31251 -0.390245 1.617 
1.39732 -0.3929 1.628 
1.47501 -0.393383 1.63 
1.54052 -0.390728 1.619 
-1.39207 -0.36879 1.538 
-1.33069 -0.371668 1.55 
-1.24464 -0.367591 1.533 
-1.17548 -0.368311 1.536 
-1.10964 -0.370229 1.544 
-1.03364 -0.36879 1.538 
-0.691269 -0.275274 1.148 
-0.657204 -0.283666 1.183 
-0.673823 -0.317476 1.324 
-0.719897 -0.377183 1.573 
-0.280551 -0.191109 0.797 
-0.233369 -0.185114 0.772 
-0.196618 -0.184395 0.769 
-0.161193 -0.184875 0.771 
-0.125744 -0.185594 0.774 
-0.0901311 -0.186553 0.778 
-0.0535913 -0.185594 0.774 
-0.0175149 -0.185594 0.774 
0.0186334 -0.186313 0.777 
0.0549202 -0.186553 0.778 
0.100029 -0.187272 0.781 
0.136781 -0.187752 0.783 
0.173719 -0.188232 0.785 
0.210844 -0.188711 0.787 
0.246583 -0.187992 0.784 
0.283486 -0.188232 0.785 
0.320891 -0.188711 0.787 
0.745892 -0.389651 1.625 
0.82214 -0.389891 1.626 
0.896824 -0.389412 1.624 
0.972519 -0.389412 1.624 
1.0508 -0.390371 1.628 
1.12252 -0.388932 1.622 
1.20551 -0.39133 1.632 
1.27608 -0.389651 1.625 
1.34517 -0.387733 1.617 
1.43108 -0.390611 1.629 
1.51164 -0.39181 1.634 
1.59849 -0.394447 1.645 
-1.36278 -0.366877 1.54 
-1.291 -0.366877 1.54 
-1.21684 -0.366162 1.537 
-1.14893 -0.367353 1.542 
-1.07286 -0.365924 1.536 
-1.00127 -0.365924 1.536 
-0.666772 -0.275158 1.155 
-0.656983 -0.294931 1.238 
-0.742111 -0.369974 1.553 
-0.668431 -0.369259 1.55 
-0.248316 -0.183439 0.77 
-0.212978 -0.183915 0.772 
-0.177224 -0.184153 0.773 
-0.140464 -0.1832 0.769 
-0.106117 -0.185821 0.78 
-0.0694033 -0.184868 0.776 
-0.033148 -0.184391 0.774 
0.00295483 -0.186059 0.781 
0.0390047 -0.184391 0.774 
0.0805106 -0.185821 0.78 
0.122182 -0.186536 0.783 
0.159083 -0.187012 0.785 
0.195423 -0.186774 0.784 
0.233149 -0.187727 0.788 
0.268508 -0.186774 0.784 
0.304662 -0.186536 0.783 
0.712073 -0.385221 1.617 
0.789876 -0.386412 1.622 
0.867079 -0.387127 1.625 
0.94108 -0.386412 1.622 
1.01856 -0.387127 1.625 
1.09026 -0.385697 1.619 
1.17509 -0.388794 1.632 
1.24885 -0.38808 1.629 
1.31909 -0.386412 1.622 
1.40157 -0.388318 1.63 
1.47936 -0.388794 1.632 
1.5478 -0.386889 1.624 
-1.38968 -0.364011 1.538 
-1.32742 -0.366614 1.549 
-1.24469 -0.363538 1.536 
-1.17538 -0.364248 1.539 
-1.10724 -0.365431 1.544 
-1.03125 -0.364011 1.538 
-0.678074 -0.26721 1.129 
-0.642536 -0.277624 1.173 
-0.67757 -0.319989 1.352 
-0.709218 -0.371821 1.571 
-0.265582 -0.183426 0.775 
-0.229163 -0.183189 0.774 
-0.191839 -0.182006 0.769 
-0.156199 -0.182242 0.77 
-0.120934 -0.183189 0.774 
-0.0854057 -0.184372 0.779 
-0.0451735 -0.183189 0.774 
-0.00917939 -0.184846 0.781 
0.0270838 -0.183899 0.777 
0.0637074 -0.185082 0.782 
0.108106 -0.184136 0.778 
0.150354 -0.185556 0.784 
0.186658 -0.185319 0.783 
0.224579 -0.186502 0.788 
0.2602 -0.184846 0.781 
0.295843 -0.184372 0.779 
0.696999 -0.382709 1.617 
0.776189 -0.384602 1.625 
0.854028 -0.385549 1.629 
0.929956 -0.385549 1.629 
1.0028 -0.384365 1.624 
1.07982 -0.384839 1.626 
1.15987 -0.386259 1.632 
1.23897 -0.387205 1.636 
1.30718 -0.384839 1.626 
1.38808 -0.386259 1.632 
1.46235 -0.385785 1.63 
1.53455 -0.384839 1.626 
1.62817 -0.389099 1.644 
-1.34273 -0.364443 1.55 
-1.26392 -0.362562 1.542 
-1.1936 -0.363032 1.544 
-1.12454 -0.363973 1.548 
-1.04491 -0.361386 1.537 
-0.688669 -0.266161 1.132 
-0.645242 -0.274625 1.168 
-0.673199 -0.313891 1.335 
-0.7141 -0.369381 1.571 
-0.268507 -0.183397 0.78 
-0.230663 -0.182221 0.775 
-0.193285 -0.181046 0.77 
-0.157395 -0.181046 0.77 
-0.122294 -0.182221 0.775 
-0.0843034 -0.183397 0.78 
-0.0415121 -0.181751 0.773 
-0.00555331 -0.184102 0.783 
0.0306659 -0.182457 0.776 
0.0674384 -0.184102 0.783 
0.103403 -0.183162 0.779 
0.140609 -0.184338 0.784 
0.179053 -0.185043 0.787 
0.216283 -0.185513 0.789 
0.254784 -0.184102 0.783 
0.291652 -0.184338 0.784 
0.330706 -0.185748 0.79 
0.765445 -0.383018 1.629 
0.844988 -0.384664 1.636 
0.921243 -0.384664 1.636 
0.99262 -0.382783 1.628 
1.07113 -0.383723 1.632 
1.14719 -0.383723 1.632 
1.23151 -0.38631 1.643 
1.30013 -0.383958 1.633 
1.37287 -0.383018 1.629 
1.45236 -0.383958 1.633 
1.52753 -0.383723 1.632 
1.62522 -0.388896 1.654 
-1.35302 -0.361568 1.548 
-1.27756 -0.360633 1.544 
-1.20715 -0.3611 1.546 
-1.13803 -0.362035 1.55 
-1.05685 -0.358998 1.537 
-0.695172 -0.264869 1.134 
-0.652759 -0.271409 1.162 
-0.6599 -0.299204 1.281 
-0.725379 -0.366473 1.569 
-0.286049 -0.187324 0.802 
-0.237274 -0.18055 0.773 
-0.201765 -0.181017 0.775 
-0.164359 -0.179616 0.769 
-0.129853 -0.181485 0.777 
-0.0904786 -0.182419 0.781 
-0.04764 -0.181017 0.775 
-0.0092264 -0.183353 0.785 
0.0271187 -0.181718 0.778 
0.0638703 -0.18312 0.784 
0.0999005 -0.182185 0.78 
0.136781 -0.182886 0.783 
0.174162 -0.18382 0.787 
0.216557 -0.184521 0.79 
0.252417 -0.18382 0.787 
0.289834 -0.184287 0.789 
0.327024 -0.184521 0.79 
0.758317 -0.38072 1.63 
0.838899 -0.382823 1.639 
0.914176 -0.382355 1.637 
0.986242 -0.38072 1.63 
1.06417 -0.381421 1.633 
1.13819 -0.38072 1.63 
1.22683 -0.384691 1.647 
1.29726 -0.382823 1.639 
1.36528 -0.380487 1.629 
1.4474 -0.382122 1.636 
1.52179 -0.381655 1.634 
1.62142 -0.38726 1.658 
-1.35389 -0.359395 1.549 
-1.27838 -0.358466 1.545 
-1.20715 -0.358699 1.546 
-1.14097 -0.360555 1.554 
-1.05753 -0.356842 1.538 
-0.68913 -0.261483 1.127 
-0.645552 -0.265892 1.146 
-0.658355 -0.296518 1.278 
-0.722481 -0.363803 1.568 
-0.611294 -0.342457 1.476 
-0.238475 -0.179349 0.773 
-0.203493 -0.180277 0.777 
-0.165339 -0.178189 0.768 
-0.13106 -0.180277 0.777 
-0.0919269 -0.181669 0.783 
-0.0500482 -0.179813 0.775 
-0.0141049 -0.182133 0.785 
0.0223696 -0.181205 0.781 
0.0589227 -0.181669 0.783 
0.0986886 -0.180973 0.78 
0.135564 -0.181669 0.783 
0.173159 -0.18283 0.788 
0.214102 -0.183294 0.79 
0.250925 -0.183294 0.79 
0.288111 -0.183526 0.791 
0.324569 -0.183294 0.79 
0.756712 -0.378652 1.632 
0.837373 -0.38074 1.641 
0.912746 -0.380276 1.639 
0.984916 -0.378652 1.632 
1.06228 -0.379116 1.634 
1.13705 -0.378652 1.632 
1.22724 -0.38306 1.651 
1.29788 -0.381204 1.643 
1.36526 -0.378652 1.632 
1.44574 -0.379812 1.637 
1.52204 -0.379812 1.637 
1.62178 -0.38538 1.661 
-1.36871 -0.355836 1.544 
-1.29591 -0.355605 1.543 
-1.22478 -0.355836 1.544 
-1.15954 -0.35791 1.553 
-1.07665 -0.354453 1.538 
-0.718023 -0.264572 1.148 
-0.638466 -0.254201 1.103 
-0.664216 -0.290154 1.259 
-0.738119 -0.360675 1.565 
-0.642222 -0.34823 1.511 
-0.245363 -0.177918 0.772 
-0.211007 -0.179301 0.778 
-0.173172 -0.177687 0.771 
-0.136391 -0.178148 0.773 
-0.101789 -0.180683 0.784 
-0.0649968 -0.179992 0.781 
-0.0249858 -0.180222 0.782 
0.0114928 -0.180683 0.784 
0.0477901 -0.179761 0.78 
0.0903212 -0.179992 0.781 
0.127048 -0.180453 0.783 
0.165006 -0.182066 0.79 
0.202084 -0.182297 0.791 
0.239255 -0.182527 0.792 
0.275821 -0.182297 0.791 
0.31269 -0.182297 0.791 
0.729564 -0.375194 1.628 
0.809403 -0.377038 1.636 
0.884034 -0.376347 1.633 
0.95956 -0.376116 1.632 
1.03436 -0.375655 1.63 
1.10693 -0.374503 1.625 
1.1965 -0.378882 1.644 
1.27545 -0.379573 1.647 
1.34072 -0.376347 1.633 
1.41944 -0.377038 1.636 
1.49204 -0.376116 1.632 
1.5854 -0.380265 1.65 
-19.7903 -4.66106 20.362 
-1.32416 -0.354352 1.548 
-1.24796 -0.353208 1.543 
-1.18062 -0.354581 1.549 
-1.10985 -0.355039 1.551 
-1.02819 -0.351834 1.537 
-0.644565 -0.250198 1.093 
-0.620233 -0.261415 1.142 
-0.754151 -0.358931 1.568 
-0.664995 -0.350461 1.531 
-0.253214 -0.177176 0.774 
-0.217699 -0.177634 0.776 
-0.181061 -0.177176 0.774 
-0.144797 -0.176947 0.773 
-0.109331 -0.177863 0.777 
-0.0734907 -0.178779 0.781 
-0.0368032 -0.177405 0.775 
-0.000689826 -0.179923 0.786 
0.0354428 -0.177405 0.775 
0.0786875 -0.179923 0.786 
0.114736 -0.179007 0.782 
0.152539 -0.18061 0.789 
0.189794 -0.181068 0.791 
0.227236 -0.181525 0.793 
0.262199 -0.180152 0.787 
0.299261 -0.180381 0.788 
0.705135 -0.373123 1.63 
0.783985 -0.374496 1.636 
0.862343 -0.375412 1.64 
0.939356 -0.375641 1.641 
1.00903 -0.373123 1.63 
1.091 -0.375183 1.639 
1.16811 -0.375412 1.64 
1.25517 -0.378617 1.654 
1.3234 -0.376099 1.643 
1.39828 -0.375641 1.641 
1.47117 -0.374725 1.637 
1.55409 -0.376328 1.644 
1.64361 -0.379304 1.657 
-1.35498 -0.353084 1.553 
-1.27846 -0.351947 1.548 
-1.20709 -0.352175 1.549 
-1.14515 -0.355358 1.563 
-1.05583 -0.349901 1.539 
-0.656946 -0.248046 1.091 
-0.621649 -0.254411 1.119 
-0.769749 -0.356949 1.57 
-0.687253 -0.352175 1.549 
-0.264193 -0.176883 0.778 
-0.227637 -0.176656 0.777 
-0.191174 -0.176428 0.776 
-0.155204 -0.176656 0.777 
-0.119448 -0.177338 0.78 
-0.0834111 -0.17802 0.783 
-0.046376 -0.175974 0.774 
-0.0104993 -0.179384 0.789 
0.0260431 -0.177792 0.782 
0.0668139 -0.179611 0.79 
0.102455 -0.177565 0.781 
0.140103 -0.179157 0.788 
0.178178 -0.180521 0.794 
0.214373 -0.179839 0.791 
0.25156 -0.180066 0.792 
0.289568 -0.180748 0.795 
0.325801 -0.180293 0.793 
0.754639 -0.371273 1.633 
0.837875 -0.374456 1.647 
0.9102 -0.372637 1.639 
0.983584 -0.3715 1.634 
1.05975 -0.3715 1.634 
1.13938 -0.372637 1.639 
1.22987 -0.376956 1.658 
1.304 -0.376047 1.654 
1.36857 -0.372637 1.639 
1.44849 -0.373546 1.643 
1.52507 -0.373546 1.643 
1.62407 -0.378775 1.666 
-1.37769 -0.349091 1.546 
-1.30563 -0.349091 1.546 
-1.23597 -0.349768 1.549 
-1.16828 -0.351123 1.555 
-1.08875 -0.348865 1.545 
-0.662982 -0.245447 1.087 
-0.621893 -0.249286 1.104 
-0.651471 -0.28993 1.284 
-0.700029 -0.351349 1.556 
-0.264532 -0.1759 0.779 
-0.227637 -0.175448 0.777 
-0.191421 -0.175448 0.777 
-0.155404 -0.175674 0.778 
-0.119601 -0.176352 0.781 
-0.0821946 -0.176803 0.783 
-0.0451735 -0.174771 0.774 
-0.00927341 -0.178158 0.789 
0.027293 -0.176803 0.783 
0.0644406 -0.17861 0.791 
0.100029 -0.176352 0.781 
0.137654 -0.177932 0.788 
0.175489 -0.179061 0.793 
0.211916 -0.17861 0.791 
0.249728 -0.179287 0.794 
0.287459 -0.179739 0.796 
0.323745 -0.179287 0.794 
0.752101 -0.368735 1.633 
0.836838 -0.372574 1.65 
0.905992 -0.369413 1.636 
0.982847 -0.369639 1.637 
1.05721 -0.368961 1.634 
1.13822 -0.370542 1.641 
1.22729 -0.37438 1.658 
1.30379 -0.374155 1.657 
1.36685 -0.370316 1.64 
1.44769 -0.371445 1.645 
1.52437 -0.371445 1.645 
1.6244 -0.376864 1.669 
-1.3801 -0.346689 1.546 
-1.30973 -0.347137 1.548 
-1.24157 -0.348258 1.553 
-1.17145 -0.348931 1.556 
-1.09327 -0.347137 1.548 
-0.65611 -0.240619 1.073 
-0.61793 -0.246674 1.1 
-0.648934 -0.286814 1.279 
-0.701092 -0.348258 1.553 
-0.263322 -0.17469 0.779 
-0.226721 -0.174466 0.778 
-0.189006 -0.174241 0.777 
-0.152987 -0.174466 0.778 
-0.115812 -0.174914 0.78 
-0.0797616 -0.175587 0.783 
-0.0428236 -0.173793 0.775 
-0.00682171 -0.176932 0.789 
0.0296881 -0.175363 0.782 
0.0668985 -0.177381 0.791 
0.102718 -0.175587 0.783 
0.141865 -0.177381 0.791 
0.180089 -0.178726 0.797 
0.215602 -0.177381 0.791 
0.253748 -0.178278 0.795 
0.292406 -0.178502 0.796 
0.329093 -0.178278 0.795 
0.765051 -0.367544 1.639 
0.847606 -0.370235 1.651 
0.918399 -0.367768 1.64 
0.992414 -0.366871 1.636 
1.07389 -0.368665 1.644 
1.15122 -0.368889 1.645 
1.23984 -0.372477 1.661 
1.31488 -0.371804 1.658 
1.38124 -0.368889 1.645 
1.45969 -0.369338 1.647 
1.54112 -0.370459 1.652 
1.63967 -0.375392 1.674 
-1.37644 -0.345177 1.55 
-1.3042 -0.345177 1.55 
-1.23433 -0.345845 1.553 
-1.16644 -0.347182 1.559 
-1.08676 -0.344955 1.549 
-0.649405 -0.234721 1.054 
-0.623628 -0.243851 1.095 
-0.656625 -0.282155 1.267 
-0.720294 -0.346959 1.558 
-0.607351 -0.325358 1.461 
-0.23548 -0.172589 0.775 
-0.200643 -0.173702 0.78 
-0.163234 -0.172589 0.775 
-0.128587 -0.174593 0.784 
-0.0923965 -0.175261 0.787 
-0.0552186 -0.173702 0.78 
-0.019056 -0.175484 0.788 
0.0176953 -0.175706 0.789 
0.0544708 -0.175706 0.789 
0.0904368 -0.174148 0.782 
0.130474 -0.175706 0.789 
0.168097 -0.176597 0.793 
0.205059 -0.176597 0.793 
0.242937 -0.177265 0.796 
0.280038 -0.177265 0.796 
0.316742 -0.177043 0.795 
0.736879 -0.363661 1.633 
0.823448 -0.368338 1.654 
0.886385 -0.362548 1.628 
0.971724 -0.366111 1.644 
1.03815 -0.362548 1.628 
1.12429 -0.365888 1.643 
1.21111 -0.369006 1.657 
1.29223 -0.370119 1.662 
1.35404 -0.365888 1.643 
1.43845 -0.367892 1.652 
1.50536 -0.365443 1.641 
1.60499 -0.370787 1.665 
-1.41592 -0.344759 1.559 
-1.33636 -0.34299 1.551 
-1.26652 -0.343654 1.554 
-1.19485 -0.343875 1.555 
-1.1332 -0.347192 1.57 
-1.03774 -0.339894 1.537 
-0.629904 -0.233746 1.057 
-0.612498 -0.246573 1.115 
-0.7722 -0.348298 1.575 
-0.672612 -0.33525 1.516 
-0.261236 -0.17249 0.78 
-0.224592 -0.172269 0.779 
-0.188041 -0.172048 0.778 
-0.151973 -0.172269 0.779 
-0.11596 -0.172711 0.781 
-0.0797616 -0.173154 0.783 
-0.0429894 -0.172048 0.778 
-0.00683036 -0.174702 0.79 
0.029726 -0.173154 0.783 
0.0670676 -0.175365 0.793 
0.104598 -0.174259 0.788 
0.143456 -0.175365 0.793 
0.181783 -0.176692 0.799 
0.217654 -0.175586 0.794 
0.255945 -0.176471 0.798 
0.292773 -0.17625 0.797 
0.329921 -0.17625 0.797 
0.766918 -0.363335 1.643 
0.849146 -0.365768 1.654 
0.917839 -0.362451 1.639 
0.994234 -0.362451 1.639 
1.07651 -0.364441 1.648 
1.15472 -0.364883 1.65 
1.24058 -0.367537 1.662 
1.31805 -0.367537 1.662 
1.38544 -0.364883 1.65 
1.46412 -0.365326 1.652 
1.54765 -0.366874 1.659 
1.64359 -0.371075 1.678 
-1.37605 -0.341459 1.555 
-1.30441 -0.341679 1.556 
-1.23109 -0.341459 1.555 
-1.16308 -0.342776 1.561 
-1.08264 -0.340361 1.55 
-0.642522 -0.227273 1.035 
-0.624138 -0.238692 1.087 
-0.658206 -0.275583 1.255 
-0.731382 -0.342776 1.561 
-0.617275 -0.321257 1.463 
-0.2415 -0.17018 0.775 
-0.207497 -0.171937 0.783 
-0.169254 -0.17018 0.775 
-0.134677 -0.172157 0.784 
-0.0986354 -0.173035 0.788 
-0.0615922 -0.172157 0.784 
-0.0251775 -0.173035 0.788 
0.0115954 -0.173694 0.791 
0.0485254 -0.173913 0.792 
0.0849013 -0.172816 0.787 
0.123431 -0.173694 0.791 
0.16111 -0.174572 0.795 
0.198414 -0.174792 0.796 
0.236404 -0.175451 0.799 
0.271591 -0.174133 0.793 
0.310498 -0.175231 0.798 
0.722201 -0.360124 1.64 
0.806921 -0.363857 1.657 
0.873482 -0.359465 1.637 
0.958486 -0.362759 1.652 
1.01919 -0.35705 1.626 
1.10912 -0.361661 1.647 
1.19165 -0.363418 1.655 
1.27952 -0.366492 1.669 
1.34593 -0.363418 1.655 
1.42221 -0.363198 1.654 
1.48752 -0.360343 1.641 
1.58307 -0.364735 1.661 
-1.42198 -0.340787 1.563 
-1.34223 -0.339043 1.555 
-1.26975 -0.339043 1.555 
-1.19958 -0.339697 1.558 
-1.13781 -0.342968 1.573 
-0.67148 -0.226755 1.04 
-0.626599 -0.228064 1.046 
-0.609333 -0.240492 1.103 
-0.782016 -0.344494 1.58 
-0.681023 -0.331194 1.519 
-0.263998 -0.170285 0.781 
-0.227304 -0.170067 0.78 
-0.190703 -0.169849 0.779 
-0.15479 -0.170285 0.781 
-0.11869 -0.170721 0.783 
-0.0825095 -0.171375 0.786 
-0.045582 -0.170285 0.781 
-0.00929692 -0.172465 0.791 
0.0273975 -0.171375 0.786 
0.0647664 -0.173337 0.795 
0.101437 -0.172683 0.792 
0.138527 -0.172901 0.793 
0.176817 -0.174209 0.799 
0.212987 -0.173337 0.795 
0.251929 -0.174645 0.801 
0.288542 -0.174209 0.799 
0.325376 -0.173991 0.798 
0.754155 -0.35823 1.643 
0.837814 -0.361282 1.657 
0.899032 -0.354959 1.628 
0.988687 -0.359974 1.651 
1.06048 -0.35823 1.643 
1.14467 -0.360628 1.654 
1.22693 -0.362155 1.661 
1.30828 -0.363245 1.666 
1.37346 -0.359974 1.651 
1.45919 -0.362155 1.661 
1.53476 -0.361718 1.659 
1.62667 -0.364989 1.674 
-1.38876 -0.336194 1.553 
-1.32061 -0.337276 1.558 
-1.25039 -0.337926 1.561 
-1.17914 -0.338359 1.563 
-1.10275 -0.337276 1.558 
-0.648048 -0.223191 1.031 
-0.616288 -0.229253 1.059 
-0.632775 -0.25588 1.182 
-0.754112 -0.340524 1.573 
-0.638812 -0.319525 1.476 
-0.252429 -0.168638 0.779 
-0.218062 -0.170154 0.786 
-0.179579 -0.168422 0.778 
-0.143685 -0.168855 0.78 
-0.108017 -0.169937 0.785 
-0.0714278 -0.169937 0.785 
-0.0337476 -0.170587 0.788 
0.00298888 -0.171019 0.79 
0.039811 -0.171019 0.79 
0.0769242 -0.171669 0.793 
0.114317 -0.172318 0.796 
0.151609 -0.172535 0.797 
0.189468 -0.173184 0.8 
0.226473 -0.172968 0.799 
0.264044 -0.173184 0.8 
0.301333 -0.173184 0.8 
0.701401 -0.35611 1.645 
0.782805 -0.358275 1.655 
0.857866 -0.357409 1.651 
0.933121 -0.35676 1.648 
1.00442 -0.354811 1.639 
1.09071 -0.358059 1.654 
1.1685 -0.358275 1.655 
1.25392 -0.360656 1.666 
1.33078 -0.36044 1.665 
1.40246 -0.358924 1.658 
1.47974 -0.358924 1.658 
1.56641 -0.361089 1.668 
1.65993 -0.364553 1.684 
-1.37408 -0.335501 1.561 
-1.30383 -0.336145 1.564 
-1.22778 -0.335286 1.56 
-1.15877 -0.33636 1.565 
-1.07403 -0.332707 1.548 
-0.63585 -0.221804 1.032 
-0.614516 -0.231906 1.079 
-0.65155 -0.267799 1.246 
-0.730913 -0.335286 1.56 
-0.619806 -0.315727 1.469 
-0.243017 -0.166783 0.776 
-0.209513 -0.168932 0.786 
-0.167922 -0.167643 0.78 
-0.133253 -0.169792 0.79 
-0.0964309 -0.169792 0.79 
-0.0582335 -0.169362 0.788 
-0.0191286 -0.170007 0.791 
0.0178074 -0.170652 0.794 
0.0548851 -0.170867 0.795 
0.0918246 -0.170652 0.794 
0.128509 -0.170222 0.792 
0.166259 -0.171082 0.796 
0.203617 -0.171297 0.797 
0.242276 -0.172371 0.802 
0.277216 -0.170867 0.795 
0.315457 -0.171512 0.798 
0.734295 -0.354629 1.65 
0.81661 -0.356993 1.661 
0.878959 -0.350975 1.633 
0.969695 -0.356348 1.658 
1.03182 -0.35119 1.634 
1.12222 -0.355704 1.655 
1.20226 -0.356563 1.659 
1.28961 -0.359357 1.672 
1.35855 -0.356993 1.661 
1.43856 -0.357638 1.664 
1.50701 -0.355489 1.654 
1.58889 -0.356563 1.659 
-1.42471 -0.334142 1.566 
-1.34741 -0.333075 1.561 
-1.27383 -0.332862 1.56 
-1.2042 -0.333715 1.564 
-1.13853 -0.335849 1.574 
-0.669543 -0.221268 1.037 
-0.623005 -0.221908 1.04 
-0.604362 -0.23343 1.094 
-0.783501 -0.337769 1.583 
-0.660792 -0.315579 1.479 
-0.263457 -0.167071 0.783 
-0.226962 -0.167071 0.783 
-0.189736 -0.166431 0.78 
-0.146483 -0.166858 0.782 
-0.110456 -0.167498 0.785 
-0.070566 -0.168351 0.789 
-0.0313387 -0.168351 0.789 
0.00546436 -0.169205 0.793 
0.0426403 -0.170058 0.797 
0.0795885 -0.169632 0.795 
0.116937 -0.170058 0.797 
0.154472 -0.170485 0.799 
0.191954 -0.170698 0.8 
0.229815 -0.171125 0.802 
0.26653 -0.170698 0.8 
0.30707 -0.171125 0.802 
0.714652 -0.352492 1.652 
0.795965 -0.354413 1.661 
0.866549 -0.351639 1.648 
0.948515 -0.353559 1.657 
1.01522 -0.349932 1.64 
1.10165 -0.353132 1.655 
1.18093 -0.353772 1.658 
1.26883 -0.35676 1.672 
1.34435 -0.35612 1.669 
1.41788 -0.355053 1.664 
1.49094 -0.353986 1.659 
1.57489 -0.355479 1.666 
1.67139 -0.359534 1.685 
-1.36943 -0.331285 1.564 
-1.29819 -0.331709 1.566 
-1.22364 -0.331285 1.564 
-1.15442 -0.332345 1.569 
-0.680458 -0.219021 1.034 
-0.63104 -0.218598 1.032 
-0.609486 -0.228553 1.079 
-0.643416 -0.264562 1.249 
-0.713821 -0.327049 1.544 
-0.601138 -0.310951 1.468 
-0.234275 -0.16416 0.775 
-0.200198 -0.165855 0.783 
-0.154166 -0.166066 0.784 
-0.117774 -0.166278 0.785 
-0.0818054 -0.167549 0.791 
-0.0411455 -0.167125 0.789 
-0.00438663 -0.167761 0.792 
0.0324877 -0.167549 0.791 
0.0699702 -0.169032 0.798 
0.107165 -0.169032 0.798 
0.144541 -0.169244 0.799 
0.182465 -0.169879 0.802 
0.219024 -0.169244 0.799 
0.258511 -0.170726 0.806 
0.295856 -0.169879 0.802 
0.333237 -0.169879 0.802 
0.769483 -0.350349 1.654 
0.845552 -0.349926 1.652 
0.917527 -0.348019 1.643 
1.00318 -0.351196 1.658 
1.08046 -0.351196 1.658 
1.15774 -0.351196 1.658 
1.24024 -0.352679 1.665 
1.32259 -0.35395 1.671 
1.39629 -0.352891 1.666 
1.47836 -0.35395 1.671 
1.55439 -0.353526 1.669 
1.64098 -0.355433 1.678 
-1.38621 -0.328225 1.561 
-1.32355 -0.330748 1.573 
-1.24626 -0.329697 1.568 
-1.17317 -0.329697 1.568 
-1.08956 -0.326543 1.553 
-0.640747 -0.215943 1.027 
-0.609043 -0.22183 1.055 
-0.643879 -0.259678 1.235 
-0.730445 -0.327804 1.559 
-0.614211 -0.309511 1.472 
-0.2415 -0.162956 0.775 
-0.208557 -0.165479 0.787 
-0.168999 -0.165059 0.785 
-0.133759 -0.166741 0.793 
-0.096675 -0.16653 0.792 
-0.0598351 -0.166741 0.793 
-0.0228443 -0.16653 0.792 
0.0141421 -0.167371 0.796 
0.0513083 -0.167582 0.797 
0.0884567 -0.167582 0.797 
0.125132 -0.166951 0.794 
0.163162 -0.168002 0.799 
0.200654 -0.168213 0.8 
0.240025 -0.169684 0.807 
0.274887 -0.168002 0.799 
0.313691 -0.168843 0.803 
0.734029 -0.349251 1.661 
0.811449 -0.349251 1.661 
0.880307 -0.345887 1.645 
0.96687 -0.349462 1.662 
1.03554 -0.346518 1.648 
1.1218 -0.349462 1.662 
1.19566 -0.34841 1.657 
1.28749 -0.352405 1.676 
1.36154 -0.351354 1.671 
1.43684 -0.350723 1.668 
1.51095 -0.349882 1.664 
1.58565 -0.349251 1.661 
-1.43079 -0.327678 1.57 
-1.35675 -0.327469 1.569 
-1.2828 -0.32726 1.568 
-1.20971 -0.32726 1.568 
-1.1388 -0.327887 1.571 
-0.660846 -0.214138 1.026 
-0.617804 -0.215808 1.034 
-0.597704 -0.226453 1.085 
-0.771708 -0.329556 1.579 
-0.641908 -0.304093 1.457 
-0.264467 -0.164048 0.786 
-0.227831 -0.164048 0.786 
-0.190466 -0.163421 0.783 
-0.153339 -0.164048 0.786 
-0.117 -0.164465 0.788 
-0.0806784 -0.1653 0.792 
-0.0438183 -0.165509 0.793 
-0.00686494 -0.165717 0.794 
0.0301057 -0.165509 0.793 
0.0688165 -0.166761 0.799 
0.105925 -0.166552 0.798 
0.143838 -0.167387 0.802 
0.181671 -0.167804 0.804 
0.218328 -0.167178 0.801 
0.257578 -0.168431 0.807 
0.294095 -0.167804 0.804 
0.330745 -0.167387 0.802 
0.766192 -0.346044 1.658 
0.842963 -0.345836 1.657 
0.913532 -0.343331 1.645 
1.00044 -0.346879 1.662 
1.07596 -0.346253 1.659 
1.15537 -0.346879 1.662 
1.23581 -0.347714 1.666 
1.31976 -0.349384 1.674 
1.39612 -0.348966 1.672 
1.47405 -0.348966 1.672 
1.55106 -0.348758 1.671 
1.63284 -0.349593 1.675 
-1.39106 -0.323374 1.561 
-1.3335 -0.327103 1.579 
-1.25272 -0.325239 1.57 
-1.18255 -0.326067 1.574 
-1.0965 -0.322338 1.556 
-0.637285 -0.21213 1.024 
-0.606828 -0.218345 1.054 
-0.637282 -0.253976 1.226 
-0.707407 -0.315916 1.525 
-0.609223 -0.30473 1.471 
-0.238502 -0.160962 0.777 
-0.20541 -0.163448 0.789 
-0.16842 -0.163241 0.788 
-0.132861 -0.164691 0.795 
-0.0929835 -0.164069 0.792 
-0.0563513 -0.164898 0.796 
-0.0192011 -0.164484 0.794 
0.0178971 -0.165312 0.798 
0.0549541 -0.164898 0.796 
0.0924028 -0.165519 0.799 
0.128995 -0.164691 0.795 
0.167095 -0.165727 0.8 
0.20515 -0.166348 0.803 
0.246294 -0.167177 0.807 
0.284455 -0.166762 0.805 
0.321577 -0.166555 0.804 
0.748731 -0.344919 1.665 
0.824849 -0.344297 1.662 
0.894171 -0.34119 1.647 
0.98096 -0.344711 1.664 
1.05661 -0.34409 1.661 
1.13881 -0.34554 1.668 
1.21145 -0.34409 1.661 
1.30206 -0.347612 1.678 
1.38027 -0.347612 1.678 
1.45066 -0.345747 1.669 
1.52754 -0.34554 1.668 
1.60144 -0.344711 1.664 
-1.41227 -0.32136 1.563 
-1.35313 -0.32465 1.579 
-1.27548 -0.323622 1.574 
-1.20212 -0.323622 1.574 
-1.12517 -0.322594 1.569 
-0.641456 -0.208277 1.013 
-0.607145 -0.212801 1.035 
-0.626021 -0.239735 1.166 
-0.756587 -0.322388 1.568 
-0.628858 -0.298744 1.453 
-0.25869 -0.161811 0.787 
-0.220785 -0.161811 0.787 
-0.18457 -0.162222 0.789 
-0.147795 -0.162222 0.789 
-0.110489 -0.16325 0.794 
-0.0732953 -0.162839 0.792 
-0.0364259 -0.163044 0.793 
0.000537448 -0.163456 0.795 
0.0377818 -0.164278 0.799 
0.0750234 -0.164278 0.799 
0.111844 -0.163661 0.796 
0.150816 -0.165717 0.806 
0.187917 -0.165306 0.804 
0.229307 -0.166334 0.809 
0.266685 -0.166129 0.808 
0.30598 -0.166334 0.809 
0.712943 -0.342537 1.666 
0.788223 -0.341509 1.661 
0.864601 -0.341098 1.659 
0.941927 -0.341098 1.659 
1.02355 -0.342537 1.666 
1.09988 -0.342126 1.664 
1.17744 -0.342126 1.664 
1.26255 -0.344182 1.674 
1.34137 -0.344388 1.675 
1.41944 -0.344388 1.675 
1.49752 -0.344388 1.675 
1.57465 -0.344182 1.674 
1.67834 -0.349528 1.7 
-1.37869 -0.320156 1.569 
-1.31305 -0.321992 1.578 
-1.23714 -0.32138 1.575 
-1.15855 -0.319952 1.568 
-0.654216 -0.205275 1.006 
-0.616986 -0.20854 1.022 
-0.599433 -0.219559 1.076 
-0.791878 -0.323421 1.585 
-0.646492 -0.293221 1.437 
-0.588789 -0.297914 1.46 
-0.233044 -0.159772 0.783 
-0.198305 -0.1612 0.79 
-0.161483 -0.1612 0.79 
-0.12545 -0.162221 0.795 
-0.0882838 -0.162016 0.794 
-0.051469 -0.162629 0.797 
-0.0142846 -0.162221 0.795 
0.0228851 -0.163037 0.799 
0.0601268 -0.163037 0.799 
0.0973684 -0.163037 0.799 
0.135115 -0.163649 0.802 
0.173142 -0.164261 0.805 
0.211187 -0.164669 0.807 
0.250365 -0.164873 0.808 
0.288026 -0.164873 0.808 
0.324881 -0.164465 0.806 
0.756492 -0.339745 1.665 
0.832595 -0.339133 1.662 
0.905681 -0.3375 1.654 
0.989311 -0.339745 1.665 
1.06756 -0.339949 1.666 
1.14865 -0.340969 1.671 
1.22286 -0.339949 1.666 
1.31066 -0.342602 1.679 
1.3914 -0.343214 1.682 
1.46019 -0.340969 1.671 
1.539 -0.341173 1.672 
1.61886 -0.341581 1.674 
-1.40498 -0.316503 1.563 
-1.35003 -0.320756 1.584 
-1.27137 -0.319541 1.578 
-1.19782 -0.319541 1.578 
-0.668606 -0.200067 0.988 
-0.632007 -0.203105 1.003 
-0.603346 -0.209382 1.034 
-0.621864 -0.235909 1.165 
-0.751746 -0.316503 1.563 
-0.623582 -0.292811 1.446 
-0.258775 -0.160175 0.791 
-0.220785 -0.159365 0.787 
-0.185506 -0.16058 0.793 
-0.148357 -0.160378 0.792 
-0.112004 -0.161188 0.796 
-0.0745258 -0.160378 0.792 
-0.0378004 -0.161188 0.796 
-0.000698603 -0.161188 0.796 
0.0403653 -0.1622 0.801 
0.0776032 -0.161998 0.8 
0.114173 -0.160985 0.795 
0.153701 -0.163618 0.808 
0.190652 -0.16301 0.805 
0.229874 -0.164225 0.811 
0.267015 -0.16382 0.809 
0.305099 -0.164023 0.81 
0.715511 -0.338575 1.672 
0.789647 -0.336955 1.664 
0.868249 -0.33736 1.666 
0.94363 -0.33655 1.662 
1.02724 -0.338575 1.672 
1.10055 -0.337158 1.665 
1.17886 -0.33736 1.666 
1.26405 -0.339385 1.676 
1.34217 -0.339385 1.676 
1.41944 -0.339183 1.675 
1.49841 -0.339385 1.676 
1.57559 -0.339183 1.675 
1.6813 -0.344853 1.703 
-1.38045 -0.315682 1.571 
-1.31637 -0.317893 1.582 
-1.24028 -0.31729 1.579 
-1.16077 -0.315682 1.571 
-0.653903 -0.20014 0.996 
-0.617848 -0.203556 1.013 
-0.601614 -0.214608 1.068 
-0.803246 -0.319098 1.588 
-0.657198 -0.288555 1.436 
-0.602597 -0.294583 1.466 
-0.240343 -0.157339 0.783 
-0.203777 -0.160152 0.797 
-0.164353 -0.159147 0.792 
-0.128403 -0.160353 0.798 
-0.0908653 -0.15975 0.795 
-0.0540809 -0.160554 0.799 
-0.0167339 -0.159549 0.794 
0.0204279 -0.160755 0.8 
0.0617522 -0.161559 0.804 
0.0986098 -0.160554 0.799 
0.137042 -0.161961 0.806 
0.175043 -0.162362 0.808 
0.212967 -0.162563 0.809 
0.250365 -0.162362 0.808 
0.288739 -0.162764 0.81 
0.32609 -0.162563 0.809 
0.757855 -0.335174 1.668 
0.834599 -0.334772 1.666 
0.910062 -0.333968 1.662 
0.991093 -0.335174 1.668 
1.07268 -0.33638 1.674 
1.14865 -0.335777 1.671 
1.22653 -0.335777 1.671 
1.30988 -0.337183 1.678 
1.39306 -0.338389 1.684 
1.46019 -0.335777 1.671 
1.54176 -0.336581 1.675 
1.62853 -0.338389 1.684 
-1.41011 -0.312245 1.566 
-1.35249 -0.315834 1.584 
-1.27543 -0.315036 1.58 
-1.20103 -0.314837 1.579 
-0.668106 -0.196399 0.985 
-0.627249 -0.197994 0.993 
-0.600857 -0.204773 1.027 
-0.611679 -0.226507 1.136 
-0.757571 -0.312045 1.565 
-0.624694 -0.284729 1.428 
-0.265025 -0.158515 0.795 
-0.225675 -0.15692 0.787 
-0.189155 -0.159113 0.798 
-0.151198 -0.158316 0.794 
-0.114621 -0.158914 0.797 
-0.0771812 -0.158316 0.794 
-0.0404762 -0.159512 0.8 
-0.00318003 -0.159113 0.798 
0.0365404 -0.159313 0.799 
0.0739667 -0.159711 0.801 
0.110607 -0.158714 0.796 
0.152823 -0.161506 0.81 
0.189637 -0.160708 0.806 
0.228896 -0.161905 0.812 
0.265758 -0.161306 0.809 
0.304216 -0.161705 0.811 
0.714192 -0.333978 1.675 
0.788953 -0.332582 1.668 
0.869817 -0.333779 1.674 
0.942747 -0.331984 1.665 
1.02587 -0.333779 1.674 
1.09862 -0.332184 1.666 
1.17839 -0.332782 1.669 
1.26296 -0.334576 1.678 
1.34197 -0.334776 1.679 
1.41684 -0.333978 1.675 
1.49759 -0.334576 1.678 
1.57299 -0.333978 1.675 
1.68162 -0.340159 1.706 
-1.38932 -0.310603 1.57 
-1.32788 -0.313373 1.584 
-1.25405 -0.313373 1.584 
-1.18022 -0.313373 1.584 
-0.653917 -0.19566 0.989 
-0.616424 -0.19843 1.003 
-0.599776 -0.208915 1.056 
-0.610772 -0.232458 1.175 
-0.673938 -0.286467 1.448 
-0.608959 -0.287654 1.454 
-0.247402 -0.156291 0.79 
-0.211737 -0.158071 0.799 
-0.167235 -0.157082 0.794 
-0.131047 -0.158071 0.799 
-0.0898557 -0.157675 0.797 
-0.0529056 -0.158269 0.8 
-0.0155198 -0.15728 0.795 
0.021725 -0.158665 0.802 
0.0594013 -0.159456 0.806 
0.0962473 -0.158269 0.8 
0.138465 -0.159654 0.807 
0.176516 -0.16005 0.809 
0.214754 -0.160445 0.811 
0.25162 -0.159852 0.808 
0.291072 -0.160841 0.813 
0.328157 -0.160445 0.811 
0.761814 -0.330584 1.671 
0.8397 -0.330584 1.671 
0.91484 -0.329595 1.666 
0.996067 -0.330782 1.672 
1.07657 -0.331574 1.676 
1.15124 -0.330584 1.671 
1.23428 -0.331969 1.678 
1.31249 -0.331969 1.678 
1.3965 -0.333354 1.685 
1.46629 -0.331376 1.675 
1.54528 -0.331574 1.676 
1.63793 -0.334541 1.691 
-1.41706 -0.30836 1.571 
-1.35324 -0.310519 1.582 
-1.2795 -0.310519 1.582 
-1.20577 -0.310519 1.582 
-0.665223 -0.192946 0.983 
-0.623185 -0.194123 0.989 
-0.597511 -0.200993 1.024 
-0.611525 -0.223566 1.139 
-0.745972 -0.303453 1.546 
-0.618038 -0.280292 1.428 
-0.260151 -0.15683 0.799 
-0.220399 -0.155063 0.79 
-0.175297 -0.156437 0.797 
-0.138495 -0.15683 0.799 
-0.100747 -0.156045 0.795 
-0.0616832 -0.157222 0.801 
-0.0241356 -0.155848 0.794 
0.0129702 -0.157026 0.8 
0.0503213 -0.157222 0.801 
0.0876562 -0.157222 0.801 
0.125147 -0.157419 0.802 
0.163947 -0.158793 0.809 
0.202153 -0.159185 0.811 
0.24025 -0.159381 0.812 
0.27844 -0.159578 0.813 
0.315556 -0.159185 0.811 
0.734573 -0.328577 1.674 
0.812598 -0.328577 1.674 
0.88956 -0.328184 1.672 
0.96865 -0.328577 1.674 
1.05168 -0.330147 1.682 
1.12067 -0.327399 1.668 
1.20129 -0.328184 1.672 
1.28687 -0.330147 1.682 
1.36771 -0.330736 1.685 
1.43251 -0.327596 1.669 
1.52659 -0.331129 1.687 
1.59381 -0.328773 1.675 
-1.44972 -0.307672 1.58 
-1.37172 -0.306698 1.575 
-1.30408 -0.308061 1.582 
-1.22568 -0.306893 1.576 
-0.671496 -0.188887 0.97 
-0.635323 -0.191613 0.984 
-0.605633 -0.196871 1.011 
-0.591103 -0.20836 1.07 
-0.790412 -0.309035 1.587 
-0.628664 -0.274957 1.412 
-0.577997 -0.282357 1.45 
-0.230218 -0.153836 0.79 
-0.198292 -0.15773 0.81 
-0.14948 -0.155394 0.798 
-0.112285 -0.155394 0.798 
-0.0751845 -0.155588 0.799 
-0.0381328 -0.156367 0.803 
-0.000702113 -0.155783 0.8 
0.0365861 -0.155783 0.8 
0.0742437 -0.156562 0.804 
0.111024 -0.155588 0.799 
0.150678 -0.15812 0.812 
0.187829 -0.157536 0.809 
0.226652 -0.158315 0.813 
0.262919 -0.157341 0.808 
0.30244 -0.158315 0.813 
0.708915 -0.327339 1.681 
0.784457 -0.326171 1.675 
0.865619 -0.327339 1.681 
0.937232 -0.325003 1.669 
1.01867 -0.326171 1.675 
1.09413 -0.325392 1.671 
1.17061 -0.325003 1.669 
1.25962 -0.327923 1.684 
1.33573 -0.327339 1.681 
1.41492 -0.327534 1.682 
1.49243 -0.327339 1.681 
1.56518 -0.326171 1.675 
1.66582 -0.33065 1.698 
-1.39687 -0.303865 1.573 
-1.32944 -0.305217 1.58 
-1.25897 -0.30599 1.584 
-1.19262 -0.307921 1.594 
-0.650814 -0.189698 0.982 
-0.613053 -0.192209 0.995 
-0.595152 -0.201868 1.045 
-0.613377 -0.226595 1.173 
-0.656844 -0.273536 1.416 
-0.605031 -0.280104 1.45 
-0.244953 -0.153381 0.794 
-0.210826 -0.155506 0.805 
-0.165598 -0.154154 0.798 
-0.128725 -0.15454 0.8 
-0.0913225 -0.154347 0.799 
-0.0543516 -0.15512 0.803 
-0.016755 -0.153574 0.795 
0.02053 -0.155313 0.804 
0.0582933 -0.156086 0.808 
0.0954794 -0.155313 0.804 
0.135205 -0.156472 0.81 
0.173173 -0.156665 0.811 
0.212757 -0.157051 0.813 
0.249418 -0.156279 0.809 
0.28961 -0.157631 0.816 
0.326038 -0.156858 0.812 
0.754577 -0.324148 1.678 
0.831301 -0.323568 1.675 
0.90883 -0.323375 1.674 
0.989803 -0.324341 1.679 
1.07315 -0.325887 1.687 
1.13881 -0.322216 1.668 
1.22896 -0.3255 1.685 
1.30439 -0.324728 1.681 
1.38932 -0.326273 1.689 
1.46109 -0.324728 1.681 
1.54494 -0.325887 1.687 
1.62068 -0.325307 1.684 
-1.43254 -0.302762 1.58 
-1.35804 -0.30257 1.579 
-1.28688 -0.303145 1.582 
-1.21314 -0.303145 1.582 
-0.662159 -0.186639 0.974 
-0.623092 -0.188556 0.984 
-0.597173 -0.195071 1.018 
-0.604264 -0.214425 1.119 
-0.694803 -0.278618 1.454 
-0.614526 -0.273061 1.425 
-0.257991 -0.153297 0.8 
-0.219599 -0.152531 0.796 
-0.181607 -0.153872 0.803 
-0.143461 -0.153106 0.799 
-0.106086 -0.152914 0.798 
-0.0693229 -0.153872 0.803 
-0.0318948 -0.153872 0.803 
0.00551948 -0.153489 0.801 
0.0429078 -0.15368 0.802 
0.0804895 -0.154064 0.804 
0.118111 -0.154255 0.805 
0.156792 -0.155405 0.811 
0.194593 -0.155405 0.811 
0.233254 -0.15598 0.814 
0.270195 -0.155405 0.811 
0.308756 -0.155788 0.813 
0.720685 -0.321541 1.678 
0.800802 -0.322307 1.682 
0.878678 -0.322116 1.681 
0.953614 -0.320966 1.675 
1.03538 -0.322116 1.681 
1.10578 -0.319816 1.669 
1.18712 -0.320774 1.674 
1.27497 -0.323266 1.687 
1.3536 -0.323266 1.687 
1.42969 -0.322691 1.684 
1.51087 -0.323266 1.687 
1.58102 -0.321541 1.678 
1.67901 -0.325373 1.698 
-1.38484 -0.299547 1.576 
-1.31388 -0.300117 1.579 
-1.24499 -0.301258 1.585 
-0.671936 -0.182845 0.962 
-0.638179 -0.186076 0.979 
-0.607679 -0.190828 1.004 
-0.592725 -0.201662 1.061 
-0.800323 -0.302588 1.592 
-0.629846 -0.266095 1.4 
-0.585966 -0.276169 1.453 
-0.233851 -0.150914 0.794 
-0.199797 -0.154145 0.811 
-0.158754 -0.152244 0.801 
-0.121116 -0.151864 0.799 
-0.0839792 -0.152054 0.8 
-0.0470411 -0.153195 0.806 
-0.00943796 -0.152625 0.803 
0.0305233 -0.152815 0.804 
0.06859 -0.154145 0.811 
0.105473 -0.152815 0.804 
0.14437 -0.154335 0.812 
0.181993 -0.154145 0.811 
0.220878 -0.154905 0.815 
0.257277 -0.153955 0.81 
0.297581 -0.155285 0.817 
0.696271 -0.319694 1.682 
0.776972 -0.320644 1.687 
0.85256 -0.319504 1.681 
0.928143 -0.318554 1.676 
1.00806 -0.319124 1.679 
1.08632 -0.319124 1.679 
1.15695 -0.317033 1.668 
1.25394 -0.321975 1.694 
1.32503 -0.320074 1.684 
1.41436 -0.322545 1.697 
1.48554 -0.320835 1.688 
1.55773 -0.319504 1.681 
1.63997 -0.320264 1.685 
-1.41469 -0.298229 1.582 
-1.33926 -0.297852 1.58 
-1.26241 -0.297098 1.576 
-1.20479 -0.301057 1.597 
-0.651387 -0.18399 0.976 
-0.613966 -0.186441 0.989 
-0.59141 -0.19417 1.03 
-0.619652 -0.22207 1.178 
-0.64369 -0.263354 1.397 
-0.600526 -0.273346 1.45 
-0.24557 -0.150057 0.796 
-0.211088 -0.151942 0.806 
-0.172659 -0.151188 0.802 
-0.134771 -0.150623 0.799 
-0.0972853 -0.150246 0.797 
-0.0605897 -0.151377 0.803 
-0.0230462 -0.150623 0.799 
0.0180541 -0.151754 0.805 
0.0558516 -0.152508 0.809 
0.094699 -0.152319 0.808 
0.135539 -0.153074 0.812 
0.1736 -0.153262 0.813 
0.212014 -0.153639 0.815 
0.249081 -0.153074 0.812 
0.288696 -0.154016 0.817 
0.325976 -0.153639 0.815 
0.762148 -0.318401 1.689 
0.837388 -0.317081 1.682 
0.914153 -0.316515 1.679 
0.995958 -0.317646 1.685 
1.07641 -0.318212 1.688 
1.14003 -0.314065 1.666 
1.24034 -0.319909 1.697 
1.31167 -0.318023 1.687 
1.39689 -0.319532 1.695 
1.47328 -0.318966 1.692 
1.5494 -0.318401 1.689 
1.61848 -0.316515 1.679 
-1.43149 -0.296706 1.587 
-1.3541 -0.295958 1.583 
-1.27708 -0.295211 1.579 
-1.21339 -0.297641 1.592 
-0.654243 -0.181165 0.969 
-0.617249 -0.183595 0.982 
-0.593592 -0.1907 1.02 
-0.618457 -0.217248 1.162 
-0.645712 -0.260249 1.392 
-0.603362 -0.270345 1.446 
-0.247117 -0.149008 0.797 
-0.212076 -0.150503 0.805 
-0.174338 -0.150316 0.804 
-0.136012 -0.149381 0.799 
-0.0985236 -0.149008 0.797 
-0.0619143 -0.150316 0.804 
-0.024318 -0.149568 0.8 
0.0143198 -0.15069 0.806 
0.0546621 -0.151438 0.81 
0.0924165 -0.151438 0.81 
0.130332 -0.151625 0.811 
0.168547 -0.151999 0.813 
0.207203 -0.15256 0.816 
0.244937 -0.152373 0.815 
0.282924 -0.152373 0.815 
0.321305 -0.15256 0.816 
0.752542 -0.31615 1.691 
0.829393 -0.315402 1.687 
0.90641 -0.314842 1.684 
0.986656 -0.315402 1.687 
1.06844 -0.316337 1.692 
1.13104 -0.31185 1.668 
1.22835 -0.316898 1.695 
1.30273 -0.315776 1.689 
1.38554 -0.316711 1.694 
1.46277 -0.316337 1.692 
1.54619 -0.317272 1.697 
1.61092 -0.314468 1.682 
-1.44342 -0.295168 1.592 
-1.36578 -0.294426 1.588 
-1.28688 -0.293314 1.582 
-1.21851 -0.294611 1.589 
-0.654001 -0.178361 0.962 
-0.61866 -0.181142 0.977 
-0.595413 -0.188188 1.015 
-0.614573 -0.212847 1.148 
-0.649857 -0.257159 1.387 
-0.607571 -0.266986 1.44 
-0.254866 -0.147955 0.798 
-0.217245 -0.148511 0.801 
-0.181033 -0.149438 0.806 
-0.142219 -0.14814 0.799 
-0.104846 -0.147955 0.798 
-0.06816 -0.149067 0.804 
-0.0307235 -0.149253 0.805 
0.0068062 -0.149438 0.806 
0.044319 -0.149253 0.805 
0.0873826 -0.15018 0.81 
0.125291 -0.150365 0.811 
0.163495 -0.150736 0.813 
0.20238 -0.151477 0.817 
0.24173 -0.151477 0.817 
0.279125 -0.151107 0.815 
0.317891 -0.151477 0.817 
0.742032 -0.313523 1.691 
0.821336 -0.313708 1.692 
0.89754 -0.312781 1.687 
0.974436 -0.312225 1.684 
1.05918 -0.314079 1.694 
1.1247 -0.310371 1.674 
1.21566 -0.313708 1.692 
1.29452 -0.313708 1.692 
1.37339 -0.313708 1.692 
1.45397 -0.314079 1.694 
1.53564 -0.314635 1.697 
1.60618 -0.312967 1.688 
-1.45788 -0.293613 1.597 
-1.37911 -0.292694 1.592 
-1.29835 -0.291223 1.584 
-1.22529 -0.291407 1.585 
-0.654378 -0.175764 0.956 
-0.620662 -0.178889 0.973 
-0.597779 -0.185876 1.011 
-0.588238 -0.198561 1.08 
-0.640609 -0.253901 1.381 
-0.603362 -0.265852 1.446 
-0.251147 -0.146715 0.798 
-0.215024 -0.14745 0.802 
-0.17875 -0.14837 0.807 
-0.139912 -0.147083 0.8 
-0.102238 -0.146531 0.797 
-0.0657434 -0.148002 0.805 
-0.0281871 -0.147818 0.804 
0.00933383 -0.148553 0.808 
0.0469368 -0.14837 0.807 
0.0850752 -0.149289 0.812 
0.122923 -0.149289 0.812 
0.161166 -0.149656 0.814 
0.20033 -0.150576 0.819 
0.238213 -0.150392 0.818 
0.275664 -0.150024 0.816 
0.314467 -0.150392 0.818 
0.734151 -0.310896 1.691 
0.815853 -0.311999 1.697 
0.891787 -0.310896 1.691 
0.965439 -0.309241 1.682 
1.05128 -0.311447 1.694 
1.12224 -0.309241 1.682 
1.20706 -0.310896 1.691 
1.28892 -0.311631 1.695 
1.3655 -0.31108 1.692 
1.4512 -0.31255 1.7 
1.52593 -0.311631 1.695 
1.60494 -0.311631 1.695 
1.7048 -0.315492 1.716 
-1.39001 -0.29095 1.596 
-1.30573 -0.288762 1.584 
-1.23268 -0.288945 1.585 
-0.654009 -0.173002 0.949 
-0.623912 -0.177013 0.971 
-0.600107 -0.183576 1.007 
-0.589426 -0.195607 1.073 
-0.641358 -0.251209 1.378 
-0.60519 -0.263423 1.445 
-0.252703 -0.145657 0.799 
-0.21627 -0.146204 0.802 
-0.180227 -0.147298 0.808 
-0.141154 -0.14584 0.8 
-0.103607 -0.145475 0.798 
-0.0669941 -0.146751 0.805 
-0.0295094 -0.146933 0.806 
0.00807846 -0.147298 0.808 
0.0457396 -0.147298 0.808 
0.0839168 -0.148209 0.813 
0.121811 -0.148209 0.813 
0.159902 -0.148392 0.814 
0.199301 -0.149486 0.82 
0.237231 -0.149303 0.819 
0.274733 -0.148939 0.817 
0.313579 -0.149303 0.819 
0.733254 -0.308998 1.695 
0.814654 -0.309909 1.7 
0.890737 -0.308815 1.694 
0.963971 -0.306992 1.684 
1.04927 -0.308998 1.695 
1.12362 -0.307722 1.688 
1.20657 -0.308815 1.694 
1.2878 -0.309362 1.697 
1.36448 -0.308815 1.694 
1.45111 -0.310456 1.703 
1.5233 -0.308998 1.695 
1.60987 -0.310456 1.703 
1.7071 -0.313737 1.721 
-1.39833 -0.288651 1.597 
-1.31146 -0.28594 1.582 
-1.24007 -0.286482 1.585 
-0.652805 -0.170443 0.943 
-0.625638 -0.175143 0.969 
-0.601439 -0.181469 1.004 
-0.590551 -0.193217 1.069 
-0.640427 -0.248706 1.376 
-0.60519 -0.261178 1.445 
-0.252703 -0.144416 0.799 
-0.216001 -0.144777 0.801 
-0.18045 -0.146223 0.809 
-0.141331 -0.144777 0.801 
-0.103736 -0.144416 0.799 
-0.0669941 -0.1455 0.805 
-0.029546 -0.145862 0.807 
0.00807846 -0.146043 0.808 
0.0458528 -0.146404 0.81 
0.08402 -0.147127 0.814 
0.121961 -0.147127 0.814 
0.160294 -0.147489 0.816 
0.199544 -0.148392 0.821 
0.237521 -0.148212 0.82 
0.275069 -0.14785 0.818 
0.313962 -0.148212 0.82 
0.738058 -0.307268 1.7 
0.818738 -0.30781 1.703 
0.894951 -0.306726 1.697 
0.967161 -0.304557 1.685 
1.05377 -0.306906 1.698 
1.12824 -0.305641 1.691 
1.21206 -0.306906 1.698 
1.2912 -0.306906 1.698 
1.36792 -0.306364 1.695 
1.45632 -0.308352 1.706 
1.52773 -0.306726 1.697 
1.61914 -0.309075 1.71 
1.71275 -0.311606 1.724 
-1.40022 -0.287066 1.602 
-1.31065 -0.28384 1.584 
-0.658254 -0.166649 0.93 
-0.628131 -0.170233 0.95 
-0.605976 -0.176683 0.986 
-0.588416 -0.185643 1.036 
-0.629507 -0.218973 1.222 
-0.610669 -0.249256 1.391 
-0.569771 -0.260187 1.452 
-0.230358 -0.143175 0.799 
-0.194808 -0.144429 0.806 
-0.15724 -0.144429 0.806 
-0.118782 -0.143354 0.8 
-0.0820026 -0.14425 0.805 
-0.0447576 -0.145146 0.81 
-0.00691682 -0.143354 0.8 
0.030827 -0.145504 0.812 
0.0688437 -0.145862 0.814 
0.106653 -0.145683 0.813 
0.145614 -0.146758 0.819 
0.18289 -0.146042 0.815 
0.220607 -0.145862 0.814 
0.262681 -0.146758 0.819 
0.300487 -0.146579 0.818 
0.71332 -0.305343 1.704 
0.79414 -0.305881 1.707 
0.871656 -0.305164 1.703 
0.940981 -0.301939 1.685 
1.02497 -0.303551 1.694 
1.10392 -0.303551 1.694 
1.18288 -0.303551 1.694 
1.26929 -0.305343 1.704 
1.33921 -0.303193 1.692 
1.43316 -0.306419 1.71 
1.50402 -0.304627 1.7 
1.57767 -0.303551 1.694 
1.66347 -0.304806 1.701 
-1.41729 -0.283511 1.596 
-1.33365 -0.281557 1.585 
-0.648946 -0.156677 0.882 
-0.629363 -0.167513 0.943 
-0.604654 -0.17302 0.974 
-0.589687 -0.182435 1.027 
-0.634816 -0.215653 1.214 
-0.622872 -0.244253 1.375 
-0.592513 -0.258997 1.458 
-0.24186 -0.1414 0.796 
-0.206816 -0.142821 0.804 
-0.170395 -0.143709 0.809 
-0.131703 -0.142644 0.803 
-0.0938053 -0.141933 0.799 
-0.057484 -0.144242 0.812 
-0.0195639 -0.143709 0.809 
0.0182336 -0.14442 0.813 
0.0560587 -0.144242 0.812 
0.0941375 -0.144598 0.814 
0.13289 -0.145486 0.819 
0.171063 -0.145486 0.819 
0.209237 -0.145486 0.819 
0.248015 -0.145841 0.821 
0.285236 -0.145308 0.818 
0.324945 -0.146019 0.822 
0.764547 -0.304117 1.712 
0.838919 -0.302163 1.701 
0.919282 -0.302518 1.703 
0.993968 -0.301097 1.695 
1.07487 -0.30163 1.698 
1.1445 -0.299143 1.684 
1.23897 -0.303051 1.706 
1.3123 -0.30163 1.698 
1.39309 -0.301985 1.7 
1.47839 -0.303229 1.707 
1.5543 -0.302518 1.703 
1.64327 -0.304295 1.713 
-1.45158 -0.281912 1.601 
-1.3847 -0.283496 1.61 
-0.660149 -0.156011 0.886 
-0.632926 -0.163935 0.931 
-0.611061 -0.169922 0.965 
-0.591307 -0.177493 1.008 
-0.604545 -0.198271 1.126 
-0.637428 -0.240356 1.365 
-0.608276 -0.254795 1.447 
-0.255216 -0.141396 0.803 
-0.217245 -0.141044 0.801 
-0.181932 -0.142629 0.81 
-0.143109 -0.141572 0.804 
-0.0987708 -0.140692 0.799 
-0.0576256 -0.143333 0.814 
-0.0196122 -0.142805 0.811 
0.018256 -0.143333 0.814 
0.0560587 -0.142981 0.812 
0.0942532 -0.143509 0.815 
0.133052 -0.14439 0.82 
0.171063 -0.144213 0.819 
0.209493 -0.14439 0.82 
0.248015 -0.144566 0.821 
0.285585 -0.144213 0.819 
0.32534 -0.144918 0.823 
0.767207 -0.301457 1.712 
0.843046 -0.300048 1.704 
0.923552 -0.300401 1.706 
0.998366 -0.298992 1.698 
1.07751 -0.298992 1.698 
1.15052 -0.297407 1.689 
1.24235 -0.300577 1.707 
1.31727 -0.29952 1.701 
1.39655 -0.29952 1.701 
1.48278 -0.300929 1.709 
1.55695 -0.299872 1.703 
1.64882 -0.302161 1.716 
-1.44909 -0.279424 1.601 
-1.3822 -0.280995 1.61 
-0.668431 -0.153064 0.877 
-0.64473 -0.160743 0.921 
-0.620097 -0.16563 0.949 
-0.60135 -0.17296 0.991 
-0.588771 -0.183432 1.051 
-0.657963 -0.234221 1.342 
-0.612272 -0.240853 1.38 
-0.578921 -0.254466 1.458 
-0.231889 -0.139625 0.8 
-0.196304 -0.140847 0.807 
-0.158886 -0.141021 0.808 
-0.120625 -0.140323 0.804 
-0.0823082 -0.141021 0.808 
-0.0410834 -0.141719 0.812 
-0.00319995 -0.140148 0.803 
0.0359617 -0.142068 0.814 
0.0740841 -0.142417 0.816 
0.11762 -0.142941 0.819 
0.156555 -0.143639 0.823 
0.195389 -0.143988 0.825 
0.232992 -0.143465 0.822 
0.271306 -0.143465 0.822 
0.309243 -0.14329 0.821 
0.736577 -0.299321 1.715 
0.812228 -0.29775 1.706 
0.893314 -0.298274 1.709 
0.961584 -0.294783 1.689 
1.04955 -0.297401 1.704 
1.13228 -0.298274 1.709 
1.21052 -0.297925 1.707 
1.2916 -0.298274 1.709 
1.36484 -0.296877 1.701 
1.45346 -0.298797 1.712 
1.5252 -0.297226 1.703 
1.61871 -0.299844 1.718 
1.70472 -0.300892 1.724 
-1.40884 -0.278321 1.609 
-0.69355 -0.15395 0.89 
-0.620983 -0.14755 0.853 
-0.626731 -0.159831 0.924 
-0.607667 -0.166404 0.962 
-0.589155 -0.174188 1.007 
-0.604008 -0.1946 1.125 
-0.643848 -0.232309 1.343 
-0.603756 -0.241304 1.395 
-0.560361 -0.25099 1.451 
-0.224993 -0.138728 0.802 
-0.187992 -0.139939 0.809 
-0.149912 -0.139593 0.807 
-0.112855 -0.140285 0.811 
-0.0688383 -0.140458 0.812 
-0.0311052 -0.140977 0.815 
0.00685687 -0.140458 0.812 
0.049812 -0.140631 0.813 
0.0883535 -0.141669 0.819 
0.132099 -0.142187 0.822 
0.171272 -0.141841 0.82 
0.210004 -0.142187 0.822 
0.248619 -0.14236 0.823 
0.285934 -0.141841 0.82 
0.325735 -0.142533 0.824 
0.767207 -0.296137 1.712 
0.844035 -0.295099 1.706 
0.925718 -0.295791 1.71 
1.00013 -0.294235 1.701 
1.07941 -0.294235 1.701 
1.1587 -0.294235 1.701 
1.24453 -0.295791 1.71 
1.32114 -0.295099 1.706 
1.40066 -0.295099 1.706 
1.48538 -0.296137 1.712 
1.55695 -0.294581 1.703 
1.66035 -0.298905 1.728 
-1.45181 -0.274964 1.604 
-1.38563 -0.276678 1.614 
-0.668431 -0.150339 0.877 
-0.64835 -0.156681 0.914 
-0.620328 -0.160453 0.936 
-0.602579 -0.167652 0.978 
-0.593443 -0.178624 1.042 
-0.634494 -0.208623 1.217 
-0.630868 -0.233136 1.36 
-0.606283 -0.249079 1.453 
-0.253665 -0.138168 0.806 
-0.210564 -0.137825 0.804 
-0.174596 -0.139025 0.811 
-0.13612 -0.138339 0.807 
-0.0989942 -0.139025 0.811 
-0.0564994 -0.139882 0.816 
-0.0184201 -0.139539 0.814 
0.0247002 -0.140225 0.818 
0.0622898 -0.139025 0.811 
0.106298 -0.140567 0.82 
0.145223 -0.141253 0.824 
0.182738 -0.140567 0.82 
0.221228 -0.140739 0.821 
0.260444 -0.141253 0.824 
0.297037 -0.140396 0.819 
0.719431 -0.295706 1.725 
0.791488 -0.29262 1.707 
0.873603 -0.293477 1.712 
0.945603 -0.291078 1.698 
1.02837 -0.292106 1.704 
1.11169 -0.293135 1.71 
1.19349 -0.293649 1.713 
1.27928 -0.29502 1.721 
1.34606 -0.292106 1.704 
1.43051 -0.293135 1.71 
1.51286 -0.293649 1.713 
1.58434 -0.292106 1.704 
1.67255 -0.293649 1.713 
-1.42511 -0.272132 1.602 
-0.702029 -0.150335 0.885 
-0.648086 -0.147447 0.868 
-0.633455 -0.155091 0.913 
-0.613552 -0.161037 0.948 
-0.59339 -0.167832 0.988 
-0.583902 -0.179043 1.054 
-0.648309 -0.226777 1.335 
-0.60584 -0.234421 1.38 
-0.571733 -0.247501 1.457 
-0.229301 -0.136576 0.804 
-0.191763 -0.137425 0.809 
-0.154245 -0.137595 0.81 
-0.116778 -0.137934 0.812 
-0.0739756 -0.138104 0.813 
-0.0362589 -0.138784 0.817 
0.0018083 -0.137765 0.811 
0.0434963 -0.138104 0.813 
0.0822915 -0.139633 0.822 
0.120752 -0.139803 0.823 
0.159306 -0.139973 0.824 
0.198192 -0.140313 0.826 
0.237688 -0.140143 0.825 
0.275806 -0.139973 0.824 
0.314213 -0.139973 0.824 
0.746307 -0.292007 1.719 
0.818738 -0.289289 1.703 
0.904971 -0.291497 1.716 
0.975771 -0.288779 1.7 
1.05935 -0.289968 1.707 
1.14626 -0.291837 1.718 
1.22276 -0.290987 1.713 
1.30413 -0.291327 1.715 
1.3768 -0.289798 1.706 
1.46485 -0.291497 1.716 
1.53403 -0.289459 1.704 
1.64186 -0.294555 1.734 
1.7048 -0.291497 1.716 
-1.40721 -0.270989 1.61 
-0.689834 -0.149297 0.887 
-0.622171 -0.143237 0.851 
-0.622728 -0.154178 0.916 
-0.602829 -0.160237 0.952 
-0.584854 -0.167811 0.997 
-0.594544 -0.185316 1.101 
