# .PCD v.7 - Point Cloud Data file format
VERSION .7
FIELDS x y z
SIZE 4 4 4
TYPE F F F
COUNT 1 1 1
WIDTH 1784
HEIGHT 1
VIEWPOINT 0 0 0 1 0 0 0
POINTS 1784
DATA ascii
0.13784 -0.037234 0.423 
0.413399 -0.0976181 1.109 
0.364329 -0.0667219 0.758 
0.584523 -0.0975301 1.108 
0.630967 -0.0978822 1.112 
0.675907 -0.0979702 1.113 
0.719633 -0.0978822 1.112 
0.76534 -0.0980583 1.114 
0.809026 -0.0979702 1.113 
0.854166 -0.0980583 1.114 
0.896966 -0.0978822 1.112 
0.938759 -0.0976181 1.109 
0.946632 -0.0940092 1.068 
0.934564 -0.0888158 1.009 
0.861221 -0.0779009 0.885 
-0.216957 -0.0281025 0.328 
-0.205123 -0.0282739 0.33 
0.0104175 -0.0293877 0.343 
0.0241625 -0.0294734 0.344 
0.0379871 -0.029559 0.345 
0.0517416 -0.029559 0.345 
0.0658757 -0.0297304 0.347 
0.0797099 -0.0297304 0.347 
0.133872 -0.036242 0.423 
0.399361 -0.0941606 1.099 
0.347411 -0.0647729 0.756 
0.37855 -0.0649442 0.758 
0.609555 -0.0951887 1.111 
0.655026 -0.0953601 1.113 
0.699399 -0.0953601 1.113 
0.743772 -0.0953601 1.113 
0.788853 -0.0954457 1.114 
0.832518 -0.0953601 1.113 
0.877679 -0.0954457 1.114 
0.919608 -0.0951887 1.111 
0.95349 -0.0941606 1.099 
0.942857 -0.0890199 1.039 
0.868697 -0.077796 0.908 
-0.22243 -0.02725 0.327 
-0.210674 -0.0274166 0.329 
0.00398237 -0.0285833 0.343 
0.0177085 -0.0286666 0.344 
0.0315145 -0.02875 0.345 
0.0452689 -0.02875 0.345 
0.0591944 -0.0288333 0.346 
0.0729887 -0.0288333 0.346 
0.124944 -0.03525 0.423 
0.359651 -0.0881666 1.058 
0.424566 -0.0925832 1.111 
0.351421 -0.0630833 0.757 
0.564801 -0.0920832 1.105 
0.612161 -0.0925832 1.111 
0.657636 -0.0927499 1.113 
0.702009 -0.0927499 1.113 
0.747053 -0.0928332 1.114 
0.791466 -0.0928332 1.114 
0.835128 -0.0927499 1.113 
0.880291 -0.0928332 1.114 
0.922214 -0.0925832 1.111 
0.953458 -0.0913332 1.096 
0.940745 -0.0861666 1.034 
0.867949 -0.0754166 0.905 
-0.220897 -0.0264831 0.327 
-0.209767 -0.0267261 0.33 
0.00478677 -0.0277789 0.343 
0.0185153 -0.0278599 0.344 
0.0323236 -0.0279409 0.345 
0.046078 -0.0279409 0.345 
0.0600058 -0.0280219 0.346 
0.0738001 -0.0280219 0.346 
0.126928 -0.0342579 0.423 
0.375863 -0.0871432 1.076 
0.432772 -0.0900587 1.112 
0.361725 -0.0615509 0.76 
0.579327 -0.0897348 1.108 
0.625751 -0.0900587 1.112 
0.670687 -0.0901397 1.113 
0.714417 -0.0900587 1.112 
0.760115 -0.0902207 1.114 
0.804528 -0.0902207 1.114 
0.848941 -0.0902207 1.114 
0.892552 -0.0901397 1.113 
0.934399 -0.0898967 1.11 
0.949558 -0.0872241 1.077 
0.922035 -0.0808261 0.998 
0.860944 -0.0719984 0.889 
-0.217829 -0.0257162 0.327 
-0.206671 -0.0259522 0.33 
0.00880874 -0.0269745 0.343 
0.0226145 -0.0271318 0.345 
0.036369 -0.0271318 0.345 
0.0501234 -0.0271318 0.345 
0.064063 -0.0272104 0.346 
0.0778573 -0.0272104 0.346 
0.13288 -0.0332659 0.423 
0.401542 -0.0869004 1.105 
0.448822 -0.0875295 1.113 
0.562209 -0.0869004 1.105 
0.609555 -0.0873723 1.111 
0.655026 -0.0875295 1.113 
0.699399 -0.0875295 1.113 
0.74444 -0.0876082 1.114 
0.788853 -0.0876082 1.114 
0.833266 -0.0876082 1.114 
0.877679 -0.0876082 1.114 
0.919608 -0.0873723 1.111 
0.955226 -0.0865858 1.101 
0.943765 -0.0817886 1.04 
0.868476 -0.071565 0.91 
0.865981 -0.068498 0.871 
-0.210674 -0.0251019 0.329 
0.00317798 -0.0261701 0.343 
0.0169018 -0.0262464 0.344 
0.0307054 -0.0263227 0.345 
0.0444598 -0.0263227 0.345 
0.0582143 -0.0263227 0.345 
0.0721773 -0.026399 0.346 
0.125936 -0.0322739 0.423 
0.367809 -0.0825541 1.082 
0.421961 -0.0847668 1.111 
0.477105 -0.0848431 1.112 
0.551844 -0.084309 1.105 
0.599134 -0.0847668 1.111 
0.644585 -0.0849193 1.113 
0.688958 -0.0849193 1.113 
0.733331 -0.0849193 1.113 
0.778403 -0.0849956 1.114 
0.822077 -0.0849193 1.113 
0.867229 -0.0849956 1.114 
0.909186 -0.0847668 1.111 
0.950905 -0.0845379 1.108 
0.946582 -0.0804178 1.054 
0.87317 -0.0704991 0.924 
0.860765 -0.0666842 0.874 
-0.213111 -0.0242564 0.328 
0.00156919 -0.0253657 0.343 
0.0152883 -0.0254397 0.344 
0.0290872 -0.0255136 0.345 
0.0428416 -0.0255136 0.345 
0.0565961 -0.0255136 0.345 
0.0705544 -0.0255876 0.346 
0.124944 -0.0312819 0.423 
0.366622 -0.0803125 1.086 
0.419355 -0.0821613 1.111 
0.464066 -0.0822352 1.112 
0.507484 -0.0820873 1.11 
0.568419 -0.0818655 1.107 
0.61532 -0.0822352 1.112 
0.660246 -0.0823092 1.113 
0.703986 -0.0822352 1.112 
0.749665 -0.0823831 1.114 
0.793365 -0.0823092 1.113 
0.838491 -0.0823831 1.114 
0.882904 -0.0823831 1.114 
0.924819 -0.0821613 1.111 
0.953411 -0.0808301 1.093 
0.941346 -0.076319 1.032 
0.867949 -0.0669271 0.905 
-0.22388 -0.0234872 0.328 
-0.209265 -0.0234872 0.328 
0.00317798 -0.0245613 0.343 
0.0169018 -0.0246329 0.344 
0.0307054 -0.0247045 0.345 
0.0445887 -0.0247761 0.346 
0.0582143 -0.0247045 0.345 
0.0721773 -0.0247761 0.346 
0.126928 -0.0302899 0.423 
0.378053 -0.0785533 1.097 
0.427171 -0.0795558 1.111 
0.471889 -0.0796274 1.112 
0.515758 -0.0795558 1.111 
0.560125 -0.0791977 1.106 
0.60695 -0.0795558 1.111 
0.652416 -0.079699 1.113 
0.696789 -0.079699 1.113 
0.741828 -0.0797706 1.114 
0.785535 -0.079699 1.113 
0.830653 -0.0797706 1.114 
0.875066 -0.0797706 1.114 
0.917003 -0.0795558 1.111 
0.957835 -0.0792694 1.107 
0.947662 -0.0749729 1.047 
0.871806 -0.0657356 0.918 
0.867833 -0.0627997 0.877 
-0.213995 -0.0226487 0.327 
-0.183918 -0.0224409 0.324 
0.00880874 -0.0237569 0.343 
0.0226145 -0.0238955 0.345 
0.036369 -0.0238955 0.345 
0.0501234 -0.0238955 0.345 
0.064063 -0.0239647 0.346 
0.0778573 -0.0239647 0.346 
0.134864 -0.0292979 0.423 
0.404865 -0.0766732 1.107 
0.451432 -0.0770888 1.113 
0.494914 -0.0769503 1.111 
0.537266 -0.0766732 1.107 
0.58245 -0.0768118 1.109 
0.628359 -0.0770196 1.112 
0.673297 -0.0770888 1.113 
0.717025 -0.0770196 1.112 
0.762728 -0.0771581 1.114 
0.807141 -0.0771581 1.114 
0.851553 -0.0771581 1.114 
0.894358 -0.0770196 1.112 
0.937003 -0.076881 1.11 
0.952084 -0.0745954 1.077 
0.880067 -0.0653142 0.943 
0.86414 -0.0615048 0.888 
-0.22013 -0.0218819 0.327 
-0.20836 -0.0220157 0.329 
-3.94807e-05 -0.0228856 0.342 
0.0136749 -0.0230195 0.344 
0.027469 -0.0230864 0.345 
0.0412235 -0.0230864 0.345 
0.0548186 -0.0230195 0.344 
0.0689316 -0.0231533 0.346 
0.120245 -0.030648 0.458 
0.137514 -0.028239 0.422 
0.410427 -0.0741441 1.108 
0.456242 -0.0744117 1.112 
0.500575 -0.0744117 1.112 
0.542458 -0.0740771 1.107 
0.588182 -0.0742779 1.11 
0.634144 -0.0744786 1.113 
0.677908 -0.0744117 1.112 
0.722241 -0.0744117 1.112 
0.767953 -0.0745456 1.114 
0.812366 -0.0745456 1.114 
0.856009 -0.0744786 1.113 
0.899574 -0.0744117 1.112 
0.942209 -0.0742779 1.11 
0.950025 -0.0715343 1.069 
0.877924 -0.0626343 0.936 
0.867328 -0.0593554 0.887 
-0.219363 -0.021115 0.327 
-0.208702 -0.0214379 0.332 
-0.179359 -0.0209213 0.324 
0.00880874 -0.0221481 0.343 
0.022549 -0.0222127 0.344 
0.036369 -0.0222773 0.345 
0.0501234 -0.0222773 0.345 
0.0638778 -0.0222773 0.345 
0.0778573 -0.0223419 0.346 
0.129904 -0.0273139 0.423 
0.388233 -0.0712873 1.104 
0.435379 -0.0718039 1.112 
0.479713 -0.0718039 1.112 
0.522632 -0.0716102 1.109 
0.565823 -0.071481 1.107 
0.612712 -0.0718039 1.112 
0.657636 -0.0718685 1.113 
0.701378 -0.0718039 1.112 
0.747053 -0.071933 1.114 
0.790755 -0.0718685 1.113 
0.835128 -0.0718685 1.113 
0.879501 -0.0718685 1.113 
0.922214 -0.0717393 1.111 
0.960418 -0.0712873 1.104 
0.948933 -0.0673484 1.043 
0.871785 -0.0586958 0.909 
-0.226957 -0.0204104 0.328 
-0.213228 -0.0203481 0.327 
-0.186957 -0.0201614 0.324 
0.00236667 -0.0212815 0.342 
0.0160951 -0.021406 0.344 
0.0298963 -0.0214682 0.345 
0.0436507 -0.0214682 0.345 
0.0572388 -0.021406 0.344 
0.0711596 -0.0214682 0.345 
0.123952 -0.0263219 0.423 
0.374948 -0.068636 1.103 
0.421581 -0.0690716 1.11 
0.466673 -0.0691961 1.112 
0.510547 -0.0691338 1.111 
0.552343 -0.0688227 1.106 
0.599134 -0.0691338 1.111 
0.644006 -0.0691961 1.112 
0.688339 -0.0691961 1.112 
0.73399 -0.0693205 1.114 
0.777704 -0.0692583 1.113 
0.822077 -0.0692583 1.113 
0.865672 -0.0691961 1.112 
0.909186 -0.0691338 1.111 
0.951763 -0.0690094 1.109 
0.94748 -0.0656492 1.055 
0.881302 -0.0577464 0.928 
0.877728 -0.0551951 0.887 
-0.216295 -0.0195813 0.327 
-0.188652 -0.0193417 0.323 
0.000762568 -0.0204795 0.342 
0.0144816 -0.0205992 0.344 
0.0282781 -0.0206591 0.345 
0.0420326 -0.0206591 0.345 
0.0556253 -0.0205992 0.344 
0.0695414 -0.0206591 0.345 
0.121033 -0.0276054 0.461 
0.138504 -0.02527 0.422 
0.413026 -0.0663487 1.108 
0.45885 -0.0665882 1.112 
0.503183 -0.0665882 1.112 
0.545054 -0.0662888 1.107 
0.591317 -0.0665284 1.111 
0.636183 -0.0665882 1.112 
0.680516 -0.0665882 1.112 
0.725501 -0.0666481 1.113 
0.770565 -0.066708 1.114 
0.814978 -0.066708 1.114 
0.85862 -0.0666481 1.113 
0.90137 -0.0665284 1.111 
0.944812 -0.0664685 1.11 
0.952532 -0.0640133 1.069 
0.881968 -0.0557497 0.931 
0.877623 -0.0532347 0.889 
-0.217062 -0.0188144 0.327 
-0.189237 -0.0186418 0.324 
0.00236667 -0.0196774 0.342 
0.0160951 -0.0197925 0.344 
0.0298963 -0.01985 0.345 
0.0436507 -0.01985 0.345 
0.0572388 -0.0197925 0.344 
0.0711596 -0.01985 0.345 
0.123952 -0.0243379 0.423 
0.140483 -0.0242803 0.422 
0.415999 -0.0638078 1.109 
0.461458 -0.0639804 1.112 
0.505791 -0.0639804 1.112 
0.54765 -0.0636927 1.107 
0.593923 -0.0639229 1.111 
0.63879 -0.0639804 1.112 
0.683123 -0.0639804 1.112 
0.728111 -0.0640379 1.113 
0.773178 -0.0640955 1.114 
0.817591 -0.0640955 1.114 
0.860456 -0.0639804 1.112 
0.903975 -0.0639229 1.111 
0.948269 -0.0639229 1.111 
0.952359 -0.0613337 1.066 
0.881676 -0.0540842 0.94 
0.871239 -0.0512649 0.891 
-0.220897 -0.0180475 0.327 
-0.208496 -0.0181027 0.328 
-3.94807e-05 -0.0188754 0.342 
0.0136749 -0.0189858 0.344 
0.027469 -0.019041 0.345 
0.0412235 -0.019041 0.345 
0.0548186 -0.0189858 0.344 
0.0687323 -0.019041 0.345 
0.119386 -0.0255535 0.463 
0.137514 -0.0232907 0.422 
0.407461 -0.0610966 1.107 
0.453634 -0.0613726 1.112 
0.497967 -0.0613726 1.112 
0.539862 -0.0610966 1.107 
0.585579 -0.0612622 1.11 
0.630967 -0.0613726 1.112 
0.6753 -0.0613726 1.112 
0.72028 -0.0614278 1.113 
0.76534 -0.061483 1.114 
0.809753 -0.061483 1.114 
0.853399 -0.0614278 1.113 
0.896966 -0.0613726 1.112 
0.940452 -0.0613174 1.111 
0.956382 -0.0595513 1.079 
0.8838 -0.052266 0.947 
0.872898 -0.0495065 0.897 
-0.22388 -0.0173335 0.328 
-0.21016 -0.0172806 0.327 
-0.00163877 -0.0180205 0.341 
0.0120614 -0.018179 0.344 
0.0258509 -0.0182319 0.345 
0.0396053 -0.0182319 0.345 
0.0532051 -0.018179 0.344 
0.0671142 -0.0182319 0.345 
0.081103 -0.0182847 0.346 
0.138504 -0.022301 0.422 
0.410427 -0.0585534 1.108 
0.456242 -0.0587647 1.112 
0.500575 -0.0587647 1.112 
0.542458 -0.0585005 1.107 
0.588712 -0.0587119 1.111 
0.633005 -0.0587119 1.111 
0.677908 -0.0587647 1.112 
0.72289 -0.0588176 1.113 
0.767953 -0.0588704 1.114 
0.811636 -0.0588176 1.113 
0.85524 -0.0587647 1.112 
0.899574 -0.0587647 1.112 
0.943058 -0.0587119 1.111 
0.957135 -0.0569151 1.077 
0.886021 -0.0500452 0.947 
0.875002 -0.0474029 0.897 
-0.22243 -0.0165138 0.327 
-0.209394 -0.0165138 0.327 
-0.00706692 -0.0168168 0.333 
0.00802768 -0.0173723 0.344 
0.0217422 -0.0173723 0.344 
0.0355599 -0.0174228 0.345 
0.0493143 -0.0174228 0.345 
0.0630688 -0.0174228 0.345 
0.0770459 -0.0174733 0.346 
0.132566 -0.0213113 0.422 
0.393411 -0.0557529 1.104 
0.440595 -0.0561569 1.112 
0.484928 -0.0561569 1.112 
0.527358 -0.0559549 1.108 
0.573079 -0.0561064 1.111 
0.617372 -0.0561064 1.111 
0.662261 -0.0561569 1.112 
0.706594 -0.0561569 1.112 
0.752278 -0.0562579 1.114 
0.79526 -0.0561569 1.112 
0.840348 -0.0562074 1.113 
0.883927 -0.0561569 1.112 
0.92826 -0.0561569 1.112 
0.963846 -0.0556519 1.102 
0.921431 -0.0507533 1.005 
0.881831 -0.0462082 0.915 
-0.226957 -0.0157951 0.328 
-0.211694 -0.0157469 0.327 
-0.0040142 -0.0163248 0.339 
0.00964116 -0.0165655 0.344 
0.0233557 -0.0165655 0.344 
0.0370703 -0.0165655 0.344 
0.0509325 -0.0166137 0.345 
0.0646869 -0.0166137 0.345 
0.0786687 -0.0166619 0.346 
0.133556 -0.0203217 0.422 
0.396359 -0.053212 1.105 
0.443203 -0.0535491 1.112 
0.487536 -0.0535491 1.112 
0.529956 -0.0533565 1.108 
0.575684 -0.0535009 1.111 
0.619977 -0.0535009 1.111 
0.664869 -0.0535491 1.112 
0.70984 -0.0535972 1.113 
0.75489 -0.0536454 1.114 
0.797868 -0.0535491 1.112 
0.842959 -0.0535972 1.113 
0.886534 -0.0535491 1.112 
0.930867 -0.0535491 1.112 
0.962046 -0.0528267 1.097 
0.920514 -0.0483483 1.004 
0.890261 -0.0445921 0.926 
-0.227726 -0.0150258 0.328 
-0.212461 -0.01498 0.327 
-0.00323818 -0.0156214 0.341 
0.0104479 -0.0157588 0.344 
0.0241625 -0.0157588 0.344 
0.0379871 -0.0158046 0.345 
0.0517416 -0.0158046 0.345 
0.065496 -0.0158046 0.345 
0.0794802 -0.0158504 0.346 
0.133556 -0.019332 0.422 
0.399311 -0.0506664 1.106 
0.445811 -0.0509413 1.112 
0.490144 -0.0509413 1.112 
0.533035 -0.0508038 1.109 
0.57829 -0.0508954 1.111 
0.622583 -0.0508954 1.111 
0.667476 -0.0509413 1.112 
0.71245 -0.0509871 1.113 
0.757503 -0.0510329 1.114 
0.800476 -0.0509413 1.112 
0.844809 -0.0509413 1.112 
0.889142 -0.0509413 1.112 
0.933475 -0.0509413 1.112 
0.961101 -0.0500709 1.093 
0.916434 -0.045673 0.997 
0.891926 -0.0426037 0.93 
-0.227726 -0.0142566 0.328 
-0.213111 -0.0142566 0.328 
0.00236667 -0.0148651 0.342 
0.0160951 -0.0149521 0.344 
0.0298963 -0.0149955 0.345 
0.0437773 -0.015039 0.346 
0.0574052 -0.0149955 0.345 
0.0711596 -0.0149955 0.345 
0.124649 -0.0183424 0.422 
0.376987 -0.048203 1.109 
0.421201 -0.048203 1.109 
0.466673 -0.0483334 1.112 
0.510547 -0.04829 1.111 
0.55484 -0.04829 1.111 
0.599673 -0.0483334 1.112 
0.644006 -0.0483334 1.112 
0.688339 -0.0483334 1.112 
0.733331 -0.0483769 1.113 
0.777704 -0.0483769 1.113 
0.822077 -0.0483769 1.113 
0.865672 -0.0483334 1.112 
0.910005 -0.0483334 1.112 
0.952621 -0.0482465 1.11 
0.952869 -0.0461167 1.061 
0.892932 -0.041379 0.952 
0.881995 -0.0392057 0.902 
-0.219363 -0.0134463 0.327 
-3.94807e-05 -0.0140631 0.342 
0.0136749 -0.0141453 0.344 
0.027469 -0.0141864 0.345 
0.041343 -0.0142276 0.346 
0.0549779 -0.0141864 0.345 
0.0687323 -0.0141864 0.345 
0.12296 -0.0173938 0.423 
0.139824 -0.0173938 0.423 
0.415624 -0.0455611 1.108 
0.461458 -0.0457256 1.112 
0.505791 -0.0457256 1.112 
0.549629 -0.0456845 1.111 
0.594457 -0.0457256 1.112 
0.63879 -0.0457256 1.112 
0.683123 -0.0457256 1.112 
0.728765 -0.0458078 1.114 
0.772484 -0.0457667 1.113 
0.816857 -0.0457667 1.113 
0.860456 -0.0457256 1.112 
0.904789 -0.0457256 1.112 
0.948269 -0.0456845 1.111 
0.959506 -0.044163 1.074 
0.894066 -0.0393931 0.958 
0.886708 -0.0373782 0.909 
-0.221664 -0.0126794 0.327 
-0.00163877 -0.0132223 0.341 
0.0120614 -0.0133386 0.344 
0.0258509 -0.0133774 0.345 
0.047023 -0.0134161 0.346 
0.0606415 -0.0133774 0.345 
0.0743959 -0.0133774 0.345 
0.128607 -0.016363 0.422 
0.384096 -0.0429239 1.107 
0.429777 -0.043079 1.111 
0.474497 -0.0431178 1.112 
0.518363 -0.043079 1.111 
0.563163 -0.0431178 1.112 
0.607496 -0.0431178 1.112 
0.651829 -0.0431178 1.112 
0.696163 -0.0431178 1.112 
0.741162 -0.0431565 1.113 
0.785535 -0.0431565 1.113 
0.829162 -0.0431178 1.112 
0.873495 -0.0431178 1.112 
0.917828 -0.0431178 1.112 
0.959566 -0.0430014 1.109 
0.944041 -0.0404423 1.043 
0.897739 -0.0368362 0.95 
0.881571 -0.034626 0.893 
-0.218596 -0.0119125 0.327 
0.000762568 -0.012459 0.342 
0.0144816 -0.0125318 0.344 
0.0282781 -0.0125683 0.345 
0.0509325 -0.0125683 0.345 
0.0646869 -0.0125683 0.345 
0.0786687 -0.0126047 0.346 
0.134545 -0.0153734 0.422 
0.397076 -0.0403278 1.107 
0.443203 -0.0405099 1.112 
0.487098 -0.0404735 1.111 
0.531391 -0.0404735 1.111 
0.575684 -0.0404735 1.111 
0.619977 -0.0404735 1.111 
0.664271 -0.0404735 1.111 
0.710477 -0.0405828 1.114 
0.754212 -0.0405464 1.113 
0.798586 -0.0405464 1.113 
0.842201 -0.0405099 1.112 
0.886534 -0.0405099 1.112 
0.930867 -0.0405099 1.112 
0.961169 -0.039927 1.096 
0.917764 -0.0364662 1.001 
0.899312 -0.034244 0.94 
-0.230662 -0.0112479 0.33 
-0.216188 -0.0111798 0.328 
0.00316871 -0.0116569 0.342 
0.0169018 -0.0117251 0.344 
0.0307054 -0.0117592 0.345 
0.0533597 -0.0117592 0.345 
0.0671142 -0.0117592 0.345 
0.081103 -0.0117933 0.346 
0.13784 -0.0144178 0.423 
0.407829 -0.0377658 1.108 
0.454042 -0.0379362 1.113 
0.49752 -0.037868 1.111 
0.542301 -0.0379021 1.112 
0.586106 -0.037868 1.111 
0.630399 -0.037868 1.111 
0.674693 -0.037868 1.111 
0.720927 -0.0379703 1.114 
0.764653 -0.0379362 1.113 
0.809026 -0.0379362 1.113 
0.852633 -0.0379021 1.112 
0.896966 -0.0379021 1.112 
0.940452 -0.037868 1.111 
0.958155 -0.0368455 1.081 
0.904924 -0.0333007 0.977 
0.900401 -0.0317669 0.932 
-0.225418 -0.0104105 0.328 
-0.212089 -0.010474 0.33 
0.00883442 -0.0109184 0.344 
0.022549 -0.0109184 0.344 
0.047023 -0.0109818 0.346 
0.0606415 -0.0109501 0.345 
0.0743959 -0.0109501 0.345 
0.128607 -0.013394 0.422 
0.387391 -0.035199 1.109 
0.432382 -0.0352625 1.111 
0.476676 -0.0352625 1.111 
0.520969 -0.0352625 1.111 
0.565771 -0.0352943 1.112 
0.610104 -0.0352943 1.112 
0.652672 -0.035199 1.109 
0.699399 -0.035326 1.113 
0.743772 -0.035326 1.113 
0.788145 -0.035326 1.113 
0.83177 -0.0352943 1.112 
0.876103 -0.0352943 1.112 
0.920436 -0.0352943 1.112 
0.960431 -0.0351356 1.107 
0.935598 -0.0327234 1.031 
0.901862 -0.030216 0.952 
0.889469 -0.0285972 0.901 
-0.216295 -0.00961193 0.327 
0.00156462 -0.0100528 0.342 
0.0152883 -0.0101116 0.344 
0.0290872 -0.010141 0.345 
0.0541688 -0.010141 0.345 
0.0679233 -0.010141 0.345 
0.0819144 -0.0101704 0.346 
0.136848 -0.0124338 0.423 
0.407829 -0.0325689 1.108 
0.454042 -0.0327158 1.113 
0.49752 -0.032657 1.111 
0.542301 -0.0326864 1.112 
0.586106 -0.032657 1.111 
0.628697 -0.0325689 1.108 
0.673478 -0.0325982 1.109 
0.720927 -0.0327452 1.114 
0.764653 -0.0327158 1.113 
0.809026 -0.0327158 1.113 
0.852633 -0.0326864 1.112 
0.896966 -0.0326864 1.112 
0.940452 -0.032657 1.111 
0.957268 -0.0317458 1.08 
0.908629 -0.0288358 0.981 
0.903299 -0.0274836 0.935 
-0.22243 -0.00884506 0.327 
-0.210674 -0.00889915 0.329 
0.00559116 -0.00927784 0.343 
0.019322 -0.00930489 0.344 
0.0331326 -0.00933194 0.345 
0.0590233 -0.00933194 0.345 
0.0729887 -0.00935899 0.346 
0.125638 -0.0114147 0.422 
0.143138 -0.0114688 0.424 
0.424184 -0.0300245 1.11 
0.469281 -0.0300786 1.112 
0.513614 -0.0300786 1.112 
0.557948 -0.0300786 1.112 
0.602281 -0.0300786 1.112 
0.64138 -0.0298352 1.103 
0.690326 -0.0300515 1.111 
0.735941 -0.0301056 1.113 
0.780314 -0.0301056 1.113 
0.823946 -0.0300786 1.112 
0.86828 -0.0300786 1.112 
0.912613 -0.0300786 1.112 
0.954364 -0.0299975 1.109 
0.949054 -0.0285097 1.054 
0.904567 -0.0260212 0.962 
0.902733 -0.0249122 0.921 
-0.218596 -0.00807818 0.327 
-0.00084153 -0.00844874 0.342 
0.0128681 -0.00849815 0.344 
0.02666 -0.00852286 0.345 
0.0541688 -0.00852286 0.345 
0.0679233 -0.00852286 0.345 
0.0819144 -0.00854756 0.346 
0.135856 -0.0104498 0.423 
0.403359 -0.0274214 1.11 
0.448419 -0.0274708 1.112 
0.492309 -0.0274461 1.111 
0.537085 -0.0274708 1.112 
0.580895 -0.0274461 1.111 
0.622938 -0.0273472 1.107 
0.662251 -0.0271496 1.099 
0.71506 -0.0274955 1.113 
0.758751 -0.0274708 1.112 
0.803806 -0.0274955 1.113 
0.847417 -0.0274708 1.112 
0.89175 -0.0274708 1.112 
0.935241 -0.0274461 1.111 
0.954848 -0.0267544 1.083 
0.918773 -0.0246298 0.997 
0.908528 -0.0233452 0.945 
-0.222515 -0.00728895 0.326 
-0.00403788 -0.00762434 0.341 
0.00964116 -0.00769141 0.344 
0.0234236 -0.00771377 0.345 
0.0501234 -0.00771377 0.345 
0.0638778 -0.00771377 0.345 
0.0778573 -0.00773613 0.346 
0.130896 -0.00945775 0.423 
0.390695 -0.0248406 1.111 
0.434988 -0.0248406 1.111 
0.479281 -0.0248406 1.111 
0.524046 -0.0248629 1.112 
0.568379 -0.0248629 1.112 
0.61161 -0.0248182 1.11 
0.643455 -0.0243487 1.089 
0.701378 -0.0248629 1.112 
0.746382 -0.0248853 1.113 
0.791466 -0.0249077 1.114 
0.834378 -0.0248629 1.112 
0.878711 -0.0248629 1.112 
0.923044 -0.0248629 1.112 
0.960418 -0.0246841 1.104 
0.934376 -0.0229624 1.027 
0.905994 -0.0213303 0.954 
-0.224044 -0.00652443 0.326 
-0.211694 -0.00654444 0.327 
0.00559116 -0.00686466 0.343 
0.019322 -0.00688467 0.344 
0.0463451 -0.00694471 0.347 
0.0598324 -0.00690469 0.345 
0.0738001 -0.0069247 0.346 
0.126928 -0.00846575 0.423 
0.382878 -0.0222351 1.111 
0.427171 -0.0222351 1.111 
0.471889 -0.0222551 1.112 
0.516222 -0.0222551 1.112 
0.561059 -0.0222751 1.113 
0.604345 -0.0222351 1.111 
0.634042 -0.0217348 1.086 
0.69106 -0.022175 1.108 
0.737888 -0.0222551 1.112 
0.783628 -0.0222951 1.114 
0.826554 -0.0222551 1.112 
0.87167 -0.0222751 1.113 
0.91522 -0.0222551 1.112 
0.956965 -0.0221951 1.109 
0.947915 -0.0210143 1.05 
0.908709 -0.0192931 0.964 
0.914718 -0.0186326 0.931 
-0.217928 -0.0057599 0.326 
-0.00483759 -0.00602493 0.341 
0.00883442 -0.00607793 0.344 
0.022549 -0.00607793 0.344 
0.0486458 -0.00611327 0.346 
0.0622597 -0.0060956 0.345 
0.0762344 -0.00611327 0.346 
0.128912 -0.00747374 0.423 
0.391046 -0.0196473 1.112 
0.435379 -0.0196473 1.112 
0.479281 -0.0196296 1.111 
0.524046 -0.0196473 1.112 
0.568379 -0.0196473 1.112 
0.611059 -0.0195943 1.109 
0.638728 -0.0190996 1.081 
0.698855 -0.0195766 1.108 
0.745711 -0.0196473 1.112 
0.791466 -0.0196826 1.114 
0.834378 -0.0196473 1.112 
0.879501 -0.0196649 1.113 
0.923044 -0.0196473 1.112 
0.960418 -0.0195059 1.104 
0.936196 -0.0181808 1.029 
0.908843 -0.0169087 0.957 
0.921268 -0.0164493 0.931 
-0.216399 -0.00499538 0.326 
-0.0048234 -0.0052099 0.34 
0.00883442 -0.00527119 0.344 
0.022549 -0.00527119 0.344 
0.0479726 -0.00531716 0.347 
0.0614506 -0.00528652 0.345 
0.075423 -0.00530184 0.346 
0.125936 -0.00648173 0.423 
0.382878 -0.0170241 1.111 
0.427171 -0.0170241 1.111 
0.471889 -0.0170394 1.112 
0.516686 -0.0170548 1.113 
0.560555 -0.0170394 1.112 
0.604345 -0.0170241 1.111 
0.630539 -0.0165491 1.08 
0.684823 -0.0168249 1.098 
0.737888 -0.0170394 1.112 
0.783628 -0.0170701 1.114 
0.826554 -0.0170394 1.112 
0.872454 -0.0170701 1.114 
0.91522 -0.0170394 1.112 
0.956965 -0.0169935 1.109 
0.947915 -0.0160894 1.05 
0.911335 -0.014741 0.962 
0.924021 -0.0143426 0.936 
-0.217163 -0.00423085 0.326 
-0.00562076 -0.00441254 0.34 
0.00802768 -0.00446445 0.344 
0.0217422 -0.00446445 0.344 
0.0471589 -0.00450339 0.347 
0.0606415 -0.00447743 0.345 
0.0746116 -0.00449041 0.346 
0.124944 -0.00548972 0.423 
0.380273 -0.0144186 1.111 
0.424566 -0.0144186 1.111 
0.469281 -0.0144316 1.112 
0.514076 -0.0144446 1.113 
0.557948 -0.0144316 1.112 
0.601739 -0.0144186 1.111 
0.627425 -0.0140033 1.079 
0.676656 -0.0141331 1.089 
0.73528 -0.0144316 1.112 
0.781015 -0.0144576 1.114 
0.823946 -0.0144316 1.112 
0.869841 -0.0144576 1.114 
0.912613 -0.0144316 1.112 
0.954364 -0.0143927 1.109 
0.949054 -0.0136789 1.054 
0.913422 -0.0125757 0.969 
0.930439 -0.0122902 0.947 
-0.218692 -0.00346632 0.326 
-0.0048234 -0.00361518 0.34 
0.00883442 -0.00365772 0.344 
0.022549 -0.00365772 0.344 
0.0455313 -0.00368961 0.347 
0.0590233 -0.00366835 0.345 
0.0729887 -0.00367898 0.346 
0.125936 -0.00449771 0.423 
0.383223 -0.0118238 1.112 
0.427171 -0.0118131 1.111 
0.471465 -0.0118131 1.111 
0.516222 -0.0118238 1.112 
0.560555 -0.0118238 1.112 
0.603801 -0.0118025 1.11 
0.628788 -0.0114516 1.077 
0.676715 -0.0115367 1.085 
0.737888 -0.0118238 1.112 
0.783628 -0.011845 1.114 
0.826554 -0.0118238 1.112 
0.872454 -0.011845 1.114 
0.91522 -0.0118238 1.112 
0.956965 -0.0117919 1.109 
0.948817 -0.0111752 1.051 
0.914749 -0.0102926 0.968 
0.934629 -0.0100906 0.949 
-0.217928 -0.0027018 0.326 
-0.0048234 -0.00281783 0.34 
0.00880874 -0.00284269 0.343 
0.022549 -0.00285098 0.344 
0.0440303 -0.00288413 0.348 
0.0575716 -0.00286755 0.346 
0.0713659 -0.00286755 0.346 
0.123952 -0.00350571 0.423 
0.372792 -0.00921595 1.112 
0.41675 -0.00920766 1.111 
0.461043 -0.00920766 1.111 
0.505791 -0.00921595 1.112 
0.550124 -0.00921595 1.112 
0.593923 -0.00920766 1.111 
0.619833 -0.00894245 1.079 
0.662237 -0.00893417 1.078 
0.725494 -0.00919108 1.109 
0.772484 -0.00922424 1.113 
0.817591 -0.00923252 1.114 
0.86123 -0.00922424 1.113 
0.904789 -0.00921595 1.112 
0.947415 -0.00919937 1.11 
0.958613 -0.00889273 1.073 
0.920197 -0.00817169 0.986 
0.928367 -0.00790649 0.954 
-0.22175 -0.00193727 0.326 
-0.208753 -0.00193727 0.326 
0.00477281 -0.00203235 0.342 
0.0185153 -0.00204424 0.344 
0.0323236 -0.00205018 0.345 
0.0518916 -0.00205612 0.346 
0.0656859 -0.00205612 0.346 
0.0794802 -0.00205612 0.346 
0.133872 -0.0025137 0.423 
0.398511 -0.00660217 1.111 
0.442804 -0.00660217 1.111 
0.487536 -0.00660812 1.112 
0.531869 -0.00660812 1.112 
0.576202 -0.00660812 1.112 
0.611049 -0.00650709 1.095 
0.640952 -0.00637041 1.072 
0.69262 -0.00645361 1.086 
0.753535 -0.00660812 1.112 
0.799303 -0.00662 1.114 
0.842201 -0.00660812 1.112 
0.887332 -0.00661406 1.113 
0.93003 -0.00660217 1.111 
0.955907 -0.00647738 1.09 
0.939768 -0.00609111 1.025 
0.918446 -0.00570485 0.96 
-0.226337 -0.00117275 0.326 
-0.212686 -0.00116915 0.325 
-3.94807e-05 -0.0012303 0.342 
0.0136749 -0.0012375 0.344 
0.0273894 -0.0012375 0.344 
0.0439038 -0.00124829 0.347 
0.0575716 -0.00124469 0.346 
0.0713659 -0.00124469 0.346 
0.123952 -0.00152169 0.423 
0.372792 -0.00400029 1.112 
0.41675 -0.00399669 1.111 
0.461043 -0.00399669 1.111 
0.505791 -0.00400029 1.112 
0.550124 -0.00400029 1.112 
0.593388 -0.00399309 1.11 
0.619833 -0.00388157 1.079 
0.659165 -0.00385999 1.073 
0.724186 -0.0039823 1.107 
0.77179 -0.00400029 1.112 
0.817591 -0.00400748 1.114 
0.86123 -0.00400388 1.113 
0.904789 -0.00400029 1.112 
0.947415 -0.00399309 1.11 
0.958613 -0.00385999 1.073 
0.931396 -0.00359018 0.998 
0.930313 -0.00343909 0.956 
-0.220986 -0.000408219 0.326 
-0.00562076 -0.00042575 0.34 
0.00798101 -0.000428255 0.342 
0.0217422 -0.000430759 0.344 
0.035663 -0.000433263 0.346 
0.0494573 -0.000433263 0.346 
0.0632516 -0.000433263 0.346 
0.0770459 -0.000433263 0.346 
0.12792 -0.000529683 0.423 
0.383223 -0.00139245 1.112 
0.427171 -0.0013912 1.111 
0.471465 -0.0013912 1.111 
0.516686 -0.00139371 1.113 
0.560555 -0.00139245 1.112 
0.602713 -0.00138744 1.108 
0.626452 -0.00134362 1.073 
0.668607 -0.00134237 1.072 
0.737224 -0.0013912 1.111 
0.782221 -0.00139245 1.112 
0.828041 -0.00139496 1.114 
0.87167 -0.00139371 1.113 
0.91522 -0.00139245 1.112 
0.956102 -0.00138744 1.108 
0.94972 -0.00131732 1.052 
0.922848 -0.00122591 0.979 
0.937316 -0.00119461 0.954 
-0.217928 0.000356307 0.326 
-0.00163877 0.000372701 0.341 
0.0120263 0.000374887 0.343 
0.0257759 0.00037598 0.344 
0.0397201 0.000378166 0.346 
0.0535144 0.000378166 0.346 
0.0673087 0.000378166 0.346 
0.081103 0.000378166 0.346 
0.131888 0.000462324 0.423 
0.395906 0.00121428 1.111 
0.440199 0.00121428 1.111 
0.484928 0.00121538 1.112 
0.529737 0.00121647 1.113 
0.573079 0.00121428 1.111 
0.608481 0.0011968 1.095 
0.636652 0.00116838 1.069 
0.682448 0.00117384 1.074 
0.750252 0.00121428 1.111 
0.795975 0.00121647 1.113 
0.840348 0.00121647 1.113 
0.884721 0.00121647 1.113 
0.92826 0.00121538 1.112 
0.959473 0.00119898 1.097 
0.941022 0.00112466 1.029 
0.922875 0.0010569 0.967 
0.946514 0.0010405 0.952 
-0.214105 0.00112083 0.326 
0.00236667 0.00117584 0.342 
0.0160951 0.00118272 0.344 
0.0298963 0.00118616 0.345 
0.0436507 0.00118616 0.345 
0.0574052 0.00118616 0.345 
0.0715721 0.00119303 0.347 
0.119273 0.00145777 0.424 
0.135535 0.00145089 0.422 
0.406328 0.00381977 1.111 
0.450215 0.00381633 1.11 
0.49536 0.00382321 1.112 
0.539693 0.00382321 1.112 
0.582975 0.00381633 1.11 
0.612537 0.00372694 1.084 
0.64547 0.00366849 1.067 
0.697036 0.00371663 1.081 
0.760674 0.00381977 1.111 
0.806416 0.00382665 1.113 
0.850789 0.00382665 1.113 
0.894358 0.00382321 1.112 
0.937847 0.00381977 1.111 
0.95562 0.00371663 1.081 
0.946056 0.00352065 1.024 
0.926164 0.00330405 0.961 
-0.224119 0.00187958 0.325 
-0.211162 0.00187958 0.325 
0.00559116 0.00198368 0.343 
0.019322 0.00198946 0.344 
0.0331326 0.00199524 0.345 
0.0468871 0.00199524 0.345 
0.0606415 0.00199524 0.345 
0.0746116 0.00200103 0.346 
0.124944 0.00244634 0.423 
0.377667 0.00642526 1.111 
0.421961 0.00642526 1.111 
0.466254 0.00642526 1.111 
0.511007 0.00643104 1.112 
0.55534 0.00643104 1.112 
0.597516 0.00640791 1.108 
0.622578 0.00621706 1.075 
0.658627 0.00615344 1.064 
0.726742 0.00637899 1.103 
0.777005 0.00643104 1.112 
0.822816 0.00644261 1.114 
0.86645 0.00643682 1.113 
0.910005 0.00643104 1.112 
0.951763 0.00641369 1.109 
0.957359 0.00616501 1.066 
0.938891 0.00578909 1.001 
0.935775 0.00553463 0.957 
-0.218692 0.00264989 0.326 
-0.00163877 0.00277181 0.341 
0.0120263 0.00278807 0.343 
0.0258509 0.00280433 0.345 
0.0396053 0.00280433 0.345 
0.0533597 0.00280433 0.345 
0.0673087 0.00281245 0.346 
0.117285 0.00344648 0.424 
0.133872 0.00343835 0.423 
0.403722 0.00903074 1.111 
0.447209 0.00901449 1.109 
0.492752 0.00903887 1.112 
0.537085 0.00903887 1.112 
0.580372 0.00902261 1.11 
0.61112 0.00882753 1.086 
0.642365 0.00866496 1.066 
0.688719 0.00871373 1.072 
0.757386 0.00902261 1.11 
0.803806 0.009047 1.113 
0.848941 0.00905513 1.114 
0.89175 0.00903887 1.112 
0.935241 0.00903074 1.111 
0.956611 0.0088194 1.085 
0.946419 0.00834795 1.027 
0.927756 0.00784399 0.965 
-0.221832 0.00340394 0.325 
-0.0048234 0.00356104 0.34 
0.00880874 0.00359246 0.343 
0.0226145 0.00361341 0.345 
0.036369 0.00361341 0.345 
0.0501234 0.00361341 0.345 
0.0638778 0.00361341 0.345 
0.0776323 0.00361341 0.345 
0.130587 0.00441988 0.422 
0.395906 0.0116362 1.111 
0.439803 0.0116258 1.11 
0.484492 0.0116362 1.111 
0.529737 0.0116572 1.113 
0.573079 0.0116362 1.111 
0.608481 0.0114687 1.095 
0.634865 0.0111649 1.066 
0.674187 0.0111125 1.061 
0.747551 0.0115943 1.107 
0.79526 0.0116467 1.112 
0.841103 0.0116677 1.114 
0.883927 0.0116467 1.112 
0.927425 0.0116362 1.111 
0.962972 0.0115315 1.101 
0.950167 0.0108821 1.039 
0.92897 0.0101699 0.971 
-0.224044 0.00417894 0.326 
-0.00639924 0.00434558 0.339 
0.00719995 0.00439686 0.343 
0.0209964 0.0044225 0.345 
0.0346501 0.00440968 0.344 
0.0483646 0.00440968 0.344 
0.0622597 0.0044225 0.345 
0.0762344 0.00443531 0.346 
0.12792 0.00542236 0.423 
0.385484 0.0142417 1.111 
0.429777 0.0142417 1.111 
0.47407 0.0142417 1.111 
0.519297 0.0142674 1.113 
0.562657 0.0142417 1.111 
0.603126 0.014152 1.104 
0.625451 0.0136777 1.067 
0.662982 0.0135751 1.059 
0.725846 0.0139725 1.09 
0.784123 0.0142417 1.111 
0.830653 0.0142802 1.114 
0.873495 0.0142545 1.112 
0.917828 0.0142545 1.112 
0.9587 0.0142033 1.108 
0.955808 0.0135367 1.056 
0.941209 0.0127676 0.996 
0.941523 0.0122548 0.956 
-0.0733249 0.00564101 0.372 
0.00398237 0.00520125 0.343 
0.0177085 0.00521642 0.344 
0.0315145 0.00523158 0.345 
0.0451377 0.00521642 0.344 
0.0590233 0.00523158 0.345 
0.0729887 0.00524674 0.346 
0.123251 0.00642954 0.424 
0.139824 0.00641437 0.423 
0.41675 0.0168472 1.111 
0.460628 0.016832 1.11 
0.506246 0.0168775 1.113 
0.550124 0.0168624 1.112 
0.592319 0.0168017 1.108 
0.61811 0.0163165 1.076 
0.650564 0.0160587 1.059 
0.703906 0.0163165 1.076 
0.770402 0.016832 1.11 
0.816857 0.0168775 1.113 
0.86123 0.0168775 1.113 
0.904789 0.0168624 1.112 
0.947415 0.016832 1.11 
0.961293 0.0163165 1.076 
0.955661 0.0155279 1.024 
0.933233 0.0145423 0.959 
-0.219457 0.00570799 0.326 
-0.00164358 0.00598814 0.342 
0.0120263 0.00600565 0.343 
0.0258509 0.00604066 0.345 
0.0394905 0.00602315 0.344 
0.0533597 0.00604066 0.345 
0.0673087 0.00605817 0.346 
0.081103 0.00605817 0.346 
0.133556 0.00738887 0.422 
0.401117 0.0194527 1.111 
0.444608 0.0194177 1.109 
0.490144 0.0194702 1.112 
0.534958 0.0194877 1.113 
0.577769 0.0194352 1.11 
0.608573 0.019015 1.086 
0.636864 0.0185772 1.061 
0.676603 0.0185072 1.057 
0.745263 0.0191901 1.096 
0.800476 0.0194702 1.112 
0.846328 0.0195052 1.114 
0.889142 0.0194702 1.112 
0.932636 0.0194527 1.111 
0.961101 0.0191375 1.093 
0.95504 0.018192 1.039 
0.934124 0.0170539 0.974 
-0.225573 0.00647251 0.326 
-0.0717725 0.00740567 0.373 
0.00800434 0.00681004 0.343 
0.0217422 0.00682989 0.344 
0.0354568 0.00682989 0.344 
0.0491714 0.00682989 0.344 
0.0630688 0.00684975 0.345 
0.0770459 0.0068696 0.346 
0.128912 0.00839839 0.423 
0.391046 0.022078 1.112 
0.434596 0.0220383 1.11 
0.479281 0.0220582 1.111 
0.524988 0.0221177 1.114 
0.567868 0.0220582 1.111 
0.606651 0.0218596 1.101 
0.628683 0.021125 1.064 
0.665426 0.0209463 1.055 
0.72224 0.0213831 1.077 
0.789334 0.0220582 1.111 
0.835128 0.0220979 1.113 
0.879501 0.0220979 1.113 
0.923044 0.022078 1.112 
0.963027 0.0219788 1.107 
0.958941 0.0209265 1.054 
0.943981 0.0197352 0.994 
0.948976 0.0190403 0.959 
-0.216399 0.00723704 0.326 
0.00317798 0.00761443 0.343 
0.0169018 0.00763663 0.344 
0.0306164 0.00763663 0.344 
0.0443309 0.00763663 0.344 
0.0582143 0.00765883 0.345 
0.0721773 0.00768103 0.346 
0.123952 0.00939039 0.423 
0.375062 0.0246637 1.111 
0.419355 0.0246637 1.111 
0.463648 0.0246637 1.111 
0.509313 0.0247303 1.114 
0.552235 0.0246637 1.111 
0.594917 0.0245971 1.108 
0.620057 0.0238645 1.075 
0.650581 0.0234205 1.055 
0.693955 0.0234649 1.057 
0.770916 0.0245749 1.107 
0.818731 0.0246859 1.112 
0.86384 0.0247081 1.113 
0.907397 0.0246859 1.112 
0.949162 0.0246193 1.109 
0.963817 0.0238867 1.076 
0.957127 0.0227101 1.023 
0.939384 0.0213781 0.963 
-0.220986 0.00800157 0.326 
-0.0673987 0.00915517 0.373 
0.0112219 0.00841883 0.343 
0.0249692 0.00844337 0.344 
0.0386838 0.00844337 0.344 
0.0525507 0.00846792 0.345 
0.0663051 0.00846792 0.345 
0.0802916 0.00849246 0.346 
0.131576 0.0103579 0.422 
0.395906 0.0272691 1.111 
0.439406 0.0272201 1.109 
0.484928 0.0272937 1.112 
0.529737 0.0273182 1.113 
0.572563 0.0272446 1.11 
0.609037 0.026901 1.096 
0.631887 0.0260419 1.061 
0.669104 0.0258456 1.053 
0.723915 0.0263119 1.072 
0.794545 0.0272691 1.111 
0.839593 0.0272937 1.112 
0.883927 0.0272937 1.112 
0.927425 0.0272691 1.111 
0.965596 0.0270973 1.104 
0.962056 0.025821 1.052 
0.941008 0.0242011 0.986 
0.958445 0.0236611 0.964 
-0.0748679 0.00997614 0.371 
0.00477281 0.00919633 0.342 
0.0185153 0.00925011 0.344 
0.0322299 0.00925011 0.344 
0.0459444 0.00925011 0.344 
0.0598324 0.009277 0.345 
0.0738001 0.00930389 0.346 
0.124944 0.0113744 0.423 
0.377667 0.0298746 1.111 
0.421201 0.0298209 1.109 
0.466254 0.0298746 1.111 
0.511926 0.0299553 1.114 
0.55484 0.0298746 1.111 
0.597516 0.029794 1.108 
0.621419 0.0288528 1.073 
0.653056 0.0283688 1.055 
0.693798 0.028315 1.053 
0.767922 0.029552 1.099 
0.821339 0.0299015 1.112 
0.865672 0.0299015 1.112 
0.910005 0.0299015 1.112 
0.951763 0.0298209 1.109 
0.96634 0.0289335 1.076 
0.959526 0.0275083 1.023 
0.945553 0.0260025 0.967 
-0.220986 0.00953062 0.326 
-0.00084399 0.0100276 0.343 
0.0128681 0.0100569 0.344 
0.02666 0.0100861 0.345 
0.0404144 0.0100861 0.345 
0.0541688 0.0100861 0.345 
0.0679233 0.0100861 0.345 
0.116285 0.013682 0.468 
0.131576 0.0123372 0.422 
0.3933 0.0324801 1.111 
0.436806 0.0324216 1.109 
0.481887 0.0324801 1.111 
0.527601 0.0325678 1.114 
0.56996 0.0324509 1.11 
0.608126 0.0321293 1.099 
0.632365 0.0311645 1.066 
0.666634 0.0307845 1.053 
0.709961 0.030843 1.055 
0.789088 0.0323632 1.107 
0.836986 0.0325094 1.112 
0.881319 0.0325094 1.112 
0.924819 0.0324801 1.111 
0.965623 0.0323632 1.107 
0.965974 0.0309599 1.059 
0.95012 0.0291766 0.998 
0.960152 0.0282995 0.968 
-0.0724525 0.0117478 0.372 
0.0104175 0.010832 0.343 
0.0241625 0.0108636 0.344 
0.0379871 0.0108952 0.345 
0.0517416 0.0108952 0.345 
0.065496 0.0108952 0.345 
0.0794802 0.0109268 0.346 
0.129904 0.0133584 0.423 
0.388089 0.0350856 1.111 
0.431604 0.0350224 1.109 
0.476676 0.0350856 1.111 
0.522376 0.0351803 1.114 
0.564753 0.035054 1.11 
0.606264 0.0348961 1.105 
0.629131 0.0337592 1.069 
0.662324 0.0332855 1.054 
0.70234 0.0331908 1.051 
0.775398 0.0345803 1.095 
0.83177 0.0351172 1.112 
0.876103 0.0351172 1.112 
0.919608 0.0350856 1.111 
0.961299 0.0349909 1.108 
0.968266 0.0336961 1.067 
0.957755 0.0319276 1.011 
0.958573 0.0306644 0.971 
-0.0372694 0.0109918 0.324 
0.0120614 0.0116703 0.344 
0.0257759 0.0116703 0.344 
0.0396053 0.0117043 0.345 
0.0533597 0.0117043 0.345 
0.0671142 0.0117043 0.345 
0.116285 0.0158771 0.468 
0.132566 0.0143165 0.422 
0.395549 0.0376572 1.11 
0.439406 0.0376232 1.109 
0.484928 0.037725 1.112 
0.530213 0.0377929 1.114 
0.572047 0.0376232 1.109 
0.610148 0.0372501 1.098 
0.636056 0.0362323 1.068 
0.669104 0.0357234 1.053 
0.709734 0.0356556 1.051 
0.785963 0.037284 1.099 
0.838838 0.0376911 1.111 
0.883927 0.037725 1.112 
0.92659 0.0376572 1.11 
0.967345 0.0375215 1.106 
0.968457 0.035927 1.059 
0.959141 0.034095 1.005 
0.968387 0.0330433 0.974 
-0.0357497 0.0117517 0.324 
0.0136749 0.0124771 0.344 
0.027469 0.0125133 0.345 
0.0412235 0.0125133 0.345 
0.0549779 0.0125133 0.345 
0.0689316 0.0125496 0.346 
0.119644 0.0168295 0.464 
0.134864 0.0153424 0.423 
0.400756 0.0402603 1.11 
0.444608 0.040224 1.109 
0.490144 0.0403329 1.112 
0.534958 0.0403691 1.113 
0.577249 0.040224 1.109 
0.612496 0.0396437 1.093 
0.640465 0.0387007 1.067 
0.672762 0.0381203 1.051 
0.713304 0.0380478 1.049 
0.791118 0.0398613 1.099 
0.844049 0.0402966 1.111 
0.889142 0.0403329 1.112 
0.931796 0.0402603 1.11 
0.969894 0.0400064 1.103 
0.969748 0.0382654 1.055 
0.966732 0.0365607 1.008 
-0.227032 0.0126273 0.327 
0.000762568 0.0132066 0.342 
0.0144816 0.0132838 0.344 
0.0282781 0.0133224 0.345 
0.0420326 0.0133224 0.345 
0.055787 0.0133224 0.345 
0.069743 0.013361 0.346 
0.12168 0.0162958 0.422 
0.138832 0.0163344 0.423 
0.408197 0.0428248 1.109 
0.45241 0.0428248 1.109 
0.497967 0.0429407 1.112 
0.542301 0.0429407 1.112 
0.585051 0.0428248 1.109 
0.614512 0.0418208 1.083 
0.64615 0.0410871 1.064 
0.680157 0.0405851 1.051 
0.720684 0.0405079 1.049 
0.804665 0.0427476 1.107 
0.851099 0.0428634 1.11 
0.896966 0.0429407 1.112 
0.938759 0.0428248 1.109 
0.97145 0.0423228 1.096 
0.974391 0.0406237 1.052 
0.966504 0.0385385 0.998 
-0.224044 0.0133532 0.326 
0.00557486 0.0140086 0.342 
0.019322 0.0140905 0.344 
0.0331326 0.0141315 0.345 
0.0467512 0.0140905 0.344 
0.0608173 0.0141725 0.346 
0.0748272 0.0142134 0.347 
0.128607 0.0172855 0.422 
0.385484 0.0455076 1.111 
0.429003 0.0454256 1.109 
0.47407 0.0455076 1.111 
0.51883 0.0455485 1.112 
0.56215 0.0454666 1.11 
0.604765 0.0453437 1.107 
0.630141 0.044033 1.075 
0.660478 0.0432137 1.055 
0.698543 0.042968 1.049 
0.743188 0.0431318 1.053 
0.828416 0.0455076 1.111 
0.871924 0.0454666 1.11 
0.918781 0.0454666 1.11 
0.960431 0.0453437 1.107 
0.973711 0.043951 1.073 
0.979543 0.0423536 1.034 
-0.224808 0.0141178 0.326 
0.00316871 0.0148107 0.342 
0.0169018 0.0148973 0.344 
0.0307054 0.0149406 0.345 
0.0443309 0.0148973 0.344 
0.0582143 0.0149406 0.345 
0.0723859 0.0150272 0.347 
0.124649 0.0182752 0.422 
0.375062 0.048113 1.111 
0.4186 0.0480264 1.109 
0.463231 0.0480697 1.11 
0.508399 0.0481563 1.112 
0.552235 0.048113 1.111 
0.594917 0.0479831 1.108 
0.621787 0.0466839 1.078 
0.654281 0.0459477 1.061 
0.688703 0.0454281 1.049 
0.724257 0.0450383 1.04 
0.815786 0.0479831 1.108 
0.860735 0.0480264 1.109 
0.913574 0.0480697 1.11 
0.956102 0.0479831 1.108 
0.973192 0.0466839 1.078 
0.986005 0.0452981 1.046 
-0.228565 0.014928 0.327 
0.00236667 0.0156127 0.342 
0.0160951 0.015704 0.344 
0.0298963 0.0157497 0.345 
0.0435242 0.015704 0.344 
0.0574052 0.0157497 0.345 
0.0715721 0.015841 0.347 
0.12168 0.0192648 0.422 
0.138832 0.0193105 0.423 
0.410798 0.0506272 1.109 
0.455011 0.0506272 1.109 
0.500575 0.0507642 1.112 
0.544418 0.0507185 1.111 
0.587652 0.0506272 1.109 
0.616482 0.0493946 1.082 
0.650474 0.0487099 1.067 
0.681972 0.0479338 1.05 
0.712804 0.0472034 1.034 
0.791218 0.0495316 1.085 
0.852933 0.0506272 1.109 
0.946562 0.0506272 1.109 
0.97112 0.0496229 1.087 
0.983659 0.0481164 1.054 
0.988407 0.0459251 1.006 
-0.0409418 0.0155028 0.323 
0.00961313 0.0164628 0.343 
0.0233557 0.0165108 0.344 
0.0370703 0.0165108 0.344 
0.0507849 0.0165108 0.344 
0.0646869 0.0165588 0.345 
0.0826121 0.0170867 0.356 
0.131576 0.0202545 0.422 
0.392592 0.053228 1.109 
0.436412 0.05318 1.108 
0.481887 0.053324 1.111 
0.526654 0.053372 1.112 
0.56996 0.053276 1.11 
0.610893 0.052988 1.104 
0.637704 0.0515961 1.075 
0.667267 0.0505882 1.054 
0.699867 0.0499163 1.04 
0.742755 0.0500123 1.042 
0.830211 0.05294 1.103 
0.946562 0.053228 1.109 
0.972907 0.0522681 1.089 
0.985526 0.0506842 1.056 
0.993466 0.0487643 1.016 
-0.220986 0.0164114 0.326 
0.0112219 0.0172672 0.343 
0.0249692 0.0173175 0.344 
0.0386838 0.0173175 0.344 
0.0523983 0.0173175 0.344 
0.0664973 0.0174182 0.346 
0.0836814 0.0179719 0.357 
0.136525 0.0212441 0.422 
0.40523 0.0557785 1.108 
0.449404 0.0557785 1.108 
0.494914 0.0559295 1.111 
0.539207 0.0559295 1.111 
0.58245 0.0558288 1.109 
0.615927 0.0548723 1.09 
0.648495 0.0539662 1.072 
0.677692 0.052909 1.051 
0.70453 0.0518015 1.029 
0.773716 0.0534124 1.061 
0.739015 0.0472204 0.938 
0.956102 0.0557785 1.108 
0.974998 0.0543689 1.08 
0.994489 0.0531104 1.055 
1.00948 0.0516001 1.025 
-0.0380292 0.0170705 0.324 
0.0169018 0.0181242 0.344 
0.0307054 0.0181769 0.345 
0.0443309 0.0181242 0.344 
0.0582143 0.0181769 0.345 
0.0721773 0.0182296 0.346 
0.126628 0.0222338 0.422 
0.379588 0.0584296 1.109 
0.423802 0.0584296 1.109 
0.468437 0.0584823 1.11 
0.513153 0.058535 1.111 
0.556944 0.0584823 1.11 
0.599573 0.0583242 1.107 
0.626843 0.0567963 1.078 
0.658015 0.0557953 1.059 
0.692301 0.055163 1.047 
0.72002 0.0541093 1.027 
0.798309 0.0565856 1.074 
0.737523 0.0483138 0.917 
0.738628 0.0461009 0.875 
0.976591 0.0577447 1.096 
0.985842 0.0557953 1.059 
0.999406 0.0541093 1.027 
0.00557486 0.0188209 0.342 
0.019322 0.018931 0.344 
0.0330366 0.018931 0.344 
0.0467512 0.018931 0.344 
0.0606415 0.018986 0.345 
0.0809424 0.0195914 0.356 
0.133239 0.0231684 0.421 
0.397435 0.0609754 1.108 
0.44121 0.0609203 1.107 
0.487098 0.0611405 1.111 
0.531391 0.0611405 1.111 
0.575166 0.0610854 1.11 
0.614955 0.0606452 1.102 
0.64155 0.0590493 1.073 
0.670936 0.0578936 1.052 
0.697968 0.0566829 1.03 
0.735445 0.0564077 1.025 
0.74323 0.0522253 0.949 
0.731683 0.0489234 0.889 
0.972481 0.0607002 1.103 
0.984202 0.0587741 1.068 
0.999409 0.0570681 1.037 
0.0103872 0.019623 0.342 
0.0241625 0.0197377 0.344 
0.037877 0.0197377 0.344 
0.0515916 0.0197377 0.344 
0.0656859 0.0198525 0.346 
0.0836814 0.0204836 0.357 
0.136525 0.0242131 0.422 
0.40523 0.0635738 1.108 
0.449404 0.0635738 1.108 
0.494914 0.063746 1.111 
0.539207 0.063746 1.111 
0.58245 0.0636312 1.109 
0.619318 0.0628853 1.096 
0.646075 0.0612787 1.068 
0.677047 0.0602459 1.05 
0.703161 0.0589263 1.027 
0.741932 0.0587541 1.024 
0.746829 0.0560574 0.977 
0.734834 0.0522705 0.911 
0.738987 0.0500902 0.873 
-0.22842 0.0196486 0.329 
0.0152439 0.0204847 0.343 
0.0290029 0.0205445 0.344 
0.0427175 0.0205445 0.344 
0.056432 0.0205445 0.344 
0.0705544 0.0206639 0.346 
0.128607 0.0252028 0.422 
0.386692 0.0661125 1.107 
0.431215 0.0661723 1.108 
0.476676 0.0663514 1.111 
0.520969 0.0663514 1.111 
0.565262 0.0663514 1.111 
0.607361 0.0661125 1.107 
0.633251 0.0642612 1.076 
0.662324 0.0629473 1.054 
0.692316 0.0618723 1.036 
0.722997 0.0609764 1.021 
0.765946 0.0611556 1.024 
0.737439 0.0559 0.936 
0.733369 0.0529139 0.886 
0.750452 0.0501667 0.84 
0.0136351 0.0212891 0.343 
0.0273894 0.0213512 0.344 
0.041104 0.0213512 0.344 
0.0548186 0.0213512 0.344 
0.0689316 0.0214753 0.346 
0.127618 0.0261925 0.422 
0.384096 0.0687087 1.107 
0.428616 0.0687707 1.108 
0.473644 0.0688949 1.11 
0.518363 0.0689569 1.111 
0.562657 0.0689569 1.111 
0.604765 0.0687087 1.107 
0.631313 0.0668466 1.077 
0.659852 0.0654191 1.054 
0.690552 0.0643639 1.037 
0.719897 0.0633088 1.02 
0.753851 0.0627502 1.011 
0.738386 0.0583434 0.94 
0.732942 0.0551159 0.888 
0.743252 0.0533159 0.859 
0.69217 0.0442541 0.713 
0.0111892 0.0220291 0.342 
0.0249692 0.0221579 0.344 
0.0386838 0.0221579 0.344 
0.0523983 0.0221579 0.344 
0.0664973 0.0222868 0.346 
0.12296 0.0272465 0.423 
0.139824 0.0272465 0.423 
0.413026 0.0713692 1.108 
0.457199 0.0713692 1.108 
0.502731 0.0715624 1.111 
0.547024 0.0715624 1.111 
0.58972 0.0713692 1.108 
0.623596 0.0702097 1.09 
0.649305 0.0683418 1.061 
0.681827 0.0673756 1.046 
0.709003 0.0660229 1.025 
0.735236 0.0647347 1.005 
0.742903 0.0620293 0.963 
0.730183 0.0579714 0.9 
0.740528 0.056039 0.87 
0.749373 0.054171 0.841 
-0.295819 0.0375846 0.563 
0.0144395 0.0228979 0.343 
0.0281962 0.0229647 0.344 
0.0419107 0.0229647 0.344 
0.0556253 0.0229647 0.344 
0.069743 0.0230982 0.346 
0.129597 0.0281718 0.422 
0.386343 0.0738341 1.106 
0.431215 0.0739676 1.108 
0.476247 0.0741011 1.11 
0.5205 0.0741011 1.11 
0.565262 0.0741679 1.111 
0.607361 0.0739009 1.107 
0.633839 0.0718981 1.077 
0.662324 0.0703627 1.054 
0.689643 0.068894 1.032 
0.719457 0.0678259 1.016 
0.744254 0.066424 0.995 
0.735076 0.062285 0.933 
0.730886 0.0589471 0.883 
0.741796 0.0570779 0.855 
0.755012 0.0555425 0.832 
-0.288409 0.0389741 0.564 
0.0201288 0.0237714 0.344 
0.0338433 0.0237714 0.344 
0.0475579 0.0237714 0.344 
0.0614506 0.0238405 0.345 
0.0767309 0.0243242 0.352 
0.136525 0.0291614 0.422 
0.40523 0.0765661 1.108 
0.449404 0.0765661 1.108 
0.49536 0.0768425 1.112 
0.539207 0.0767734 1.111 
0.582975 0.0767043 1.11 
0.623273 0.0762206 1.103 
0.64547 0.0737329 1.067 
0.676402 0.072489 1.049 
0.701792 0.0708305 1.025 
0.726716 0.0693103 1.003 
0.743007 0.0671681 0.972 
0.729481 0.0626764 0.907 
0.735252 0.0601887 0.871 
0.749644 0.0585993 0.848 
0.690637 0.0489249 0.708 
0.0104175 0.0245067 0.343 
0.0241625 0.0245782 0.344 
0.037877 0.0245782 0.344 
0.0515916 0.0245782 0.344 
0.0656859 0.0247211 0.346 
0.126628 0.0301511 0.422 
0.374948 0.0788073 1.103 
0.421201 0.079236 1.109 
0.465414 0.079236 1.109 
0.510547 0.0793789 1.111 
0.55534 0.0794503 1.112 
0.597516 0.0791645 1.108 
0.628948 0.0775927 1.086 
0.653675 0.0754492 1.056 
0.684574 0.0742346 1.039 
0.712721 0.0728771 1.02 
0.737137 0.0713052 0.998 
0.741115 0.0680186 0.952 
0.727513 0.0635174 0.889 
0.738067 0.0614454 0.86 
0.744513 0.0592305 0.829 
0.692354 0.050228 0.703 
0.0136351 0.0253111 0.343 
0.0273894 0.0253849 0.344 
0.041104 0.0253849 0.344 
0.0548186 0.0253849 0.344 
0.0689316 0.0255325 0.346 
0.128607 0.0311408 0.422 
0.386692 0.0816892 1.107 
0.431604 0.0818368 1.109 
0.476247 0.0819106 1.11 
0.520969 0.0819844 1.111 
0.565771 0.0820582 1.112 
0.60791 0.081763 1.108 
0.635016 0.079623 1.079 
0.662324 0.0777781 1.054 
0.688306 0.0760071 1.03 
0.715916 0.074605 1.011 
0.734531 0.072465 0.982 
0.7335 0.0687016 0.931 
0.727575 0.0648643 0.879 
0.740061 0.0629457 0.853 
0.692872 0.0535739 0.726 
-0.29157 0.0430182 0.565 
0.022549 0.0261916 0.344 
0.0362636 0.0261916 0.344 
0.0499781 0.0261916 0.344 
0.064063 0.0263439 0.346 
0.117383 0.0356328 0.468 
0.131576 0.0321304 0.422 
0.395549 0.0845137 1.11 
0.439406 0.0844376 1.109 
0.484928 0.084666 1.112 
0.528785 0.0845898 1.111 
0.573079 0.0845898 1.111 
0.615149 0.0842853 1.107 
0.640821 0.081925 1.076 
0.668468 0.0800977 1.052 
0.693527 0.0781942 1.027 
0.718738 0.0765192 1.005 
0.735399 0.0741589 0.974 
0.726537 0.0695906 0.914 
0.728751 0.0664689 0.873 
0.744313 0.0647938 0.851 
0.691119 0.0559618 0.735 
0.688077 0.0534492 0.702 
-3.6187 0.34109 4.346 
0.0209355 0.0269984 0.344 
0.0346501 0.0269984 0.344 
0.0483646 0.0269984 0.344 
0.0622597 0.0270769 0.345 
0.117383 0.0367303 0.468 
0.132566 0.0331201 0.422 
0.398152 0.0871168 1.11 
0.442007 0.0870384 1.109 
0.487536 0.0872738 1.112 
0.531391 0.0871953 1.111 
0.575684 0.0871953 1.111 
0.617745 0.0868814 1.107 
0.643344 0.0844484 1.076 
0.670298 0.0824863 1.051 
0.695258 0.0805242 1.026 
0.723642 0.0786406 1.002 
0.732345 0.0754228 0.961 
0.723344 0.0707923 0.902 
0.732367 0.0682808 0.87 
0.737957 0.0656908 0.837 
0.690015 0.05745 0.732 
0.684811 0.0547031 0.697 
-3.69959 0.362194 4.481 
0.0257759 0.0278051 0.344 
0.0394905 0.0278051 0.344 
0.0532051 0.0278051 0.344 
0.0671142 0.0278859 0.345 
0.125638 0.0341098 0.422 
0.378904 0.0894775 1.107 
0.423802 0.0896392 1.109 
0.468015 0.0896392 1.109 
0.513153 0.0898008 1.111 
0.557948 0.0898817 1.112 
0.600656 0.0896392 1.109 
0.634984 0.0882651 1.092 
0.656151 0.0853552 1.056 
0.687011 0.0839811 1.039 
0.714957 0.0818796 1.013 
0.728499 0.0789698 0.977 
0.730531 0.0751708 0.93 
0.723863 0.0708869 0.877 
0.73633 0.0687853 0.851 
0.683673 0.0598133 0.74 
0.68786 0.0575501 0.712 
-3.65947 0.361474 4.346 
0.0192659 0.0285287 0.343 
0.0330366 0.0286119 0.344 
0.0467512 0.0286119 0.344 
0.0606415 0.028695 0.345 
0.11848 0.0389254 0.468 
0.134545 0.0350994 0.422 
0.403722 0.0924063 1.111 
0.447209 0.09224 1.109 
