# .PCD v.7 - Point Cloud Data file format
VERSION .7
FIELDS x y z
SIZE 4 4 4
TYPE F F F
COUNT 1 1 1
WIDTH 1826
HEIGHT 1
VIEWPOINT 0 0 0 1 0 0 0
POINTS 1826
DATA ascii
1.58632 -0.38834 2.569 
1.72134 -0.391817 2.592 
1.88266 -0.400433 2.649 
1.9978 -0.39877 2.638 
2.12397 -0.399375 2.642 
2.28965 -0.406933 2.692 
2.44921 -0.412677 2.73 
2.56891 -0.411468 2.722 
2.68885 -0.41041 2.715 
-0.484332 -0.0960497 0.642 
-0.469272 -0.0991915 0.663 
-0.452254 -0.102333 0.684 
-0.429591 -0.104577 0.699 
-0.402122 -0.105924 0.708 
-0.37955 -0.108916 0.728 
-0.357486 -0.112656 0.753 
-0.33352 -0.116546 0.779 
-0.310564 -0.121783 0.814 
-0.281666 -0.125822 0.841 
-0.252162 -0.133003 0.889 
-0.218311 -0.137791 0.921 
-0.183952 -0.144523 0.966 
-0.147267 -0.153201 1.024 
-0.107218 -0.16502 1.103 
-0.0585893 -0.173249 1.158 
-0.00494139 -0.185517 1.24 
0.0554555 -0.194643 1.301 
0.123056 -0.206312 1.379 
0.201324 -0.221722 1.482 
0.287369 -0.235636 1.575 
0.38529 -0.251644 1.682 
0.683373 -0.368789 2.465 
0.799239 -0.369238 2.468 
0.91205 -0.36834 2.462 
1.03723 -0.37208 2.487 
1.1666 -0.376419 2.516 
1.30224 -0.381805 2.552 
1.41005 -0.378813 2.532 
1.54195 -0.382254 2.555 
1.68314 -0.387341 2.589 
1.81845 -0.390482 2.61 
1.97132 -0.396766 2.652 
2.09809 -0.397364 2.656 
2.24029 -0.400656 2.678 
2.40132 -0.40679 2.719 
2.55223 -0.41068 2.745 
2.65089 -0.406191 2.715 
-0.494706 -0.091795 0.62 
-0.473642 -0.0965328 0.652 
-0.458888 -0.0999381 0.675 
-0.438824 -0.102603 0.693 
-0.412389 -0.104084 0.703 
-0.389342 -0.106749 0.721 
-0.367084 -0.110154 0.744 
-0.342236 -0.113411 0.766 
-0.319338 -0.118149 0.798 
-0.29275 -0.122591 0.828 
-0.263058 -0.126884 0.857 
-0.235238 -0.134583 0.909 
-0.19799 -0.140209 0.947 
-0.162298 -0.147908 0.999 
-0.122983 -0.159309 1.076 
-0.076891 -0.168192 1.136 
-0.0256488 -0.180185 1.217 
0.0325059 -0.188476 1.273 
0.0973238 -0.199728 1.349 
0.171008 -0.213201 1.44 
0.254663 -0.228007 1.54 
0.351456 -0.245478 1.658 
0.454078 -0.259987 1.756 
0.75706 -0.365403 2.468 
0.878808 -0.368216 2.487 
0.990728 -0.366736 2.477 
1.1294 -0.374435 2.529 
1.25517 -0.376804 2.545 
1.3684 -0.375323 2.535 
1.49828 -0.378284 2.555 
1.64333 -0.384355 2.596 
1.76908 -0.385391 2.603 
1.95795 -0.39916 2.696 
2.05811 -0.394274 2.663 
2.17322 -0.392646 2.652 
2.33494 -0.39916 2.696 
2.50532 -0.406415 2.745 
2.60832 -0.402565 2.719 
-0.504094 -0.0900992 0.615 
-0.483577 -0.0939083 0.641 
-0.467916 -0.0972778 0.664 
-0.450129 -0.100208 0.684 
-0.428031 -0.102552 0.7 
-0.400487 -0.10387 0.709 
-0.377806 -0.106801 0.729 
-0.355146 -0.110317 0.753 
-0.331524 -0.114272 0.78 
-0.308035 -0.119253 0.814 
-0.279385 -0.123355 0.842 
-0.253258 -0.130094 0.888 
-0.219742 -0.134929 0.921 
-0.182829 -0.141815 0.968 
-0.14525 -0.149579 1.021 
-0.105121 -0.161007 1.099 
-0.0567411 -0.169504 1.157 
-0.0030124 -0.181517 1.239 
0.0576536 -0.191186 1.305 
0.125198 -0.202027 1.379 
0.203351 -0.216824 1.48 
0.289448 -0.230449 1.573 
0.389287 -0.247297 1.688 
0.689712 -0.362448 2.474 
0.809256 -0.364352 2.487 
0.921456 -0.362887 2.477 
1.04779 -0.366696 2.503 
1.17655 -0.370505 2.529 
1.31644 -0.376805 2.572 
1.42348 -0.373436 2.549 
1.54592 -0.374315 2.555 
1.69368 -0.380761 2.599 
1.83437 -0.384863 2.627 
1.97842 -0.389111 2.656 
2.11963 -0.392334 2.678 
2.25619 -0.394385 2.692 
2.42236 -0.401125 2.738 
2.58257 -0.406252 2.773 
2.69155 -0.398781 2.722 
-0.491311 -0.0917528 0.633 
-0.472629 -0.0945068 0.652 
-0.458518 -0.0979856 0.676 
-0.438379 -0.100595 0.694 
-0.413052 -0.102334 0.706 
-0.388761 -0.104653 0.722 
-0.365929 -0.107842 0.744 
-0.341046 -0.111031 0.766 
-0.318496 -0.115814 0.799 
-0.291463 -0.120018 0.828 
-0.262948 -0.124801 0.861 
-0.235497 -0.131904 0.91 
-0.198408 -0.136542 0.942 
-0.163522 -0.144514 0.997 
-0.125035 -0.154371 1.065 
-0.0802086 -0.164227 1.133 
-0.0291161 -0.174519 1.204 
0.0283484 -0.183216 1.264 
0.0922345 -0.193652 1.336 
0.164567 -0.206263 1.423 
0.247282 -0.220902 1.524 
0.34338 -0.238296 1.644 
0.444022 -0.251922 1.738 
0.753338 -0.359619 2.481 
0.878785 -0.363677 2.509 
0.989381 -0.361358 2.493 
1.13175 -0.36991 2.552 
1.24922 -0.369475 2.549 
1.37125 -0.370345 2.555 
1.49618 -0.371794 2.565 
1.64156 -0.377737 2.606 
1.7725 -0.379767 2.62 
1.95247 -0.391363 2.7 
2.06138 -0.388174 2.678 
2.1862 -0.388174 2.678 
2.33001 -0.391363 2.7 
2.51498 -0.400784 2.765 
2.63887 -0.392377 2.707 
-0.494706 -0.0889052 0.62 
-0.481339 -0.0920599 0.642 
-0.465187 -0.0955013 0.666 
-0.447182 -0.0983693 0.686 
-0.426102 -0.10095 0.704 
-0.397757 -0.102098 0.712 
-0.374299 -0.104822 0.731 
-0.351863 -0.108407 0.756 
-0.327096 -0.111992 0.781 
-0.304465 -0.117297 0.818 
-0.274477 -0.120882 0.843 
-0.247739 -0.127335 0.888 
-0.21425 -0.132211 0.922 
-0.178274 -0.139954 0.976 
-0.139313 -0.146837 1.024 
-0.0988281 -0.158452 1.105 
-0.0497649 -0.166625 1.162 
0.00468383 -0.177524 1.238 
0.0661669 -0.188278 1.313 
0.134448 -0.198746 1.386 
0.213124 -0.212799 1.484 
0.301506 -0.227282 1.585 
0.404988 -0.245206 1.71 
0.710502 -0.357485 2.493 
0.832007 -0.359779 2.509 
0.942901 -0.357485 2.493 
1.07694 -0.363507 2.535 
1.19981 -0.364941 2.545 
1.33968 -0.370821 2.586 
1.45231 -0.368813 2.572 
1.56791 -0.367809 2.565 
1.72628 -0.37627 2.624 
1.86338 -0.379281 2.645 
1.99793 -0.381432 2.66 
2.14186 -0.385017 2.685 
2.27038 -0.38559 2.689 
2.44917 -0.394194 2.749 
2.59981 -0.397635 2.773 
-0.506136 -0.0870908 0.614 
-0.490327 -0.0897858 0.633 
-0.473199 -0.0921971 0.65 
-0.459256 -0.0956013 0.674 
-0.439266 -0.0981545 0.692 
-0.416422 -0.100424 0.708 
-0.391546 -0.102552 0.723 
-0.366261 -0.104963 0.74 
-0.342529 -0.108367 0.764 
-0.317765 -0.112197 0.791 
-0.292971 -0.117019 0.825 
-0.264081 -0.121417 0.856 
-0.236753 -0.128225 0.904 
-0.20043 -0.132055 0.931 
-0.165283 -0.140281 0.989 
-0.126536 -0.148934 1.05 
-0.0834336 -0.160139 1.129 
-0.0325571 -0.169217 1.193 
0.0242468 -0.178011 1.255 
0.0874897 -0.188224 1.327 
0.15857 -0.199855 1.409 
0.24 -0.213897 1.508 
0.335391 -0.231202 1.63 
0.435846 -0.244961 1.727 
0.753109 -0.353611 2.493 
0.881861 -0.358718 2.529 
0.993414 -0.356448 2.513 
1.13353 -0.363824 2.565 
1.25162 -0.363398 2.562 
1.37264 -0.363824 2.565 
1.50615 -0.367228 2.589 
1.64442 -0.3712 2.617 
1.7853 -0.375171 2.645 
1.94538 -0.382405 2.696 
2.0626 -0.380845 2.685 
2.19997 -0.382973 2.7 
2.32581 -0.382973 2.7 
2.51795 -0.393327 2.773 
2.60879 -0.381412 2.689 
-0.499679 -0.0868383 0.619 
-0.484518 -0.0893635 0.637 
-0.469822 -0.0923095 0.658 
-0.4525 -0.0951153 0.678 
-0.433315 -0.0979211 0.698 
-0.408245 -0.0997448 0.711 
-0.382491 -0.101709 0.725 
-0.358799 -0.104655 0.746 
-0.335755 -0.108443 0.773 
-0.312521 -0.113072 0.806 
-0.284164 -0.11686 0.833 
-0.257707 -0.122752 0.875 
-0.228575 -0.129346 0.922 
-0.189561 -0.133133 0.949 
-0.156201 -0.143094 1.02 
-0.113345 -0.149266 1.064 
-0.0680062 -0.159227 1.135 
-0.0162213 -0.171011 1.219 
0.043494 -0.183216 1.306 
0.108283 -0.19009 1.355 
0.182447 -0.202295 1.442 
0.267319 -0.216605 1.544 
0.368292 -0.235123 1.676 
0.462392 -0.24354 1.736 
0.791129 -0.351141 2.503 
0.909971 -0.351983 2.509 
1.03224 -0.353806 2.522 
1.16347 -0.358015 2.552 
1.30603 -0.364609 2.599 
1.42553 -0.364188 2.596 
1.53819 -0.362224 2.582 
1.68744 -0.368537 2.627 
1.83744 -0.374148 2.667 
1.98014 -0.377655 2.692 
2.10014 -0.376673 2.685 
2.26258 -0.382986 2.73 
2.38983 -0.382986 2.73 
2.58992 -0.394069 2.809 
2.60074 -0.376673 2.685 
-0.50094 -0.0855991 0.617 
-0.485957 -0.0880963 0.635 
-0.470014 -0.0907323 0.654 
-0.454989 -0.0939232 0.677 
-0.435317 -0.0965591 0.696 
-0.411559 -0.0986401 0.711 
-0.38587 -0.100582 0.725 
-0.360334 -0.102941 0.742 
-0.337602 -0.106687 0.769 
-0.314316 -0.111126 0.801 
-0.287009 -0.11515 0.83 
-0.25999 -0.12056 0.869 
-0.23161 -0.127219 0.917 
-0.19023 -0.131104 0.945 
-0.157785 -0.141509 1.02 
-0.114242 -0.146642 1.057 
-0.0697081 -0.157325 1.134 
-0.0179666 -0.16773 1.209 
0.0414649 -0.181187 1.306 
0.105707 -0.187153 1.349 
0.179457 -0.199223 1.436 
0.263891 -0.213373 1.538 
0.365688 -0.232519 1.676 
0.457576 -0.239733 1.728 
0.789127 -0.348085 2.509 
0.909684 -0.349472 2.519 
1.03117 -0.350859 2.529 
1.16086 -0.354466 2.555 
1.30199 -0.360571 2.599 
1.42533 -0.361126 2.603 
1.54249 -0.360154 2.596 
1.69041 -0.365981 2.638 
1.84567 -0.372502 2.685 
1.97596 -0.373473 2.692 
2.09285 -0.371947 2.681 
2.26496 -0.379855 2.738 
2.38559 -0.378745 2.73 
2.58923 -0.39026 2.813 
2.59656 -0.372502 2.685 
-0.497912 -0.0847777 0.618 
-0.484288 -0.0875213 0.638 
-0.467066 -0.0901277 0.657 
-0.450394 -0.0930085 0.678 
-0.431763 -0.0958893 0.699 
-0.407749 -0.097947 0.714 
-0.380238 -0.099456 0.725 
-0.356481 -0.102337 0.746 
-0.333784 -0.106178 0.774 
-0.310401 -0.110705 0.807 
-0.281575 -0.114272 0.833 
-0.254988 -0.120033 0.875 
-0.226444 -0.126892 0.925 
-0.185826 -0.129636 0.945 
-0.152581 -0.139513 1.017 
-0.109729 -0.145549 1.061 
-0.0644794 -0.1557 1.135 
-0.0123722 -0.1664 1.213 
0.0476615 -0.17957 1.309 
0.112825 -0.186429 1.359 
0.188613 -0.199598 1.455 
0.271941 -0.21167 1.543 
0.374168 -0.230326 1.679 
0.678698 -0.34158 2.49 
0.804014 -0.345558 2.519 
0.921425 -0.345558 2.519 
1.04543 -0.347753 2.535 
1.17461 -0.351045 2.559 
1.32321 -0.359002 2.617 
1.44905 -0.359962 2.624 
1.55878 -0.357081 2.603 
1.7098 -0.363392 2.649 
1.86095 -0.368879 2.689 
1.98629 -0.368879 2.689 
2.10534 -0.367781 2.681 
2.2744 -0.375052 2.734 
2.41149 -0.376561 2.745 
2.60605 -0.386438 2.817 
2.61977 -0.369839 2.696 
-0.496794 -0.0839531 0.619 
-0.482305 -0.08653 0.638 
-0.465025 -0.0891069 0.657 
-0.448948 -0.0920907 0.679 
-0.430206 -0.0949389 0.7 
-0.40612 -0.0972446 0.717 
-0.377379 -0.0984652 0.726 
-0.354896 -0.10172 0.75 
-0.33103 -0.105247 0.776 
-0.3074 -0.109722 0.809 
-0.278026 -0.113113 0.834 
-0.251483 -0.118945 0.877 
-0.223094 -0.125997 0.929 
-0.178702 -0.129388 0.954 
-0.140825 -0.137255 1.012 
-0.101151 -0.14824 1.093 
-0.0529163 -0.156242 1.152 
0.000826115 -0.165736 1.222 
0.0616614 -0.176858 1.304 
0.129483 -0.18703 1.379 
0.210108 -0.200592 1.479 
0.29527 -0.212256 1.565 
0.39739 -0.229074 1.689 
0.723545 -0.342458 2.525 
0.844568 -0.343814 2.535 
0.962725 -0.343814 2.535 
1.09538 -0.348426 2.569 
1.22316 -0.350731 2.586 
1.35409 -0.353444 2.606 
1.48971 -0.356835 2.631 
1.60989 -0.356292 2.627 
1.76597 -0.363209 2.678 
1.88796 -0.362667 2.674 
2.02389 -0.364701 2.689 
2.15162 -0.365108 2.692 
2.28387 -0.366193 2.7 
2.44988 -0.372296 2.745 
2.62571 -0.379213 2.796 
2.66831 -0.367142 2.707 
-0.490504 -0.0833936 0.622 
-0.478578 -0.0864773 0.645 
-0.461726 -0.0890247 0.664 
-0.443752 -0.0917062 0.684 
-0.422924 -0.0946558 0.706 
-0.399409 -0.096935 0.723 
-0.370262 -0.0981417 0.732 
-0.347624 -0.101494 0.757 
-0.322242 -0.104711 0.781 
-0.299381 -0.109672 0.818 
-0.2686 -0.112756 0.841 
-0.23922 -0.117582 0.877 
-0.210556 -0.124822 0.931 
-0.166143 -0.130856 0.976 
-0.12324 -0.1389 1.036 
-0.0816795 -0.151369 1.129 
-0.030369 -0.158207 1.18 
0.026468 -0.170005 1.268 
0.0892815 -0.177379 1.323 
0.160987 -0.189177 1.411 
0.241861 -0.20178 1.505 
0.337923 -0.21854 1.63 
0.434212 -0.229265 1.71 
0.775771 -0.339072 2.529 
0.899303 -0.341217 2.545 
1.02353 -0.343094 2.559 
1.14995 -0.345239 2.575 
1.2818 -0.348457 2.599 
1.39917 -0.347518 2.592 
1.55751 -0.356099 2.656 
1.68384 -0.356635 2.66 
1.83773 -0.362534 2.704 
1.96884 -0.363473 2.711 
2.0782 -0.360523 2.689 
2.24041 -0.366557 2.734 
2.36785 -0.366557 2.734 
2.57468 -0.378221 2.821 
2.64094 -0.369104 2.753 
-0.502455 -0.0812346 0.613 
-0.487377 -0.083885 0.633 
-0.467858 -0.0862703 0.651 
-0.452972 -0.0893183 0.674 
-0.434066 -0.0919687 0.694 
-0.413296 -0.0946191 0.714 
-0.386403 -0.0962093 0.726 
-0.359362 -0.0980646 0.74 
-0.336285 -0.10151 0.766 
-0.311961 -0.105353 0.795 
-0.286317 -0.109726 0.828 
-0.259093 -0.114762 0.866 
-0.227063 -0.119135 0.899 
-0.187564 -0.124436 0.939 
-0.148246 -0.133712 1.009 
-0.106532 -0.140736 1.062 
-0.0611673 -0.15094 1.139 
-0.00854628 -0.159686 1.205 
0.0573001 -0.171878 1.297 
0.124472 -0.181684 1.371 
0.201977 -0.194804 1.47 
0.284479 -0.204875 1.546 
0.387211 -0.222501 1.679 
0.707012 -0.334215 2.522 
0.832083 -0.337263 2.545 
0.949585 -0.336865 2.542 
1.07773 -0.339913 2.565 
1.20709 -0.342696 2.586 
1.35227 -0.349057 2.634 
1.48512 -0.351442 2.652 
1.61116 -0.351972 2.656 
1.74671 -0.354358 2.674 
1.89234 -0.358333 2.704 
2.0124 -0.357273 2.696 
2.14124 -0.357803 2.7 
2.28556 -0.360719 2.722 
2.43282 -0.363767 2.745 
2.6242 -0.372778 2.813 
2.70046 -0.365357 2.757 
-0.49487 -0.0810679 0.619 
-0.480834 -0.0838182 0.64 
-0.461574 -0.0857827 0.655 
-0.44618 -0.0887949 0.678 
-0.428031 -0.0916762 0.7 
-0.406701 -0.0942955 0.72 
-0.377287 -0.0953432 0.728 
-0.353731 -0.0982245 0.75 
-0.329399 -0.101499 0.775 
-0.304629 -0.105428 0.805 
-0.27673 -0.109226 0.834 
-0.24898 -0.114333 0.873 
-0.221155 -0.122191 0.933 
-0.176454 -0.12337 0.942 
-0.13999 -0.131752 1.006 
-0.100874 -0.142753 1.09 
-0.0528703 -0.150742 1.151 
0.000822735 -0.159386 1.217 
0.0654614 -0.170125 1.299 
0.13338 -0.180078 1.375 
0.211831 -0.193175 1.475 
0.29656 -0.204176 1.559 
0.398119 -0.220154 1.681 
0.726411 -0.331999 2.535 
0.847899 -0.333308 2.545 
0.97032 -0.334618 2.555 
1.09964 -0.337761 2.579 
1.226 -0.339464 2.592 
1.35617 -0.341821 2.61 
1.50783 -0.348762 2.663 
1.63011 -0.34837 2.66 
1.7752 -0.35256 2.692 
1.91409 -0.355049 2.711 
2.03518 -0.354132 2.704 
2.16361 -0.354525 2.707 
2.29655 -0.355573 2.715 
2.4472 -0.359109 2.742 
2.64168 -0.368407 2.813 
2.71759 -0.361073 2.757 
-0.488795 -0.0810121 0.626 
-0.474031 -0.0837298 0.647 
-0.457595 -0.086318 0.667 
-0.439934 -0.0890357 0.688 
-0.419722 -0.0916239 0.708 
-0.397647 -0.0942122 0.728 
-0.367711 -0.0952475 0.736 
-0.343372 -0.0980945 0.758 
-0.318608 -0.101459 0.784 
-0.294657 -0.105989 0.819 
-0.264626 -0.109353 0.845 
-0.232437 -0.112848 0.872 
-0.20166 -0.120353 0.93 
-0.164951 -0.125401 0.969 
-0.126832 -0.132777 1.026 
-0.084735 -0.14533 1.123 
-0.0337761 -0.151542 1.171 
0.0221903 -0.161636 1.249 
0.0850417 -0.170954 1.321 
0.156714 -0.18273 1.412 
0.235766 -0.193601 1.496 
0.326936 -0.207189 1.601 
0.427895 -0.220777 1.706 
0.766065 -0.329872 2.549 
0.884875 -0.329872 2.549 
1.01156 -0.33246 2.569 
1.14143 -0.335437 2.592 
1.2676 -0.33686 2.603 
1.38146 -0.335049 2.589 
1.55783 -0.347472 2.685 
1.6648 -0.343719 2.656 
1.82294 -0.350319 2.707 
1.95992 -0.35226 2.722 
2.07836 -0.350837 2.711 
2.20472 -0.350837 2.711 
2.35773 -0.354849 2.742 
2.54174 -0.362872 2.804 
2.6772 -0.363519 2.809 
-0.499023 -0.0788888 0.617 
-0.47957 -0.081446 0.637 
-0.461179 -0.0834917 0.653 
-0.445255 -0.0863046 0.675 
-0.428505 -0.0893732 0.699 
-0.407819 -0.0920582 0.72 
-0.379458 -0.0933368 0.73 
-0.354423 -0.0957661 0.749 
-0.329324 -0.0987069 0.772 
-0.30474 -0.102543 0.802 
-0.277693 -0.106506 0.833 
-0.249189 -0.111109 0.869 
-0.210556 -0.119036 0.931 
-0.170752 -0.121594 0.951 
-0.132569 -0.129009 1.009 
-0.0929147 -0.140133 1.096 
-0.0441579 -0.147932 1.157 
0.0103529 -0.156755 1.226 
0.0719565 -0.167111 1.307 
0.140399 -0.176573 1.381 
0.218558 -0.188464 1.474 
0.304801 -0.199971 1.564 
0.40523 -0.214547 1.678 
0.742303 -0.325912 2.549 
0.861113 -0.325912 2.549 
0.987611 -0.328469 2.569 
1.11597 -0.331026 2.589 
1.23999 -0.331921 2.596 
1.36256 -0.332305 2.599 
1.53508 -0.343812 2.689 
1.64869 -0.341383 2.67 
1.79572 -0.34573 2.704 
1.93739 -0.348543 2.726 
2.05611 -0.347136 2.715 
2.18588 -0.347648 2.719 
2.32197 -0.349054 2.73 
2.47344 -0.352506 2.757 
2.66612 -0.361201 2.825 
2.75817 -0.356086 2.785 
-0.482459 -0.079951 0.633 
-0.465835 -0.0822245 0.651 
-0.448871 -0.0847506 0.671 
-0.432532 -0.087782 0.695 
-0.412228 -0.0904344 0.716 
-0.386263 -0.0922026 0.73 
-0.359475 -0.0940972 0.745 
-0.333905 -0.0967496 0.766 
-0.30988 -0.100539 0.796 
-0.283744 -0.104581 0.828 
-0.255514 -0.109001 0.863 
-0.215126 -0.117716 0.932 
-0.173896 -0.119232 0.944 
-0.137739 -0.126431 1.001 
-0.0981792 -0.136283 1.079 
-0.0510821 -0.145377 1.151 
0.00271356 -0.153713 1.217 
0.0631013 -0.163186 1.292 
0.128667 -0.170259 1.348 
0.207693 -0.184658 1.462 
0.291119 -0.194889 1.543 
0.392449 -0.210677 1.668 
0.719667 -0.320688 2.539 
0.843292 -0.322709 2.555 
0.968784 -0.324856 2.572 
1.09459 -0.326625 2.586 
1.21654 -0.327004 2.589 
1.35529 -0.331424 2.624 
1.51194 -0.339129 2.685 
1.63709 -0.339129 2.685 
1.76224 -0.339129 2.685 
1.93238 -0.347212 2.749 
2.03502 -0.342918 2.715 
2.18864 -0.347212 2.749 
2.3075 -0.345823 2.738 
2.43868 -0.346328 2.742 
2.65166 -0.357822 2.833 
2.79157 -0.358832 2.841 
-0.487025 -0.0785933 0.63 
-0.47001 -0.0807141 0.647 
-0.451016 -0.0833339 0.668 
-0.434966 -0.0863279 0.692 
-0.415514 -0.0890724 0.714 
-0.391871 -0.0913179 0.732 
-0.36215 -0.0924407 0.741 
-0.335407 -0.09531 0.764 
-0.311176 -0.0989278 0.793 
-0.28528 -0.10292 0.825 
-0.256699 -0.107037 0.858 
-0.224538 -0.110904 0.889 
-0.176642 -0.11764 0.943 
-0.140568 -0.124627 0.999 
-0.100591 -0.133359 1.069 
-0.0527785 -0.143339 1.149 
0.000821383 -0.151573 1.215 
0.0609048 -0.16068 1.288 
0.125915 -0.167291 1.341 
0.205 -0.182012 1.459 
0.287599 -0.191743 1.537 
0.388221 -0.207212 1.661 
0.720518 -0.317118 2.542 
0.842301 -0.318365 2.552 
0.971421 -0.321734 2.579 
1.09586 -0.322981 2.589 
1.21654 -0.322981 2.589 
1.35322 -0.326848 2.62 
1.51588 -0.33583 2.692 
1.64136 -0.33583 2.692 
1.76224 -0.334957 2.685 
1.94081 -0.344438 2.761 
2.04027 -0.339573 2.722 
2.20138 -0.344937 2.765 
2.3134 -0.342442 2.745 
2.44135 -0.342442 2.745 
2.6554 -0.353919 2.837 
2.8122 -0.357038 2.862 
-0.487229 -0.0774913 0.629 
-0.470287 -0.0795857 0.646 
-0.450651 -0.0824192 0.669 
-0.434517 -0.0853759 0.693 
-0.414405 -0.0879631 0.714 
-0.391267 -0.0903039 0.733 
-0.361974 -0.0915358 0.743 
-0.33422 -0.094123 0.764 
-0.310726 -0.0979421 0.795 
-0.28331 -0.101392 0.823 
-0.255664 -0.105827 0.859 
-0.22416 -0.110015 0.893 
-0.182309 -0.116052 0.942 
-0.146042 -0.122458 0.994 
-0.100215 -0.131205 1.065 
-0.0544212 -0.141184 1.146 
-0.00106282 -0.149192 1.211 
0.058675 -0.158063 1.283 
0.123093 -0.164222 1.333 
0.202177 -0.179253 1.455 
0.284469 -0.188862 1.533 
0.383551 -0.203522 1.652 
0.715722 -0.312799 2.539 
0.839322 -0.31477 2.555 
0.97004 -0.318589 2.586 
1.0931 -0.319328 2.592 
1.21579 -0.319821 2.596 
1.34915 -0.322778 2.62 
1.5117 -0.331648 2.692 
1.63718 -0.331648 2.692 
1.75348 -0.329923 2.678 
1.94494 -0.341627 2.773 
2.04202 -0.336329 2.73 
2.2098 -0.342613 2.781 
2.32259 -0.340149 2.761 
2.44063 -0.33867 2.749 
2.65473 -0.350004 2.841 
2.82836 -0.355179 2.883 
-0.488986 -0.0760275 0.625 
-0.473098 -0.0782171 0.643 
-0.455537 -0.0807716 0.664 
-0.43716 -0.0835694 0.687 
-0.418112 -0.0862456 0.709 
-0.397557 -0.0890434 0.732 
-0.36741 -0.0900165 0.74 
-0.339839 -0.0922061 0.758 
-0.315757 -0.0956121 0.786 
-0.289775 -0.0992615 0.816 
-0.262538 -0.103519 0.851 
-0.229682 -0.106682 0.877 
-0.192781 -0.113859 0.936 
-0.156006 -0.119089 0.979 
-0.115448 -0.124563 1.024 
-0.0706507 -0.136363 1.121 
-0.0192705 -0.14281 1.174 
0.0384998 -0.155096 1.275 
0.101615 -0.160935 1.323 
0.179582 -0.174802 1.437 
0.259944 -0.184291 1.515 
0.355651 -0.19828 1.63 
0.454399 -0.208741 1.716 
0.804007 -0.312503 2.569 
0.932019 -0.315301 2.592 
1.05283 -0.315301 2.592 
1.18633 -0.318707 2.62 
1.31743 -0.320897 2.638 
1.44258 -0.321383 2.642 
1.58054 -0.324424 2.667 
1.70037 -0.323573 2.66 
1.9046 -0.337805 2.777 
1.99961 -0.332088 2.73 
2.16659 -0.338292 2.781 
2.2863 -0.336832 2.769 
2.42583 -0.338292 2.781 
2.59957 -0.344131 2.829 
2.81736 -0.354957 2.918 
-0.492151 -0.0742158 0.618 
-0.477591 -0.0764975 0.637 
-0.459599 -0.0790194 0.658 
-0.441563 -0.0815413 0.679 
-0.423197 -0.0841833 0.701 
-0.403893 -0.0870654 0.725 
-0.376226 -0.0885065 0.737 
-0.349297 -0.090428 0.753 
-0.322962 -0.0929499 0.774 
-0.294101 -0.0969128 0.807 
-0.267929 -0.101236 0.843 
-0.235959 -0.104479 0.87 
-0.201009 -0.111324 0.927 
-0.16393 -0.115647 0.963 
-0.125967 -0.122372 1.019 
-0.0817923 -0.130178 1.084 
-0.0336319 -0.140025 1.166 
0.022066 -0.149152 1.242 
0.0845911 -0.157799 1.314 
0.160645 -0.169087 1.408 
0.240575 -0.179775 1.497 
0.329424 -0.190823 1.589 
0.431673 -0.204153 1.7 
0.783015 -0.311274 2.592 
0.900342 -0.310073 2.582 
1.02622 -0.311754 2.596 
1.15341 -0.313436 2.61 
1.28337 -0.315477 2.627 
1.41384 -0.317279 2.642 
1.5684 -0.323763 2.696 
1.67584 -0.320281 2.667 
1.85077 -0.329287 2.742 
1.97569 -0.328807 2.738 
2.10331 -0.328807 2.738 
2.26923 -0.334451 2.785 
2.3887 -0.33301 2.773 
2.5579 -0.338294 2.817 
2.75603 -0.346701 2.887 
-0.496597 -0.0727815 0.614 
-0.480935 -0.0747966 0.631 
-0.4631 -0.0770488 0.65 
-0.443659 -0.079538 0.671 
-0.428362 -0.08262 0.697 
-0.40837 -0.0852278 0.719 
-0.38372 -0.0872429 0.736 
-0.354163 -0.0884283 0.746 
-0.329667 -0.0912732 0.77 
-0.299876 -0.0947107 0.799 
-0.272166 -0.0981483 0.828 
-0.243446 -0.102297 0.863 
-0.213112 -0.107276 0.905 
-0.17924 -0.112491 0.949 
-0.141124 -0.117588 0.992 
-0.100626 -0.1247 1.052 
-0.0543737 -0.135724 1.145 
-0.00105844 -0.142955 1.206 
0.0584463 -0.15149 1.278 
0.122908 -0.157772 1.331 
0.204157 -0.172234 1.453 
0.288161 -0.182546 1.54 
0.381911 -0.193689 1.634 
0.720233 -0.302861 2.555 
0.837351 -0.30215 2.549 
0.976417 -0.308551 2.603 
1.09901 -0.308906 2.606 
1.22375 -0.309736 2.613 
1.34555 -0.309736 2.613 
1.51844 -0.320523 2.704 
1.63718 -0.3191 2.692 
1.75807 -0.318271 2.685 
1.95335 -0.330124 2.785 
2.05324 -0.325383 2.745 
2.24794 -0.33534 2.829 
2.3798 -0.33534 2.829 
2.46194 -0.328702 2.773 
2.67809 -0.339726 2.866 
2.84994 -0.344349 2.905 
-0.488389 -0.0728804 0.623 
-0.472622 -0.074986 0.641 
-0.45725 -0.0774427 0.662 
-0.436931 -0.0795484 0.68 
-0.420135 -0.082473 0.705 
-0.400458 -0.0852805 0.729 
-0.372512 -0.0866843 0.741 
-0.344815 -0.0884391 0.756 
-0.317795 -0.0914806 0.782 
-0.291419 -0.0947562 0.81 
-0.265565 -0.0992015 0.848 
-0.232704 -0.102126 0.873 
-0.20235 -0.107624 0.92 
-0.166402 -0.112304 0.96 
-0.128119 -0.11827 1.011 
-0.0854829 -0.124821 1.067 
-0.0388991 -0.135817 1.161 
0.0160149 -0.142953 1.222 
0.0795277 -0.151844 1.298 
0.150384 -0.163074 1.394 
0.228336 -0.172901 1.478 
0.317336 -0.184599 1.578 
0.415163 -0.196063 1.676 
0.770162 -0.304507 2.603 
0.883269 -0.301699 2.579 
1.01671 -0.305676 2.613 
1.13414 -0.304507 2.603 
1.26367 -0.306495 2.62 
1.40271 -0.310239 2.652 
1.55625 -0.316322 2.704 
1.67482 -0.314918 2.692 
1.82571 -0.319363 2.73 
1.96654 -0.321586 2.749 
2.09163 -0.321118 2.745 
2.29073 -0.331413 2.833 
2.38429 -0.326148 2.788 
2.52146 -0.327084 2.796 
2.73808 -0.33773 2.887 
-0.498917 -0.0705273 0.611 
-0.484297 -0.072605 0.629 
-0.466552 -0.0744519 0.645 
-0.4507 -0.0768759 0.666 
-0.43226 -0.0791845 0.686 
-0.413706 -0.0818393 0.709 
-0.392335 -0.0848405 0.735 
-0.363435 -0.0861102 0.746 
-0.335713 -0.0879571 0.762 
-0.310833 -0.0910737 0.789 
-0.282046 -0.0937285 0.812 
-0.25683 -0.0985766 0.854 
-0.225665 -0.102501 0.888 
-0.193613 -0.107695 0.933 
-0.156079 -0.111966 0.97 
-0.116239 -0.117392 1.017 
-0.073236 -0.124894 1.082 
-0.024595 -0.134706 1.167 
0.0321739 -0.145441 1.26 
0.0942216 -0.150751 1.306 
0.167683 -0.162986 1.412 
0.248875 -0.173721 1.505 
0.339586 -0.184918 1.602 
0.438304 -0.195653 1.695 
0.801539 -0.301617 2.613 
0.920858 -0.300809 2.606 
1.04392 -0.30127 2.61 
1.17987 -0.304964 2.642 
1.30301 -0.304964 2.642 
1.44127 -0.308196 2.67 
1.56396 -0.30785 2.667 
1.7022 -0.310389 2.689 
1.89278 -0.32147 2.785 
2.01387 -0.320085 2.773 
2.15781 -0.322278 2.792 
2.30843 -0.325164 2.817 
2.4328 -0.324241 2.809 
2.58198 -0.326549 2.829 
2.8069 -0.337746 2.926 
-0.491354 -0.0702612 0.617 
-0.474592 -0.0720832 0.633 
-0.459853 -0.0744746 0.654 
-0.441844 -0.0766383 0.673 
-0.425247 -0.079599 0.699 
-0.403336 -0.0824459 0.724 
-0.377758 -0.0842679 0.74 
-0.349297 -0.0857483 0.753 
-0.323796 -0.0883674 0.776 
-0.296522 -0.0911004 0.8 
-0.269603 -0.0947445 0.832 
-0.238869 -0.0980469 0.861 
-0.209355 -0.103285 0.907 
-0.175554 -0.108523 0.953 
-0.136363 -0.112851 0.991 
-0.0954494 -0.119455 1.049 
-0.0490796 -0.130501 1.146 
0.00457033 -0.137562 1.208 
0.0641512 -0.144964 1.273 
0.131052 -0.153846 1.351 
0.208959 -0.165689 1.455 
0.295609 -0.176963 1.554 
0.385093 -0.185162 1.626 
0.738717 -0.295165 2.592 
0.851904 -0.292546 2.569 
0.993582 -0.299151 2.627 
1.11475 -0.298809 2.624 
1.23706 -0.298809 2.624 
1.35936 -0.298809 2.624 
1.53079 -0.308717 2.711 
1.65288 -0.30792 2.704 
1.77628 -0.307464 2.7 
1.95919 -0.316688 2.781 
2.07379 -0.31441 2.761 
2.28943 -0.326823 2.87 
2.40547 -0.324431 2.849 
2.50263 -0.319876 2.809 
2.73106 -0.331719 2.913 
2.87176 -0.332289 2.918 
-0.483527 -0.0705381 0.628 
-0.466552 -0.0724476 0.645 
-0.450023 -0.0746941 0.665 
-0.431 -0.0768282 0.684 
-0.412539 -0.0794116 0.707 
-0.390581 -0.0826689 0.736 
-0.361601 -0.0839044 0.747 
-0.33422 -0.0858139 0.764 
-0.308381 -0.088622 0.789 
-0.279179 -0.091093 0.811 
-0.253878 -0.0958106 0.853 
-0.22416 -0.100303 0.893 
-0.190918 -0.104909 0.934 
-0.153381 -0.109177 0.972 
-0.113301 -0.114456 1.019 
-0.0696801 -0.121195 1.079 
-0.0209867 -0.131192 1.168 
0.0381072 -0.14175 1.262 
0.100155 -0.146468 1.304 
0.174634 -0.158935 1.415 
0.258229 -0.169044 1.505 
0.351069 -0.180726 1.609 
0.450956 -0.191284 1.703 
0.815587 -0.292711 2.606 
0.942087 -0.294283 2.62 
1.06989 -0.295856 2.634 
1.21078 -0.300349 2.674 
1.31943 -0.296754 2.642 
1.46605 -0.301584 2.685 
1.58054 -0.299562 2.667 
1.74 -0.30574 2.722 
1.91489 -0.313603 2.792 
2.04795 -0.314052 2.796 
2.21645 -0.319556 2.845 
2.33584 -0.317759 2.829 
2.47119 -0.318208 2.833 
2.63356 -0.321915 2.866 
2.85501 -0.332136 2.957 
-0.490396 -0.068344 0.617 
-0.47286 -0.0700055 0.632 
-0.458837 -0.0724424 0.654 
-0.440798 -0.074547 0.673 
-0.424639 -0.0773162 0.698 
-0.402779 -0.0800854 0.723 
-0.377758 -0.0819685 0.74 
-0.34976 -0.0835192 0.754 
-0.325048 -0.0862884 0.779 
-0.296522 -0.0886146 0.8 
-0.269927 -0.0922699 0.833 
-0.238592 -0.0952606 0.86 
-0.208894 -0.100245 0.905 
-0.175001 -0.10523 0.95 
-0.136088 -0.10955 0.989 
-0.0950855 -0.115753 1.045 
-0.048737 -0.126054 1.138 
0.00457033 -0.133808 1.208 
0.0700846 -0.141008 1.273 
0.139484 -0.151974 1.372 
0.216778 -0.161943 1.462 
0.308017 -0.173685 1.568 
0.402004 -0.183211 1.654 
0.76298 -0.290213 2.62 
0.878004 -0.287887 2.599 
1.01568 -0.29265 2.642 
1.13235 -0.290988 2.627 
1.25671 -0.291431 2.631 
1.39035 -0.293757 2.652 
1.54764 -0.300293 2.711 
1.67894 -0.301179 2.719 
1.80302 -0.300736 2.715 
1.97932 -0.308489 2.785 
2.1061 -0.308046 2.781 
2.32496 -0.320342 2.892 
2.40957 -0.313806 2.833 
2.54521 -0.314249 2.837 
2.77842 -0.326102 2.944 
2.89782 -0.324108 2.926 
-0.485101 -0.0682591 0.625 
-0.46683 -0.0703342 0.644 
-0.4497 -0.0724092 0.663 
-0.429536 -0.0742659 0.68 
-0.412467 -0.0769962 0.705 
-0.394145 -0.079945 0.732 
-0.367896 -0.0816925 0.748 
-0.338819 -0.0831123 0.761 
-0.312119 -0.085515 0.783 
-0.284423 -0.0882453 0.808 
-0.258672 -0.0925047 0.847 
-0.226957 -0.0957811 0.877 
-0.195038 -0.101133 0.926 
-0.157945 -0.105174 0.963 
-0.118108 -0.10987 1.006 
-0.0753946 -0.116313 1.065 
-0.0263855 -0.127344 1.166 
0.0318164 -0.136081 1.246 
0.0931394 -0.140996 1.291 
0.167089 -0.153665 1.407 
0.245237 -0.161965 1.483 
0.338526 -0.174416 1.597 
0.438045 -0.185009 1.694 
0.80706 -0.287343 2.631 
0.932165 -0.288108 2.638 
1.05352 -0.287671 2.634 
1.19416 -0.29204 2.674 
1.30992 -0.290074 2.656 
1.46556 -0.296517 2.715 
1.57452 -0.293241 2.685 
1.72562 -0.297719 2.726 
1.88462 -0.302852 2.773 
2.04583 -0.307657 2.817 
2.19568 -0.310278 2.841 
2.3281 -0.310278 2.841 
2.46744 -0.311152 2.849 
2.6194 -0.313446 2.87 
2.84527 -0.32393 2.966 
-0.491176 -0.0658884 0.612 
-0.475502 -0.0677187 0.629 
-0.458837 -0.0704102 0.654 
-0.440144 -0.0723481 0.672 
-0.424031 -0.0750396 0.697 
-0.403902 -0.0774081 0.719 
-0.379662 -0.079346 0.737 
-0.353275 -0.0811763 0.754 
-0.328257 -0.0837601 0.778 
-0.298374 -0.0855904 0.795 
-0.271838 -0.0890355 0.827 
-0.241754 -0.0922654 0.857 
-0.209603 -0.0971101 0.902 
-0.175734 -0.101847 0.946 
-0.136928 -0.105938 0.984 
-0.0963389 -0.112075 1.041 
-0.0512626 -0.12015 1.116 
0.000815298 -0.129839 1.206 
0.0594389 -0.13533 1.257 
0.126667 -0.145234 1.349 
0.201487 -0.154386 1.434 
0.289096 -0.166336 1.545 
0.379573 -0.174841 1.624 
0.738658 -0.280564 2.606 
0.861445 -0.280995 2.61 
0.998918 -0.285517 2.652 
1.12591 -0.286378 2.66 
1.24614 -0.285517 2.652 
1.3682 -0.285194 2.649 
1.53109 -0.29273 2.719 
1.66453 -0.293914 2.73 
1.78193 -0.292299 2.715 
1.95487 -0.299405 2.781 
2.10548 -0.302419 2.809 
2.30567 -0.311786 2.896 
2.412 -0.308125 2.862 
2.54185 -0.307695 2.858 
2.76398 -0.317922 2.953 
2.88786 -0.316415 2.939 
-0.485672 -0.0659987 0.622 
-0.467104 -0.0682269 0.643 
-0.448691 -0.0700307 0.66 
-0.429959 -0.0720468 0.679 
-0.412976 -0.0746995 0.704 
-0.393122 -0.077246 0.728 
-0.369551 -0.0794743 0.749 
-0.340448 -0.0808537 0.762 
-0.312935 -0.0829758 0.782 
-0.285325 -0.0856285 0.807 
-0.258147 -0.0892361 0.841 
-0.227799 -0.0928438 0.875 
-0.19706 -0.0978308 0.922 
-0.160436 -0.101863 0.96 
-0.120149 -0.105789 0.997 
-0.0778911 -0.111837 1.054 
-0.0315747 -0.122766 1.157 
0.0236285 -0.129769 1.223 
0.0845228 -0.136029 1.282 
0.157557 -0.14855 1.4 
0.233793 -0.155871 1.469 
0.325103 -0.167649 1.58 
0.424994 -0.178684 1.684 
0.791611 -0.279486 2.634 
0.920631 -0.281396 2.652 
1.0403 -0.280335 2.642 
1.17578 -0.283306 2.67 
1.30023 -0.283306 2.67 
1.44869 -0.288081 2.715 
1.58162 -0.289248 2.726 
1.71118 -0.289673 2.73 
1.84651 -0.290946 2.742 
2.0312 -0.299328 2.821 
2.17802 -0.30145 2.841 
2.33077 -0.304103 2.866 
2.45748 -0.303254 2.858 
2.61335 -0.305907 2.883 
2.82302 -0.314289 2.962 
-0.493633 -0.0635685 0.608 
-0.479069 -0.0654505 0.626 
-0.461379 -0.0678552 0.649 
-0.441094 -0.0694235 0.664 
-0.426204 -0.0721419 0.69 
-0.406607 -0.0744421 0.712 
-0.382861 -0.0763241 0.73 
-0.361259 -0.0790424 0.756 
-0.331628 -0.0804016 0.769 
-0.303093 -0.0823882 0.788 
-0.276167 -0.0854202 0.817 
-0.249451 -0.0894978 0.856 
-0.21771 -0.0935754 0.895 
-0.184449 -0.0980712 0.938 
-0.14613 -0.101835 0.974 
-0.106833 -0.108004 1.033 
-0.0610707 -0.112395 1.075 
-0.0120254 -0.123269 1.179 
0.0455497 -0.130796 1.251 
0.108591 -0.136756 1.308 
0.18278 -0.14742 1.41 
0.262952 -0.155994 1.492 
0.357677 -0.167808 1.605 
0.459972 -0.178473 1.707 
0.839762 -0.27508 2.631 
0.973001 -0.278112 2.66 
1.10441 -0.279994 2.678 
1.23566 -0.281458 2.692 
1.35961 -0.281144 2.689 
1.50152 -0.284281 2.719 
1.64861 -0.287836 2.753 
1.77951 -0.288254 2.757 
1.90525 -0.287836 2.753 
2.09266 -0.2962 2.833 
2.27732 -0.303205 2.9 
2.3501 -0.295364 2.825 
2.53273 -0.301428 2.883 
2.72353 -0.307806 2.944 
2.88699 -0.310628 2.971 
-0.48752 -0.0635509 0.617 
-0.469171 -0.0649929 0.631 
-0.453106 -0.0675679 0.656 
-0.435411 -0.0696279 0.676 
-0.417645 -0.0719969 0.699 
-0.397184 -0.0742629 0.721 
-0.376185 -0.0768379 0.746 
-0.348278 -0.0783829 0.761 
-0.320618 -0.0803399 0.78 
-0.29155 -0.0823999 0.8 
-0.265068 -0.0859018 0.834 
-0.234603 -0.0890948 0.865 
-0.202756 -0.0936268 0.909 
-0.167268 -0.0976438 0.948 
-0.128405 -0.101867 0.989 
-0.0864682 -0.107017 1.039 
-0.0411887 -0.115875 1.125 
0.0120877 -0.124527 1.209 
0.0714398 -0.129986 1.262 
0.141926 -0.141625 1.375 
0.216353 -0.148732 1.444 
0.303302 -0.159032 1.544 
0.401275 -0.170053 1.651 
0.774358 -0.270993 2.631 
0.906877 -0.27398 2.66 
1.03086 -0.27398 2.66 
1.16396 -0.276143 2.681 
1.29277 -0.276967 2.689 
1.41969 -0.277276 2.692 
1.57558 -0.282735 2.745 
1.70353 -0.282735 2.745 
1.8188 -0.280778 2.726 
2.01367 -0.290562 2.821 
2.16036 -0.292622 2.841 
2.33717 -0.298287 2.896 
2.44996 -0.295609 2.87 
2.61524 -0.299214 2.905 
2.79609 -0.304158 2.953 
2.92479 -0.303231 2.944 
-0.482188 -0.0634038 0.625 
-0.462827 -0.0653313 0.644 
-0.443563 -0.0669545 0.66 
-0.425865 -0.0695921 0.686 
-0.407671 -0.0720268 0.71 
-0.384074 -0.0738528 0.728 
-0.363609 -0.0766933 0.756 
-0.333149 -0.0778092 0.767 
-0.304378 -0.0796352 0.785 
-0.278023 -0.0826786 0.815 
-0.250933 -0.0864321 0.852 
-0.219013 -0.0901856 0.889 
-0.186964 -0.0949536 0.936 
-0.148084 -0.0980984 0.967 
-0.109937 -0.104692 1.032 
-0.0640516 -0.108446 1.069 
-0.0154495 -0.117779 1.161 
0.0413959 -0.126098 1.243 
0.103408 -0.131271 1.294 
0.177892 -0.142633 1.406 
0.256238 -0.15014 1.48 
0.350053 -0.161604 1.593 
0.450672 -0.171647 1.692 
0.839168 -0.268021 2.642 
0.973968 -0.271267 2.674 
1.10025 -0.271673 2.678 
1.23834 -0.274615 2.707 
1.36653 -0.275021 2.711 
1.50776 -0.27776 2.738 
1.66345 -0.282528 2.785 
1.7778 -0.280093 2.761 
1.89337 -0.278165 2.742 
2.08826 -0.287397 2.833 
2.29006 -0.296426 2.922 
2.34571 -0.286585 2.825 
2.55105 -0.295107 2.909 
2.72727 -0.29957 2.953 
2.87364 -0.300483 2.962 
-0.488475 -0.0610343 0.611 
-0.4743 -0.0629323 0.63 
-0.45906 -0.0649301 0.65 
-0.437999 -0.0663286 0.664 
-0.419914 -0.0691256 0.692 
-0.401664 -0.0716229 0.717 
-0.377489 -0.073421 0.735 
-0.354905 -0.0759183 0.76 
-0.326207 -0.0775166 0.776 
-0.295644 -0.0790149 0.791 
-0.271207 -0.0828109 0.829 
-0.241544 -0.0860074 0.861 
-0.208906 -0.0898033 0.899 
-0.172975 -0.093799 0.939 
-0.135124 -0.0980944 0.982 
-0.0942665 -0.103489 1.036 
-0.0486411 -0.109482 1.096 
0.00267119 -0.119671 1.198 
0.0607081 -0.124166 1.243 
0.128762 -0.134755 1.349 
0.201868 -0.141947 1.421 
0.291234 -0.152935 1.531 
0.384857 -0.162325 1.625 
0.755926 -0.263516 2.638 
0.888545 -0.266413 2.667 
1.01969 -0.268211 2.685 
1.14953 -0.26931 2.696 
1.28418 -0.271208 2.715 
1.40865 -0.270808 2.711 
1.55652 -0.274604 2.749 
1.70427 -0.277801 2.781 
1.80026 -0.272706 2.73 
1.97975 -0.280098 2.804 
2.1413 -0.284194 2.845 
2.33545 -0.291886 2.922 
2.40652 -0.284194 2.845 
2.59624 -0.290587 2.909 
2.7816 -0.295882 2.962 
2.90192 -0.294083 2.944 
-0.485602 -0.060675 0.617 
-0.46795 -0.0621501 0.632 
-0.453757 -0.0643136 0.654 
-0.433952 -0.0665754 0.677 
-0.415473 -0.0687388 0.699 
-0.394943 -0.0709023 0.721 
-0.374368 -0.0734591 0.747 
-0.348186 -0.0753275 0.766 
-0.317378 -0.0765076 0.778 
-0.289064 -0.078671 0.8 
-0.261847 -0.0818179 0.832 
-0.232719 -0.0853581 0.868 
-0.200371 -0.0895866 0.911 
-0.163365 -0.0935202 0.951 
-0.124045 -0.0974537 0.991 
-0.0817039 -0.102272 1.04 
-0.0359131 -0.110533 1.124 
0.0178255 -0.11958 1.216 
0.0771995 -0.123907 1.26 
0.148766 -0.135609 1.379 
0.221384 -0.140919 1.433 
0.316726 -0.152523 1.551 
0.417863 -0.163832 1.666 
0.794015 -0.259811 2.642 
0.933475 -0.264433 2.689 
1.05133 -0.262565 2.67 
1.2022 -0.268465 2.73 
1.32409 -0.267383 2.719 
1.46096 -0.269252 2.738 
1.61353 -0.27348 2.781 
1.72309 -0.270333 2.749 
1.83843 -0.268465 2.73 
2.03696 -0.2782 2.829 
2.21022 -0.283511 2.883 
2.33077 -0.281839 2.866 
2.52713 -0.289018 2.939 
2.66049 -0.288624 2.935 
2.79348 -0.288231 2.931 
-0.497537 -0.0587486 0.607 
-0.480447 -0.0603939 0.624 
-0.463659 -0.0620393 0.641 
-0.445286 -0.0636846 0.658 
-0.425686 -0.066201 0.684 
-0.403258 -0.0687174 0.71 
-0.380071 -0.0705564 0.729 
-0.35986 -0.0733631 0.758 
-0.330523 -0.0747181 0.772 
-0.300263 -0.0761699 0.787 
-0.274968 -0.0794606 0.821 
-0.247368 -0.0830416 0.858 
-0.216078 -0.0865259 0.894 
-0.179885 -0.0906877 0.937 
-0.140863 -0.0937848 0.969 
-0.102216 -0.100173 1.035 
-0.0560601 -0.104044 1.075 
-0.00644147 -0.112561 1.163 
0.0509288 -0.120014 1.24 
0.116266 -0.128337 1.326 
0.188546 -0.135886 1.404 
0.282242 -0.14721 1.521 
0.371942 -0.15505 1.602 
0.475885 -0.165212 1.707 
0.878414 -0.258803 2.674 
1.0128 -0.26132 2.7 
1.1416 -0.261997 2.707 
1.28229 -0.264998 2.738 
1.41352 -0.265675 2.745 
1.54596 -0.266449 2.753 
1.71076 -0.272257 2.813 
1.79539 -0.265385 2.742 
1.95826 -0.270224 2.792 
2.13104 -0.275741 2.849 
2.33932 -0.284935 2.944 
2.39662 -0.275741 2.849 
2.58624 -0.281935 2.913 
2.77154 -0.287065 2.966 
2.88329 -0.284451 2.939 
-0.486103 -0.0584721 0.614 
-0.468932 -0.0601863 0.632 
-0.454077 -0.0621861 0.653 
-0.433952 -0.0644717 0.677 
-0.411297 -0.0669477 0.703 
-0.389299 -0.0688523 0.723 
-0.367896 -0.0712331 0.748 
-0.342826 -0.0733282 0.77 
-0.312119 -0.0745662 0.783 
-0.284071 -0.0768518 0.807 
-0.255313 -0.0796135 0.836 
-0.226439 -0.0833275 0.875 
-0.195063 -0.0888509 0.933 
-0.155474 -0.0911365 0.957 
-0.116081 -0.0954219 1.002 
-0.0714085 -0.100469 1.055 
-0.0203219 -0.107707 1.131 
0.0352586 -0.11723 1.231 
0.0959469 -0.12142 1.275 
0.169877 -0.132753 1.394 
0.244286 -0.138086 1.45 
0.343432 -0.149894 1.574 
0.444336 -0.159798 1.678 
0.83662 -0.253316 2.66 
0.972159 -0.256363 2.692 
1.09641 -0.256077 2.689 
1.24401 -0.260744 2.738 
1.36962 -0.260363 2.734 
1.51841 -0.264077 2.773 
1.67856 -0.269029 2.825 
1.7846 -0.26522 2.785 
1.8766 -0.259982 2.73 
2.07065 -0.268648 2.821 
2.29815 -0.280361 2.944 
2.35678 -0.271314 2.849 
2.58046 -0.281218 2.953 
2.73466 -0.282933 2.971 
2.83446 -0.279123 2.931 
-0.489049 -0.0568624 0.607 
-0.471593 -0.0589233 0.629 
-0.456338 -0.0607969 0.649 
-0.435935 -0.062202 0.664 
-0.41688 -0.0643566 0.687 
-0.395531 -0.0672606 0.718 
-0.374168 -0.0695089 0.742 
-0.351024 -0.0718508 0.767 
-0.318973 -0.0726939 0.776 
-0.291186 -0.0748485 0.799 
-0.263479 -0.0776589 0.829 
-0.235145 -0.0812186 0.867 
-0.202371 -0.0844037 0.901 
-0.16562 -0.0887128 0.947 
-0.127125 -0.0928347 0.991 
-0.0848539 -0.0973312 1.039 
-0.0341364 -0.1052 1.123 
0.0216218 -0.114006 1.217 
0.080986 -0.117847 1.258 
0.152385 -0.12862 1.373 
0.223631 -0.132929 1.419 
0.322168 -0.145575 1.554 
0.422532 -0.15588 1.664 
0.808601 -0.249464 2.663 
0.945684 -0.25293 2.7 
1.06836 -0.252181 2.692 
1.22266 -0.25827 2.757 
1.33989 -0.256115 2.734 
1.48396 -0.259019 2.765 
1.63559 -0.262672 2.804 
1.75179 -0.260518 2.781 
1.85233 -0.25649 2.738 
2.03707 -0.26389 2.817 
2.24612 -0.273352 2.918 
2.33641 -0.268106 2.862 
2.57164 -0.27916 2.98 
2.6978 -0.277848 2.966 
2.79398 -0.273726 2.922 
-0.494834 -0.0558272 0.606 
-0.472794 -0.0578539 0.628 
-0.456235 -0.0595122 0.646 
-0.437999 -0.0611704 0.664 
-0.41931 -0.0630129 0.684 
-0.397765 -0.0657766 0.714 
-0.375716 -0.0678033 0.736 
-0.354399 -0.0703828 0.764 
-0.323796 -0.0714883 0.776 
-0.293557 -0.0729623 0.792 
-0.267659 -0.0760945 0.826 
-0.238869 -0.0793188 0.861 
-0.206816 -0.0825432 0.896 
-0.171881 -0.0866888 0.941 
-0.133735 -0.090558 0.983 
-0.0925675 -0.0953484 1.035 
-0.0409691 -0.103087 1.119 
0.0138968 -0.110825 1.203 
0.0725281 -0.114879 1.247 
0.149267 -0.125657 1.364 
0.220178 -0.129987 1.411 
0.31893 -0.142792 1.55 
0.418685 -0.152834 1.659 
0.807787 -0.24634 2.674 
0.941489 -0.248735 2.7 
1.06734 -0.248735 2.7 
1.22191 -0.254723 2.765 
1.34102 -0.252881 2.745 
1.47966 -0.254723 2.765 
1.63123 -0.258316 2.804 
1.75941 -0.257947 2.8 
1.8555 -0.253249 2.749 
2.0327 -0.259514 2.817 
2.24773 -0.269555 2.926 
2.33522 -0.264028 2.866 
2.5627 -0.274069 2.975 
2.69774 -0.273701 2.971 
2.78944 -0.269187 2.922 
-0.495776 -0.0548857 0.606 
-0.470385 -0.0570594 0.63 
-0.454321 -0.0587802 0.649 
-0.435832 -0.0604105 0.667 
-0.41688 -0.0622219 0.687 
-0.395542 -0.0648484 0.716 
-0.373297 -0.066841 0.738 
-0.351757 -0.0693769 0.766 
-0.321004 -0.0704638 0.778 
-0.292061 -0.0722752 0.798 
-0.263161 -0.0749923 0.828 
-0.234874 -0.078434 0.866 
-0.202146 -0.0815134 0.9 
-0.167092 -0.0857702 0.947 
-0.128405 -0.0895741 0.989 
-0.086385 -0.0940121 1.038 
-0.0289021 -0.101711 1.123 
0.0273391 -0.110405 1.219 
0.0875399 -0.114843 1.268 
0.166027 -0.124987 1.38 
0.240074 -0.129063 1.425 
0.341032 -0.141562 1.563 
0.442747 -0.151434 1.672 
0.846684 -0.243816 2.692 
0.976493 -0.244902 2.704 
1.10253 -0.244902 2.704 
1.25628 -0.250427 2.765 
1.37714 -0.248978 2.749 
1.5332 -0.253597 2.8 
1.68094 -0.256224 2.829 
1.81536 -0.256586 2.833 
1.89791 -0.250065 2.761 
2.09487 -0.258488 2.854 
2.3083 -0.267817 2.957 
2.37416 -0.259937 2.87 
2.59968 -0.269447 2.975 
2.75491 -0.271077 2.993 
2.82963 -0.265009 2.926 
-0.488106 -0.0540332 0.607 
-0.464252 -0.0565256 0.635 
-0.449029 -0.058395 0.656 
-0.431848 -0.0602643 0.677 
-0.413301 -0.0622227 0.699 
-0.392158 -0.064092 0.72 
-0.370054 -0.0661394 0.743 
-0.345966 -0.0684539 0.769 
-0.315768 -0.0697001 0.783 
-0.287476 -0.0717475 0.806 
-0.257969 -0.0740619 0.832 
-0.229991 -0.0777116 0.873 
-0.19754 -0.0810942 0.911 
-0.159099 -0.0847439 0.952 
-0.119667 -0.0883936 0.993 
-0.077226 -0.0930225 1.045 
-0.0185155 -0.100411 1.128 
0.03699 -0.109045 1.225 
0.0983119 -0.113941 1.28 
0.170438 -0.122932 1.381 
0.266871 -0.133614 1.501 
0.352317 -0.139756 1.57 
0.453951 -0.149103 1.675 
0.86402 -0.240968 2.707 
0.990194 -0.240968 2.707 
1.12255 -0.242304 2.722 
1.27284 -0.246843 2.773 
1.40209 -0.246843 2.773 
1.55343 -0.250404 2.813 
1.69412 -0.251828 2.829 
1.83889 -0.253609 2.849 
1.93224 -0.248535 2.792 
2.14584 -0.258594 2.905 
2.32915 -0.264024 2.966 
2.41998 -0.25895 2.909 
2.61355 -0.264825 2.975 
2.78182 -0.267673 3.007 
2.83063 -0.259306 2.913 
-0.478137 -0.0543146 0.621 
-0.461489 -0.0558014 0.638 
-0.445286 -0.0575507 0.658 
-0.429109 -0.0595623 0.681 
-0.409038 -0.0613116 0.701 
-0.387639 -0.0631483 0.722 
-0.364282 -0.0649851 0.743 
-0.34176 -0.0676089 0.773 
-0.311268 -0.0688334 0.787 
-0.282261 -0.0707576 0.809 
-0.25332 -0.073294 0.838 
-0.224488 -0.0767926 0.878 
-0.191745 -0.0808159 0.924 
-0.150382 -0.0833523 0.953 
-0.112189 -0.0882502 1.009 
-0.0682593 -0.0924485 1.057 
-0.00800726 -0.0987458 1.129 
0.0486861 -0.107754 1.232 
0.114688 -0.114402 1.308 
0.186129 -0.121224 1.386 
0.287723 -0.133381 1.525 
0.37645 -0.139941 1.6 
0.477806 -0.14825 1.695 
0.900319 -0.237462 2.715 
1.02951 -0.238074 2.722 
1.17126 -0.241136 2.757 
1.31296 -0.243585 2.785 
1.45054 -0.244897 2.8 
1.58613 -0.245684 2.809 
1.72684 -0.247083 2.825 
1.86115 -0.247433 2.829 
2.01907 -0.250669 2.866 
2.20749 -0.257054 2.939 
2.35166 -0.257841 2.948 
2.48906 -0.257841 2.948 
2.663 -0.261427 2.989 
2.83232 -0.264226 3.021 
2.84125 -0.252506 2.887 
-0.478521 -0.0531779 0.619 
-0.462019 -0.0546384 0.636 
-0.445971 -0.0563565 0.656 
-0.429326 -0.0582466 0.678 
-0.410043 -0.0600507 0.699 
-0.388802 -0.0618547 0.72 
-0.365604 -0.0636588 0.741 
-0.342826 -0.0661502 0.77 
-0.313713 -0.0676107 0.787 
-0.284775 -0.0695007 0.809 
-0.255313 -0.0718202 0.836 
-0.226439 -0.0751707 0.875 
-0.192932 -0.078693 0.916 
-0.156141 -0.0817857 0.952 
-0.11585 -0.0859094 1 
-0.0727706 -0.0902908 1.051 
-0.014997 -0.0968199 1.127 
0.0427694 -0.105411 1.227 
0.105256 -0.110995 1.292 
0.176619 -0.118469 1.379 
0.268306 -0.12852 1.496 
0.354982 -0.134964 1.571 
0.455464 -0.143555 1.671 
0.881495 -0.233845 2.722 
1.00726 -0.233588 2.719 
1.14483 -0.235821 2.745 
1.29133 -0.239258 2.785 
1.42675 -0.240203 2.796 
1.57322 -0.242694 2.825 
1.70007 -0.242007 2.817 
1.86322 -0.246216 2.866 
1.99123 -0.245529 2.858 
2.19506 -0.25369 2.953 
2.33981 -0.254464 2.962 
2.47369 -0.254034 2.957 
2.66009 -0.258759 3.012 
2.82187 -0.260735 3.035 
2.83152 -0.249137 2.9 
-0.478032 -0.0515413 0.611 
-0.461292 -0.0535659 0.635 
-0.445971 -0.0553373 0.656 
-0.429326 -0.0571932 0.678 
-0.410043 -0.0589646 0.699 
-0.388262 -0.0606517 0.719 
-0.365111 -0.0624232 0.74 
-0.343576 -0.0648695 0.769 
-0.314936 -0.0663879 0.787 
-0.285678 -0.0681594 0.808 
-0.255998 -0.0703527 0.834 
-0.227278 -0.0736425 0.873 
-0.194709 -0.076848 0.911 
-0.158932 -0.0802223 0.951 
-0.117051 -0.0841026 0.997 
-0.0742619 -0.0884891 1.049 
-0.014997 -0.0950689 1.127 
0.0447486 -0.103673 1.229 
0.107512 -0.109241 1.295 
0.178502 -0.116158 1.377 
0.270087 -0.125943 1.493 
0.35856 -0.132945 1.576 
0.457511 -0.14079 1.669 
0.884085 -0.230291 2.73 
1.00985 -0.229954 2.726 
1.14817 -0.232231 2.753 
1.29272 -0.235184 2.788 
1.43083 -0.236533 2.804 
1.57768 -0.23898 2.833 
1.69765 -0.237293 2.813 
1.88013 -0.243957 2.892 
1.9996 -0.242101 2.87 
2.20844 -0.250621 2.971 
2.33981 -0.249862 2.962 
2.48122 -0.250199 2.966 
2.67687 -0.255682 3.031 
2.83581 -0.257285 3.05 
2.83152 -0.244632 2.9 
-0.477159 -0.051006 0.616 
-0.461292 -0.0525793 0.635 
-0.445971 -0.0543181 0.656 
-0.429326 -0.0561398 0.678 
-0.409456 -0.0577958 0.698 
-0.387722 -0.0594519 0.718 
-0.364617 -0.0611907 0.739 
-0.343129 -0.0635919 0.768 
-0.315336 -0.065248 0.788 
-0.286032 -0.0669868 0.809 
-0.255998 -0.0690569 0.834 
-0.227018 -0.0722034 0.872 
-0.193082 -0.0753498 0.91 
-0.157289 -0.0786619 0.95 
-0.113193 -0.0831332 1.004 
-0.0696371 -0.0871905 1.053 
-0.0114849 -0.0932351 1.126 
0.0486861 -0.102012 1.232 
0.112053 -0.107725 1.301 
0.187331 -0.114184 1.379 
0.28236 -0.124948 1.509 
0.373263 -0.132235 1.597 
0.469566 -0.138693 1.675 
0.902372 -0.226381 2.734 
1.0298 -0.226381 2.734 
1.17205 -0.229279 2.769 
1.30863 -0.230604 2.785 
1.44826 -0.232177 2.804 
1.59528 -0.234578 2.833 
1.71757 -0.233253 2.817 
1.90072 -0.239795 2.896 
2.0329 -0.239463 2.892 
2.2404 -0.247495 2.989 
2.34707 -0.2441 2.948 
2.53083 -0.248654 3.003 
2.71616 -0.252877 3.054 
2.88566 -0.255279 3.083 
-0.485956 -0.0489115 0.602 
-0.47387 -0.0506177 0.623 
-0.45697 -0.0519989 0.64 
-0.440487 -0.0536239 0.66 
-0.421435 -0.0555739 0.684 
-0.401514 -0.0572801 0.705 
-0.379635 -0.0589863 0.726 
-0.35818 -0.0610988 0.752 
-0.33559 -0.063455 0.781 
-0.303401 -0.0643487 0.792 
-0.276243 -0.0667049 0.821 
-0.246382 -0.0690611 0.85 
-0.214304 -0.0715798 0.881 
-0.182483 -0.0753985 0.928 
-0.143129 -0.0775109 0.954 
-0.0983302 -0.0835233 1.028 
-0.0520822 -0.0862857 1.062 
0.000763244 -0.0917294 1.129 
0.0648303 -0.101398 1.248 
0.129998 -0.107167 1.319 
0.20409 -0.113016 1.391 
0.297345 -0.12496 1.538 
0.390146 -0.13211 1.626 
0.784109 -0.219939 2.707 
0.922053 -0.222783 2.742 
1.05254 -0.223352 2.749 
1.1927 -0.225627 2.777 
1.32737 -0.22652 2.788 
1.45575 -0.226277 2.785 
1.61289 -0.230177 2.833 
1.75233 -0.231152 2.845 
1.92999 -0.236676 2.913 
2.03881 -0.233589 2.875 
2.26956 -0.243989 3.003 
2.34132 -0.237083 2.918 
2.55289 -0.244314 3.007 
2.75664 -0.250082 3.078 
2.92837 -0.25252 3.108 
-0.484983 -0.0485341 0.609 
-0.468594 -0.0498092 0.625 
-0.452822 -0.0513234 0.644 
-0.436592 -0.052997 0.665 
-0.414658 -0.0553081 0.694 
-0.392777 -0.0568223 0.713 
-0.370638 -0.0585756 0.735 
-0.348736 -0.0607273 0.762 
-0.324317 -0.0628791 0.789 
-0.293373 -0.0641542 0.805 
-0.262208 -0.0657481 0.825 
-0.233247 -0.0685374 0.86 
-0.199226 -0.0706892 0.887 
-0.168029 -0.0752318 0.944 
-0.12367 -0.0787383 0.988 
-0.0813897 -0.0825637 1.036 
-0.028516 -0.0883017 1.108 
0.032723 -0.0962712 1.208 
0.0947767 -0.102487 1.286 
0.16362 -0.108385 1.36 
0.236024 -0.112688 1.414 
0.331185 -0.123606 1.551 
0.430272 -0.131815 1.654 
0.84839 -0.218204 2.738 
0.982782 -0.219718 2.757 
1.10645 -0.218762 2.745 
1.26093 -0.223464 2.804 
1.38765 -0.222826 2.796 
1.54675 -0.22705 2.849 
1.68249 -0.227449 2.854 
1.87277 -0.234621 2.944 
1.95946 -0.228724 2.87 
2.14721 -0.234621 2.944 
2.3015 -0.236374 2.966 
2.43646 -0.236056 2.962 
2.66752 -0.244583 3.069 
2.82796 -0.246097 3.088 
-0.487804 -0.0464158 0.594 
-0.476384 -0.0480567 0.615 
-0.460823 -0.0494633 0.633 
-0.445628 -0.0511042 0.654 
-0.426561 -0.0532922 0.682 
-0.405771 -0.0547768 0.701 
-0.383741 -0.0563397 0.721 
-0.358877 -0.0577462 0.739 
-0.339797 -0.0604811 0.774 
-0.311176 -0.0619658 0.793 
-0.281476 -0.0636068 0.814 
-0.252511 -0.065951 0.844 
-0.221002 -0.0683734 0.875 
-0.188044 -0.0713427 0.913 
-0.151066 -0.0740777 0.948 
-0.111411 -0.0782973 1.002 
-0.0677427 -0.0819699 1.049 
-0.0132108 -0.0878305 1.124 
0.0503538 -0.0958009 1.226 
0.113899 -0.101505 1.299 
0.18492 -0.1076 1.377 
0.264841 -0.114398 1.464 
0.363529 -0.12401 1.587 
0.457348 -0.129636 1.659 
0.890238 -0.21481 2.749 
1.01837 -0.21481 2.749 
1.15985 -0.21731 2.781 
1.29133 -0.217623 2.785 
1.43746 -0.220123 2.817 
1.59383 -0.22364 2.862 
1.70972 -0.221373 2.833 
1.90808 -0.229344 2.935 
2.0205 -0.226609 2.9 
2.21513 -0.23286 2.98 
2.3327 -0.23075 2.953 
2.55484 -0.238643 3.054 
2.73604 -0.242081 3.098 
2.90369 -0.244034 3.123 
-0.484341 -0.0459524 0.6 
-0.471176 -0.0476373 0.622 
-0.455692 -0.0490925 0.641 
-0.438436 -0.0505476 0.66 
-0.415484 -0.0528453 0.69 
-0.394989 -0.0544536 0.711 
-0.372028 -0.0559853 0.731 
-0.351363 -0.0582064 0.76 
-0.327579 -0.0603508 0.788 
-0.296756 -0.0615762 0.804 
-0.266053 -0.0631845 0.825 
-0.235876 -0.0654822 0.855 
-0.201527 -0.0673203 0.879 
-0.171881 -0.0720687 0.941 
-0.133054 -0.0749024 0.978 
