# .PCD v.7 - Point Cloud Data file format
VERSION .7
FIELDS x y z
SIZE 4 4 4
TYPE F F F
COUNT 1 1 1
WIDTH 1897
HEIGHT 1
VIEWPOINT 0 0 0 1 0 0 0
POINTS 1897
DATA ascii
0.245077 0.368324 0.889 
0.273299 0.351337 0.848 
0.300651 0.337665 0.815 
0.338639 0.337665 0.815 
0.38402 0.344294 0.831 
0.410035 0.333936 0.806 
0.432053 0.322335 0.778 
0.451462 0.310734 0.75 
0.471503 0.301205 0.727 
0.495258 0.291262 0.703 
0.514505 0.283804 0.685 
0.532074 0.276346 0.667 
0.545432 0.267646 0.646 
0.559506 0.260188 0.628 
0.574714 0.253973 0.613 
0.587539 0.247344 0.597 
-0.49999 0.272808 0.656 
-0.480147 0.279046 0.671 
-0.458906 0.285284 0.686 
-0.44 0.294017 0.707 
-0.416259 0.300671 0.723 
-0.393142 0.308988 0.743 
-0.372266 0.32188 0.774 
-0.340967 0.326455 0.785 
-0.316786 0.339763 0.817 
-0.287575 0.350575 0.843 
-0.255646 0.360972 0.868 
-0.221881 0.3722 0.895 
-0.187211 0.386755 0.93 
-0.148349 0.398815 0.959 
-0.107757 0.414618 0.997 
-0.0639913 0.432916 1.041 
-0.0163468 0.457453 1.1 
0.035369 0.463275 1.114 
0.0842369 0.447056 1.075 
0.127345 0.423767 1.019 
0.166261 0.402974 0.969 
0.202045 0.385092 0.926 
0.237527 0.373032 0.897 
0.267814 0.357645 0.86 
0.295726 0.343505 0.826 
0.325324 0.334356 0.804 
0.377239 0.347664 0.836 
0.403261 0.336851 0.81 
0.42577 0.325207 0.782 
0.448033 0.315226 0.758 
0.468697 0.305661 0.735 
0.49108 0.294433 0.708 
0.510756 0.286948 0.69 
0.52718 0.27863 0.67 
0.540907 0.269897 0.649 
0.555415 0.261996 0.63 
0.569928 0.255342 0.614 
0.583924 0.249104 0.599 
-0.513856 0.268818 0.644 
-0.49586 0.275497 0.66 
-0.475668 0.281758 0.675 
-0.456709 0.289689 0.694 
-0.433042 0.296368 0.71 
-0.411215 0.304716 0.73 
-0.38649 0.31223 0.748 
-0.362177 0.322665 0.773 
-0.332898 0.329344 0.789 
-0.307382 0.341867 0.819 
-0.27874 0.353972 0.848 
-0.24796 0.366912 0.879 
-0.213347 0.378182 0.906 
-0.177351 0.391957 0.939 
-0.136856 0.401558 0.962 
-0.0963215 0.420342 1.007 
-0.0520332 0.442882 1.061 
-0.00271335 0.46584 1.116 
0.0483318 0.456657 1.094 
0.0959643 0.441213 1.057 
0.137812 0.418672 1.003 
0.177213 0.398636 0.955 
0.212439 0.381939 0.915 
0.246724 0.369416 0.885 
0.274636 0.350633 0.84 
0.302582 0.33811 0.81 
0.344958 0.342702 0.821 
0.38696 0.346041 0.829 
0.415559 0.336858 0.807 
0.433519 0.322248 0.772 
0.454906 0.31223 0.748 
0.474056 0.302212 0.724 
0.494938 0.292611 0.701 
0.513311 0.28468 0.682 
0.531512 0.277584 0.665 
0.54559 0.269236 0.645 
0.559589 0.261722 0.627 
0.573788 0.255043 0.611 
0.588467 0.2492 0.597 
-0.508084 0.273171 0.652 
-0.487951 0.279036 0.666 
-0.466513 0.284902 0.68 
-0.449525 0.294538 0.703 
-0.425651 0.300823 0.718 
-0.403109 0.309202 0.738 
-0.377204 0.316325 0.755 
-0.353029 0.327637 0.782 
-0.328725 0.340206 0.812 
-0.295534 0.345653 0.825 
-0.265494 0.356965 0.852 
-0.234262 0.370372 0.884 
-0.199829 0.383361 0.915 
-0.163708 0.399282 0.953 
-0.123169 0.41227 0.984 
-0.0807612 0.430705 1.028 
-0.0342197 0.44872 1.071 
0.0163596 0.467574 1.116 
0.0659872 0.451234 1.077 
0.110792 0.430286 1.027 
0.152945 0.414784 0.99 
0.189235 0.394254 0.941 
0.22393 0.378752 0.904 
0.256942 0.365764 0.873 
0.284605 0.348167 0.831 
0.313222 0.337274 0.805 
0.363814 0.349843 0.835 
0.394534 0.34272 0.818 
0.423323 0.334341 0.798 
0.440897 0.320096 0.764 
0.462786 0.310878 0.742 
0.479942 0.299985 0.716 
0.500411 0.292443 0.698 
0.516147 0.283226 0.676 
0.532263 0.275265 0.657 
0.550035 0.268981 0.642 
0.562795 0.26102 0.623 
0.575683 0.253898 0.606 
-0.522773 0.268717 0.639 
-0.503019 0.274184 0.652 
-0.483502 0.280492 0.667 
-0.461909 0.286379 0.681 
-0.444064 0.29563 0.703 
-0.420658 0.302359 0.719 
-0.398991 0.311611 0.741 
-0.376257 0.321703 0.765 
-0.34906 0.329693 0.784 
-0.324874 0.34273 0.815 
-0.291815 0.348617 0.829 
-0.261115 0.359551 0.855 
-0.229804 0.373428 0.888 
-0.194779 0.386044 0.918 
-0.157786 0.400762 0.953 
-0.11753 0.415481 0.988 
-0.0744448 0.432722 1.029 
-0.0278211 0.45459 1.081 
0.0233578 0.47057 1.119 
0.0724105 0.451225 1.073 
0.117961 0.428938 1.02 
0.159987 0.41464 0.986 
0.194666 0.391931 0.932 
0.230187 0.378895 0.901 
0.262044 0.362915 0.863 
0.291296 0.348196 0.828 
0.318734 0.336422 0.8 
0.372043 0.351561 0.836 
0.39921 0.341468 0.812 
0.422525 0.330114 0.785 
0.445077 0.320021 0.761 
0.466024 0.310349 0.738 
0.48347 0.299836 0.713 
0.50221 0.291425 0.693 
0.519856 0.283435 0.674 
0.533277 0.274184 0.652 
0.551564 0.268296 0.638 
0.563079 0.259886 0.618 
0.577518 0.253578 0.603 
-0.517809 0.26971 0.639 
-0.498465 0.276041 0.654 
-0.478716 0.282372 0.669 
-0.458906 0.289547 0.686 
-0.436888 0.296301 0.702 
-0.416834 0.305586 0.724 
-0.392084 0.312762 0.741 
-0.371538 0.325002 0.77 
-0.342623 0.331755 0.786 
-0.317277 0.343996 0.815 
-0.287171 0.353704 0.838 
-0.256106 0.3651 0.865 
-0.22427 0.379451 0.899 
-0.187439 0.390003 0.924 
-0.149058 0.402665 0.954 
-0.108758 0.418704 0.992 
-0.0651045 0.436009 1.033 
-0.0178917 0.460068 1.09 
0.033608 0.469776 1.113 
0.0840018 0.45247 1.072 
0.126595 0.427568 1.013 
0.165918 0.408152 0.967 
0.201172 0.389158 0.922 
0.235938 0.376074 0.891 
0.268211 0.361723 0.857 
0.295571 0.34695 0.822 
0.325355 0.338087 0.801 
0.377179 0.351593 0.833 
0.40402 0.341463 0.809 
0.424801 0.328379 0.778 
0.448618 0.319515 0.757 
0.468561 0.309385 0.733 
0.486266 0.299255 0.709 
0.506128 0.291658 0.691 
0.521976 0.282794 0.67 
0.537517 0.274775 0.651 
0.552159 0.267177 0.633 
0.565123 0.25958 0.615 
0.580271 0.25367 0.601 
-0.515637 0.271126 0.64 
-0.494627 0.278328 0.657 
-0.475304 0.285106 0.673 
-0.457128 0.293579 0.693 
-0.432183 0.298662 0.705 
-0.412917 0.308829 0.729 
-0.386735 0.315184 0.744 
-0.36436 0.326198 0.77 
-0.336149 0.333824 0.788 
-0.310439 0.346109 0.817 
-0.280359 0.356277 0.841 
-0.249763 0.368986 0.871 
-0.21733 0.383389 0.905 
-0.179986 0.39398 0.93 
-0.140606 0.405418 0.957 
-0.100213 0.423211 0.999 
-0.0562804 0.443969 1.048 
-0.00783704 0.468116 1.105 
0.0433117 0.464303 1.096 
0.0918127 0.451594 1.066 
0.133402 0.425753 1.005 
0.171637 0.405418 0.957 
0.206753 0.387625 0.915 
0.240679 0.374069 0.883 
0.271622 0.360513 0.851 
0.297753 0.344838 0.814 
0.332395 0.341449 0.806 
0.380979 0.351617 0.83 
0.409047 0.34272 0.809 
0.427611 0.326198 0.77 
0.452023 0.317302 0.749 
0.472632 0.307982 0.727 
0.488403 0.296968 0.701 
0.507697 0.289342 0.683 
0.524523 0.281293 0.664 
0.540414 0.273668 0.646 
0.554627 0.266042 0.628 
0.567163 0.258417 0.61 
0.582902 0.25291 0.597 
-0.509644 0.274246 0.645 
-0.490733 0.280624 0.66 
-0.471121 0.287427 0.676 
-0.452619 0.295931 0.696 
-0.42863 0.301884 0.71 
-0.408907 0.312088 0.734 
-0.382352 0.318466 0.749 
-0.358574 0.32867 0.773 
-0.332141 0.33845 0.796 
-0.304676 0.349505 0.822 
-0.272503 0.359284 0.845 
-0.242497 0.37374 0.879 
-0.207946 0.385646 0.907 
-0.172064 0.400527 0.942 
-0.130334 0.40733 0.958 
-0.0903316 0.42944 1.01 
-0.0453537 0.450274 1.059 
0.00420713 0.472809 1.112 
0.0549291 0.463455 1.09 
0.10069 0.441345 1.038 
0.142896 0.423062 0.995 
0.180333 0.403078 0.948 
0.213862 0.383945 0.903 
0.248298 0.372465 0.876 
0.276256 0.355882 0.837 
0.303969 0.343127 0.807 
0.347933 0.349505 0.822 
0.387186 0.350355 0.824 
0.418362 0.344402 0.81 
0.43372 0.325694 0.766 
0.454716 0.31549 0.742 
0.476112 0.306986 0.722 
0.492114 0.296356 0.697 
0.509548 0.287852 0.677 
0.527515 0.280624 0.66 
0.543052 0.272971 0.642 
0.559589 0.266593 0.627 
0.570975 0.258089 0.607 
0.588407 0.253412 0.596 
-0.505415 0.275675 0.646 
-0.486342 0.282076 0.661 
-0.467248 0.289331 0.678 
-0.447855 0.297439 0.697 
-0.424902 0.304267 0.713 
-0.404304 0.314082 0.736 
-0.377539 0.320483 0.751 
-0.35485 0.332005 0.778 
-0.329643 0.343527 0.805 
-0.300105 0.352915 0.827 
-0.267512 0.36273 0.85 
-0.237545 0.378093 0.886 
-0.201122 0.387481 0.908 
-0.165795 0.404551 0.948 
-0.124046 0.412659 0.967 
-0.0829755 0.43357 1.016 
-0.0373023 0.454053 1.064 
0.0128571 0.474964 1.113 
0.0626405 0.459601 1.077 
0.108559 0.435703 1.021 
0.151407 0.422474 0.99 
0.187175 0.400284 0.938 
0.220557 0.382361 0.896 
0.254122 0.370412 0.868 
0.282023 0.354622 0.831 
0.31072 0.343527 0.805 
0.358191 0.353342 0.828 
0.391513 0.348648 0.817 
0.422232 0.342674 0.803 
0.438559 0.325177 0.762 
0.459766 0.315362 0.739 
0.480613 0.305974 0.717 
0.49826 0.296586 0.695 
0.51462 0.287624 0.674 
0.531453 0.279943 0.656 
0.547464 0.272688 0.639 
0.560988 0.265007 0.621 
0.573783 0.257752 0.604 
-0.520147 0.272824 0.637 
-0.500466 0.278392 0.65 
-0.482466 0.285673 0.667 
-0.460851 0.291669 0.681 
-0.439821 0.29895 0.698 
-0.419541 0.307944 0.719 
-0.396766 0.31651 0.739 
-0.372617 0.325505 0.76 
-0.346954 0.334927 0.782 
-0.322814 0.348204 0.813 
-0.292279 0.357198 0.834 
-0.262826 0.370476 0.865 
-0.22971 0.382468 0.893 
-0.19251 0.391462 0.914 
-0.155813 0.406881 0.95 
-0.115173 0.420158 0.981 
-0.0723505 0.437718 1.022 
-0.026069 0.461702 1.078 
0.0250964 0.479263 1.119 
0.0735943 0.456563 1.066 
0.118491 0.433007 1.011 
0.160208 0.418873 0.978 
0.195062 0.39703 0.927 
0.228759 0.381183 0.89 
0.261133 0.368334 0.86 
0.288959 0.353344 0.825 
0.316697 0.34178 0.798 
0.368527 0.355913 0.831 
0.396968 0.346919 0.81 
0.420768 0.335784 0.784 
0.444492 0.325505 0.76 
0.463498 0.314369 0.734 
0.484324 0.304518 0.711 
0.502908 0.295952 0.691 
0.518078 0.28653 0.669 
0.535303 0.279249 0.652 
0.550076 0.271539 0.634 
0.562256 0.263402 0.615 
0.576509 0.256977 0.6 
-0.515016 0.274244 0.638 
-0.495167 0.279832 0.651 
-0.477676 0.287569 0.669 
-0.457172 0.294447 0.685 
-0.434556 0.300894 0.7 
-0.415709 0.311211 0.724 
-0.389877 0.317658 0.739 
-0.367456 0.328405 0.764 
-0.340533 0.337002 0.784 
-0.314847 0.349037 0.812 
-0.285187 0.359354 0.836 
-0.25594 0.373539 0.869 
-0.222873 0.386434 0.899 
-0.185198 0.395461 0.92 
-0.147421 0.409646 0.953 
-0.106892 0.425121 0.989 
-0.0630693 0.441025 1.026 
-0.0161239 0.466386 1.085 
0.0352103 0.476703 1.109 
0.0833749 0.457359 1.064 
0.128462 0.431139 1.003 
0.168663 0.411366 0.957 
0.203464 0.392452 0.913 
0.237396 0.378697 0.881 
0.269294 0.366231 0.852 
0.296674 0.351617 0.818 
0.326207 0.34259 0.797 
0.3784 0.356775 0.83 
0.405026 0.346458 0.806 
0.428807 0.330984 0.77 
0.450213 0.320667 0.746 
0.471332 0.311641 0.725 
0.488794 0.300894 0.7 
0.506523 0.292297 0.68 
0.523971 0.28456 0.662 
0.539741 0.276823 0.644 
0.554718 0.269515 0.627 
0.566248 0.261348 0.608 
0.582851 0.25619 0.596 
-0.504633 0.278255 0.645 
-0.48487 0.284294 0.659 
-0.466559 0.29206 0.677 
-0.44657 0.299825 0.695 
-0.424306 0.307159 0.712 
-0.403205 0.31665 0.734 
-0.376534 0.323121 0.749 
-0.354393 0.3352 0.777 
-0.328415 0.345985 0.802 
-0.301194 0.358064 0.83 
-0.267884 0.365398 0.847 
-0.237277 0.381791 0.885 
-0.2009 0.391282 0.907 
-0.164921 0.406813 0.943 
-0.123918 0.416735 0.966 
-0.0826489 0.43658 1.012 
-0.0370218 0.455561 1.056 
0.0128456 0.47972 1.112 
0.0624079 0.462895 1.073 
0.108665 0.440894 1.022 
0.149878 0.422775 0.98 
0.186776 0.403793 0.936 
0.22031 0.386105 0.895 
0.253244 0.373163 0.865 
0.282362 0.358927 0.832 
0.309562 0.345985 0.802 
0.359893 0.356339 0.826 
0.391158 0.349868 0.811 
0.420506 0.336063 0.779 
0.4445 0.327003 0.758 
0.463372 0.315787 0.732 
0.482539 0.306296 0.71 
0.501108 0.297668 0.69 
0.516266 0.288177 0.668 
0.53429 0.281275 0.652 
0.548225 0.273078 0.633 
0.561301 0.265313 0.615 
0.575577 0.258842 0.6 
-0.514025 0.276226 0.638 
-0.491352 0.283154 0.654 
-0.472849 0.290514 0.671 
-0.456709 0.300472 0.694 
-0.429865 0.304368 0.703 
-0.41122 0.315192 0.728 
-0.383506 0.320388 0.74 
-0.362692 0.332943 0.769 
-0.334925 0.34117 0.788 
-0.309927 0.354591 0.819 
-0.278057 0.362817 0.838 
-0.245191 0.378404 0.874 
-0.211238 0.39096 0.903 
-0.174394 0.403082 0.931 
-0.134799 0.414772 0.958 
-0.0945687 0.435121 1.005 
-0.0496249 0.452439 1.045 
-0.000970671 0.47885 1.106 
0.0495742 0.469325 1.084 
0.0964984 0.452439 1.045 
0.138118 0.425596 0.983 
0.1772 0.41001 0.947 
0.21129 0.391393 0.904 
0.244735 0.377971 0.873 
0.275617 0.364982 0.843 
0.301835 0.349829 0.808 
0.341177 0.351561 0.812 
0.382759 0.355024 0.82 
0.415397 0.342036 0.79 
0.437949 0.330346 0.763 
0.457377 0.319089 0.737 
0.477718 0.309997 0.716 
0.496465 0.300472 0.694 
0.511287 0.290514 0.671 
0.531242 0.284452 0.657 
0.544761 0.275793 0.637 
0.560023 0.268866 0.621 
0.573793 0.261939 0.605 
0.587067 0.255444 0.59 
-0.498926 0.281563 0.648 
-0.481019 0.288949 0.665 
-0.460174 0.295467 0.68 
-0.438561 0.302419 0.696 
-0.417207 0.310675 0.715 
-0.395156 0.319799 0.736 
-0.370166 0.328055 0.755 
-0.345179 0.338049 0.778 
-0.320829 0.351084 0.808 
-0.29263 0.362816 0.835 
-0.26029 0.378024 0.87 
-0.22479 0.386714 0.89 
-0.188662 0.398011 0.916 
-0.151226 0.41235 0.949 
-0.110826 0.427123 0.983 
-0.0675208 0.443635 1.021 
-0.0210054 0.467533 1.076 
0.0301495 0.48361 1.113 
0.0781208 0.460581 1.06 
0.122228 0.435814 1.003 
0.162577 0.419302 0.965 
0.197662 0.399315 0.919 
0.231599 0.384541 0.885 
0.2636 0.371506 0.855 
0.29174 0.357167 0.822 
0.318811 0.345001 0.794 
0.373241 0.360643 0.83 
0.399521 0.349781 0.805 
0.426875 0.335876 0.773 
0.447933 0.325014 0.748 
0.468598 0.315454 0.726 
0.488596 0.306764 0.706 
0.502297 0.295467 0.68 
0.522213 0.288949 0.665 
0.536571 0.280259 0.645 
0.550822 0.272438 0.627 
0.564319 0.265051 0.61 
0.579147 0.258968 0.596 
-0.507479 0.279517 0.641 
-0.488033 0.285622 0.655 
-0.470076 0.293471 0.673 
-0.4537 0.3035 0.696 
-0.426102 0.306989 0.704 
-0.406695 0.317454 0.728 
-0.378908 0.322687 0.74 
-0.358844 0.336205 0.771 
-0.330446 0.344054 0.789 
-0.305418 0.359317 0.824 
-0.27252 0.36673 0.841 
-0.240583 0.382428 0.877 
-0.205854 0.394202 0.904 
-0.168789 0.406411 0.932 
-0.129383 0.419493 0.962 
-0.0888502 0.44086 1.011 
-0.0431305 0.455687 1.045 
0.00587611 0.480106 1.101 
0.056207 0.471821 1.082 
0.101317 0.448274 1.028 
0.141829 0.426034 0.977 
0.180655 0.410772 0.942 
0.214788 0.392893 0.901 
0.247664 0.378939 0.869 
0.277888 0.365421 0.838 
0.30371 0.350159 0.803 
0.347929 0.355828 0.816 
0.384071 0.354084 0.812 
0.409109 0.34231 0.785 
0.435478 0.334461 0.767 
0.452797 0.321379 0.737 
0.47459 0.313094 0.718 
0.492489 0.3035 0.696 
0.508337 0.293907 0.674 
0.526138 0.286494 0.657 
0.54066 0.278209 0.638 
0.556987 0.271668 0.623 
0.570034 0.264255 0.606 
0.582484 0.257278 0.59 
-0.499161 0.283138 0.647 
-0.480603 0.29014 0.663 
-0.460553 0.297142 0.679 
-0.437025 0.305019 0.697 
-0.414405 0.312459 0.714 
-0.392868 0.322086 0.736 
-0.36782 0.330401 0.755 
-0.341881 0.339591 0.776 
-0.317924 0.353157 0.807 
-0.290035 0.365411 0.835 
-0.260739 0.379414 0.867 
-0.224902 0.387291 0.885 
-0.190293 0.401295 0.917 
-0.152217 0.413986 0.946 
-0.112582 0.431053 0.985 
-0.068701 0.444182 1.015 
-0.0225507 0.468251 1.07 
0.0317069 0.484442 1.107 
0.0793914 0.461686 1.055 
0.121863 0.437617 1 
0.162408 0.421863 0.964 
0.197662 0.40217 0.919 
0.231337 0.386854 0.884 
0.263292 0.373725 0.854 
0.29174 0.359722 0.822 
0.318007 0.346593 0.792 
0.371504 0.362785 0.829 
0.397775 0.351844 0.804 
0.420633 0.340029 0.777 
0.443326 0.329964 0.754 
0.46451 0.320336 0.732 
0.481599 0.309396 0.707 
0.498477 0.298455 0.682 
0.51627 0.290578 0.664 
0.533209 0.283138 0.647 
0.546822 0.274824 0.628 
0.562333 0.268259 0.613 
0.575481 0.261258 0.597 
-0.507881 0.28063 0.639 
-0.488572 0.286779 0.653 
-0.470764 0.294684 0.671 
-0.447438 0.304346 0.693 
-0.423523 0.310494 0.707 
-0.402724 0.320156 0.729 
-0.37532 0.325865 0.742 
-0.353593 0.338162 0.77 
-0.326368 0.347384 0.791 
-0.301577 0.361877 0.824 
-0.270516 0.371978 0.847 
-0.23922 0.385153 0.877 
-0.204449 0.397011 0.904 
-0.166982 0.408429 0.93 
-0.128553 0.424678 0.967 
-0.0873658 0.444441 1.012 
-0.0414672 0.458495 1.044 
0.0144553 0.484406 1.103 
0.0650681 0.4664 1.062 
0.109714 0.446637 1.017 
0.149546 0.425118 0.968 
0.187425 0.409307 0.932 
0.221701 0.393058 0.895 
0.25341 0.378126 0.861 
0.282291 0.363634 0.828 
0.308871 0.350019 0.797 
0.35557 0.359681 0.819 
0.387975 0.354411 0.807 
0.412933 0.343871 0.783 
0.437375 0.334648 0.762 
0.456656 0.322352 0.734 
0.476155 0.31269 0.712 
0.496465 0.304785 0.694 
0.511287 0.294684 0.671 
0.528816 0.287218 0.654 
0.543906 0.279313 0.636 
0.558219 0.271847 0.619 
0.572845 0.265259 0.604 
0.585077 0.258233 0.588 
-0.494375 0.284708 0.646 
-0.478638 0.293523 0.666 
-0.455561 0.300134 0.681 
-0.43082 0.308948 0.701 
-0.40837 0.316881 0.719 
-0.384763 0.325255 0.738 
-0.362708 0.336714 0.764 
-0.335233 0.345088 0.783 
-0.309299 0.35875 0.814 
-0.279359 0.369327 0.838 
-0.249476 0.383431 0.87 
-0.214448 0.393567 0.893 
-0.179212 0.408111 0.926 
-0.140899 0.422655 0.959 
-0.100112 0.439843 0.998 
-0.0549378 0.450861 1.023 
-0.0075959 0.472016 1.071 
0.0476691 0.475542 1.079 
0.0936037 0.454387 1.031 
0.135201 0.433673 0.984 
0.174441 0.417807 0.948 
0.208711 0.398856 0.905 
0.242577 0.385634 0.875 
0.272998 0.371531 0.843 
0.298584 0.355224 0.806 
0.334066 0.353021 0.801 
0.380211 0.361394 0.82 
0.401279 0.345528 0.784 
0.430003 0.339358 0.77 
0.448752 0.324373 0.736 
0.472556 0.317322 0.72 
0.490651 0.307626 0.698 
0.505195 0.297049 0.674 
0.523872 0.289997 0.658 
0.536844 0.280742 0.637 
0.554972 0.275012 0.624 
0.568151 0.267079 0.606 
0.579666 0.259587 0.589 
-0.496847 0.284827 0.644 
-0.479878 0.292788 0.662 
-0.458518 0.29898 0.676 
-0.432849 0.309153 0.699 
-0.410004 0.316671 0.716 
-0.388729 0.326844 0.739 
-0.364831 0.336574 0.761 
-0.336372 0.344977 0.78 
-0.311063 0.35913 0.812 
-0.281627 0.370187 0.837 
-0.2516 0.383898 0.868 
-0.216737 0.39407 0.891 
-0.182089 0.40955 0.926 
-0.143729 0.423703 0.958 
-0.102386 0.437856 0.99 
-0.0578326 0.450239 1.018 
-0.0108525 0.470584 1.064 
0.0410773 0.478545 1.082 
0.087873 0.459527 1.039 
0.130135 0.43874 0.992 
0.169794 0.422376 0.955 
0.20376 0.401589 0.908 
0.238223 0.388763 0.879 
0.268712 0.374168 0.846 
0.295396 0.358688 0.811 
0.325801 0.350727 0.793 
0.376487 0.363995 0.823 
0.400668 0.3494 0.79 
0.427522 0.341439 0.772 
0.446094 0.328613 0.743 
0.469079 0.320652 0.725 
0.487612 0.310922 0.703 
0.500393 0.29898 0.676 
0.521673 0.293231 0.663 
0.534239 0.283501 0.641 
0.550036 0.276424 0.625 
0.565303 0.268905 0.608 
0.577043 0.261387 0.591 
-0.501289 0.28494 0.642 
-0.482378 0.291598 0.657 
-0.462757 0.298699 0.673 
-0.442492 0.307132 0.692 
-0.41913 0.313789 0.707 
-0.398193 0.323554 0.729 
-0.371209 0.329767 0.743 
-0.347449 0.340419 0.767 
-0.323078 0.352847 0.795 
-0.295377 0.364386 0.821 
-0.268384 0.380364 0.857 
-0.233503 0.388797 0.876 
-0.200151 0.403887 0.91 
-0.160682 0.411432 0.927 
-0.124825 0.437175 0.985 
-0.0807561 0.447383 1.008 
-0.0351466 0.46558 1.049 
0.0160664 0.48644 1.096 
0.0648843 0.470018 1.059 
0.110637 0.448714 1.011 
0.151206 0.430073 0.969 
0.188266 0.41232 0.929 
0.222094 0.395454 0.891 
0.253565 0.380364 0.857 
0.282208 0.365718 0.824 
0.308942 0.352403 0.794 
0.355536 0.362167 0.816 
0.388747 0.357729 0.806 
0.41362 0.347077 0.782 
0.436832 0.336869 0.759 
0.458311 0.325329 0.733 
0.475008 0.313789 0.707 
0.496466 0.306688 0.691 
0.512607 0.297368 0.67 
0.527602 0.288491 0.65 
0.542449 0.280502 0.632 
0.557428 0.273401 0.616 
0.571867 0.266743 0.601 
-0.510622 0.28282 0.635 
-0.490114 0.288165 0.647 
-0.472754 0.296182 0.665 
-0.45438 0.304644 0.684 
-0.429731 0.312215 0.701 
-0.406687 0.319787 0.718 
-0.384136 0.32914 0.739 
-0.361048 0.339829 0.763 
-0.331949 0.347846 0.781 
-0.307656 0.362099 0.813 
-0.278721 0.374124 0.84 
-0.247839 0.38704 0.869 
-0.212584 0.396839 0.891 
-0.178349 0.413763 0.929 
-0.139991 0.428907 0.963 
-0.0978704 0.441377 0.991 
-0.0531398 0.453848 1.019 
-0.00587099 0.472109 1.06 
0.0442752 0.480126 1.078 
0.0917342 0.457857 1.028 
0.133808 0.438705 0.985 
0.172786 0.42178 0.947 
0.207305 0.403074 0.905 
0.241493 0.390158 0.876 
0.271043 0.374569 0.841 
0.296593 0.35809 0.804 
0.330744 0.354527 0.796 
0.378937 0.365216 0.82 
0.400878 0.350964 0.788 
0.427611 0.342947 0.77 
0.446646 0.330476 0.742 
0.469557 0.322459 0.724 
0.486619 0.31177 0.7 
0.500701 0.300635 0.675 
0.521126 0.2944 0.661 
0.5344 0.285047 0.64 
0.549243 0.277475 0.623 
0.564358 0.270795 0.608 
0.576125 0.263223 0.591 
-0.501289 0.286935 0.642 
-0.482378 0.293639 0.657 
-0.462069 0.300343 0.672 
-0.442492 0.309282 0.692 
-0.418537 0.315539 0.706 
-0.398193 0.325819 0.729 
-0.370209 0.331182 0.741 
-0.344166 0.341909 0.765 
-0.320138 0.357552 0.8 
-0.290982 0.367831 0.823 
-0.26081 0.381686 0.854 
-0.227475 0.39286 0.879 
-0.195628 0.412078 0.922 
-0.153978 0.415654 0.93 
-0.118243 0.444258 0.994 
-0.0726362 0.448727 1.004 
-0.0272034 0.472415 1.057 
0.0245581 0.489399 1.095 
0.0758246 0.469733 1.051 
0.118993 0.447833 1.002 
0.159743 0.431744 0.966 
0.194806 0.410737 0.919 
0.228073 0.394201 0.882 
0.259417 0.379899 0.85 
0.287778 0.365597 0.818 
0.314351 0.352635 0.789 
0.364923 0.36649 0.82 
0.394785 0.358892 0.803 
0.418757 0.347719 0.778 
0.440398 0.336545 0.753 
0.462235 0.32716 0.732 
0.477368 0.314645 0.704 
0.498586 0.307494 0.688 
0.514457 0.298109 0.667 
0.52837 0.288723 0.646 
0.542919 0.280678 0.628 
0.557612 0.273527 0.612 
0.573687 0.267717 0.599 
-0.507473 0.285242 0.636 
-0.486845 0.290624 0.648 
-0.467916 0.297799 0.664 
-0.454077 0.30946 0.69 
-0.428642 0.314394 0.701 
-0.405571 0.322018 0.718 
-0.382988 0.331436 0.739 
-0.357023 0.341752 0.762 
-0.329101 0.349825 0.78 
-0.304755 0.364176 0.812 
-0.275787 0.37808 0.843 
-0.243789 0.389741 0.869 
-0.208665 0.400056 0.892 
-0.174207 0.417099 0.93 
-0.135502 0.431899 0.963 
-0.0929691 0.443111 0.988 
-0.0488651 0.4615 1.029 
-0.000931178 0.475851 1.061 
0.0537701 0.478542 1.067 
0.098459 0.455221 1.015 
0.13988 0.436832 0.974 
0.178431 0.420687 0.938 
0.213388 0.404092 0.901 
0.24518 0.387947 0.865 
0.275596 0.374492 0.835 
0.300203 0.357449 0.797 
0.339044 0.359243 0.801 
0.383427 0.36597 0.816 
0.4039 0.350722 0.782 
0.429087 0.341752 0.762 
0.448752 0.330091 0.736 
0.46993 0.321121 0.716 
0.488542 0.311703 0.695 
0.505945 0.302733 0.675 
0.523076 0.29466 0.657 
0.535158 0.284793 0.635 
0.551415 0.278066 0.62 
0.567209 0.271787 0.606 
0.578751 0.264163 0.589 
-0.500508 0.28848 0.641 
-0.481644 0.295231 0.656 
-0.462069 0.302431 0.672 
-0.442285 0.310532 0.69 
-0.419039 0.317283 0.705 
-0.399326 0.328084 0.729 
-0.370859 0.333035 0.74 
-0.344903 0.343836 0.764 
-0.321033 0.356887 0.793 
-0.292668 0.367688 0.817 
-0.26355 0.38254 0.85 
-0.229991 0.392891 0.873 
-0.199275 0.413593 0.919 
-0.157972 0.417643 0.928 
-0.121887 0.443746 0.986 
-0.0755296 0.450497 1.001 
-0.0304014 0.474349 1.054 
0.021059 0.490551 1.09 
0.0710608 0.473899 1.053 
0.114779 0.452747 1.006 
0.155401 0.435195 0.967 
0.191144 0.414943 0.922 
0.22447 0.397841 0.884 
0.255455 0.38254 0.85 
0.284313 0.368588 0.819 
0.310674 0.355087 0.789 
0.358018 0.365888 0.813 
0.391042 0.361388 0.803 
0.415131 0.350136 0.778 
0.437469 0.339335 0.754 
0.458823 0.329434 0.732 
0.474086 0.316833 0.704 
0.496099 0.310082 0.689 
0.512881 0.301081 0.669 
0.526985 0.29163 0.648 
0.540851 0.283079 0.629 
0.555666 0.275879 0.613 
0.571848 0.270028 0.6 
-6.23093 2.92321 6.473 
-0.49108 0.290379 0.643 
-0.474018 0.298508 0.661 
-0.455278 0.306637 0.679 
-0.43486 0.314766 0.697 
-0.411032 0.32154 0.712 
-0.392173 0.333733 0.739 
-0.362647 0.340507 0.754 
-0.337927 0.351345 0.778 
-0.313684 0.365345 0.809 
-0.28314 0.374828 0.83 
-0.251522 0.385667 0.854 
-0.218659 0.398312 0.882 
-0.187009 0.419537 0.929 
-0.146493 0.427666 0.947 
-0.104397 0.442569 0.98 
-0.0602769 0.45431 1.006 
-0.0141188 0.479148 1.061 
0.037506 0.485922 1.076 
0.0843186 0.467407 1.035 
0.126156 0.444827 0.985 
0.166827 0.431279 0.955 
0.20116 0.410505 0.909 
0.235759 0.397408 0.88 
0.264825 0.380248 0.842 
0.292153 0.365345 0.809 
0.321299 0.355861 0.788 
0.372112 0.369861 0.819 
0.399265 0.359926 0.797 
0.422177 0.348184 0.771 
0.443853 0.337346 0.747 
0.465855 0.328314 0.727 
0.482268 0.31612 0.7 
0.50082 0.306185 0.678 
0.518287 0.298056 0.66 
0.534075 0.289928 0.642 
0.546429 0.280896 0.622 
0.561544 0.274122 0.607 
0.574289 0.266896 0.591 
-0.50213 0.289112 0.638 
-0.483499 0.29591 0.653 
-0.46347 0.302707 0.668 
-0.445278 0.31177 0.688 
-0.42222 0.318567 0.703 
-0.40164 0.328537 0.725 
-0.374951 0.334881 0.739 
-0.350838 0.34621 0.764 
-0.323067 0.35482 0.783 
-0.295025 0.368414 0.813 
-0.266935 0.382462 0.844 
-0.233259 0.391978 0.865 
-0.202979 0.41237 0.91 
-0.163386 0.419621 0.926 
-0.125678 0.438653 0.968 
-0.0822238 0.447716 0.988 
-0.038333 0.474452 1.047 
0.0107679 0.488047 1.077 
0.0613028 0.477625 1.054 
0.107389 0.457686 1.01 
0.148042 0.438653 0.968 
0.185179 0.420527 0.928 
0.219326 0.40376 0.891 
0.250761 0.386087 0.852 
0.280927 0.373399 0.824 
0.305383 0.357086 0.788 
0.35036 0.365695 0.807 
0.386533 0.364336 0.804 
0.410296 0.352554 0.778 
0.433357 0.342131 0.755 
0.454895 0.332162 0.733 
0.472142 0.319927 0.706 
0.495029 0.312223 0.689 
0.511077 0.302707 0.668 
0.52679 0.294097 0.649 
0.539016 0.284581 0.628 
0.553809 0.27733 0.612 
0.569964 0.271439 0.599 
-6.18971 2.93332 6.451 
-0.488083 0.292377 0.643 
-0.470937 0.300562 0.661 
-0.453051 0.310111 0.682 
-0.431763 0.317841 0.699 
-0.407749 0.324661 0.714 
-0.387581 0.336029 0.739 
-0.361037 0.344669 0.758 
-0.33473 0.354217 0.779 
-0.309913 0.367859 0.809 
-0.279608 0.377862 0.831 
-0.247252 0.387866 0.853 
-0.214304 0.400598 0.881 
-0.182286 0.421514 0.927 
-0.142679 0.432427 0.951 
-0.0977048 0.442885 0.974 
-0.0543471 0.460164 1.012 
-0.00755335 0.484264 1.065 
0.0456517 0.486992 1.071 
0.0915557 0.46653 1.026 
0.131635 0.440612 0.969 
0.171509 0.427425 0.94 
0.206618 0.410147 0.902 
0.239563 0.395141 0.869 
0.269432 0.380136 0.836 
0.295487 0.364221 0.801 
0.328251 0.359219 0.79 
0.378475 0.372406 0.819 
0.401387 0.358765 0.789 
0.424279 0.347397 0.764 
0.445442 0.336484 0.74 
0.466963 0.32739 0.72 
0.485228 0.317386 0.698 
0.503544 0.307383 0.676 
0.520014 0.298743 0.657 
0.533875 0.289649 0.637 
0.54764 0.281464 0.619 
0.561591 0.274189 0.603 
0.576006 0.267823 0.589 
-0.499364 0.290639 0.637 
-0.482208 0.298395 0.654 
-0.462776 0.305695 0.67 
-0.443141 0.313908 0.688 
-0.420035 0.320752 0.703 
-0.399938 0.331246 0.726 
-0.373159 0.337634 0.74 
-0.348464 0.348584 0.764 
-0.320634 0.357253 0.783 
-0.294662 0.370484 0.812 
-0.265354 0.382803 0.839 
-0.23218 0.392841 0.861 
-0.202979 0.415198 0.91 
-0.162681 0.420673 0.922 
-0.124769 0.438467 0.961 
-0.0818077 0.448505 0.983 
-0.0382964 0.47725 1.046 
0.010758 0.490937 1.076 
0.0626418 0.478618 1.049 
0.107496 0.46128 1.011 
0.147736 0.440749 0.966 
0.18478 0.422498 0.926 
0.218834 0.405617 0.889 
0.250467 0.388279 0.851 
0.280927 0.37596 0.824 
0.304608 0.358622 0.786 
0.349926 0.367747 0.806 
0.386052 0.366378 0.803 
0.410296 0.354971 0.778 
0.432783 0.344021 0.754 
0.454274 0.333983 0.732 
0.471713 0.322577 0.707 
0.491818 0.314364 0.689 
0.508724 0.305239 0.669 
0.525379 0.297026 0.651 
0.537796 0.287445 0.63 
0.551856 0.279688 0.613 
0.569013 0.272844 0.598 
-0.510346 0.288881 0.631 
-0.487033 0.292544 0.639 
-0.472275 0.302158 0.66 
-0.454892 0.311314 0.68 
-0.433154 0.318639 0.696 
-0.410501 0.326422 0.713 
-0.389967 0.33741 0.737 
-0.361888 0.343361 0.75 
-0.339136 0.35618 0.778 
-0.310659 0.365337 0.798 
-0.282031 0.376782 0.823 
-0.250777 0.38777 0.847 
-0.215788 0.39601 0.865 
-0.18541 0.418443 0.914 
-0.1372 0.436756 0.954 
-0.094581 0.445454 0.973 
-0.051506 0.466056 1.018 
-0.00425199 0.488489 1.067 
0.0488425 0.488947 1.068 
0.0942822 0.467429 1.021 
0.13409 0.441792 0.965 
0.173316 0.427599 0.934 
0.20826 0.41066 0.897 
0.241371 0.394179 0.861 
0.272675 0.381818 0.834 
0.296979 0.363963 0.795 
0.332774 0.36259 0.792 
0.380892 0.373577 0.816 
0.403011 0.359385 0.785 
0.4256 0.34794 0.76 
0.447072 0.33741 0.737 
0.467706 0.327796 0.716 
0.484983 0.317266 0.693 
0.503848 0.309025 0.675 
0.521035 0.300785 0.657 
0.533185 0.290713 0.635 
0.547716 0.28293 0.618 
0.562519 0.274231 0.599 
0.579596 0.269195 0.588 
-0.496183 0.293077 0.638 
-0.479605 0.301346 0.656 
-0.459981 0.308696 0.672 
-0.440141 0.316965 0.69 
-0.41744 0.324314 0.706 
-0.395971 0.333961 0.727 
-0.369058 0.340392 0.741 
-0.345806 0.351877 0.766 
-0.31658 0.359227 0.782 
-0.290877 0.373008 0.812 
-0.26082 0.384492 0.837 
-0.227902 0.395057 0.86 
-0.199392 0.419404 0.913 
-0.1519 0.42951 0.935 
-0.111795 0.443291 0.965 
-0.068824 0.456613 0.994 
-0.0239642 0.486472 1.059 
0.0261395 0.500712 1.09 
0.0734857 0.478203 1.041 
0.116974 0.452478 0.985 
0.158255 0.439616 0.957 
0.193746 0.419863 0.914 
0.227297 0.403785 0.879 
0.257977 0.386329 0.841 
0.289049 0.375764 0.818 
0.313177 0.359686 0.783 
0.363517 0.373926 0.814 
0.393567 0.366576 0.798 
0.416187 0.354173 0.771 
0.440396 0.344986 0.751 
0.458941 0.333042 0.725 
0.475743 0.321558 0.7 
0.495298 0.31329 0.682 
0.511629 0.304102 0.662 
0.525276 0.294455 0.641 
0.541296 0.287106 0.625 
0.555825 0.279756 0.609 
0.57259 0.272865 0.594 
-0.5033 0.291303 0.632 
-0.482089 0.296373 0.643 
-0.464775 0.30467 0.661 
-0.447753 0.314349 0.682 
-0.426333 0.322185 0.699 
-0.405019 0.331403 0.719 
-0.379773 0.338778 0.735 
-0.356797 0.34984 0.759 
-0.329466 0.358598 0.778 
-0.304509 0.372425 0.808 
-0.274113 0.382566 0.83 
-0.241667 0.392706 0.852 
-0.212641 0.416213 0.903 
-0.168117 0.417135 0.905 
-0.131547 0.440642 0.956 
-0.0887161 0.4494 0.975 
-0.0457564 0.475211 1.031 
0.00238133 0.492265 1.068 
0.0551681 0.4895 1.062 
0.100135 0.468297 1.016 
0.139797 0.443868 0.963 
0.178162 0.428197 0.929 
0.212166 0.410221 0.89 
0.243959 0.39455 0.856 
0.275236 0.382566 0.83 
0.299172 0.36459 0.791 
0.338589 0.367355 0.797 
0.381866 0.373347 0.81 
0.405115 0.360441 0.782 
0.427448 0.348918 0.757 
0.448062 0.337856 0.733 
0.468411 0.328177 0.712 
0.486099 0.318037 0.69 
0.503989 0.309279 0.671 
0.520906 0.300982 0.653 
0.5353 0.292225 0.634 
0.548815 0.283928 0.616 
0.561588 0.276093 0.599 
0.578682 0.271022 0.588 
-0.4942 0.29506 0.638 
-0.478295 0.303847 0.657 
-0.459256 0.311709 0.674 
-0.437997 0.319109 0.69 
-0.416422 0.327433 0.708 
-0.393712 0.33622 0.727 
-0.367251 0.343157 0.742 
-0.343874 0.354719 0.767 
-0.31415 0.361656 0.782 
-0.288354 0.375531 0.812 
-0.258219 0.387093 0.837 
-0.22523 0.39773 0.86 
-0.191809 0.418079 0.904 
-0.152697 0.430565 0.931 
-0.112942 0.444902 0.962 
-0.0697312 0.455539 0.985 
-0.0255128 0.487912 1.055 
0.024446 0.504099 1.09 
0.0748867 0.48005 1.038 
0.119304 0.452764 0.979 
0.160049 0.439352 0.95 
0.195726 0.420853 0.91 
0.229505 0.405592 0.877 
0.258667 0.388018 0.839 
0.29032 0.378306 0.818 
0.313591 0.361194 0.781 
0.364782 0.376456 0.814 
0.394312 0.368594 0.797 
0.416844 0.356107 0.77 
0.440974 0.346857 0.75 
0.458164 0.333908 0.722 
0.476149 0.323271 0.699 
0.494902 0.314484 0.68 
0.511109 0.305234 0.66 
0.526272 0.296447 0.641 
0.5414 0.288585 0.624 
0.555857 0.281186 0.608 
0.571705 0.275173 0.595 
-0.503484 0.292803 0.631 
-0.480834 0.296979 0.64 
-0.465097 0.30626 0.66 
-0.448154 0.316004 0.681 
-0.426808 0.323893 0.698 
-0.405571 0.333174 0.718 
-0.379879 0.340134 0.733 
-0.356561 0.350807 0.756 
-0.330674 0.361015 0.778 
-0.304132 0.374472 0.807 
-0.273783 0.384681 0.829 
-0.241667 0.395354 0.852 
-0.206537 0.420875 0.907 
-0.158974 0.421803 0.909 
-0.122763 0.444077 0.957 
-0.0797088 0.452893 0.976 
-0.0366362 0.484911 1.045 
0.0124182 0.498832 1.075 
0.0637815 0.483055 1.041 
0.108527 0.466814 1.006 
0.149802 0.445469 0.96 
0.186239 0.426444 0.919 
0.2201 0.409738 0.883 
0.251198 0.393961 0.849 
0.281523 0.381433 0.822 
0.305051 0.363799 0.784 
0.351614 0.374472 0.807 
0.386335 0.371688 0.801 
0.409389 0.359159 0.774 
0.433379 0.349415 0.753 
0.452923 0.337814 0.728 
0.472142 0.327605 0.706 
0.491457 0.318789 0.687 
0.506715 0.30858 0.665 
0.523156 0.300227 0.647 
0.53792 0.291875 0.629 
0.551907 0.283986 0.612 
0.565258 0.276562 0.596 
0.583087 0.271922 0.586 
-0.485957 0.295646 0.635 
-0.473608 0.30682 0.659 
-0.456333 0.316131 0.679 
-0.432815 0.322184 0.692 
-0.412138 0.331496 0.712 
-0.387999 0.33941 0.729 
-0.363247 0.348257 0.748 
-0.339797 0.360362 0.774 
-0.309999 0.367811 0.79 
-0.283205 0.381313 0.819 
-0.252511 0.392953 0.844 
-0.21696 0.399936 0.859 
-0.179773 0.419025 0.9 
-0.145481 0.442304 0.95 
-0.102586 0.448357 0.963 
-0.0600372 0.466515 1.002 
-0.0140656 0.492122 1.057 
0.0372272 0.497243 1.068 
0.0852625 0.478154 1.027 
0.129155 0.453013 0.973 
0.16805 0.436252 0.937 
0.202459 0.417163 0.896 
0.236568 0.401799 0.863 
0.267171 0.387831 0.833 
0.296079 0.37526 0.806 
0.323298 0.363621 0.781 
0.374899 0.378985 0.814 
0.399146 0.366414 0.787 
0.42143 0.354309 0.761 
0.444292 0.344532 0.74 
0.463256 0.333358 0.716 
0.482757 0.324046 0.696 
0.497432 0.312872 0.672 
0.516951 0.305888 0.657 
0.530072 0.296111 0.636 
0.544755 0.288196 0.619 
0.55878 0.280747 0.603 
0.574234 0.274694 0.59 
-0.498195 0.295698 0.633 
-0.480538 0.303172 0.649 
-0.464164 0.312515 0.669 
-0.440748 0.318121 0.681 
-0.421018 0.327463 0.701 
-0.399978 0.337273 0.722 
-0.372414 0.342879 0.734 
-0.350643 0.355491 0.761 
-0.322213 0.363433 0.778 
-0.296609 0.37698 0.807 
-0.266376 0.387724 0.83 
-0.235371 0.400804 0.858 
-0.19935 0.420424 0.9 
-0.1588 0.424161 0.908 
-0.122763 0.44705 0.957 
-0.0794638 0.454525 0.973 
-0.0364959 0.48629 1.041 
0.0123835 0.500771 1.072 
0.0637815 0.48629 1.041 
0.107988 0.467604 1.001 
0.150663 0.446583 0.956 
0.187258 0.428365 0.917 
0.220971 0.411548 0.881 
0.252939 0.395198 0.846 
0.283386 0.383053 0.82 
0.306702 0.365301 0.782 
0.354561 0.377447 0.808 
0.387853 0.373243 0.799 
0.410198 0.360163 0.771 
0.433983 0.350353 0.75 
0.453309 0.338675 0.725 
0.472321 0.328398 0.703 
0.492155 0.319989 0.685 
0.506486 0.309245 0.662 
0.522732 0.300836 0.644 
0.538158 0.292895 0.627 
0.551999 0.284954 0.61 
0.566158 0.277947 0.595 
-0.506774 0.294807 0.629 
-0.482305 0.299025 0.638 
-0.467464 0.308867 0.659 
-0.450666 0.31871 0.68 
-0.428213 0.32574 0.695 
-0.40664 0.334645 0.714 
-0.381204 0.341676 0.729 
-0.35818 0.352456 0.752 
-0.333012 0.363236 0.775 
-0.307615 0.376359 0.803 
-0.278599 0.388076 0.828 
-0.246382 0.398387 0.85 
-0.212405 0.422759 0.902 
-0.171118 0.424634 0.906 
-0.135718 0.447131 0.954 
-0.0924954 0.453224 0.967 
-0.0502186 0.47994 1.024 
-0.00256504 0.494469 1.055 
0.0469623 0.498219 1.063 
0.0927866 0.479002 1.022 
0.134507 0.453693 0.968 
0.17276 0.436351 0.931 
0.206867 0.417604 0.891 
0.24025 0.401668 0.857 
0.27104 0.388545 0.829 
0.298473 0.374484 0.799 
0.329832 0.367922 0.785 
0.378091 0.37964 0.81 
0.400957 0.366048 0.781 
0.42336 0.35433 0.756 
0.445252 0.344019 0.734 
0.465746 0.334177 0.713 
0.483583 0.323865 0.691 
0.499369 0.313554 0.669 
0.517862 0.306055 0.653 
0.532345 0.29715 0.634 
0.54683 0.289182 0.617 
0.560662 0.281683 0.601 
0.575941 0.27559 0.588 
-0.493639 0.299076 0.636 
-0.477857 0.30801 0.655 
-0.457571 0.315064 0.67 
-0.435251 0.321647 0.684 
-0.415753 0.331522 0.705 
-0.392669 0.339987 0.723 
-0.366417 0.347041 0.738 
-0.343266 0.358797 0.763 
-0.314558 0.366791 0.78 
-0.287832 0.379487 0.807 
-0.25921 0.393125 0.836 
-0.22683 0.404881 0.861 
-0.187245 0.418048 0.889 
-0.152533 0.437328 0.93 
-0.113059 0.452846 0.963 
-0.0689525 0.458018 0.974 
-0.0252227 0.490465 1.043 
0.0240871 0.505043 1.074 
0.0715922 0.487644 1.037 
0.113566 0.46178 0.982 
0.154145 0.446732 0.95 
0.190488 0.428863 0.912 
0.2238 0.411934 0.876 
0.25667 0.395476 0.841 
0.286371 0.382779 0.814 
0.309969 0.36585 0.778 
0.360917 0.381368 0.811 
0.391344 0.374315 0.796 
0.412836 0.360678 0.767 
0.436889 0.351273 0.747 
0.454026 0.338106 0.719 
0.475333 0.329642 0.701 
0.493513 0.320237 0.681 
0.507515 0.309421 0.658 
0.525098 0.301897 0.642 
0.540325 0.293903 0.625 
0.552145 0.284968 0.606 
0.56794 0.278855 0.593 
-0.502686 0.297233 0.63 
-0.481585 0.302423 0.641 
-0.465097 0.311387 0.66 
-0.44618 0.319879 0.678 
-0.424973 0.3279 0.695 
-0.403312 0.336864 0.714 
-0.377287 0.343469 0.728 
-0.357033 0.357151 0.757 
-0.330249 0.366587 0.777 
-0.303872 0.378854 0.803 
-0.275071 0.391121 0.829 
-0.243561 0.402916 0.854 
-0.2096 0.422731 0.896 
-0.170273 0.428865 0.909 
-0.133955 0.449152 0.952 
-0.0911812 0.457173 0.969 
-0.0487226 0.484065 1.026 
-0.000922401 0.49586 1.051 
0.0485223 0.500578 1.061 
0.0942822 0.481706 1.021 
0.134368 0.456229 0.967 
0.172574 0.438772 0.93 
0.206867 0.420372 0.891 
0.241017 0.403388 0.855 
0.271671 0.390177 0.827 
0.298214 0.37508 0.795 
0.331052 0.370362 0.785 
0.379349 0.382157 0.81 
0.400626 0.367059 0.778 
0.42285 0.355264 0.753 
0.445784 0.345828 0.733 
0.466649 0.335449 0.711 
0.483986 0.324125 0.687 
0.500985 0.31469 0.667 
0.519732 0.306197 0.649 
0.534728 0.297705 0.631 
0.550729 0.290628 0.616 
0.562509 0.282135 0.598 
0.577547 0.276002 0.585 
-0.48771 0.301052 0.636 
-0.472471 0.310519 0.656 
-0.452672 0.318093 0.672 
-0.431116 0.327086 0.691 
-0.409877 0.33608 0.71 
-0.384744 0.34318 0.725 
-0.361117 0.353121 0.746 
-0.336845 0.364481 0.77 
-0.309163 0.374421 0.791 
-0.282277 0.388149 0.82 
-0.250307 0.398089 0.841 
-0.215877 0.407083 0.86 
-0.179964 0.423177 0.894 
-0.145328 0.449211 0.949 
-0.102906 0.457258 0.966 
-0.0596178 0.470985 0.995 
-0.0137994 0.490866 1.037 
0.035368 0.5027 1.062 
0.0820712 0.486133 1.027 
0.12374 0.462938 0.978 
0.162746 0.444951 0.94 
0.19799 0.42649 0.901 
0.229598 0.408029 0.862 
0.261013 0.394776 0.834 
0.290537 0.382468 0.808 
0.315606 0.367794 0.777 
0.367217 0.383888 0.811 
0.39503 0.374421 0.791 
0.416065 0.360694 0.762 
0.440914 0.352174 0.744 
0.457525 0.337973 0.714 
0.479806 0.3304 0.698 
0.496926 0.320459 0.677 
0.51403 0.308625 0.652 
0.52939 0.300105 0.634 
0.546599 0.293478 0.62 
0.558789 0.284958 0.602 
0.573201 0.278331 0.588 
-0.493639 0.30204 0.636 
-0.475668 0.309639 0.652 
-0.455522 0.316762 0.667 
-0.432705 0.322936 0.68 
-0.413563 0.334809 0.705 
-0.390422 0.343357 0.723 
-0.364124 0.35048 0.738 
-0.340448 0.361878 0.762 
-0.313335 0.371851 0.783 
-0.285325 0.383249 0.807 
-0.256612 0.397021 0.836 
-0.223373 0.407469 0.858 
-0.18958 0.421241 0.887 
-0.151991 0.435963 0.918 
-0.114556 0.457334 0.963 
-0.0705381 0.463033 0.975 
-0.0266115 0.491052 1.034 
0.0222098 0.5053 1.064 
0.0699136 0.492002 1.036 
0.112497 0.468257 0.986 
0.152509 0.450686 0.949 
0.188864 0.432639 0.911 
0.221677 0.414593 0.873 
0.253652 0.40082 0.844 
0.281882 0.385623 0.812 
0.30713 0.370426 0.78 
0.350972 0.3785 0.797 
0.387634 0.378025 0.796 
0.410328 0.365202 0.769 
0.430506 0.35238 0.742 
0.454991 0.340507 0.717 
0.476149 0.331959 0.699 
0.493446 0.321986 0.678 
0.511307 0.311063 0.655 
0.52612 0.30204 0.636 
0.545278 0.296341 0.624 
0.555953 0.286843 0.604 
0.5696 0.279719 0.589 
-0.499178 0.301599 0.633 
-0.47932 0.307793 0.646 
-0.461726 0.316369 0.664 
-0.438562 0.322087 0.676 
-0.41933 0.333522 0.7 
-0.397199 0.342574 0.719 
-0.370262 0.348768 0.732 
-0.350379 0.363539 0.763 
-0.321004 0.370685 0.778 
-0.293525 0.38212 0.802 
-0.263809 0.393555 0.826 
-0.233765 0.408326 0.857 
-0.200605 0.422619 0.887 
-0.16021 0.432625 0.908 
-0.12386 0.454542 0.954 
-0.0811419 0.464548 0.975 
-0.0374909 0.487894 1.024 
0.010608 0.505523 1.061 
0.0592124 0.498376 1.046 
0.103425 0.477412 1.002 
0.142937 0.454542 0.954 
0.180724 0.438343 0.92 
0.21437 0.420237 0.882 
0.246501 0.405467 0.851 
0.275069 0.389744 0.818 
0.300561 0.374021 0.785 
0.33758 0.374497 0.786 
0.382309 0.382597 0.803 
0.404056 0.368303 0.773 
0.424714 0.355439 0.746 
0.44963 0.347815 0.73 
0.468377 0.334474 0.702 
0.486107 0.324469 0.681 
0.504956 0.314463 0.66 
0.521108 0.305887 0.642 
0.537299 0.298264 0.626 
0.551094 0.290164 0.609 
0.565207 0.283017 0.594 
-0.506944 0.300192 0.628 
-0.485279 0.304972 0.638 
-0.468394 0.313577 0.656 
-0.449831 0.322181 0.674 
-0.427276 0.329829 0.69 
-0.405995 0.338911 0.709 
-0.380839 0.346081 0.724 
-0.360516 0.359466 0.752 
-0.333256 0.36807 0.77 
-0.306634 0.379542 0.794 
-0.280153 0.394361 0.825 
-0.24668 0.402487 0.842 
-0.211622 0.410613 0.859 
-0.178974 0.4283 0.896 
-0.134899 0.448376 0.938 
-0.0943866 0.464151 0.971 
-0.051253 0.484227 1.013 
-0.00414439 0.497134 1.04 
0.0450123 0.504782 1.056 
0.091288 0.489007 1.023 
0.131091 0.461283 0.965 
0.169867 0.44503 0.931 
0.204098 0.42591 0.891 
0.235979 0.409179 0.856 
0.268143 0.397707 0.832 
0.294011 0.380976 0.797 
0.323265 0.371894 0.778 
0.374778 0.387669 0.811 
0.396808 0.37285 0.78 
0.419836 0.361378 0.756 
0.442432 0.35134 0.735 
0.462683 0.339389 0.71 
0.482183 0.329351 0.689 
0.499369 0.319791 0.669 
0.514904 0.309752 0.648 
0.532489 0.302582 0.633 
0.547788 0.294934 0.617 
0.559727 0.28633 0.599 
0.574893 0.280116 0.586 
-0.493639 0.305004 0.636 
-0.473479 0.311239 0.649 
-0.454839 0.319391 0.666 
-0.432069 0.325626 0.679 
-0.412976 0.337615 0.704 
-0.390422 0.346727 0.723 
-0.364617 0.3544 0.739 
-0.340002 0.36495 0.761 
-0.312935 0.375021 0.782 
-0.284971 0.386531 0.806 
-0.255691 0.399479 0.833 
-0.221264 0.41003 0.855 
-0.188202 0.425376 0.887 
-0.146604 0.441201 0.92 
-0.106127 0.464221 0.968 
-0.0621424 0.472853 0.986 
-0.0153363 0.494913 1.032 
0.033591 0.507382 1.058 
0.0808674 0.494913 1.032 
0.121971 0.468057 0.976 
0.161629 0.451752 0.942 
0.196372 0.43161 0.9 
0.227464 0.411948 0.859 
0.26034 0.400918 0.836 
0.287849 0.385572 0.804 
0.313994 0.372144 0.776 
0.363701 0.386531 0.806 
0.393303 0.378858 0.79 
0.414973 0.364471 0.76 
0.436766 0.353441 0.737 
0.456415 0.342411 0.714 
0.47735 0.333778 0.696 
0.495141 0.324187 0.676 
0.511848 0.315075 0.657 
0.52348 0.304045 0.634 
0.543436 0.29877 0.623 
0.555934 0.290138 0.605 
0.568685 0.282465 0.589 
-0.49877 0.303106 0.63 
-0.479837 0.309842 0.644 
-0.462393 0.318502 0.662 
-0.441315 0.325719 0.677 
-0.418243 0.336784 0.7 
-0.397184 0.346888 0.721 
-0.369125 0.35218 0.732 
-0.348736 0.366614 0.762 
-0.320207 0.374793 0.779 
-0.29155 0.384896 0.8 
-0.26189 0.396443 0.824 
-0.230562 0.411358 0.855 
-0.196733 0.424348 0.882 
-0.152988 0.436376 0.907 
-0.117426 0.462838 0.962 
-0.0735678 0.469092 0.975 
-0.0296226 0.494111 1.027 
0.018868 0.51095 1.062 
0.0665656 0.497478 1.034 
0.11119 0.475347 0.988 
0.150875 0.456102 0.948 
0.187243 0.43782 0.91 
0.219816 0.419056 0.871 
0.252341 0.406066 0.844 
0.279584 0.389226 0.809 
0.305526 0.374793 0.779 
0.346223 0.379604 0.789 
0.385911 0.382491 0.795 
0.408602 0.3695 0.768 
0.427039 0.355067 0.738 
0.450808 0.346888 0.721 
0.470977 0.337265 0.701 
0.487844 0.326681 0.679 
0.504191 0.317058 0.659 
0.519485 0.307917 0.64 
0.537299 0.301181 0.626 
0.551094 0.293002 0.609 
0.564255 0.285304 0.593 
-0.504017 0.303119 0.628 
-0.483817 0.308911 0.64 
-0.465336 0.316634 0.656 
-0.448678 0.32677 0.677 
-0.421597 0.334493 0.693 
-0.399408 0.343181 0.711 
-0.37348 0.349939 0.725 
-0.356555 0.367315 0.761 
-0.325725 0.372624 0.772 
-0.299125 0.384691 0.797 
-0.270523 0.397241 0.823 
-0.242036 0.414134 0.858 
-0.205341 0.420892 0.872 
-0.171307 0.437785 0.907 
-0.131593 0.446474 0.925 
-0.0930693 0.469642 0.973 
-0.049483 0.487018 1.009 
-0.00254559 0.50536 1.047 
0.0465205 0.508256 1.053 
0.0926958 0.49281 1.021 
0.133534 0.46385 0.961 
0.171832 0.446956 0.926 
0.205474 0.427167 0.885 
0.238082 0.412204 0.854 
0.271054 0.402068 0.833 
0.294256 0.381795 0.791 
0.324845 0.374555 0.776 
0.375437 0.389518 0.807 
0.396673 0.374072 0.775 
0.42051 0.363454 0.753 
0.442296 0.352835 0.731 
0.46138 0.341733 0.708 
0.480414 0.33208 0.688 
0.498329 0.322909 0.669 
0.513682 0.313255 0.649 
0.529684 0.30505 0.632 
0.544986 0.297327 0.616 
0.556934 0.288639 0.598 
0.573072 0.282847 0.586 
-0.491876 0.307485 0.635 
-0.471015 0.313295 0.647 
-0.455849 0.323948 0.669 
-0.432492 0.330728 0.683 
-0.412389 0.340412 0.703 
-0.390422 0.350097 0.723 
-0.365111 0.358329 0.74 
-0.340002 0.368497 0.761 
-0.312535 0.378182 0.781 
-0.284264 0.389319 0.804 
-0.25477 0.401909 0.83 
-0.222332 0.41353 0.854 
-0.18958 0.42951 0.887 
-0.151579 0.439195 0.907 
-0.116052 0.466311 0.963 
-0.0721268 0.472606 0.976 
-0.0279997 0.496818 1.026 
0.0205373 0.514734 1.063 
0.0679743 0.499239 1.031 
0.112269 0.47648 0.984 
0.152027 0.458079 0.946 
0.188035 0.439195 0.907 
0.220661 0.420794 0.869 
0.253051 0.40772 0.842 
0.281954 0.389803 0.805 
0.308363 0.376245 0.777 
0.352118 0.384477 0.794 
0.387166 0.38254 0.79 
0.410571 0.370434 0.765 
0.429312 0.356392 0.736 
0.452279 0.347676 0.718 
0.472891 0.338475 0.699 
0.489563 0.327822 0.677 
0.506493 0.318622 0.658 
0.519203 0.307969 0.636 
0.539354 0.302642 0.625 
0.554028 0.293442 0.606 
0.56594 0.28521 0.589 
-0.497979 0.305557 0.629 
-0.479837 0.312843 0.644 
-0.46379 0.322559 0.664 
-0.441315 0.328874 0.677 
-0.420178 0.338104 0.696 
-0.397765 0.346848 0.714 
-0.371122 0.353163 0.727 
-0.353008 0.36968 0.761 
-0.322127 0.375023 0.772 
-0.295781 0.387654 0.798 
-0.264763 0.398827 0.821 
-0.235876 0.415343 0.855 
-0.201068 0.42603 0.877 
-0.165488 0.440118 0.906 
-0.126932 0.453234 0.933 
-0.0871118 0.473151 0.974 
-0.0432552 0.490639 1.01 
0.00400282 0.513957 1.058 
0.0528126 0.509099 1.048 
0.097489 0.48821 1.005 
0.137439 0.464893 0.957 
0.174816 0.446433 0.919 
0.208652 0.427973 0.881 
0.241779 0.414372 0.853 
0.272715 0.393969 0.811 
0.29903 0.379395 0.781 
0.334144 0.377938 0.778 
0.379929 0.387654 0.798 
0.401965 0.373566 0.769 
0.423575 0.361421 0.744 
0.444703 0.350734 0.722 
0.467092 0.342476 0.705 
0.484351 0.331789 0.683 
0.501071 0.322073 0.663 
0.516728 0.312843 0.644 
0.532313 0.304585 0.627 
0.549155 0.296327 0.61 
0.561491 0.288068 0.593 
0.584163 0.285639 0.588 
-0.482823 0.311894 0.64 
-0.465025 0.320179 0.657 
-0.447626 0.329926 0.677 
-0.423446 0.335774 0.689 
-0.400987 0.344059 0.706 
-0.377985 0.353318 0.725 
-0.357486 0.366963 0.753 
-0.32667 0.371837 0.763 
-0.302552 0.386457 0.793 
-0.274633 0.399615 0.82 
-0.24535 0.414722 0.851 
-0.209552 0.42252 0.867 
-0.175774 0.439089 0.901 
-0.134435 0.445912 0.915 
-0.0978051 0.475152 0.975 
-0.0537563 0.487822 1.001 
-0.00736895 0.506341 1.039 
0.0416124 0.513164 1.053 
0.0884537 0.500493 1.027 
0.127827 0.469304 0.963 
0.166615 0.452734 0.929 
0.200652 0.432754 0.888 
0.232774 0.416184 0.854 
0.267792 0.408874 0.839 
0.293884 0.384995 0.79 
0.323171 0.376223 0.772 
0.373111 0.390843 0.802 
0.396161 0.377197 0.774 
0.419393 0.365989 0.751 
0.441086 0.355267 0.729 
0.46138 0.345033 0.708 
0.479018 0.334312 0.686 
0.497585 0.32554 0.668 
0.514473 0.316768 0.65 
0.52717 0.306534 0.629 
0.543217 0.299224 0.614 
0.557823 0.289477 0.594 
0.577624 0.285578 0.586 
-0.485279 0.311911 0.638 
-0.465538 0.318755 0.652 
-0.451166 0.330489 0.676 
-0.425865 0.335378 0.686 
-0.404226 0.344178 0.704 
-0.383019 0.354933 0.726 
-0.35928 0.3652 0.747 
-0.330977 0.372533 0.762 
-0.305542 0.385244 0.788 
-0.277682 0.397955 0.814 
-0.246515 0.4092 0.837 
-0.213204 0.420444 0.86 
-0.181172 0.44 0.9 
-0.139662 0.445867 0.912 
-0.103438 0.474711 0.971 
-0.0596777 0.486933 0.996 
-0.013693 0.503067 1.029 
0.0352015 0.516755 1.057 
0.0824708 0.504533 1.032 
0.122095 0.471778 0.965 
0.161534 0.456133 0.933 
0.196232 0.436578 0.893 
0.228266 0.418978 0.857 
0.262265 0.409689 0.838 
0.290437 0.388178 0.794 
0.318373 0.377422 0.772 
0.368127 0.392089 0.802 
0.393879 0.380844 0.779 
0.416382 0.368622 0.754 
0.438352 0.357867 0.732 
0.459828 0.346622 0.709 
0.476886 0.335378 0.686 
0.495509 0.326578 0.668 
0.513242 0.318267 0.651 
0.525215 0.307511 0.629 
0.541309 0.300178 0.614 
0.555978 0.2904 0.594 
0.574821 0.286 0.585 
-0.485508 0.312412 0.637 
-0.465538 0.319768 0.652 
-0.451166 0.331539 0.676 
-0.425244 0.335953 0.685 
-0.403652 0.344781 0.703 
-0.383019 0.356061 0.726 
-0.358799 0.36587 0.746 
-0.330977 0.373717 0.762 
-0.305542 0.386469 0.788 
-0.277341 0.39873 0.813 
-0.246221 0.41001 0.836 
-0.213204 0.42178 0.86 
-0.181172 0.441398 0.9 
-0.139815 0.447774 0.913 
-0.103332 0.475729 0.97 
-0.0597376 0.488971 0.997 
-0.013693 0.504665 1.029 
0.0367741 0.517417 1.055 
0.0836668 0.503684 1.027 
0.123211 0.471806 0.962 
0.162285 0.455621 0.929 
0.197177 0.436984 0.891 
0.229062 0.419328 0.855 
0.263567 0.410991 0.838 
0.290936 0.38843 0.792 
0.319159 0.378131 0.771 
0.368451 0.392354 0.8 
0.394075 0.381074 0.777 
0.417 0.369303 0.753 
0.438288 0.358023 0.73 
0.459828 0.347724 0.709 
0.480448 0.335953 0.685 
0.498164 0.326635 0.666 
0.516529 0.316335 0.645 
0.529644 0.306527 0.625 
