# .PCD v.7 - Point Cloud Data file format
VERSION .7
FIELDS x y z
SIZE 4 4 4
TYPE F F F
COUNT 1 1 1
WIDTH 1974
HEIGHT 1
VIEWPOINT 0 0 0 1 0 0 0
POINTS 1974
DATA ascii
-0.027638 0.164269 0.582 
0.059215 0.146488 0.519 
0.991895 0.956262 3.388 
1.27315 0.801872 2.841 
2.34153 0.777034 2.753 
2.45998 0.773929 2.742 
2.6679 0.793969 2.813 
-0.09562 0.165457 0.583 
-0.068681 0.166025 0.585 
-0.0231565 0.165457 0.583 
0.0623201 0.14701 0.518 
1.00259 0.946768 3.336 
1.28277 0.804015 2.833 
2.30838 0.775919 2.734 
2.43937 0.777054 2.738 
2.66732 0.799474 2.817 
-0.105765 0.166649 0.584 
-0.0782754 0.166078 0.582 
-0.0338509 0.165507 0.58 
0.0532725 0.149527 0.524 
0.0771032 0.148386 0.52 
1.27052 0.820402 2.875 
1.38401 0.808417 2.833 
2.36785 0.780167 2.734 
2.53452 0.792437 2.777 
-0.389538 0.17186 0.599 
-0.0844597 0.166695 0.581 
-0.0393254 0.166695 0.581 
0.0494835 0.151202 0.527 
0.0729231 0.148907 0.519 
1.14578 0.86561 3.017 
1.34308 0.809375 2.821 
2.34153 0.789865 2.753 
2.46626 0.788718 2.749 
2.6974 0.809375 2.821 
-0.095456 0.167886 0.582 
-0.0687984 0.16904 0.586 
-0.0213815 0.168463 0.584 
0.0655393 0.149425 0.518 
0.925621 0.836547 2.9 
1.27553 0.812604 2.817 
1.41082 0.814912 2.825 
2.38329 0.79097 2.742 
2.55323 0.804239 2.788 
2.73634 0.814912 2.825 
-0.0972644 0.168791 0.582 
-0.0704988 0.169661 0.585 
-0.0213815 0.169371 0.584 
0.0663441 0.150229 0.518 
0.913677 0.842503 2.905 
1.26497 0.815821 2.813 
1.40006 0.818141 2.821 
2.37737 0.7961 2.745 
2.54183 0.807701 2.785 
2.7144 0.819301 2.825 
-0.383313 0.17436 0.598 
-0.0844597 0.169403 0.581 
-0.0347521 0.169112 0.58 
0.0564211 0.152492 0.523 
0.0809528 0.152784 0.524 
1.13979 0.871508 2.989 
1.32304 0.812902 2.788 
2.34404 0.80503 2.761 
2.4799 0.807362 2.769 
2.6655 0.824857 2.829 
2.95062 0.87005 2.984 
-0.104498 0.170599 0.582 
-0.0775041 0.170892 0.583 
-0.0258295 0.170599 0.582 
0.0641766 0.152425 0.52 
0.950594 0.927156 3.163 
1.14098 0.873514 2.98 
1.32304 0.817234 2.788 
2.38008 0.812837 2.773 
2.52652 0.818406 2.792 
2.69948 0.831597 2.837 
-0.396847 0.175629 0.596 
-0.10793 0.171209 0.581 
-0.080849 0.171209 0.581 
-0.0249253 0.171503 0.582 
0.0696977 0.152939 0.519 
0.923974 0.857222 2.909 
1.24135 0.827754 2.809 
1.36984 0.82628 2.804 
2.39127 0.819503 2.781 
2.53811 0.825102 2.8 
2.70389 0.836005 2.837 
-0.396847 0.176555 0.596 
-1.8941 1.07621 3.633 
-0.0870177 0.171815 0.58 
-0.0302985 0.172111 0.581 
0.0666003 0.154041 0.52 
0.901196 0.926617 3.128 
1.04718 0.85167 2.875 
1.26421 0.827082 2.792 
1.41282 0.838043 2.829 
2.43627 0.825897 2.788 
2.58555 0.832118 2.809 
2.75129 0.842783 2.845 
-0.390093 0.177779 0.597 
-1.95904 1.16405 3.909 
-0.0852155 0.172716 0.58 
-0.0267337 0.173312 0.582 
0.0713104 0.154551 0.519 
0.920636 0.931476 3.128 
1.08727 0.874004 2.935 
1.2859 0.83142 2.792 
1.43683 0.843629 2.833 
2.43576 0.94041 3.158 
2.41285 0.832611 2.796 
2.56228 0.838865 2.817 
2.71328 0.843629 2.833 
-0.395658 0.178706 0.597 
-1.88281 1.0875 3.633 
-0.0942268 0.173617 0.58 
-0.0676562 0.174815 0.584 
0.0651095 0.155956 0.521 
0.118377 0.170923 0.571 
1.00702 0.845636 2.825 
1.25043 0.838153 2.8 
1.38932 0.843241 2.817 
2.84434 1.30033 4.344 
2.44762 0.942323 3.148 
2.41878 0.842044 2.813 
2.56592 0.844439 2.821 
2.7716 0.857909 2.866 
-0.390093 0.179634 0.597 
-1.85607 1.09736 3.647 
-0.090466 0.174218 0.579 
-0.0638076 0.17512 0.582 
0.0688913 0.156164 0.519 
0.889672 0.92916 3.088 
1.05155 0.868681 2.887 
1.27288 0.840096 2.792 
1.42362 0.852432 2.833 
2.85887 1.29836 4.315 
2.45838 0.94571 3.143 
2.42222 0.847618 2.817 
2.58711 0.850025 2.825 
2.90475 0.895159 2.975 
-0.383883 0.180259 0.596 
-1.9783 1.20888 3.997 
-0.0834132 0.17542 0.58 
0.0526586 0.159087 0.526 
0.076442 0.157575 0.521 
0.923068 0.874678 2.892 
1.12369 0.898572 2.971 
1.30243 0.841107 2.781 
2.79975 1.3344 4.412 
3.09667 1.37493 4.546 
2.40375 0.853205 2.821 
2.58198 0.855624 2.829 
2.95959 0.910972 3.012 
-0.379542 0.180881 0.595 
-0.106474 0.175713 0.578 
-0.0799463 0.176625 0.581 
0.0540866 0.159297 0.524 
0.0782107 0.158689 0.522 
0.907128 0.872484 2.87 
1.07939 0.889508 2.926 
1.26783 0.851204 2.8 
2.86678 1.35676 4.463 
2.42614 0.96794 3.184 
2.50994 0.862452 2.837 
2.82535 0.891028 2.931 
-0.387587 0.182111 0.596 
-1.88902 1.1553 3.781 
-0.0852155 0.177222 0.58 
-0.0319934 0.176916 0.579 
0.0714478 0.158889 0.52 
0.894111 0.933165 3.054 
1.02798 0.892832 2.922 
1.30442 1.00039 3.274 
1.30863 0.850971 2.785 
2.42614 0.972887 3.184 
2.57304 0.880915 2.883 
2.91809 0.917581 3.003 
-3.09418 1.72012 5.601 
-0.108083 0.177202 0.577 
-0.0817517 0.17843 0.581 
0.0540866 0.160925 0.524 
0.0783606 0.160618 0.523 
0.903335 0.877716 2.858 
1.14131 0.919176 2.993 
1.26754 0.862668 2.809 
2.43431 1.1839 3.855 
2.51381 1.06075 3.454 
2.39199 0.881402 2.87 
2.97782 0.927775 3.021 
-1.85264 1.08711 3.522 
-0.103421 0.177789 0.576 
-0.0776371 0.180259 0.584 
0.0616481 0.162356 0.526 
0.850467 0.931234 3.017 
0.948909 0.887404 2.875 
1.13514 0.922592 2.989 
1.34708 0.944198 3.059 
6.68197 3.72432 12.066 
3.01936 1.38713 4.494 
2.36327 0.871971 2.825 
7.13542 2.38473 7.726 
2.98807 0.926913 3.003 
-3.06769 1.71301 5.522 
-0.111475 0.178684 0.576 
-0.0853624 0.180235 0.581 
-0.0364913 0.179615 0.579 
0.0686097 0.162243 0.523 
0.896348 0.930027 2.998 
1.01887 0.910484 2.935 
1.29497 1.01223 3.263 
1.27835 0.869846 2.804 
2.31306 1.13353 3.654 
2.43363 0.982764 3.168 
7.31306 2.59154 8.354 
7.12765 2.37812 7.666 
-3.15521 1.62526 5.213 
-2.99971 1.69291 5.43 
-0.0989465 0.179579 0.576 
-0.0733507 0.182697 0.586 
-0.0311475 0.180826 0.58 
0.0744398 0.163367 0.524 
0.892848 0.902885 2.896 
1.07335 0.934685 2.998 
1.44264 1.08246 3.472 
7.09467 3.90647 12.53 
2.91177 1.35745 4.354 
6.87321 2.48761 7.979 
7.01539 2.40873 7.726 
2.97355 0.944974 3.031 
-3.17719 1.70605 5.445 
-0.113069 0.180161 0.575 
-0.0873178 0.182354 0.582 
-0.0426122 0.184547 0.589 
0.0688721 0.164495 0.525 
0.89514 0.923677 2.948 
1.08914 0.94091 3.003 
6.73609 3.87644 12.372 
2.73374 1.31439 4.195 
7.12174 2.56267 8.179 
7.08741 2.42074 7.726 
2.97414 0.936523 2.989 
-3.23536 1.77906 5.65 
-0.100736 0.181369 0.576 
-0.0716518 0.184833 0.587 
0.0698205 0.165625 0.526 
0.902695 0.955652 3.035 
1.07657 0.946835 3.007 
7.4523 4.3346 13.766 
2.25951 1.12946 3.587 
7.12099 2.88963 9.177 
6.9104 2.5124 7.979 
7.02402 2.42329 7.696 
2.97414 0.941167 2.989 
-3.20423 1.74227 5.506 
-0.106815 0.181948 0.575 
-0.0814056 0.185112 0.585 
0.0625841 0.166759 0.527 
0.870481 0.977138 3.088 
0.945757 0.911004 2.879 
10.9478 6.87256 21.719 
6.80867 3.79464 11.992 
7.30818 3.20481 10.128 
7.1849 2.95958 9.353 
7.02804 2.60992 8.248 
6.99908 2.46436 7.788 
2.95487 0.947077 2.993 
-3.11543 1.67546 5.269 
-0.110388 0.182841 0.575 
-0.0850412 0.186021 0.585 
0.0650405 0.167578 0.527 
0.882365 0.989885 3.113 
0.95155 0.916749 2.883 
5.50446 3.81327 11.992 
6.62236 3.81327 11.992 
4.8572 2.57917 8.111 
7.33965 3.22055 10.128 
7.24867 2.98842 9.398 
6.92391 2.57917 8.111 
6.98328 2.4666 7.757 
2.96882 0.951727 2.993 
-3.11409 1.6568 5.185 
-0.104316 0.184054 0.576 
-0.0362064 0.188208 0.589 
0.0740471 0.168397 0.527 
0.912181 0.985136 3.083 
1.10975 0.965324 3.021 
8.23689 4.91833 15.392 
5.07188 2.76368 8.649 
7.07186 3.39477 10.624 
7.64967 3.43184 10.74 
7.16601 3.0174 9.443 
7.30061 2.78861 8.727 
7.40886 2.6806 8.389 
7.15555 2.45916 7.696 
-2.01829 0.929882 2.896 
-2.57924 1.5162 4.722 
-0.0964288 0.18527 0.577 
0.0591964 0.168894 0.526 
0.08435 0.170179 0.53 
0.946526 0.956853 2.98 
8.06974 4.82794 15.036 
4.79419 2.60437 8.111 
4.35533 2.17186 6.764 
7.79756 3.54614 11.044 
7.14195 3.04684 9.489 
7.25993 2.80217 8.727 
7.33902 2.6824 8.354 
7.20478 2.50066 7.788 
-2.37296 0.854688 2.649 
-1.82752 0.92212 2.858 
-0.100736 0.185844 0.576 
0.0584902 0.170034 0.527 
0.0836842 0.171325 0.531 
0.943425 1.00762 3.123 
12.4682 7.88352 24.434 
4.72264 2.58471 8.011 
7.24583 3.50393 10.86 
7.70919 3.48457 10.8 
7.28638 3.09159 9.582 
7.31417 2.81573 8.727 
7.45463 2.71861 8.426 
7.19544 2.49276 7.726 
-2.37708 0.858803 2.649 
-1.82033 0.918456 2.833 
-0.104135 0.186414 0.575 
-0.0780064 0.188035 0.58 
0.0642217 0.170853 0.527 
0.0892907 0.171826 0.53 
0.962113 0.991725 3.059 
4.63958 2.52486 7.788 
7.31712 3.58045 11.044 
8.01271 3.66313 11.299 
7.24172 3.10648 9.582 
7.25448 2.81664 8.688 
7.42845 2.7317 8.426 
7.22898 2.52486 7.788 
-2.38999 0.855752 2.627 
-1.80072 0.902009 2.769 
-1.50682 0.994849 3.054 
-0.0939019 0.188285 0.578 
-0.0635883 0.188937 0.58 
0.0777625 0.172649 0.53 
0.965916 1.02058 3.133 
3.5917 2.06071 6.326 
4.60108 2.43956 7.489 
7.42007 3.59761 11.044 
7.5914 3.4419 10.566 
7.47794 3.18391 9.774 
7.24192 2.76857 8.499 
7.08356 2.56758 7.882 
7.16168 2.4679 7.576 
-2.38336 0.869326 2.656 
-1.60554 1.014 3.098 
-0.110196 0.187874 0.574 
-0.0820853 0.188856 0.577 
0.0583792 0.172163 0.526 
0.0836842 0.1738 0.531 
4.35406 5.61232 17.147 
8.08471 5.20155 15.892 
4.01424 2.27674 6.956 
5.00891 2.62205 8.011 
7.43855 3.57419 10.92 
7.64842 3.43966 10.509 
7.53111 3.18305 9.725 
6.64139 2.51895 7.696 
6.94553 2.49931 7.636 
3.23991 1.08437 3.313 
-2.37458 0.879372 2.674 
-1.58255 1.03525 3.148 
-0.100736 0.189423 0.576 
-0.073374 0.19041 0.579 
0.0616481 0.17298 0.526 
0.0868204 0.174296 0.53 
4.42186 5.58996 16.998 
8.62911 5.49427 16.707 
4.08695 2.32899 7.082 
5.2553 2.77098 8.426 
7.50472 3.67337 11.17 
7.63307 3.49381 10.624 
7.51543 3.23039 9.823 
7.06649 2.71244 8.248 
6.97938 2.54077 7.726 
7.22549 2.50131 7.606 
-2.38749 0.877579 2.656 
-3.06612 1.72245 5.213 
-0.19773 0.190649 0.577 
-0.0894118 0.190979 0.578 
-0.0591845 0.19197 0.581 
0.07227 0.17578 0.532 
3.67426 5.12604 15.514 
0.978766 1.03849 3.143 
3.8224 2.27424 6.883 
4.82221 2.64694 8.011 
7.88931 3.96232 11.992 
8.19676 3.84436 11.635 
7.30447 3.21327 9.725 
7.92654 3.16602 9.582 
7.1746 2.64694 8.011 
7.11081 2.49363 7.547 
-2.40225 0.878054 2.645 
-1.77828 0.923202 2.781 
-1.57285 1.04835 3.158 
-0.107521 0.190549 0.574 
-0.0807667 0.190549 0.574 
0.0257122 0.193205 0.582 
0.073234 0.176939 0.533 
4.34263 5.64278 16.998 
2.63452 2.02168 6.09 
4.01306 2.41241 7.267 
5.11596 2.82139 8.499 
8.15259 4.13333 12.451 
8.01752 3.79472 11.431 
7.3109 3.24465 9.774 
7.97505 3.21245 9.677 
7.27152 2.73807 8.248 
7.06005 2.52494 7.606 
2.99205 0.998226 3.007 
-3.09906 1.76666 5.297 
-0.199177 0.192108 0.576 
-0.103242 0.191775 0.575 
-0.0761747 0.191108 0.573 
0.0257122 0.194109 0.582 
0.0724059 0.177767 0.533 
4.36904 5.66919 16.998 
2.64517 2.02481 6.071 
4.41206 2.55677 7.666 
7.75262 4.07463 12.217 
7.35681 3.60203 10.8 
7.81654 3.58202 10.74 
7.56905 3.25984 9.774 
8.24568 3.22748 9.677 
7.02328 2.59746 7.788 
7.13021 2.50741 7.518 
-2.39951 0.89599 2.674 
-1.65684 1.08095 3.226 
-0.186324 0.192668 0.575 
-0.0930039 0.193673 0.578 
-0.066406 0.194678 0.581 
0.0584902 0.176584 0.527 
3.40962 4.88807 14.588 
2.68904 2.05334 6.128 
4.9443 2.8478 8.499 
7.6478 4.06814 12.141 
7.4296 3.67979 10.982 
7.80986 3.61881 10.8 
7.5235 3.27502 9.774 
9.08471 3.5987 10.74 
7.14594 2.67356 7.979 
7.05617 2.50938 7.489 
-2.41395 0.897788 2.667 
-1.67706 1.08933 3.236 
-0.189004 0.193561 0.575 
-0.0989465 0.193898 0.576 
-0.0696552 0.194571 0.578 
0.0355975 0.195581 0.581 
0.0815151 0.179423 0.533 
2.67506 2.08912 6.206 
4.84389 2.84855 8.462 
7.5628 4.11259 12.217 
7.93388 4.01227 11.919 
8.04782 3.80357 11.299 
7.45438 3.3067 9.823 
9.71152 3.89345 11.566 
7.21375 2.73039 8.111 
7.03677 2.53077 7.518 
-2.43326 0.902946 2.67 
-1.6834 1.1018 3.258 
-0.189004 0.194455 0.575 
-0.0998414 0.194793 0.576 
-0.0728671 0.194455 0.575 
0.0320418 0.196822 0.582 
0.0782026 0.180251 0.533 
1.69024 1.44032 4.259 
5.49429 3.27259 9.677 
7.68831 4.21071 12.451 
8.11326 4.13157 12.217 
8.07718 3.84344 11.365 
7.40201 3.30539 9.774 
8.37459 3.44303 10.181 
6.32763 2.45757 7.267 
6.9232 2.55226 7.547 
2.96843 1.02165 3.021 
-3.17515 1.82438 5.37 
-0.202053 0.195008 0.574 
-0.113565 0.194669 0.573 
-0.0769305 0.194329 0.572 
0.0266621 0.198066 0.583 
0.074201 0.181419 0.534 
1.69074 1.45305 4.277 
5.97778 3.77311 11.106 
6.45704 3.73098 10.982 
8.2698 4.42744 13.032 
7.23692 3.60935 10.624 
7.94754 3.70991 10.92 
7.49394 3.28762 9.677 
8.37459 3.45885 10.181 
6.17814 2.41484 7.108 
6.91148 2.56399 7.547 
2.95959 1.02328 3.012 
-3.07483 1.81293 5.312 
-0.194918 0.1959 0.574 
-0.110895 0.195559 0.573 
-0.0743942 0.195559 0.573 
0.0293291 0.19863 0.582 
0.0775197 0.182249 0.534 
1.66377 1.45355 4.259 
4.77642 3.14669 9.22 
6.43503 3.87876 11.365 
7.7983 4.33199 12.693 
8.33573 4.304 12.611 
8.08856 3.90128 11.431 
7.4086 3.35249 9.823 
7.98657 3.40368 9.973 
9.30647 3.74804 10.982 
6.94336 2.6368 7.726 
7.13426 2.57571 7.547 
-2.44155 1.46977 4.287 
-0.194579 0.196449 0.573 
-0.111785 0.196449 0.573 
-0.0662917 0.198849 0.58 
0.0569767 0.189249 0.552 
1.16532 1.52668 4.453 
1.70348 1.46017 4.259 
3.89442 2.64881 7.726 
6.75278 4.11138 11.992 
7.9129 4.43811 12.945 
8.40509 4.38016 12.776 
7.86917 3.82956 11.17 
7.49074 3.41918 9.973 
7.94653 3.40203 9.923 
9.06884 3.66225 10.682 
6.98698 2.67006 7.788 
7.17822 2.60767 7.606 
-2.4199 1.46334 4.249 
-0.191908 0.197339 0.573 
-0.108413 0.197684 0.574 
0.0329461 0.200439 0.582 
1.11398 1.49262 4.334 
1.69024 1.46679 4.259 
3.98063 2.73658 7.946 
6.76559 4.2075 12.217 
7.91735 4.51814 13.119 
8.41571 4.45822 12.945 
7.48281 3.69882 10.74 
7.6883 3.5621 10.343 
7.98069 3.45223 10.024 
9.52244 3.89134 11.299 
6.9905 2.69284 7.819 
7.18281 2.62981 7.636 
-2.43222 1.4734 4.259 
-0.193689 0.19823 0.573 
-0.119588 0.197884 0.572 
-0.0769305 0.197884 0.572 
0.0694823 0.185429 0.536 
1.25142 1.56162 4.514 
3.80253 3.13085 9.05 
4.33694 3.0326 8.766 
7.06818 4.47833 12.945 
7.82435 4.50843 13.032 
8.37549 4.47833 12.945 
7.36897 3.67538 10.624 
7.77904 3.63559 10.509 
7.72909 3.39827 9.823 
8.90288 3.69544 10.682 
6.80879 2.66244 7.696 
7.25318 2.69426 7.788 
-2.08055 0.815592 2.347 
-0.191908 0.19912 0.573 
-0.125369 0.198077 0.57 
-0.0896298 0.197382 0.568 
0.0696119 0.18661 0.537 
1.25724 1.57593 4.535 
4.21037 3.34612 9.629 
4.1689 2.83042 8.145 
7.34663 4.55891 13.119 
7.889 4.43971 12.776 
8.06279 4.21905 12.141 
7.55054 3.69188 10.624 
7.40201 3.39651 9.774 
7.81819 3.37948 9.725 
8.35483 3.41353 9.823 
7.12462 2.75015 7.914 
7.52379 2.76127 7.946 
-0.201349 0.199661 0.572 
-0.164648 0.196171 0.562 
-0.113565 0.20001 0.573 
-0.0819751 0.198963 0.57 
0.0747568 0.187793 0.538 
1.25741 1.54004 4.412 
4.16324 3.4459 9.872 
4.43638 3.13 8.967 
7.18357 4.57929 13.119 
7.93002 4.61036 13.208 
8.48806 4.57929 13.119 
7.28921 3.66825 10.509 
7.82123 3.68815 10.566 
7.69054 3.41169 9.774 
8.62034 3.61031 10.343 
6.90546 2.72928 7.819 
7.66878 2.87903 8.248 
-6.60155 3.08713 8.805 
-0.185915 0.200199 0.571 
-0.149461 0.197745 0.564 
-0.0959759 0.199498 0.569 
0.0620099 0.193187 0.551 
1.19266 1.57915 4.504 
2.20185 2.12856 6.071 
4.39709 3.55099 10.128 
4.10563 2.85573 8.145 
7.03546 4.47941 12.776 
7.93002 4.63088 13.208 
8.54565 4.63088 13.208 
7.28921 3.68458 10.509 
7.86416 3.7249 10.624 
7.72909 3.44406 9.823 
8.52949 3.58816 10.234 
7.14587 2.83189 8.077 
7.84737 2.95425 8.426 
-6.40258 3.03249 8.611 
-0.193689 0.201791 0.573 
-0.164067 0.198269 0.563 
-0.120266 0.201086 0.571 
-0.0887473 0.20003 0.568 
0.0692899 0.190521 0.541 
1.26974 1.63123 4.632 
2.21892 2.11827 6.015 
4.41423 3.5301 10.024 
4.73398 3.391 9.629 
6.11719 4.00236 11.365 
7.69167 4.55878 12.945 
8.57955 4.71514 13.389 
7.50642 3.84564 10.92 
7.84071 3.76183 10.682 
7.51661 3.391 9.629 
8.24998 3.51214 9.973 
6.77839 2.73175 7.757 
7.34429 2.80993 7.979 
-6.70613 3.1573 8.926 
-0.203126 0.202327 0.572 
-0.174923 0.200559 0.567 
-0.12957 0.201266 0.569 
-0.0942078 0.201266 0.569 
0.0643438 0.194192 0.549 
1.17487 1.57865 4.463 
2.21472 2.18811 6.186 
4.26493 3.56407 10.076 
5.01407 3.73739 10.566 
4.71648 3.20116 9.05 
11.0594 6.77867 19.164 
8.29397 4.70375 13.298 
8.08797 4.26797 12.066 
7.53412 3.71723 10.509 
7.28027 3.37271 9.535 
8.03903 3.50995 9.923 
8.0132 3.30833 9.353 
7.26664 2.84532 8.044 
8.14411 3.03243 8.573 
-2.66801 1.52305 4.287 
-0.186241 0.203216 0.572 
-0.158185 0.20144 0.567 
-0.114456 0.203571 0.573 
0.0604072 0.19611 0.552 
1.13499 1.55005 4.363 
2.43438 2.52528 7.108 
1.89661 1.69785 4.779 
4.28778 3.38752 9.535 
4.61955 3.30688 9.308 
6.63272 4.34037 12.217 
8.3292 4.89068 13.766 
8.66586 4.72441 13.298 
7.14616 3.63586 10.234 
8.00009 3.81563 10.74 
8.10018 3.63586 10.234 
8.53277 3.61703 10.181 
7.51922 3.01946 8.499 
8.27485 3.1566 8.885 
-2.66368 1.49367 4.186 
-0.196359 0.204461 0.573 
-0.167283 0.201607 0.565 
-0.124265 0.203034 0.569 
-0.000434432 0.176629 0.495 
1.0587 1.49689 4.195 
2.53576 2.64194 7.404 
3.93224 3.40234 9.535 
4.1926 3.25925 9.134 
4.45199 3.14186 8.805 
6.91946 4.47103 12.53 
8.41917 4.87746 13.669 
8.40965 4.5292 12.693 
7.25747 3.65176 10.234 
7.65437 3.61394 10.128 
8.25482 3.67103 10.288 
8.29796 3.48762 9.774 
7.44955 2.96808 8.318 
8.11332 3.07263 8.611 
-2.66289 1.5034 4.195 
-0.20046 0.204993 0.572 
-0.168458 0.202843 0.566 
-0.122712 0.204277 0.57 
0.00110148 0.17704 0.494 
0.0811371 0.198184 0.553 
2.47447 2.84769 7.946 
1.97916 1.78724 4.987 
4.235 3.35193 9.353 
4.64847 3.3358 9.308 
6.84159 4.4905 12.53 
8.50891 5.0399 14.063 
8.97084 4.93346 13.766 
7.18387 3.68701 10.288 
8.13417 3.91351 10.92 
8.22999 3.72643 10.398 
8.53277 3.64867 10.181 
7.65193 3.09963 8.649 
8.5468 3.28885 9.177 
-3.22529 1.77663 4.936 
-0.204904 0.205882 0.572 
-0.171097 0.203722 0.566 
-0.12957 0.204802 0.569 
-0.0906717 0.204802 0.569 
0.0791315 0.198323 0.551 
2.53863 2.99393 8.318 
3.16167 3.05908 8.499 
4.24937 3.44888 9.582 
4.79008 3.51799 9.774 
5.40773 3.62669 10.076 
8.47777 5.13553 14.268 
8.94672 5.02539 13.962 
7.90374 4.13852 11.498 
7.92732 3.88728 10.8 
7.86554 3.62669 10.076 
8.51056 3.703 10.288 
7.6601 3.15518 8.766 
7.65632 2.99393 8.318 
-3.26475 1.79334 4.961 
-0.208823 0.207132 0.573 
-0.181162 0.206048 0.57 
-0.135519 0.205325 0.568 
-0.110196 0.207494 0.574 
0.0670245 0.198818 0.55 
1.2361 1.63935 4.535 
2.93576 3.11277 8.611 
4.18475 3.58704 9.923 
4.48756 3.46377 9.582 
4.68186 3.28664 9.092 
7.24156 4.64873 12.86 
8.81028 5.1577 14.268 
8.89158 4.83995 13.389 
7.27337 3.69946 10.234 
7.71024 3.6803 10.181 
8.31501 3.73886 10.343 
8.57001 3.64235 10.076 
7.39967 2.98155 8.248 
8.30979 3.1829 8.805 
-0.226724 0.207296 0.571 
-0.20011 0.207296 0.571 
-0.168458 0.205481 0.566 
-0.130454 0.20657 0.569 
-0.0933238 0.20657 0.569 
0.0678791 0.199673 0.55 
1.18567 1.63514 4.504 
2.93308 3.2111 8.845 
3.60087 3.4282 9.443 
4.38171 3.51315 9.677 
4.78531 3.47866 9.582 
7.00947 4.60808 12.693 
8.67728 5.17987 14.268 
9.20809 5.10545 14.063 
7.17797 3.71536 10.234 
8.1681 3.96441 10.92 
8.2186 3.75493 10.343 
8.56441 3.69612 10.181 
7.6788 3.13994 8.649 
8.78183 3.41186 9.398 
-0.305672 0.210007 0.576 
-0.208459 0.208548 0.572 
-0.18148 0.208184 0.571 
-0.152823 0.207819 0.57 
-0.114456 0.208913 0.573 
-0.0868292 0.206725 0.567 
0.0711675 0.200162 0.549 
1.20233 1.64578 4.514 
3.15893 3.39365 9.308 
3.61014 3.41005 9.353 
4.38833 3.54568 9.725 
4.79382 3.51068 9.629 
7.08171 4.68869 12.86 
8.82656 5.31871 14.588 
9.3664 5.24032 14.373 
7.33819 3.83153 10.509 
8.18035 4.00398 10.982 
8.10018 3.73126 10.234 
8.48835 3.69261 10.128 
7.68643 3.1676 8.688 
8.79453 3.44287 9.443 
-23.6701 10.2247 27.925 
-0.224063 0.209071 0.571 
-0.197448 0.209071 0.571 
-0.168458 0.20724 0.566 
-0.133754 0.207972 0.568 
-0.108035 0.209437 0.572 
-0.0716985 0.212366 0.58 
0.0747152 0.201382 0.55 
1.35384 2.20897 6.033 
2.66643 3.0588 8.354 
3.38868 3.392 9.264 
4.14258 3.59668 9.823 
4.53205 3.54322 9.677 
4.86261 3.45754 9.443 
9.66303 6.06561 16.566 
8.98763 5.2242 14.268 
8.99643 4.86904 13.298 
7.40057 3.74716 10.234 
7.75596 3.68931 10.076 
8.39867 3.76693 10.288 
8.18869 3.47438 9.489 
7.53402 3.03281 8.283 
8.77493 3.36014 9.177 
-0.301198 0.211796 0.576 
-0.21253 0.209958 0.571 
-0.186567 0.210693 0.573 
-0.158464 0.208855 0.568 
-0.127801 0.209222 0.569 
-0.100573 0.20959 0.57 
0.0589046 0.203707 0.554 
0.0844209 0.202972 0.552 
1.32711 2.10178 5.716 
2.75192 3.28211 8.926 
3.35146 3.47221 9.443 
3.547 3.22328 8.766 
4.47768 3.64871 9.923 
4.84162 3.5759 9.725 
7.25742 4.79189 13.032 
8.94119 5.32433 14.48 
9.20636 5.09745 13.863 
7.42901 3.84359 10.453 
8.00181 3.88514 10.566 
8.22739 3.76306 10.234 
8.57001 3.70497 10.076 
7.52617 3.08465 8.389 
8.62028 3.35859 9.134 
-23.8003 10.3115 27.925 
-0.235655 0.210106 0.569 
-0.204187 0.210476 0.57 
-0.175494 0.208999 0.566 
-0.149902 0.210106 0.569 
-0.121827 0.210476 0.57 
-0.0379409 0.222292 0.602 
0.0681259 0.203829 0.552 
0.0933447 0.202721 0.549 
1.21973 1.79569 4.863 
2.75954 3.20809 8.688 
3.39031 3.43703 9.308 
3.68406 3.31112 8.967 
4.4936 3.6272 9.823 
4.85366 3.55556 9.629 
7.32625 4.84426 13.119 
8.84923 5.3867 14.588 
9.60038 5.42695 14.697 
7.47559 3.94439 10.682 
8.24369 4.07806 11.044 
7.829 3.64529 9.872 
8.24799 3.6272 9.823 
7.80362 3.2513 8.805 
8.89503 3.52085 9.535 
-18.9679 7.24821 19.547 
-0.298513 0.213586 0.576 
-0.227698 0.210991 0.569 
-0.201177 0.210991 0.569 
-0.169917 0.209507 0.565 
-0.143836 0.209878 0.566 
-0.117605 0.211732 0.571 
-0.032329 0.223227 0.602 
0.0705707 0.204316 0.551 
0.109526 0.208395 0.562 
1.21516 1.8077 4.875 
2.90198 3.3714 9.092 
3.42123 3.46818 9.353 
3.76686 3.38697 9.134 
4.55476 3.67954 9.923 
4.89289 3.58832 9.677 
7.49654 5.03374 13.575 
9.21737 5.7075 15.392 
9.48621 5.44979 14.697 
8.00439 4.28878 11.566 
8.0663 4.04924 10.92 
7.45155 3.51861 9.489 
8.13092 3.62429 9.774 
7.70096 3.25051 8.766 
8.86444 3.5531 9.582 
-21.3455 8.08735 21.719 
-0.301568 0.214109 0.575 
-0.23035 0.211875 0.569 
-0.203829 0.211875 0.569 
-0.163182 0.210757 0.566 
-0.135921 0.210757 0.566 
-0.110508 0.212619 0.571 
0.0580439 0.206289 0.554 
0.0834118 0.205172 0.551 
1.32922 2.31796 6.225 
1.22805 1.73707 4.665 
3.05795 3.48271 9.353 
3.5107 3.49947 9.398 
4.06597 3.60336 9.677 
4.63185 3.69496 9.923 
4.96807 3.60336 9.677 
7.36702 4.88503 13.119 
8.87189 5.43203 14.588 
9.48113 5.39182 14.48 
7.57495 4.02152 10.8 
8.30723 4.13546 11.106 
7.36122 3.44957 9.264 
8.22204 3.63948 9.774 
7.92473 3.32371 8.926 
8.86686 3.53335 9.489 
-20.0942 7.69371 20.576 
-0.328045 0.215376 0.576 
-0.300675 0.215002 0.575 
-0.232118 0.212759 0.569 
-0.205597 0.212759 0.569 
-0.154934 0.212385 0.568 
-0.128459 0.212385 0.568 
0.0493473 0.206776 0.553 
0.0748511 0.206028 0.551 
0.10641 0.210889 0.564 
1.25025 1.92343 5.144 
2.91075 3.5481 9.489 
3.45375 3.65466 9.774 
3.68773 3.44751 9.22 
4.59443 3.84685 10.288 
4.94375 3.74814 10.024 
5.82986 4.0383 10.8 
8.9551 5.71008 15.271 
9.59219 5.66596 15.153 
8.97659 4.93869 13.208 
7.55148 3.88799 10.398 
7.09247 3.43143 9.177 
8.04959 3.67298 9.823 
8.06142 3.48042 9.308 
8.70244 3.5653 9.535 
8.97228 3.49724 9.353 
-10.2996 4.4482 11.847 
-0.316411 0.216271 0.576 
-0.288559 0.21552 0.574 
-0.227698 0.213643 0.569 
-0.200823 0.213267 0.568 
-0.153169 0.213267 0.568 
-0.126694 0.213267 0.568 
0.052784 0.207635 0.553 
0.0782754 0.206884 0.551 
0.109721 0.21139 0.563 
1.22115 1.83943 4.899 
3.0436 3.63343 9.677 
3.47731 3.6154 9.629 
3.75936 3.46184 9.22 
4.67435 3.86284 10.288 
5.07372 3.80276 10.128 
7.13593 4.89313 13.032 
9.36666 5.91892 15.764 
9.86305 5.77924 15.392 
8.61314 4.70464 12.53 
7.71373 3.94582 10.509 
6.81249 3.27673 8.727 
8.00512 3.63343 9.677 
7.6601 3.29137 8.766 
8.9965 3.66985 9.774 
9.00142 3.49488 9.308 
-17.7227 6.9527 18.441 
-0.329263 0.216789 0.575 
-0.301936 0.216412 0.574 
-0.243183 0.21415 0.568 
-0.21709 0.214527 0.569 
-0.16874 0.212642 0.564 
-0.141826 0.213019 0.565 
-0.115628 0.214904 0.57 
0.064069 0.208871 0.554 
0.0895666 0.208117 0.552 
1.31257 2.31757 6.147 
2.66994 3.77929 10.024 
3.11793 3.61264 9.582 
3.52995 3.57758 9.489 
4.07103 3.66656 9.725 
4.78624 3.87882 10.288 
5.10978 3.74121 9.923 
7.43752 4.97973 13.208 
8.69944 5.37938 14.268 
8.97292 5.1181 13.575 
8.23291 4.38667 11.635 
8.37625 4.18723 11.106 
7.32343 3.4279 9.092 
8.37009 3.70351 9.823 
8.44599 3.54327 9.398 
8.88404 3.54327 9.398 
9.23281 3.50934 9.308 
-12.549 5.56396 14.697 
-0.313182 0.217682 0.575 
-0.284887 0.216546 0.572 
-0.227698 0.215411 0.569 
-0.200823 0.215032 0.568 
-0.155542 0.214654 0.567 
-0.129114 0.214654 0.567 
0.051158 0.209732 0.554 
0.0774193 0.208596 0.551 
0.108238 0.215411 0.569 
1.27582 2.00003 5.283 
3.25048 4.18101 11.044 
3.31556 3.68167 9.725 
3.76884 3.68167 9.725 
4.35194 3.79486 10.024 
4.89464 3.8543 10.181 
6.63272 4.62508 12.217 
9.07388 5.82707 15.392 
10.1921 6.06557 16.022 
9.01763 5.00025 13.208 
7.74862 4.02201 10.624 
6.50264 3.12251 8.248 
8.04022 3.64533 9.629 
8.06682 3.45793 9.134 
8.77986 3.57491 9.443 
9.08819 3.5238 9.308 
-10.5087 4.58667 12.066 
-0.322776 0.217815 0.573 
-0.296585 0.218195 0.574 
-0.23877 0.215915 0.568 
-0.212296 0.215915 0.568 
-0.170492 0.214394 0.564 
-0.138946 0.214394 0.564 
-0.109237 0.216295 0.569 
0.0700942 0.210593 0.554 
0.113948 0.212113 0.558 
2.75014 3.9948 10.509 
3.12213 3.8302 10.076 
3.6292 3.87012 10.181 
3.8623 3.64242 9.582 
4.85664 4.10542 10.8 
5.24389 4.01647 10.566 
7.06818 4.9208 12.945 
9.12171 5.85098 15.392 
9.98944 5.89736 15.514 
8.54297 4.70299 12.372 
8.00511 4.12823 10.86 
6.44675 3.09617 8.145 
8.1254 3.67853 9.677 
8.22481 3.52154 9.264 
8.86686 3.60707 9.489 
9.04524 3.50481 9.22 
-10.7667 4.75236 12.451 
-0.321886 0.218706 0.573 
-0.295693 0.219087 0.574 
-0.241418 0.216797 0.568 
-0.214943 0.216797 0.568 
-0.177252 0.216034 0.566 
-0.151137 0.216415 0.567 
-0.124929 0.216797 0.568 
0.0624601 0.211835 0.555 
0.113948 0.21298 0.558 
2.84396 4.0993 10.74 
3.20212 3.88594 10.181 
3.69579 3.90617 10.234 
3.88779 3.63937 9.535 
5.01784 4.21533 11.044 
5.56366 4.23899 11.106 
7.37302 5.11038 13.389 
9.26632 5.92146 15.514 
10.0693 5.96879 15.638 
8.54297 4.72221 12.372 
8.04934 4.168 10.92 
6.35313 3.05768 8.011 
8.1254 3.69357 9.677 
8.30383 3.5699 9.353 
8.86686 3.62181 9.489 
9.04524 3.51914 9.22 
-10.8544 4.80198 12.53 
-0.372144 0.220362 0.575 
-0.312637 0.219979 0.574 
-0.284389 0.218829 0.571 
-0.237005 0.21768 0.568 
-0.210531 0.21768 0.568 
-0.175183 0.21653 0.565 
-0.149112 0.216913 0.566 
-0.123381 0.218063 0.569 
0.0624601 0.212698 0.555 
1.30041 2.14652 5.601 
3.51086 4.5958 11.992 
3.28416 3.7086 9.677 
3.7352 3.7086 9.677 
4.53047 3.98492 10.398 
5.09615 4.0493 10.566 
6.91087 4.86445 12.693 
9.0978 5.89881 15.392 
10.3018 6.19122 16.155 
8.91772 4.99437 13.032 
7.98147 4.18497 10.92 
6.13998 2.98466 7.788 
8.0803 3.7086 9.677 
8.18163 3.55032 9.264 
8.82263 3.63655 9.489 
9.13213 3.58443 9.353 
-11.0154 4.88417 12.693 
-0.378161 0.22164 0.576 
-0.318658 0.220101 0.572 
-0.292507 0.220486 0.573 
-0.258185 0.218562 0.568 
-0.23171 0.218562 0.568 
-0.204874 0.218177 0.567 
-0.171368 0.217023 0.564 
-0.145337 0.217408 0.565 
-0.115313 0.289749 0.753 
0.109189 0.220871 0.574 
2.94088 4.27351 11.106 
3.27262 4.04378 10.509 
3.68333 3.95874 10.288 
3.89207 3.68708 9.582 
5.08671 4.32276 11.234 
6.1535 4.45051 11.566 
8.13747 5.41134 14.063 
8.98678 5.53062 14.373 
8.36538 4.79105 12.451 
8.11804 4.34777 11.299 
6.12875 3.05756 7.946 
7.04302 3.31345 8.611 
8.00891 3.56472 9.264 
8.87585 3.74211 9.725 
8.97228 3.59896 9.353 
-19.1293 7.6284 19.745 
-0.426908 0.223694 0.579 
-0.328117 0.221376 0.573 
-0.300884 0.22099 0.572 
-0.268775 0.219445 0.568 
-0.241874 0.219058 0.567 
-0.215826 0.219445 0.568 
-0.185494 0.219058 0.567 
-0.157944 0.217513 0.563 
-0.131936 0.217899 0.564 
0.0599811 0.214808 0.556 
1.28063 2.14538 5.553 
3.61749 4.90389 12.693 
3.16138 3.66604 9.489 
3.63899 3.70197 9.582 
4.18836 3.79508 9.823 
4.81555 3.93339 10.181 
6.35822 4.57704 11.847 
8.32259 5.51239 14.268 
9.5451 5.8543 15.153 
8.83673 5.03486 13.032 
8.09478 4.31549 11.17 
6.05509 3.02084 7.819 
7.29474 3.43269 8.885 
7.78002 3.46437 8.967 
8.89096 3.75722 9.725 
8.98681 3.6135 9.353 
-11.234 5.02136 12.945 
-0.379951 0.22343 0.576 
-0.321324 0.221879 0.572 
-0.294663 0.221879 0.572 
-0.266127 0.220327 0.568 
-0.239231 0.219939 0.567 
-0.212803 0.219939 0.567 
-0.186046 0.219551 0.566 
-0.158818 0.218388 0.563 
-0.132812 0.218775 0.564 
0.0591173 0.215672 0.556 
1.2718 2.08302 5.37 
3.95322 5.26574 13.575 
3.25291 3.73509 9.629 
3.66558 3.69862 9.535 
4.38846 3.94921 10.181 
4.99292 4.05472 10.453 
6.04615 4.43408 11.431 
8.03564 5.41586 13.962 
8.50412 5.3022 13.669 
8.56742 4.92361 12.693 
8.06007 4.33284 11.17 
6.14109 3.08225 7.946 
7.18342 3.40033 8.766 
7.83797 3.51049 9.05 
8.87585 3.77233 9.725 
8.8869 3.5935 9.264 
-11.0675 4.97566 12.776 
-0.379056 0.224325 0.576 
-0.321324 0.222767 0.572 
-0.294148 0.222378 0.571 
-0.266127 0.22121 0.568 
-0.239231 0.22082 0.567 
-0.213178 0.22121 0.568 
-0.186046 0.220431 0.566 
-0.158818 0.219262 0.563 
-0.132812 0.219652 0.564 
-0.101677 0.294427 0.756 
1.26274 2.06294 5.297 
4.13287 5.55672 14.268 
3.23795 3.75005 9.629 
3.63315 3.69552 9.489 
4.28331 3.88402 9.973 
5.00335 4.09277 10.509 
5.85604 4.3502 11.17 
7.97056 5.43755 13.962 
8.04707 5.07536 13.032 
7.96384 4.67033 11.992 
8.02536 4.3502 11.17 
8.40216 4.27698 10.982 
7.02964 3.35358 8.611 
8.03249 3.62503 9.308 
8.75832 3.75005 9.629 
8.77493 3.57401 9.177 
-11.3095 5.0956 13.032 
-0.378398 0.224829 0.575 
-0.320762 0.223265 0.571 
-0.293632 0.222874 0.57 
-0.266127 0.222092 0.568 
-0.239231 0.221701 0.567 
-0.213178 0.222092 0.568 
-0.186046 0.22131 0.566 
-0.153843 0.220528 0.564 
-0.127555 0.220528 0.564 
-0.102988 0.295992 0.757 
3.12293 4.86843 12.451 
4.22643 5.49873 14.063 
3.51094 3.91946 10.024 
3.80275 3.74663 9.582 
5.12922 4.52239 11.566 
5.63499 4.4958 11.498 
6.32011 4.6045 11.776 
8.1441 5.45924 13.962 
9.25786 5.74663 14.697 
9.33237 5.34468 13.669 
8.24093 4.41799 11.299 
5.97286 2.974 7.606 
8.0103 3.76501 9.629 
7.87754 3.50616 8.967 
8.99673 3.80254 9.725 
9.13226 3.67469 9.398 
-10.1029 4.67893 11.919 
-0.367422 0.226115 0.576 
-0.309573 0.22376 0.57 
-0.283005 0.22376 0.57 
-0.255088 0.222582 0.567 
-0.228256 0.222189 0.566 
-0.201518 0.221797 0.565 
-0.175183 0.221797 0.565 
-0.136076 0.221012 0.563 
-0.112545 0.297561 0.758 
1.27758 2.13161 5.43 
4.54171 6.18833 15.764 
3.22299 3.77997 9.629 
3.61841 3.72501 9.489 
4.18266 3.83689 9.774 
4.98702 4.12542 10.509 
5.78798 4.35978 11.106 
8.04243 5.56062 14.165 
8.06003 5.15001 13.119 
8.28219 4.91879 12.53 
7.99065 4.3849 11.17 
8.71017 4.48736 11.431 
7.4917 3.60253 9.177 
8.11016 3.68929 9.398 
8.75832 3.77997 9.629 
8.73381 3.58565 9.134 
-10.3138 4.72622 11.992 
-0.374824 0.226616 0.575 
-0.318429 0.224645 0.57 
-0.290837 0.223857 0.568 
-0.264362 0.223857 0.568 
-0.23705 0.223069 0.566 
-0.211041 0.223463 0.567 
-0.183962 0.222675 0.565 
-0.143948 0.221886 0.563 
-0.111692 0.223857 0.568 
0.108653 0.221492 0.562 
3.46528 5.06831 12.86 
3.18109 3.87139 9.823 
3.63894 3.87139 9.823 
4.09679 3.87139 9.823 
4.95294 4.20993 10.682 
5.79935 4.47911 11.365 
7.61216 5.38715 13.669 
8.93727 5.83644 14.809 
9.20885 5.58263 14.165 
8.58461 4.84524 12.294 
8.61536 4.55833 11.566 
7.02501 3.42407 8.688 
7.88493 3.63374 9.22 
8.4752 3.70389 9.398 
8.74442 3.63374 9.22 
8.92243 3.53402 8.967 
-0.413063 0.227905 0.576 
-0.324311 0.225927 0.571 
-0.295611 0.224344 0.567 
-0.269183 0.224344 0.567 
-0.242327 0.223948 0.566 
-0.21709 0.225135 0.569 
-0.189229 0.223553 0.565 
-0.147709 0.223157 0.564 
-0.111692 0.22474 0.568 
0.0607355 0.219596 0.555 
3.4453 5.08829 12.86 
3.23171 3.98675 10.076 
3.70136 3.98675 10.076 
4.14948 3.96618 10.024 
5.00173 4.29696 10.86 
5.90098 4.6036 11.635 
7.46557 5.334 13.481 
9.02754 5.94927 15.036 
9.16483 5.60464 14.165 
9.16128 5.22599 13.208 
8.51112 4.54939 11.498 
6.84578 3.36278 8.499 
7.81964 3.63105 9.177 
8.28602 3.64806 9.22 
8.79896 3.68288 9.308 
8.89456 3.54796 8.967 
-0.419327 0.2288 0.576 
-0.363842 0.2288 0.576 
-0.307262 0.226019 0.569 
-0.280247 0.225622 0.568 
-0.253326 0.225225 0.567 
-0.226097 0.22443 0.565 
-0.199056 0.223636 0.563 
-0.155917 0.223239 0.562 
-0.129953 0.223636 0.563 
-0.00308504 0.221253 0.557 
3.18767 5.1766 13.032 
5.67014 7.61236 19.164 
3.31423 3.84392 9.677 
3.72831 3.80618 9.582 
4.70562 4.29 10.8 
5.41834 4.46239 11.234 
6.11756 4.59427 11.566 
8.21175 5.66756 14.268 
8.27331 5.28226 13.298 
8.43369 5.00937 12.611 
8.24316 4.56726 11.498 
8.77908 4.56726 11.498 
8.22404 3.94163 9.923 
7.81378 3.5456 8.926 
9.24219 3.98175 10.024 
9.1912 3.76924 9.489 
-10.0014 4.61224 11.566 
-0.412168 0.229695 0.576 
-0.330827 0.227302 0.57 
-0.303726 0.226903 0.569 
-0.276717 0.226505 0.568 
-0.249802 0.226106 0.567 
-0.22298 0.225707 0.566 
-0.195209 0.224112 0.562 
-0.155917 0.224112 0.562 
-0.136395 0.316628 0.794 
0.0590109 0.22132 0.555 
3.3831 5.09476 12.776 
3.49304 4.4288 11.106 
3.81569 4.21346 10.566 
4.06638 3.97699 9.973 
5.10416 4.47984 11.234 
5.86374 4.66767 11.705 
6.8178 4.96515 12.451 
8.86636 5.95053 14.922 
9.01144 5.60798 14.063 
9.59749 5.5677 13.962 
8.34204 4.53208 11.365 
7.97328 3.91717 9.823 
7.91358 3.67671 9.22 
8.71343 3.83981 9.629 
8.77307 3.67671 9.22 
-16.5058 6.86445 17.147 
-9.07052 4.32356 10.8 
-0.376848 0.229789 0.574 
-0.323175 0.227787 0.569 
-0.294047 0.225786 0.564 
-0.269183 0.226987 0.567 
-0.242327 0.226586 0.566 
-0.216708 0.227387 0.568 
-0.188559 0.225385 0.563 
-0.152424 0.224985 0.562 
-0.129735 0.31666 0.791 
0.0607355 0.222183 0.555 
3.44796 5.18226 12.945 
3.55076 4.4973 11.234 
3.81143 4.20706 10.509 
4.12404 4.03372 10.076 
5.06326 4.44606 11.106 
5.81207 4.63021 11.566 
6.97003 5.08138 12.693 
8.88955 5.97371 14.922 
8.90482 5.54976 13.863 
9.30874 5.39684 13.481 
8.41267 4.54974 11.365 
8.49178 4.1406 10.343 
8.15396 3.76229 9.398 
9.40568 4.11859 10.288 
8.98681 3.74428 9.353 
-15.1742 6.38672 15.892 
-0.424697 0.231485 0.576 
-0.375064 0.230681 0.574 
-0.325827 0.228671 0.569 
-0.297201 0.227064 0.565 
-0.271825 0.227868 0.567 
-0.244965 0.227466 0.566 
-0.218583 0.227466 0.566 
-0.191183 0.22626 0.563 
-0.157102 0.225054 0.56 
-0.131468 0.225858 0.562 
-0.00652312 0.223045 0.555 
3.22307 5.1011 12.693 
5.54218 7.41112 18.441 
3.5135 4.04937 10.076 
3.80644 3.86973 9.629 
4.90797 4.46331 11.106 
5.79251 4.67591 11.635 
6.61032 4.87926 12.141 
8.49549 5.77626 14.373 
8.90334 5.61109 13.962 
9.18281 5.38081 13.389 
8.25097 4.48903 11.17 
8.10528 4.02847 10.024 
7.81138 3.6708 9.134 
8.59874 3.83195 9.535 
8.82788 3.74073 9.308 
8.88163 3.58721 8.926 
-8.93966 4.26271 10.566 
-0.383982 0.231573 0.574 
-0.353317 0.230766 0.572 
-0.316429 0.229152 0.568 
-0.288423 0.227942 0.565 
-0.262552 0.228345 0.566 
-0.235754 0.227942 0.565 
-0.208677 0.227135 0.563 
-0.182112 0.226731 0.562 
-0.154492 0.225924 0.56 
-0.128849 0.226731 0.562 
-0.00652312 0.223907 0.555 
3.26548 5.18819 12.86 
5.49049 7.37038 18.269 
3.46209 4.02347 9.973 
3.81038 3.90406 9.677 
4.85317 4.43054 10.982 
5.76199 4.61168 11.431 
7.12852 5.22249 12.945 
8.84523 5.97449 14.809 
8.80144 5.51457 13.669 
8.59752 5.02319 12.451 
8.1172 4.40553 10.92 
8.53694 4.19493 10.398 
8.15396 3.7915 9.398 
9.65984 4.26271 10.566 
9.03005 3.7915 9.398 
-14.9317 6.33324 15.638 
-0.421279 0.232869 0.575 
-0.374172 0.232464 0.574 
-0.343226 0.230844 0.57 
-0.315547 0.230034 0.568 
-0.287545 0.228819 0.565 
-0.261673 0.229224 0.566 
-0.23446 0.228414 0.564 
-0.207434 0.227605 0.562 
-0.180916 0.2272 0.561 
-0.154216 0.22639 0.559 
-0.129078 0.22801 0.563 
-0.00909358 0.224365 0.554 
0.0910795 0.225175 0.556 
5.71558 8.07794 19.946 
3.4459 4.18881 10.343 
3.82659 4.08068 10.076 
4.10565 3.89965 9.629 
5.7941 4.68412 11.566 
6.86105 5.07453 12.53 
8.79922 5.9975 14.809 
8.82113 5.5751 13.766 
8.34574 4.91699 12.141 
7.71373 4.25604 10.509 
8.51378 4.25604 10.509 
7.89925 3.73401 9.22 
8.96406 4.01872 9.923 
8.84234 3.76965 9.308 
-15.0061 6.30712 15.514 
-0.425746 0.233763 0.575 
-0.378862 0.23295 0.573 
-0.350925 0.232137 0.571 
-0.322607 0.230917 0.568 
-0.293525 0.228884 0.563 
-0.268708 0.230104 0.566 
-0.242327 0.230104 0.566 
-0.215182 0.229291 0.564 
-0.188224 0.228478 0.562 
-0.161164 0.227258 0.559 
-0.135592 0.228071 0.561 
-0.0158353 0.223193 0.549 
0.0151696 0.227665 0.56 
3.62463 5.40622 13.298 
3.8276 4.87527 11.992 
3.78337 4.20488 10.343 
4.07122 4.0134 9.872 
5.8558 4.93585 12.141 
6.34288 4.87527 11.992 
8.39592 5.93066 14.588 
8.32992 5.44322 13.389 
9.01551 5.48062 13.481 
7.95199 4.48987 11.044 
8.37169 4.43946 10.92 
7.756 3.74833 9.22 
7.64506 3.50075 8.611 
9.17896 3.99348 9.823 
9.40038 3.8955 9.582 
-8.87653 4.26584 10.453 
-0.386874 0.23384 0.573 
-0.360167 0.23384 0.573 
-0.330549 0.231799 0.568 
-0.301933 0.230167 0.564 
-0.275645 0.230167 0.564 
-0.251125 0.231799 0.568 
-0.222673 0.229759 0.563 
-0.196082 0.229351 0.562 
-0.168981 0.228127 0.559 
-0.143437 0.228943 0.561 
-0.0387741 0.228535 0.56 
0.00471199 0.227718 0.558 
3.57358 5.53993 13.575 
4.73184 6.23206 15.271 
3.72271 4.2434 10.398 
3.87718 3.91039 9.582 
5.81807 4.95471 12.141 
6.30562 4.89391 11.992 
8.54179 6.08963 14.922 
8.28832 5.46402 13.389 
9.16333 5.61787 13.766 
7.77788 4.45643 10.92 
7.97497 4.2887 10.509 
8.60414 4.3593 10.682 
7.81964 3.74511 9.177 
8.32557 3.78062 9.264 
8.92658 3.85367 9.443 
9.10286 3.74511 9.177 
-0.418763 0.23514 0.574 
-0.379752 0.23473 0.573 
-0.351812 0.233911 0.571 
-0.32292 0.232272 0.567 
-0.2944 0.230634 0.563 
-0.269111 0.231453 0.565 
-0.243636 0.232272 0.567 
-0.215675 0.230634 0.563 
-0.189097 0.230224 0.562 
-0.162033 0.228995 0.559 
-0.136464 0.229814 0.561 
-0.0158353 0.224899 0.549 
0.0108193 0.229405 0.56 
3.57237 5.33858 13.032 
3.74981 4.76629 11.635 
3.75574 4.17066 10.181 
4.02087 3.9642 9.677 
5.89245 5.00471 12.217 
6.34288 4.91254 11.992 
8.56913 6.06653 14.809 
8.5466 5.59952 13.669 
8.38473 5.10057 12.451 
7.62424 4.32838 10.566 
8.38866 4.47339 10.92 
8.79987 4.42423 10.8 
8.0568 3.83147 9.353 
9.6995 4.37589 10.682 
8.92869 3.83147 9.353 
-13.9385 5.95425 14.48 
-0.433786 0.236443 0.575 
-0.40557 0.23562 0.573 
-0.375301 0.23562 0.573 
-0.34616 0.233976 0.569 
-0.318515 0.233153 0.567 
-0.290026 0.231508 0.563 
-0.264253 0.23192 0.564 
-0.237965 0.23192 0.564 
-0.210926 0.231097 0.562 
-0.184403 0.230686 0.561 
-0.157408 0.229452 0.558 
-0.132106 0.230686 0.561 
-0.0116336 0.226985 0.552 
0.0142995 0.230275 0.56 
3.56864 5.32305 12.945 
3.81813 4.87154 11.847 
3.7753 4.20827 10.234 
3.98139 3.94017 9.582 
5.7094 4.93117 11.992 
6.11834 4.81315 11.705 
8.54179 6.136 14.922 
8.34527 5.54345 13.481 
8.61683 5.32305 12.945 
7.69973 4.41634 10.74 
8.15604 4.39249 10.682 
8.99743 4.56684 11.106 
7.97465 3.8275 9.308 
9.00923 4.10095 9.973 
8.92784 3.8645 9.398 
-13.5808 5.80462 14.063 
-0.431999 0.237336 0.575 
-0.403084 0.236098 0.572 
-0.376423 0.236098 0.572 
-0.348539 0.235272 0.57 
-0.320277 0.234034 0.567 
-0.291776 0.232383 0.563 
-0.266006 0.232796 0.564 
-0.240143 0.233209 0.565 
-0.212673 0.23197 0.562 
-0.186146 0.231558 0.561 
-0.159142 0.230319 0.558 
-0.133849 0.231558 0.561 
-0.0124686 0.22743 0.551 
0.0185832 0.230319 0.558 
4.14296 6.06631 14.697 
3.60761 4.53292 10.982 
3.8389 4.22417 10.234 
4.00172 3.91667 9.489 
6.10331 5.37907 13.032 
6.02741 4.83134 11.705 
7.84041 5.76294 13.962 
8.61464 5.84673 14.165 
8.82701 5.5644 13.481 
7.15661 4.2023 10.181 
7.07798 3.89768 9.443 
9.04834 4.691 11.365 
7.80741 3.8238 9.264 
7.42987 3.44819 8.354 
9.05757 3.99427 9.677 
9.46145 3.97445 9.629 
-0.437491 0.237815 0.574 
-0.409305 0.236987 0.572 
-0.383313 0.237401 0.573 
-0.355983 0.236987 0.572 
-0.326443 0.234915 0.567 
-0.297899 0.233258 0.563 
-0.271657 0.233258 0.563 
-0.247595 0.235329 0.568 
-0.219174 0.233258 0.563 
-0.192247 0.232429 0.561 
-0.165507 0.231601 0.559 
-0.139701 0.232015 0.56 
-0.0183607 0.227043 0.548 
0.0889654 0.231601 0.559 
5.50285 7.78741 18.796 
3.54751 4.33081 10.453 
3.83016 4.11122 9.923 
4.24941 4.06979 9.823 
5.78393 4.96843 11.992 
6.26619 4.90836 11.847 
8.65376 6.2296 15.036 
8.32992 5.54723 13.389 
7.97091 4.93819 11.919 
7.60006 4.40165 10.624 
8.05105 4.37762 10.566 
8.49178 4.28523 10.343 
8.0377 3.83819 9.264 
9.50625 4.30802 10.398 
8.9013 3.83819 9.264 
-0.443613 0.239123 0.575 
-0.414638 0.237875 0.572 
-0.388655 0.238291 0.573 
-0.361947 0.238291 0.573 
-0.332314 0.236212 0.568 
-0.304224 0.234964 0.565 
-0.275922 0.233301 0.561 
-0.25289 0.236212 0.568 
-0.224422 0.234133 0.563 
-0.197477 0.233301 0.561 
-0.170718 0.232469 0.559 
-0.144662 0.232469 0.559 
-0.0404418 0.232469 0.559 
3.60248 5.72481 13.766 
4.98065 6.71831 16.155 
3.61338 4.23393 10.181 
3.84741 3.98483 9.582 
4.73499 4.39404 10.566 
5.75636 4.8386 11.635 
6.69765 5.14509 12.372 
8.57724 6.06665 14.588 
8.79713 5.76515 13.863 
7.35681 4.49135 10.8 
7.25832 4.14743 9.973 
8.68982 4.59282 11.044 
8.06526 4.02433 9.677 
7.68026 3.62926 8.727 
8.92288 4.00437 9.629 
9.14686 3.90831 9.398 
-0.433032 0.239599 0.574 
-0.404154 0.238347 0.571 
-0.378201 0.238764 0.572 
-0.349425 0.237929 0.57 
-0.320591 0.23626 0.566 
-0.292651 0.235007 0.563 
-0.265936 0.23459 0.562 
-0.240167 0.235007 0.563 
-0.213166 0.234172 0.561 
-0.187017 0.234172 0.561 
-0.160009 0.23292 0.558 
-0.134481 0.233755 0.56 
0.0134055 0.233338 0.559 
3.6166 5.47613 13.119 
3.93175 5.06789 12.141 
3.91419 4.41046 10.566 
3.93831 3.94169 9.443 
6.61567 5.95574 14.268 
6.1193 5.0057 11.992 
7.40555 5.55085 13.298 
9.21609 6.37442 15.271 
8.52883 5.47613 13.119 
7.32186 4.38666 10.509 
6.82157 3.83066 9.177 
9.4689 4.94517 11.847 
7.8362 3.86698 9.264 
7.32999 3.42827 8.213 
8.86789 3.94169 9.443 
9.39872 3.9801 9.535 
-0.420859 0.239653 0.572 
-0.394197 0.239653 0.572 
-0.362837 0.240072 0.573 
-0.333197 0.237977 0.568 
-0.305102 0.23672 0.565 
-0.276794 0.235044 0.561 
-0.252879 0.237139 0.566 
-0.224897 0.235463 0.562 
-0.197995 0.234625 0.56 
-0.171586 0.234206 0.559 
-0.145531 0.234206 0.559 
0.00471199 0.233787 0.558 
3.06866 5.93476 14.165 
5.3895 7.51345 17.933 
3.58449 4.28777 10.234 
3.8214 4.03429 9.629 
4.4915 4.24336 10.128 
5.63499 4.81736 11.498 
6.5568 5.1186 12.217 
8.70407 6.25192 14.922 
8.43393 5.60963 13.389 
7.51349 4.65312 11.106 
7.59943 4.40299 10.509 
8.30541 4.47547 10.682 
8.61457 4.37953 10.453 
8.02818 3.86293 9.22 
9.01108 4.11558 9.823 
8.80477 3.8269 9.134 
-0.425155 0.240962 0.573 
-0.397057 0.240121 0.571 
-0.347654 0.2397 0.57 
-0.317074 0.238018 0.566 
-0.289152 0.236757 0.563 
-0.262443 0.236336 0.562 
-0.235407 0.235495 0.56 
-0.209306 0.235495 0.56 
-0.183204 0.235495 0.56 
-0.15626 0.234234 0.557 
-0.131234 0.235916 0.561 
0.109292 0.232131 0.552 
5.34856 7.68261 18.269 
3.52625 4.34951 10.343 
3.84557 4.17289 9.923 
4.22213 4.08962 9.725 
5.56049 4.86382 11.566 
6.09959 4.86382 11.566 
8.69756 6.37225 15.153 
8.25265 5.59217 13.298 
7.9524 5.01226 11.919 
7.66636 4.51646 10.74 
8.2582 4.56692 10.86 
9.56093 4.98198 11.847 
7.8339 3.85918 9.177 
7.7863 3.63714 8.649 
8.85603 3.93319 9.353 
9.38139 3.97104 9.443 
-0.400789 0.240586 0.57 
-0.347654 0.240586 0.57 
-0.315636 0.238476 0.565 
-0.288277 0.237631 0.563 
-0.26157 0.237209 0.562 
-0.234119 0.235943 0.559 
-0.208063 0.235943 0.559 
-0.182008 0.235943 0.559 
-0.155395 0.235099 0.557 
-0.130363 0.236787 0.561 
0.111007 0.232989 0.552 
5.43372 7.71099 18.269 
3.52089 4.31957 10.234 
3.85649 4.16678 9.872 
4.27377 4.12542 9.774 
5.51683 4.79695 11.365 
6.26523 4.97042 11.776 
8.76819 6.39579 15.153 
8.14831 5.50056 13.032 
7.95958 5.00039 11.847 
7.71642 4.53315 10.74 
8.4496 4.66146 11.044 
9.29625 4.8248 11.431 
7.96574 3.91016 9.264 
8.39753 3.91016 9.264 
8.82933 3.91016 9.264 
-0.436466 0.24359 0.575 
-0.398133 0.241472 0.57 
-0.335551 0.241048 0.569 
-0.302468 0.239353 0.565 
-0.274179 0.237659 0.561 
-0.249357 0.23893 0.564 
-0.221486 0.237235 0.56 
-0.195036 0.236812 0.559 
-0.168074 0.235541 0.556 
-0.14267 0.236388 0.558 
0.0886471 0.235964 0.557 
4.59115 6.78747 16.022 
3.46197 4.38165 10.343 
3.96504 4.40495 10.398 
4.04101 4.00038 9.443 
5.60657 4.98872 11.776 
6.01014 4.87095 11.498 
8.18286 6.0889 14.373 
8.47892 5.83175 13.766 
8.24931 5.27467 12.451 
7.6163 4.54983 10.74 
7.65437 4.29057 10.128 
9.52412 5.0188 11.847 
7.84195 3.90591 9.22 
7.62486 3.60047 8.499 
8.82697 3.96225 9.353 
9.26291 3.96225 9.353 
-0.397434 0.241932 0.569 
-0.325868 0.240656 0.566 
-0.298428 0.239806 0.564 
-0.270692 0.238531 0.561 
-0.244108 0.238105 0.56 
-0.217617 0.23768 0.559 
-0.191219 0.237255 0.558 
-0.164322 0.235979 0.555 
-0.139202 0.237255 0.558 
0.106333 0.233853 0.55 
5.32018 7.76776 18.269 
3.47319 4.35137 10.234 
3.92974 4.32884 10.181 
4.12482 4.05417 9.535 
5.46386 4.83226 11.365 
6.13598 4.94706 11.635 
8.56497 6.34466 14.922 
8.25265 5.65415 13.298 
8.30735 5.29402 12.451 
7.66636 4.56652 10.74 
8.07874 4.5172 10.624 
9.20726 4.83226 11.365 
7.93695 3.93894 9.264 
8.17543 3.84795 9.05 
8.7179 3.90195 9.177 
-0.421158 0.243243 0.57 
-0.39459 0.243243 0.57 
-0.320903 0.241109 0.565 
-0.293525 0.240256 0.563 
-0.265859 0.238975 0.56 
-0.238473 0.237695 0.557 
-0.213274 0.238549 0.559 
-0.186884 0.238122 0.558 
-0.160011 0.236842 0.555 
-0.135109 0.238549 0.559 
0.0869163 0.237695 0.557 
5.34162 7.86954 18.441 
3.45729 4.36727 10.234 
3.99735 4.43726 10.398 
4.14515 4.08904 9.582 
5.46386 4.84992 11.365 
6.28575 5.08633 11.919 
8.56497 6.36784 14.922 
8.30912 5.71364 13.389 
8.52419 5.45205 12.776 
7.62496 4.55845 10.682 
7.94871 4.46073 10.453 
8.98018 4.73939 11.106 
7.88493 3.93456 9.22 
8.12349 3.84409 9.008 
8.66286 3.89786 9.134 
9.21795 3.95334 9.264 
-0.395666 0.2437 0.569 
-0.319147 0.241987 0.565 
-0.291258 0.240702 0.562 
-0.264119 0.239845 0.56 
-0.236317 0.238132 0.556 
-0.211159 0.238989 0.558 
-0.18515 0.238989 0.558 
-0.158286 0.237704 0.555 
-0.133372 0.239417 0.559 
0.0903779 0.238561 0.557 
5.55614 8.12819 18.978 
3.50499 4.38317 10.234 
3.982 4.38317 10.234 
4.32351 4.24998 9.923 
5.54887 4.89584 11.431 
6.86193 5.50788 12.86 
9.2205 6.80647 15.892 
8.33529 5.69547 13.298 
8.54769 5.43635 12.693 
7.64958 4.55021 10.624 
7.7938 4.29323 10.024 
8.61457 4.47697 10.453 
7.91672 3.89406 9.092 
9.24317 4.3155 10.076 
8.80477 3.91205 9.134 
-0.414231 0.244584 0.569 
-0.34616 0.244584 0.569 
-0.307735 0.242865 0.565 
-0.27891 0.240715 0.56 
-0.25326 0.241145 0.561 
-0.223296 0.239856 0.558 
-0.197288 0.239856 0.558 
-0.170051 0.238136 0.554 
-0.14501 0.239426 0.557 
0.0786839 0.240715 0.56 
4.02203 6.13309 14.268 
3.39369 4.39908 10.234 
4.13016 4.69395 10.92 
4.1731 4.22241 9.823 
5.65351 5.15475 11.992 
6.59533 5.45607 12.693 
8.18286 6.17822 14.373 
8.78812 6.13309 14.268 
8.99401 5.8352 13.575 
7.45248 4.51728 10.509 
7.53722 4.28688 9.973 
8.30689 4.39908 10.234 
7.95134 3.98212 9.264 
8.46368 4.02038 9.353 
8.57135 3.87208 9.008 
-0.422328 0.245037 0.568 
-0.39655 0.245468 0.569 
-0.312448 0.243311 0.564 
-0.283623 0.241154 0.559 
-0.257568 0.241154 0.559 
-0.227679 0.23986 0.556 
-0.202127 0.240291 0.557 
-0.175848 0.23986 0.556 
-0.150472 0.240723 0.558 
0.0735947 0.242017 0.561 
5.3926 8.03142 18.617 
3.35223 4.28081 9.923 
4.19802 4.71092 10.92 
4.23415 4.23767 9.823 
5.62486 5.0802 11.776 
8.07861 6.2933 14.588 
10.4787 7.52927 17.453 
8.84392 5.89684 13.669 
7.97519 4.96027 11.498 
7.61545 4.43827 10.288 
7.8936 4.30238 9.973 
7.87341 4.0155 9.308 
7.78873 3.76485 8.727 
8.74111 4.0155 9.308 
9.04583 3.95898 9.177 
-0.404332 0.246785 0.57 
-0.31102 0.243754 0.563 
-0.282249 0.24159 0.558 
-0.25624 0.24159 0.558 
-0.228543 0.240724 0.556 
-0.202628 0.240724 0.556 
-0.176712 0.240724 0.556 
-0.151339 0.24159 0.558 
-0.00471208 0.235961 0.545 
4.02203 6.17742 14.268 
3.43192 4.50188 10.398 
4.20736 4.83612 11.17 
4.35466 4.45426 10.288 
5.56674 5.12923 11.847 
7.48021 6.17742 14.268 
8.69756 6.56059 15.153 
8.56447 5.96008 13.766 
8.83294 5.71849 13.208 
7.28315 4.40793 10.181 
7.48491 4.25293 9.823 
8.17251 4.31787 9.973 
7.76608 3.88232 8.967 
9.05657 4.29623 9.923 
8.7219 3.93644 9.092 
-0.41615 0.246802 0.568 
-0.318017 0.244629 0.563 
-0.290221 0.243326 0.56 
-0.263648 0.242891 0.559 
-0.235892 0.241153 0.555 
-0.211159 0.242457 0.558 
-0.184819 0.242022 0.557 
-0.158857 0.242022 0.557 
